ply
format ascii 1.0
element vertex 1159
property float x
property float y
property float z
property uchar red
property uchar green
property uchar blue
end_header
-3.403224 0.350097 -0.255359 126 136 111
-3.962024 0.357566 -0.173752 205 191 178
-2.181859 -0.263605 -0.193063 25 24 29
-3.974774 0.398063 -0.174732 154 127 100
-3.879274 0.438099 -0.178994 105 84 53
-2.648229 0.703173 -0.343627 210 212 211
-2.353568 -0.478835 -0.203980 192 170 147
-2.563867 0.631064 -0.272572 242 238 239
-2.153853 -0.306855 -0.188061 177 176 146
-2.930453 0.505023 -0.218684 93 98 76
-3.285114 0.299750 -0.290680 67 63 54
-3.881068 0.741103 -0.200728 196 175 154
-3.226636 0.799079 -0.222517 141 136 133
-3.484107 1.026535 -0.359462 206 216 218
-3.067593 -0.101227 -0.239019 178 164 163
-2.595162 -0.001041 -0.240530 89 70 55
-3.329532 0.259723 -0.291388 105 98 88
-2.109380 -0.201830 -0.183588 41 37 51
-4.022973 0.590347 -0.185026 188 164 136
-3.368253 0.225415 -0.292330 101 96 90
-3.192617 0.138904 -0.382050 135 140 143
-3.291555 0.572313 -0.222197 209 196 164
-2.591164 -0.013240 -0.244082 184 169 162
-2.323698 0.092926 -0.251288 195 189 173
-2.990504 -0.022293 -0.234339 68 63 69
-2.483340 -0.300973 -0.234748 67 76 49
-2.327775 -0.374220 -0.218460 228 241 247
-3.978678 0.297210 -0.182077 156 142 133
-3.836303 0.715706 -0.191312 109 106 101
-2.861211 0.819868 -0.370503 194 185 180
-4.017694 0.982617 -0.201051 180 165 136
-2.102905 -0.262260 -0.186084 168 164 152
-2.571736 0.012742 -0.240276 76 81 51
-3.504865 0.537339 -0.255812 233 233 241
-3.847940 0.459690 -0.177093 195 171 137
-2.452784 0.092808 -0.263460 214 213 211
-3.275830 1.156138 -0.361194 240 244 247
-4.511727 0.649983 -0.071995 64 68 51
-2.338534 -0.494204 -0.200456 198 196 175
-3.277289 0.314921 -0.292682 222 222 214
-3.496929 0.239536 -0.250423 28 22 10
-4.086389 0.357322 -0.180397 20 24 0
-2.927565 0.637507 -0.362686 217 219 216
-2.951010 -0.230349 -0.260772 51 50 19
-3.204207 1.202240 -0.342309 171 174 179
-3.805024 0.829443 -0.193842 153 154 149
-2.959691 1.047117 -0.218603 52 63 69
-3.476182 0.582333 -0.252280 229 228 233
-3.370526 0.526661 -0.230025 57 77 24
-3.137687 0.831794 -0.215979 123 122 118
-3.446223 0.366453 -0.248626 103 85 63
-2.456960 0.409129 -0.213079 74 73 79
-3.483145 0.576524 -0.256347 53 56 65
-2.234517 -0.501435 -0.211877 243 245 244
-3.980406 0.452626 -0.173749 214 183 155
-3.391509 0.516324 -0.234257 212 189 175
-2.953351 0.133065 -0.258019 241 244 253
-3.595014 0.266066 -0.263994 52 31 28
-2.918978 0.545846 -0.208284 119 133 74
-2.904945 -0.243944 -0.259632 148 140 127
-4.078453 0.349211 -0.176936 67 63 38
-2.297280 -0.156034 -0.304931 76 97 58
-3.221796 -0.038270 -0.258306 77 85 44
-2.653972 0.080753 -0.241978 97 91 55
-3.353938 0.566180 -0.230875 176 150 133
-3.869870 0.325404 -0.189943 117 103 90
-2.839757 0.198492 -0.238537 98 98 100
-2.174589 -0.273633 -0.202915 25 29 32
-2.754740 0.144530 -0.229959 184 175 160
-2.169458 -0.306765 -0.196765 238 236 237
-3.129273 -0.143479 -0.243549 68 69 73
-3.431758 0.513593 -0.250776 120 120 128
-3.190723 0.836957 -0.220618 176 171 168
-3.191310 1.109628 -0.332789 197 202 206
-3.211569 1.111346 -0.334439 186 189 194
-3.354798 1.464256 -0.163421 98 69 39
-2.975852 0.134695 -0.253246 31 29 34
-2.570983 -0.373997 -0.252214 43 46 39
-4.135984 0.814476 -0.196767 87 73 47
-3.765824 0.626920 -0.186259 178 148 148
-4.412347 0.514923 -0.103410 172 175 158
-2.992782 0.157574 -0.254911 85 81 54
-4.075324 0.333076 -0.179536 50 45 25
-2.892584 0.057720 -0.235018 81 72 77
-3.794158 0.677289 -0.194642 77 78 70
-2.662634 0.551986 -0.336733 211 213 208
-2.650708 0.385740 -0.237008 86 104 118
-4.000444 0.994139 -0.203942 62 58 29
-3.415182 0.665911 -0.249175 27 31 40
-2.561812 0.006426 -0.237896 167 167 155
-2.493761 0.118760 -0.235421 100 92 69
-2.829020 0.769283 -0.369333 231 232 227
-3.825190 0.699240 -0.187093 99 90 85
-2.244464 -0.461934 -0.191876 73 95 48
-2.711190 -0.330142 -0.277117 174 165 156
-3.045383 0.194005 -0.233516 220 208 186
-2.177118 -0.236279 -0.198970 152 152 144
-2.147813 -0.296446 -0.186771 122 118 107
-3.221191 1.298866 -0.161848 84 74 73
-2.589484 0.008597 -0.239263 156 131 109
-2.368328 -0.414023 -0.219861 15 18 33
-2.713795 -0.300995 -0.253368 112 103 98
-2.938669 0.126732 -0.251998 220 223 232
-3.183442 0.875135 -0.232587 50 50 58
-3.985160 1.007815 -0.203264 99 89 64
-2.133791 -0.130648 -0.208553 36 39 56
-3.916877 0.854389 -0.203288 66 66 58
-3.275818 0.463542 -0.228429 80 106 45
-2.678251 0.019652 -0.281133 79 85 73
-2.495476 0.088632 -0.235680 47 47 37
-2.632403 0.365250 -0.235676 87 105 127
-3.205025 0.857740 -0.232817 58 62 71
-2.959065 -0.146440 -0.271084 27 31 16
-3.425860 0.516783 -0.243972 239 238 243
-3.149831 1.032351 -0.228872 81 67 67
-3.345564 0.724056 -0.245463 209 211 224
-3.003379 -0.044182 -0.241741 168 147 144
-4.085684 0.342154 -0.182702 66 76 52
1.221618 -1.069707 0.153121 198 171 142
0.406113 0.141264 -0.187298 229 239 240
0.576635 -0.666802 -0.026739 53 67 44
1.116281 -1.548667 0.113645 132 122 123
-0.313103 -0.521360 -0.026969 26 31 24
0.996867 -1.083147 0.106866 209 185 159
1.398884 -1.062522 0.156320 205 178 149
0.871361 -1.378880 0.142954 179 132 112
1.034798 -1.220688 0.129949 16 9 3
0.456366 0.176908 -0.193146 184 181 176
1.109587 -1.402499 0.164771 8 8 6
1.313533 -1.239322 0.154730 136 130 108
0.899128 -0.460367 0.013388 215 209 195
0.638418 -0.811529 -0.026359 63 67 78
0.025302 -0.347339 -0.107446 134 137 130
0.269771 -0.790635 -0.059851 115 114 110
0.494083 -0.648260 -0.033980 181 182 177
0.614158 -0.699025 -0.010679 142 144 143
1.156562 -1.031753 0.156117 222 196 169
1.194952 -1.100394 0.149938 216 192 166
0.550392 0.065086 -0.152001 123 125 122
0.469694 0.055656 -0.152329 173 174 168
0.977863 -0.656415 0.050993 19 20 15
1.137307 -0.560176 0.035737 233 232 228
0.264725 -1.399647 -0.047876 68 69 61
0.588412 0.098297 -0.147415 167 168 162
0.784935 -0.683882 0.060972 199 195 183
0.743594 -0.675529 0.040510 202 190 174
0.604000 -0.739775 -0.014695 63 67 78
0.237487 -0.393833 -0.099021 125 127 116
0.830737 -1.636192 0.104502 13 21 10
0.509231 0.057345 -0.149176 226 227 221
0.980207 -1.512598 0.129362 82 85 64
1.205918 -1.256844 0.165271 196 175 144
0.918319 -1.504420 0.151738 25 24 20
1.220683 -1.128079 0.156903 181 147 119
1.127090 -0.629527 -0.077703 230 232 231
0.813486 -1.601248 0.098000 90 101 71
0.622704 -1.690550 0.112135 135 152 48
0.825697 -1.552539 0.134255 32 32 20
0.491919 0.023304 -0.151261 179 180 174
0.467166 0.121011 -0.157835 207 208 200
-0.182423 -0.106745 -0.000872 166 168 155
1.151986 -0.989745 0.135058 189 158 127
1.124781 -1.410851 0.143851 78 96 48
0.877717 -1.518292 0.142052 21 18 13
1.301162 -1.247032 0.140173 54 57 38
0.988800 -2.013227 0.106013 19 24 30
1.026979 -1.125076 0.137594 219 192 163
1.277860 -1.348442 0.163910 39 41 30
1.220478 -1.372157 0.160629 41 42 34
1.227568 -1.312212 0.168522 122 108 82
0.509439 0.037108 -0.149914 166 168 163
0.559591 -0.164861 -0.016964 160 148 126
0.152431 -0.371304 -0.112968 154 155 147
0.750992 -1.953411 0.180378 205 208 201
0.519719 -0.642615 -0.022392 22 30 15
-0.099525 0.093481 -0.099631 44 45 50
0.566934 -0.147789 -0.017549 68 78 43
0.093243 -0.796350 0.055420 11 19 4
0.848450 -1.903437 0.183799 157 159 156
-0.303110 -0.156282 -0.018531 20 28 30
0.965560 -1.488443 0.151667 24 20 17
1.357924 -2.304842 0.109363 3 12 21
1.060232 -1.443546 0.157674 11 10 6
0.850085 -1.920601 0.171506 1 1 13
0.977991 -1.238467 0.146983 163 141 120
0.642094 -1.922224 0.166656 126 122 123
0.847297 -1.540629 0.134617 15 14 9
0.732798 -1.984949 0.177986 40 39 53
0.508876 0.072676 -0.151632 170 171 166
0.301506 -0.133415 -0.016593 26 35 4
1.091400 -1.200294 0.145556 185 163 140
1.033791 -0.639074 0.056244 204 191 182
0.632687 -1.759528 0.120716 182 193 197
1.065611 -1.211695 0.109023 101 90 88
0.480857 -0.672240 -0.036669 14 17 24
0.625554 -0.119915 -0.013940 60 83 29
1.165708 -1.442914 0.111009 76 94 44
0.806078 -2.074231 0.178163 14 18 21
1.181597 -1.327388 0.171034 194 167 138
0.974690 -1.475169 0.166388 143 121 98
1.031586 -1.030537 0.102387 62 51 29
1.562455 -0.816165 0.154111 199 165 128
1.115234 -1.244938 0.155726 227 211 186
1.107963 -1.667207 0.164107 57 59 46
-0.666602 0.017080 -0.066355 128 124 113
1.178677 -1.363544 0.167510 184 163 146
1.157366 -0.573330 0.037645 22 38 64
0.841445 -1.939303 0.163518 234 237 242
-0.029880 -0.161044 -0.007221 46 60 34
1.425751 -1.044536 0.157825 194 168 141
0.608184 -0.874681 -0.013019 200 204 203
0.549438 0.029557 -0.143600 140 143 134
1.073009 -1.197366 0.140446 50 39 37
1.232300 -1.417270 0.080175 68 86 36
1.302607 -0.971276 0.148525 205 176 144
1.005508 -1.149310 0.139807 225 195 167
1.004745 -1.150220 0.141004 216 185 154
0.668231 -2.051899 0.174699 173 169 160
1.227452 -0.855776 0.108820 108 104 95
0.652266 -0.825304 -0.010107 146 148 147
0.063485 -0.335580 -0.121237 130 132 127
1.067213 -0.652498 -0.017710 92 93 97
-0.093292 -0.088010 -0.015780 62 60 39
1.261538 -1.343783 0.166802 145 133 119
1.361717 -1.203522 0.155892 110 90 63
1.299452 -1.116982 0.147875 194 162 137
1.407589 -0.952495 0.150179 209 185 151
1.404875 -0.940257 0.152427 211 185 150
1.337205 -0.877960 0.137902 213 195 171
0.282967 -0.787947 -0.044233 168 172 173
-0.472674 -0.275840 -0.020289 209 214 220
1.008462 -1.422980 0.163752 63 67 44
0.956656 -1.210829 0.140927 218 184 157
0.140639 -0.288453 -0.115083 175 175 167
0.442740 -0.242315 -0.101636 67 82 39
1.279915 -1.365282 0.112568 5 10 6
0.040764 -0.705276 0.065255 181 169 157
0.535319 0.068697 -0.155311 152 153 148
1.289825 -1.383868 0.055071 19 28 7
0.503819 0.039141 -0.151484 152 154 149
0.811223 -1.485912 0.171642 149 123 98
1.241486 -1.110688 0.157955 191 161 133
0.501329 0.094271 -0.148886 182 181 179
0.597466 -1.729156 0.139677 10 22 8
0.470333 0.145181 -0.162037 186 187 181
1.147263 -1.291552 0.162850 199 172 142
0.673300 -2.084944 0.173677 75 69 53
0.057592 -0.288310 -0.125890 139 141 136
0.829062 -1.909330 0.167249 150 153 146
1.516185 -0.963539 0.160959 196 165 136
1.395477 -1.180500 0.162002 80 59 38
1.458099 -1.108669 0.164461 187 158 126
1.232727 -1.067261 0.149582 206 179 149
1.015900 -2.044438 0.048387 241 241 249
0.933727 -1.379788 0.153633 207 177 149
1.367480 -1.292263 0.160215 38 34 22
1.120180 -1.433798 0.111817 53 66 23
0.635750 -0.115034 -0.018243 180 178 153
-0.655898 -0.022951 -0.063743 16 15 11
0.861438 -0.657212 0.055784 222 222 214
-0.068881 0.367898 -0.107410 49 59 35
1.060346 -1.204778 0.145516 42 25 15
-0.426492 0.032504 -0.056796 87 100 109
0.872178 -1.286012 0.143212 225 204 183
0.957210 -1.257069 0.145557 153 132 115
1.131149 -1.206370 0.156471 209 182 152
0.030469 -0.183276 -0.022886 15 22 4
-0.359466 -0.071407 -0.037125 228 229 233
1.517193 -0.903906 0.156675 227 211 195
0.912888 -1.905596 0.178474 109 113 116
-0.358634 -0.102883 -0.042004 182 186 187
0.930339 -0.452752 0.039356 213 204 195
0.532100 0.030113 -0.146941 229 226 219
0.489343 0.037654 -0.152620 155 156 150
1.166140 -1.323578 0.173330 116 99 73
1.141545 -0.967757 0.126774 194 159 139
0.557813 -0.785494 -0.036920 194 197 202
0.578984 -0.174625 -0.015255 163 151 135
1.073332 -1.430712 0.169215 160 152 141
0.915219 -2.050710 0.065743 112 127 146
0.771725 -0.694021 0.061933 195 187 176
0.137433 -0.307866 -0.115172 224 225 217
1.399478 -0.543174 -0.063016 203 202 198
-0.136812 -1.178993 0.116515 189 163 136
0.837154 -1.544215 0.158531 125 108 90
0.497364 -0.705481 -0.035323 173 175 174
1.145253 -0.988849 0.139161 215 188 159
0.011626 -0.322422 -0.126545 123 119 116
0.980620 -1.262770 0.126145 92 89 84
1.274522 -1.156997 0.147282 104 78 51
0.893677 -1.760419 0.159631 55 59 42
1.491517 -0.797373 0.142375 189 159 125
1.186282 -0.572347 -0.032120 14 17 24
1.128340 -1.411161 0.118443 8 21 3
1.336784 -0.518613 -0.099123 70 72 71
-0.341616 -0.091920 -0.033439 201 202 204
0.524518 0.051197 -0.150343 165 167 164
0.480688 0.032654 -0.152359 152 153 145
0.544602 -0.168319 -0.018685 58 62 29
1.305115 -1.321750 0.165973 51 46 27
1.290329 -1.237111 0.148881 55 39 24
1.147925 -0.489866 0.031929 99 97 119
1.105701 -1.105752 0.142733 238 223 200
-0.281314 -0.172029 -0.017654 220 227 233
0.547600 0.067938 -0.149750 130 131 126
0.559381 0.098347 -0.152285 209 212 205
0.090136 -0.340995 -0.120655 240 239 235
0.873637 -1.926026 0.164654 236 239 248
1.113845 -1.631024 0.154437 117 111 111
0.389199 -0.121796 -0.031503 124 103 86
1.005674 -1.868297 0.173781 211 216 235
0.794682 -1.299484 0.137758 223 209 208
1.150080 -0.582948 0.044342 47 48 66
1.511007 -0.918985 0.152500 227 210 190
0.632458 -0.776351 -0.025718 141 140 138
0.472040 0.162988 -0.172605 174 175 167
-0.197559 -0.304564 0.006099 15 14 12
0.693902 -1.985654 0.179301 206 206 208
1.049520 -1.215639 0.123418 134 128 116
-0.194020 -0.292299 0.005966 96 91 88
-0.190065 -0.310411 0.009572 125 113 113
0.961923 -2.022750 0.077293 20 17 34
1.332310 -1.075608 0.156678 213 185 161
0.623237 -0.930081 0.006569 141 143 142
0.594528 -0.716727 -0.023001 130 132 131
1.308919 -1.069168 0.155847 194 169 138
1.099769 -1.200808 0.144395 217 197 173
-0.323153 -0.113199 -0.029252 229 234 240
1.443137 -1.104998 0.169348 215 185 147
0.883538 -1.900812 0.174789 103 99 98
1.293749 -1.231494 0.157627 135 113 90
-0.330972 -0.116494 -0.034418 27 40 48
1.174208 -1.084039 0.151741 200 169 141
0.586057 -0.101730 -0.020401 228 225 216
1.331330 -0.941061 0.143924 225 214 194
1.329275 -0.966575 0.146682 214 187 157
0.925834 -0.461229 0.038029 63 59 48
1.325305 -1.181991 0.153247 184 158 121
1.204918 -1.255481 0.163487 198 177 146
0.877358 -1.405220 0.143993 236 225 205
1.025942 -1.430285 0.164414 157 139 125
1.078129 -1.970465 0.103275 26 33 41
0.526213 -0.916456 -0.014678 201 212 216
0.021051 -0.308738 -0.116471 135 135 127
0.694376 -1.620474 0.157745 120 120 56
-0.371944 -0.085000 -0.042843 228 236 239
1.434788 -0.771544 0.112624 76 61 42
1.570968 -0.862325 0.159203 197 185 161
1.183086 -1.013956 0.140114 221 197 171
0.871776 -1.076595 0.077206 47 54 38
1.193233 -1.196531 0.148709 65 42 24
1.431753 -0.660377 -0.024802 77 79 78
-0.287363 -0.175746 -0.024456 38 45 55
1.130501 -1.266466 0.157084 206 181 151
1.220364 -1.105853 0.153859 221 195 160
1.127623 -0.615159 0.011107 88 88 100
0.920728 -1.482260 0.160801 189 156 141
0.519433 -0.715538 -0.036953 61 61 69
0.971302 -0.719013 -0.043524 28 21 29
0.871489 -1.510807 0.156235 190 173 163
0.964872 -1.423296 0.162923 171 128 96
-0.294205 -1.130113 0.088128 120 130 122
0.865270 -1.914849 0.171059 39 38 46
1.381346 -1.137783 0.158419 199 170 138
0.900542 -1.480301 0.148100 248 216 201
0.882151 -1.524625 0.117475 81 87 75
0.834098 -2.054797 0.190265 154 139 144
1.260432 -1.236042 0.155401 74 57 27
0.555602 -0.774959 -0.026177 28 33 39
1.160001 -1.393877 0.117010 64 82 44
1.194608 -1.425729 0.128707 8 16 5
1.070643 -1.430913 0.167060 194 182 170
0.664083 -1.187155 0.131568 131 94 68
1.138827 -1.629833 0.152412 160 153 145
1.131023 -1.152876 0.152210 109 88 61
1.153083 -1.339404 0.167566 135 108 79
1.198353 -1.167324 0.155641 157 127 103
0.085581 -0.331787 -0.111122 177 177 167
0.821467 -2.092583 0.189437 68 69 74
0.823436 -1.566052 0.121654 68 74 62
1.151274 -1.000345 0.139979 225 204 175
1.178341 -1.300395 0.170093 184 153 132
0.818005 -1.852473 0.165123 114 114 114
1.170936 -0.909875 0.082804 238 224 211
1.269748 -1.063220 0.151392 211 181 147
1.327288 -0.567275 -0.059709 30 30 32
1.180913 -1.243548 0.163211 214 190 164
1.219127 -1.239889 0.161527 97 92 54
1.392400 -1.170119 0.160746 208 182 159
1.199032 -1.198399 0.141484 189 166 148
0.874177 -1.950612 0.173583 209 212 217
1.294790 -1.096030 0.154372 186 157 127
1.226582 -1.235508 0.158073 70 57 25
0.802835 -1.896741 0.175427 29 30 34
-0.251875 -0.209601 -0.013964 152 156 155
1.116341 -1.150235 0.150868 222 196 159
1.182181 -1.792219 0.177692 136 139 158
1.123403 -0.998355 0.135135 236 200 178
0.820541 -1.796461 0.157977 77 71 59
0.793933 -1.580705 0.115611 28 34 22
1.080930 -1.160496 0.148055 137 111 78
1.038298 -1.021339 0.105952 240 228 214
-0.482617 -0.281977 -0.024984 23 23 21
3.015256 1.488715 -0.190227 51 69 27
3.390953 1.814137 -0.220210 234 236 231
2.855875 1.472734 -0.204161 10 17 10
3.270157 1.454400 -0.174680 191 163 139
3.135596 1.387419 -0.188397 54 59 27
3.592532 1.943590 -0.171359 65 72 41
3.247421 1.660384 -0.218527 145 173 176
3.163792 1.436831 -0.197105 104 99 57
2.945119 1.987655 -0.214514 106 116 63
3.086805 1.408925 -0.203210 186 172 159
3.395094 1.683245 -0.186407 210 197 178
3.187656 1.486528 -0.188663 154 132 108
3.473607 1.771293 -0.180215 73 66 40
3.524113 1.651817 -0.187364 162 137 117
3.248733 1.460242 -0.177693 187 161 138
3.429294 2.045895 -0.224563 200 199 195
3.406759 1.476877 -0.193229 78 67 47
2.653954 1.891840 -0.312686 159 163 174
3.140437 1.449122 -0.202735 85 77 56
3.665625 1.581706 -0.174440 153 126 99
3.367598 1.507938 -0.195194 80 64 51
3.168276 1.448831 -0.197431 94 87 58
3.215195 1.434392 -0.191627 111 92 77
3.419760 1.556666 -0.196824 55 51 40
3.437533 1.708355 -0.176355 98 82 66
3.130835 1.434057 -0.197052 97 87 75
3.505902 1.628910 -0.196543 174 142 119
3.283631 1.536775 -0.208657 182 132 135
3.095601 1.395725 -0.200886 120 108 94
3.204499 1.426692 -0.193995 151 137 124
3.448503 1.479169 -0.184816 134 121 104
2.872200 1.488098 -0.201392 3 14 0
3.381185 2.038696 -0.225850 232 236 235
3.199413 1.415097 -0.188786 107 89 65
3.247581 1.424400 -0.179529 111 90 71
3.396962 1.713260 -0.175892 198 182 167
3.160608 1.629333 -0.199317 193 169 145
3.360917 1.772150 -0.194497 247 252 255
3.129260 2.162588 -0.340507 28 34 20
3.458739 1.518806 -0.185954 91 73 61
3.243620 1.415318 -0.177926 204 192 176
3.244408 1.414443 -0.180440 231 214 198
3.253860 1.435479 -0.177623 201 184 168
3.271639 1.478891 -0.174274 219 201 177
3.371340 1.776010 -0.189894 21 25 37
2.929614 1.665430 -0.204769 22 27 4
3.380312 1.511225 -0.196324 136 116 107
3.449600 1.666483 -0.188810 75 61 48
3.475289 1.522065 -0.185220 77 65 49
2.812698 1.437978 -0.206505 11 13 8
2.854713 1.403676 -0.203954 58 59 63
2.954423 1.683624 -0.208316 226 234 237
2.666123 1.419036 -0.236885 86 102 125
3.436026 1.505822 -0.189921 94 75 58
3.158723 1.606306 -0.209956 220 225 228
3.293185 1.567222 -0.207660 243 243 253
3.360372 1.783788 -0.199482 21 27 41
3.385303 1.486212 -0.196562 216 202 201
3.364122 2.045207 -0.245020 48 53 46
2.968496 1.837736 -0.200730 254 253 251
3.435673 1.742057 -0.168112 217 207 197
2.514995 1.505047 -0.267989 84 77 51
3.368826 1.454205 -0.194589 91 77 64
3.311516 1.727973 -0.192603 33 24 15
2.900924 1.522999 -0.196277 76 101 43
2.938647 2.010139 -0.216764 21 18 9
3.376048 1.459196 -0.196131 101 87 74
2.971322 1.782391 -0.210311 234 230 166
3.345819 1.983768 -0.234882 223 224 219
3.436735 1.521070 -0.192050 76 63 47
3.572064 1.851535 -0.183448 79 70 55
3.255592 1.417656 -0.174744 123 106 88
3.254751 1.447722 -0.178464 227 206 189
3.401178 1.466863 -0.193294 204 186 162
3.311902 1.733735 -0.199452 109 105 104
3.385350 1.518228 -0.197766 81 69 55
2.984055 1.860463 -0.204780 242 247 251
2.803165 1.721890 -0.223281 178 174 173
2.931398 1.942869 -0.185741 187 184 177
3.369947 1.441473 -0.194110 93 85 74
3.616372 1.886712 -0.186504 59 51 32
3.240873 1.469570 -0.178082 184 159 139
2.999660 1.657070 -0.181255 78 79 74
3.259950 1.419044 -0.174642 130 111 94
3.148455 1.519172 -0.196827 109 106 87
3.286024 1.703056 -0.190293 198 189 174
3.370480 1.460804 -0.198215 193 179 166
2.814152 1.719429 -0.225199 43 45 44
2.966073 1.767860 -0.203181 225 214 182
3.571080 1.807381 -0.186437 189 190 176
3.550482 1.796792 -0.184152 200 199 181
3.586988 1.673903 -0.181763 148 120 99
3.302616 1.724895 -0.191269 168 158 148
2.736562 1.729800 -0.260193 54 53 58
3.465163 1.828052 -0.179715 195 186 177
3.036417 1.821849 -0.191576 55 56 50
3.482267 1.557540 -0.192327 77 65 51
3.719737 1.639625 -0.170640 199 175 151
3.414548 1.838026 -0.206255 232 225 219
3.568855 1.842811 -0.185325 176 167 158
-4.264572 0.817923 -0.174173 84 98 75
-3.714363 1.218307 -0.177132 231 201 177
-3.957975 0.697195 -0.193443 230 209 190
-4.021161 0.753018 -0.242674 225 209 186
-3.820631 1.066331 -0.180828 22 35 17
-3.796794 0.922081 -0.198238 196 198 197
-4.556677 1.291975 0.032692 102 115 97
-3.710256 0.936544 -0.187991 54 64 66
-4.439841 1.398627 0.050259 77 93 64
-3.781883 1.633632 -0.014449 161 153 134
-4.510919 0.836827 -0.051654 61 72 55
-3.878395 0.911091 -0.216427 94 103 84
-3.613418 0.905173 -0.161317 87 111 49
-3.757838 0.980993 -0.212350 8 19 13
-4.773839 0.966740 0.009108 85 106 67
-5.552968 1.202505 0.188642 156 135 116
-4.989836 0.758203 -0.025188 161 146 139
-4.957547 -0.400090 -0.152238 82 96 71
-4.747510 0.787582 -0.035015 142 129 113
-4.358904 0.691794 -0.102199 213 197 181
-3.661437 2.530064 0.111696 43 48 42
-5.189946 1.176026 0.098226 224 207 199
-3.926106 0.693026 -0.194393 237 229 216
-5.567055 0.839960 0.083878 229 220 213
-5.642833 0.841043 0.099500 87 92 72
-4.086298 0.088447 -0.185533 209 189 165
-4.176660 0.616678 -0.144785 203 191 175
-4.360174 -0.249451 -0.197234 178 158 147
-4.522486 1.798346 0.111942 110 116 106
-5.441688 2.116318 0.375022 55 61 49
-5.360481 1.993571 0.322189 159 137 123
-3.831933 0.655523 -0.177199 96 90 66
-6.407066 2.241303 0.552890 193 171 158
-5.615832 2.239841 0.421025 43 58 37
-3.591077 0.679426 -0.192335 199 171 170
-3.926851 0.761760 -0.202043 236 209 182
-5.437467 0.991812 0.099497 128 122 106
-4.049812 0.001772 -0.193790 160 136 112
-3.991802 1.003013 -0.197959 98 103 73
-4.574849 1.249924 0.037652 20 30 19
-4.986998 0.894378 0.009886 132 131 113
-4.637746 1.635125 0.103958 221 214 206
-4.755899 1.835841 0.179235 59 71 59
-4.520758 0.980229 -0.018452 64 75 61
-4.355376 1.943661 0.114854 99 100 86
-4.173080 1.593573 0.039293 96 89 70
-4.751930 1.537580 0.107783 226 218 207
-3.886593 0.729007 -0.201754 237 203 178
-5.145641 0.641036 -0.036543 80 85 79
-4.866322 1.808804 0.204400 70 77 70
-6.738445 2.107206 0.584707 164 143 124
-3.716833 1.230272 -0.190394 225 198 177
-5.989097 2.331394 0.495601 90 92 81
-5.219130 1.145513 0.101793 234 222 210
-5.486115 2.006074 0.361238 175 155 146
-4.562790 0.735041 -0.046483 163 146 128
-5.441495 1.249194 0.163959 172 152 128
-3.613760 0.773269 -0.165430 167 169 166
-5.620378 2.357069 0.455194 166 159 153
-5.294774 1.980575 0.302227 86 94 73
-6.649438 1.963562 0.539255 95 86 77
-4.387896 -0.298892 -0.199943 149 130 116
-5.705951 1.979462 0.392150 217 205 191
-4.976607 2.128540 0.281211 170 148 137
-5.316537 1.259451 0.139434 207 207 205
-4.576165 0.971032 -0.006305 215 207 196
-5.221953 0.636821 -0.022136 73 89 53
-5.319854 1.545525 0.215545 95 98 91
-3.568202 1.018981 -0.358094 223 238 241
-3.741141 2.405179 0.112085 215 196 179
-5.871036 0.947294 0.155876 45 59 36
-3.876454 0.528450 -0.182936 37 42 20
-3.743814 1.241953 -0.191154 159 123 99
-4.469784 2.203595 0.207392 91 88 81
-3.686860 1.335715 -0.177290 213 196 180
-3.860220 0.680344 -0.189811 237 231 215
-5.503500 1.934028 0.345715 58 58 50
-3.880310 0.690740 -0.192062 39 36 27
-3.921905 0.732085 -0.194728 44 40 28
-5.282517 1.313223 0.156858 49 59 48
-6.389655 2.069665 0.545447 151 133 119
-4.449359 0.763270 -0.058007 70 78 54
-5.173766 2.272955 0.347020 41 47 37
-3.872189 1.859105 0.074583 214 206 193
-5.329653 2.296089 0.377456 36 45 24
-4.257075 0.621463 -0.114224 49 64 43
-5.701250 2.252566 0.460036 169 138 120
-5.267039 0.572184 -0.018294 124 114 102
-4.668316 1.600278 0.101647 226 218 207
-3.921464 2.703687 0.210429 136 140 126
-5.466207 1.428829 0.221671 191 166 146
-4.867176 1.746510 0.189984 171 161 149
-4.559183 0.868055 -0.033801 215 209 195
-5.605380 1.063343 0.155467 191 180 176
-5.813572 1.408458 0.274835 62 67 61
-4.032158 0.684139 -0.187675 221 204 178
-3.836359 0.479834 -0.180836 44 33 27
-4.373143 -0.274342 -0.198496 226 204 193
-5.607656 0.898199 0.105472 228 221 211
-6.439194 1.899741 0.486080 181 167 158
-4.866994 2.525217 0.356553 152 136 123
-5.391615 1.208586 0.153424 93 94 80
-5.536055 0.878003 0.096923 229 219 209
-4.079600 2.647491 0.237358 178 166 152
-6.298375 2.291528 0.542214 179 162 144
-5.233402 1.644120 0.221794 40 42 41
-4.526069 -0.026555 -0.171892 192 188 179
-6.054066 1.724740 0.389988 192 170 157
-5.322942 2.379700 0.400300 57 60 49
-5.600955 1.801181 0.325893 22 27 21
-5.577973 1.842263 0.317238 176 158 148
-5.066169 1.331291 0.101784 85 82 73
-5.780305 2.018254 0.412781 83 97 71
-4.027117 0.627264 -0.191246 213 193 169
-4.497773 1.179673 0.008772 211 187 175
-3.937550 2.734612 0.198567 22 32 33
-5.380521 0.995164 0.095488 247 229 219
-4.367982 0.957523 -0.080688 79 88 57
-4.773819 1.920248 0.195602 180 167 148
-4.562554 0.629346 -0.079050 18 34 8
-5.690123 1.228409 0.216793 128 109 94
-5.412140 1.006928 0.097929 122 112 100
-4.394114 1.172510 -0.007896 217 195 181
-5.967102 2.383729 0.512836 187 155 134
-4.150938 0.656368 -0.185115 204 200 191
-4.433601 1.147878 -0.003078 217 199 185
-3.613117 1.039512 -0.197473 81 100 115
-5.892462 1.676848 0.361142 190 164 151
-4.206668 0.781409 -0.167969 102 106 73
-5.596174 2.487584 0.487321 171 161 152
-4.540916 1.112310 -0.004618 197 196 176
-3.555980 0.996992 -0.357330 224 239 242
-3.799664 1.242863 -0.181797 197 185 161
-3.949611 0.646381 -0.189761 231 215 199
-5.670598 0.794473 0.091379 126 119 109
-3.829021 2.330953 0.112819 109 102 83
-4.032823 0.979724 -0.195733 63 70 37
-5.533367 0.905162 0.085644 63 55 44
-4.184269 0.649546 -0.148100 194 186 163
-5.261668 1.183949 0.100774 101 103 90
-4.268877 -0.023038 -0.191832 113 118 96
-5.721316 0.944146 0.135639 85 85 73
-5.541361 1.676075 0.292001 32 33 25
-5.123177 1.629527 0.198092 76 96 71
-3.842622 1.235269 -0.184923 83 83 59
-4.641440 -0.035230 -0.161945 74 88 52
-5.880725 1.175670 0.233985 159 142 135
-4.942085 2.439401 0.344279 181 173 160
-5.316545 2.246750 0.383843 206 193 176
-4.070678 1.571617 0.022918 68 64 37
-6.301817 1.384848 0.355312 40 40 30
-4.485811 0.751507 -0.057641 202 182 157
-5.410484 1.738682 0.280701 179 165 152
-3.657264 1.918112 0.070772 67 63 51
-5.851229 1.231061 0.229709 73 74 68
-6.099608 2.044534 0.483063 196 170 153
-5.566768 0.879826 0.095052 91 84 74
-4.382648 0.929746 -0.082678 88 93 70
-6.182585 2.119065 0.498897 75 83 60
-4.305577 2.647258 0.293363 65 71 57
-6.607770 1.892909 0.527843 151 142 127
-5.505887 1.623998 0.274561 222 213 204
-3.633083 2.487216 0.112937 216 192 166
-5.483673 2.517659 0.465212 96 97 83
-3.553817 0.951625 -0.204804 77 90 106
-3.877756 0.451242 -0.184869 218 198 174
-5.440943 2.043613 0.347463 49 60 43
-4.023711 0.654461 -0.191657 92 83 52
-4.323208 -0.251080 -0.196486 120 107 91
-5.824382 1.152937 0.215996 61 57 45
-5.425795 0.959356 0.102003 237 227 215
-5.767808 1.900095 0.373863 71 83 69
-4.333342 -0.198009 -0.194678 84 97 67
-3.591896 1.017759 -0.183819 74 90 105
-4.113039 0.635544 -0.186097 214 207 197
-5.356138 1.038350 0.099521 138 133 114
-4.358852 0.880370 -0.098830 74 79 49
-4.625296 0.809729 -0.031370 196 175 156
-4.032571 0.924463 -0.198632 223 198 176
-5.536281 1.901973 0.348530 184 166 152
-5.687518 1.804860 0.345879 58 60 47
-4.493958 1.142737 0.005438 101 108 77
-4.857698 1.965305 0.216482 18 18 16
-4.642437 0.846612 -0.028230 185 166 149
-4.108702 0.652595 -0.190150 42 40 15
-5.689357 1.446895 0.263650 54 49 45
-6.588646 1.951069 0.542963 144 134 122
-4.865948 0.748158 -0.027989 128 124 113
-3.967802 0.781705 -0.195594 34 27 19
-3.874737 0.615687 -0.183969 170 147 131
-5.373341 1.728828 0.268164 57 67 40
-5.097839 1.493275 0.172603 27 28 30
-4.895820 1.739053 0.185737 68 77 46
-5.736451 2.089946 0.417367 39 51 27
-4.147532 0.804585 -0.203773 209 192 172
-4.052982 0.951629 -0.197372 196 181 162
-4.394986 0.744952 -0.088470 193 190 173
-4.948013 0.588546 -0.053396 114 104 94
-4.159395 0.679173 -0.188169 196 191 187
-4.473438 1.157545 -0.000721 69 78 49
-6.513724 2.093893 0.560622 49 60 44
-5.707907 1.596037 0.299054 62 58 49
-4.520219 2.326084 0.253331 153 136 118
-4.922760 1.740147 0.178405 150 130 106
-4.871001 0.823829 -0.009448 110 112 91
-3.922688 0.980061 -0.201021 232 200 177
-4.526193 0.647353 -0.078528 200 201 196
-6.152287 2.027760 0.477732 191 159 144
-4.432404 -0.326072 -0.197974 126 113 104
-5.931793 1.595709 0.339103 33 37 22
-4.301272 0.045332 -0.177633 105 103 90
-4.069831 1.033502 -0.173185 72 76 49
-4.462984 0.872962 -0.061414 219 221 208
-4.487418 1.008109 -0.023290 92 95 68
-4.767019 1.099658 0.046795 201 182 165
-4.545370 1.216227 0.032403 229 220 213
-3.819915 0.675539 -0.188943 233 209 197
-6.431510 2.174461 0.547631 206 178 156
-5.287658 1.077255 0.096659 239 227 213
-5.102947 1.308023 0.101841 64 67 60
-6.466316 2.156923 0.545573 180 171 156
-5.378357 1.026437 0.096478 127 115 99
-4.260136 0.685197 -0.128236 96 90 64
-4.895488 0.890313 0.009570 109 103 87
-6.005481 1.108918 0.222885 199 186 178
-6.183930 2.164914 0.503166 199 183 160
-3.910304 0.510695 -0.180672 237 222 201
-4.264206 0.761695 -0.136652 52 57 34
-4.078160 0.590537 -0.186230 95 83 69
-6.044224 1.941155 0.453584 69 73 59
-6.392808 2.020625 0.508697 79 76 67
-3.575295 0.669212 -0.188505 85 80 50
-5.684245 1.664915 0.303104 94 96 83
-4.520925 0.804393 -0.033982 211 189 168
-4.584933 0.920120 -0.008748 132 129 114
-5.119637 2.492275 0.388165 32 25 15
-4.069661 0.994790 -0.183157 177 165 127
-5.318899 1.323342 0.168691 224 217 207
-6.241557 1.709781 0.433523 56 57 52
-6.408571 1.979305 0.521177 84 77 67
-4.257600 -0.193175 -0.198540 175 154 133
-5.268588 1.349006 0.170188 173 170 151
-4.500223 0.943367 -0.024856 212 211 193
-5.331463 1.782182 0.267766 71 83 59
-4.619088 -0.300619 -0.181802 96 97 79
-4.470815 1.263986 0.031772 208 191 173
-4.998704 0.852989 -0.004214 186 188 177
-4.584163 0.722713 -0.052006 128 111 93
-4.673575 1.145550 0.038167 189 179 154
-4.971690 2.173827 0.294130 164 154 142
-6.227152 1.766860 0.426919 53 57 43
-4.133938 -0.134905 -0.200802 197 182 163
-3.490102 1.741313 -0.072733 58 72 39
-3.893726 0.674224 -0.188334 223 211 195
-5.519033 1.054833 0.127723 40 47 31
-4.220483 0.605273 -0.112405 52 56 31
-6.150479 2.270633 0.508455 53 56 47
-5.492737 0.939804 0.099377 109 99 90
-5.692625 2.380217 0.464698 150 132 120
-4.297062 0.723865 -0.124352 209 204 175
-3.372400 1.676533 -0.096529 66 69 42
-3.978386 1.714740 0.046986 66 64 43
-6.193619 1.581114 0.387525 178 159 145
-5.131445 2.193681 0.325889 162 146 133
-4.599745 -0.032345 -0.163717 122 127 104
-4.282210 -0.208447 -0.198198 199 176 158
-4.338959 0.889097 -0.097771 212 204 183
-6.203742 1.560970 0.379393 70 76 64
-5.609626 0.817482 0.095591 237 224 216
-4.079986 0.665673 -0.190393 141 121 94
-5.799653 2.408009 0.509898 92 93 77
-4.314876 1.444333 0.034369 67 64 45
-5.314601 1.091419 0.103056 110 101 94
-4.938606 2.142349 0.279020 32 27 23
-3.956220 1.085235 -0.198019 215 202 183
-4.246721 1.492513 0.034747 69 63 47
-4.131538 0.810476 -0.202195 101 83 59
-5.253107 1.159152 0.100491 213 197 184
-6.293912 1.864820 0.465771 165 158 150
-5.303331 1.120408 0.096857 189 176 157
-5.782215 1.763992 0.357071 168 156 142
-4.306629 -0.202677 -0.197583 118 106 82
-5.252246 1.118427 0.099490 226 207 190
-5.462796 2.462683 0.452459 184 174 165
-5.282244 1.100024 0.095970 124 117 101
-4.329479 0.136728 -0.165811 164 136 124
-4.418460 0.716457 -0.079752 211 212 196
-6.073635 1.903501 0.447902 192 171 152
-5.988632 1.119603 0.225980 51 46 42
-4.202919 0.287801 -0.155158 115 107 88
-4.246810 0.648891 -0.122409 75 76 58
-4.288749 -0.223770 -0.197713 181 159 148
-4.786548 1.991376 0.213225 159 149 137
-6.423698 1.795812 0.488423 162 147 140
-4.125575 0.616062 -0.177297 220 218 206
-4.221748 0.920656 -0.145189 173 168 139
-4.070733 0.967692 -0.188646 77 76 46
-3.803841 0.642799 -0.184666 114 99 80
-5.279081 0.537160 -0.022458 205 177 166
-5.361931 1.789338 0.275730 171 168 149
-3.393332 0.780670 -0.249330 72 86 53
-5.626540 1.501601 0.262495 56 54 41
-6.124075 1.687762 0.374418 77 88 71
-6.371743 1.993553 0.511740 174 161 142
-4.396939 0.841913 -0.081266 201 189 173
-5.018152 1.356703 0.108336 225 215 203
-5.795299 1.124472 0.205317 195 182 166
-3.982621 0.366070 -0.177571 219 201 179
-5.390005 1.955855 0.315548 35 38 29
-4.315605 -0.260640 -0.199426 120 116 104
-4.383328 0.693448 -0.084743 77 86 59
-5.374399 2.285205 0.407201 181 158 142
-4.354217 1.462212 0.046953 110 103 84
-4.176517 0.715426 -0.188372 185 188 181
-6.323418 1.818916 0.467935 145 133 121
-4.542545 0.580932 -0.082304 182 180 165
-4.902827 0.967452 0.021951 67 73 59
-4.351896 0.735704 -0.087681 210 192 170
-5.774281 1.804184 0.359355 167 155 139
-4.978939 2.409886 0.342049 34 29 25
-4.469048 0.782082 -0.055961 95 98 71
-4.034081 0.505018 -0.182561 212 198 172
-4.074586 0.910925 -0.199550 74 79 39
-6.275766 1.878554 0.474390 77 69 58
-5.675760 1.573747 0.293081 180 164 151
-4.561473 0.012437 -0.164987 132 122 113
-4.056631 0.442813 -0.178542 211 193 169
-4.204237 0.703167 -0.158069 86 81 51
-4.090928 0.585356 -0.188804 227 218 209
-4.526455 1.056819 -0.001890 85 83 70
-3.953137 0.597727 -0.186290 232 210 189
-4.473909 1.087268 -0.001337 218 207 187
-3.981012 0.785421 -0.205895 229 211 187
-5.723295 1.808959 0.358740 182 165 157
-5.322326 1.117924 0.104202 180 171 156
-4.299650 1.425698 0.027936 232 224 205
-3.989553 0.521756 -0.184477 214 197 171
-6.390864 2.063001 0.526013 141 129 117
-4.166237 0.631395 -0.140720 209 198 180
-3.855565 0.440466 -0.181170 224 202 179
-4.185679 0.631686 -0.145017 164 148 133
-6.080915 1.958428 0.459722 201 185 170
-6.760535 2.163656 0.577521 91 92 74
-3.885603 1.111852 -0.197024 176 149 122
-5.922098 1.869262 0.401672 193 177 154
-4.591072 0.976094 -0.016424 40 54 31
-3.807930 0.663544 -0.185284 197 171 158
-4.643900 2.407010 0.286441 66 68 57
-5.119178 1.603053 0.201877 177 164 145
-5.360183 1.105537 0.103692 124 123 103
-6.113924 2.239984 0.520937 178 169 152
-3.927640 0.644763 -0.190110 225 206 189
-4.376907 0.810795 -0.089738 125 114 94
-3.318513 0.833318 -0.232636 218 202 202
-6.664766 2.207702 0.576117 167 151 135
-4.418858 0.686087 -0.069349 177 166 148
-5.425248 0.975742 0.094706 109 95 82
-5.427048 1.994930 0.340057 160 158 145
-5.426764 1.378992 0.204391 207 188 173
-4.193321 0.304128 -0.156918 166 152 139
-3.826489 2.707993 0.192732 104 116 102
-4.665278 1.687999 0.114304 74 76 65
-4.343867 0.717969 -0.085644 218 203 184
-3.993265 0.555941 -0.183802 212 190 167
-4.704275 0.893575 -0.002949 131 117 104
-3.522853 0.944763 -0.249557 88 102 111
-5.214632 0.567261 -0.023142 128 106 93
-3.957363 2.217496 0.111743 36 41 21
-3.861762 2.332862 0.093271 74 86 72
-3.970525 0.876782 -0.207447 227 205 181
-3.928861 0.614709 -0.188430 201 175 152
-6.007505 2.073564 0.467204 188 160 139
-5.043664 1.324707 0.104119 226 219 211
-3.351533 0.818934 -0.240001 201 161 169
-4.737813 0.794556 -0.027986 203 185 171
-5.472647 0.959524 0.098632 148 134 123
-6.121390 1.261595 0.300297 53 48 44
-6.116376 2.015769 0.469342 66 67 53
-5.196560 1.208724 0.104203 225 212 204
-4.945449 2.024049 0.252879 70 60 50
-3.851033 2.724163 0.192539 74 90 61
-4.892357 2.006144 0.247634 165 153 139
-5.766743 1.610510 0.308821 152 135 119
-6.099788 1.934404 0.454814 87 89 67
-4.830108 2.316550 0.297852 197 180 164
-4.361303 0.759104 -0.089985 136 118 94
-4.681972 1.910479 0.190526 192 156 142
-4.206030 0.605820 -0.114254 195 200 180
-4.080687 0.639094 -0.185556 225 203 180
-4.324139 0.801457 -0.126724 191 189 174
-3.850825 0.880868 -0.202758 194 194 194
-4.100171 0.852900 -0.200966 66 49 33
-4.605650 1.273003 0.046674 175 169 155
-4.233469 0.769234 -0.161305 122 111 83
-3.978142 0.505070 -0.183255 223 201 180
-3.584876 2.208859 0.101087 90 78 64
-4.313413 1.533318 0.050342 184 175 168
-6.633967 2.116592 0.567375 94 91 82
-4.196730 0.756238 -0.176781 96 97 83
-4.844131 1.510015 0.106946 223 214 205
-5.610832 2.447887 0.470705 59 63 48
-3.787469 0.621447 -0.186991 101 89 67
-4.131533 0.642905 -0.186358 119 107 93
-4.253677 1.522075 0.043115 206 203 186
-6.226722 1.848377 0.456808 185 177 166
-5.060588 2.283604 0.325236 132 117 96
-4.965814 0.756249 -0.019827 121 113 102
-6.044801 2.008120 0.452970 58 54 43
-5.597402 2.459655 0.481193 180 176 164
-3.899333 0.984724 -0.199146 232 202 176
-3.941605 0.322346 -0.183170 94 90 89
-6.122533 2.306230 0.523637 104 91 83
-5.721233 0.741659 0.093928 108 94 93
-4.342577 0.918091 -0.101822 84 82 61
-3.319963 0.840505 -0.238057 30 34 33
-3.953587 0.898350 -0.198743 230 212 192
-6.267707 1.996086 0.490248 190 189 184
-5.149200 2.505517 0.393324 180 172 161
-5.855943 0.816014 0.133746 164 153 135
-5.268522 1.371715 0.166988 48 50 37
-5.563184 1.861317 0.335088 47 38 31
-6.102343 1.773166 0.408284 29 25 14
-5.212343 1.674075 0.229663 157 148 131
-6.135312 1.857191 0.441403 100 98 86
-3.800148 0.774827 -0.187824 193 195 194
-3.713645 0.777541 -0.182488 188 190 189
-3.996190 0.598646 -0.189474 212 190 166
-5.063053 1.730541 0.226428 182 154 142
-6.156316 1.977544 0.466462 125 117 98
-3.859996 0.411361 -0.178649 225 199 176
-6.040357 1.024168 0.222591 172 159 150
-4.029298 2.185581 0.092641 18 28 20
-5.949273 2.173239 0.483170 180 164 151
-6.205066 2.013911 0.486692 204 175 159
-4.916469 2.002716 0.241676 79 86 68
-6.176853 1.890124 0.457960 172 174 160
-4.174185 1.129387 -0.107671 88 85 68
-4.913706 0.802348 -0.007126 129 114 93
-3.791298 0.511816 -0.180138 239 222 212
-4.257630 2.012093 0.096912 178 172 156
-4.216750 2.064884 0.111956 209 193 168
-5.827413 1.684442 0.343290 168 152 136
-3.849312 1.887800 0.071032 48 45 38
-4.548961 0.628064 -0.079653 86 101 80
-5.183240 1.617920 0.218801 63 54 47
-6.273105 2.321926 0.532052 71 74 63
-5.021454 1.949823 0.254406 51 51 41
-4.955587 1.842994 0.214411 138 110 88
-4.012436 0.635080 -0.190688 155 135 108
-6.432650 2.193649 0.536864 65 57 38
-5.685564 1.780648 0.348664 168 154 145
-3.894652 0.399199 -0.179405 118 90 68
-3.755366 1.250992 -0.195579 204 185 168
-5.964143 1.967294 0.437868 115 114 94
-4.227666 0.632441 -0.118021 57 55 43
-4.548863 1.243678 0.036851 56 59 50
-5.494039 2.290137 0.416478 103 96 86
-5.133573 0.548780 -0.041907 194 190 181
-5.333865 1.101154 0.101106 173 166 156
-4.250296 -0.137836 -0.193343 103 95 84
-3.599600 1.874301 0.035016 93 90 73
-4.273449 0.782540 -0.135054 65 63 40
-4.398769 2.189351 0.201647 43 47 33
-4.299269 1.493256 0.041624 77 70 51
-4.965007 2.031112 0.262597 167 154 146
-3.708305 0.784586 -0.184260 181 183 182
-4.664031 1.894715 0.184690 57 39 39
-4.369709 0.847915 -0.092222 187 174 155
-3.614810 0.991746 -0.175058 73 78 74
-4.724245 1.596182 0.107649 193 184 179
-6.073033 2.279012 0.510210 191 177 166
-4.558855 0.945353 -0.010021 110 99 77
-3.923434 1.073179 -0.202900 71 68 37
-5.262280 1.133401 0.092986 116 99 89
-3.877212 0.628210 -0.185638 237 225 211
-6.312767 2.311579 0.539460 169 161 148
-4.435962 1.277778 0.033944 140 122 102
-4.046107 1.192540 -0.127161 206 199 181
-5.398430 2.263910 0.402990 75 73 50
-4.613797 0.711531 -0.053746 73 69 57
-4.012850 0.678403 -0.191042 214 197 181
-5.169169 2.566637 0.415768 76 69 59
-5.194720 1.521851 0.205060 216 197 191
-4.259770 1.443160 0.029437 218 202 189
-4.289827 1.409559 0.028983 73 58 35
-4.846895 0.665886 -0.050341 86 90 75
-5.447943 1.657312 0.265384 44 47 38
-5.546931 1.663515 0.285858 51 43 32
-6.005540 2.307752 0.509908 184 164 153
-4.224701 0.621134 -0.113754 222 225 204
-4.675483 1.163770 0.038212 55 54 36
-5.500541 0.937987 0.095489 108 100 89
-6.780720 2.207462 0.590926 167 154 138
-3.957154 0.383197 -0.177072 195 187 168
-6.273345 2.253313 0.538543 124 110 97
-6.352114 2.235943 0.537128 198 186 172
-5.257677 1.386570 0.167852 225 219 207
-3.880021 1.019683 -0.201511 229 205 179
-5.097089 1.260867 0.103135 212 199 190
-6.647211 2.090004 0.541659 113 119 109
-5.367717 1.021170 0.103623 233 221 209
-3.874374 0.680007 -0.187696 230 218 204
-5.984767 2.020663 0.457114 175 159 143
-4.399091 1.855471 0.108495 216 204 192
-4.038847 0.946935 -0.201290 85 79 47
-3.870364 1.159709 -0.199095 194 174 147
-3.914202 2.718132 0.209882 159 159 147
-3.874790 0.378324 -0.181932 197 190 182
-3.783536 2.436169 0.097800 83 92 73
-4.390506 0.657015 -0.078934 44 37 19
-4.021791 0.379729 -0.175074 133 115 93
-5.582071 1.662811 0.295730 107 98 81
-3.732766 0.808207 -0.189838 182 184 183
-5.434187 1.019951 0.099900 159 153 139
-4.033276 1.184565 -0.133230 104 99 77
-4.980433 0.744071 -0.022479 167 159 148
-4.468171 1.364845 0.043348 71 75 58
-6.387810 2.202539 0.550673 197 174 158
-6.111958 2.074741 0.479925 19 13 1
-5.796483 2.456003 0.495337 110 98 84
-4.493413 0.989956 -0.023618 92 96 73
-4.597126 1.262195 0.048949 45 40 34
-4.224973 1.486037 0.030963 190 179 157
-5.331118 1.053090 0.096989 225 213 201
-4.136242 0.673316 -0.193010 246 235 229
-5.386688 2.515481 0.446724 62 62 52
-4.261660 0.701821 -0.126788 88 87 59
-5.994021 1.090442 0.228730 136 118 108
-5.640815 2.237219 0.430633 39 46 30
-6.316063 2.049723 0.509546 93 83 73
-4.791756 0.945430 -0.001051 114 131 97
-3.373784 1.469591 -0.160335 211 191 167
-3.638477 1.065061 -0.182801 11 21 30
-6.292783 2.319386 0.540904 83 76 66
-6.286144 2.082576 0.511213 188 176 164
-6.598039 2.260492 0.566784 93 92 74
-3.541947 0.736390 -0.185895 43 36 26
-3.998941 0.865512 -0.205939 211 185 162
-4.976385 0.845879 0.001575 117 104 96
-5.312702 1.149093 0.100867 100 93 75
-5.072333 1.305949 0.098477 126 121 115
-5.190857 2.276535 0.360339 54 46 33
-4.147236 0.694689 -0.192504 239 229 220
-6.839890 2.085677 0.578304 100 93 77
-5.220750 2.023836 0.306357 202 188 175
-6.827254 2.065330 0.579561 155 143 119
-4.914669 2.366813 0.325762 177 156 139
-5.150950 1.241510 0.104134 214 207 197
-4.633313 0.668372 -0.057102 220 210 198
-4.074272 0.880967 -0.200797 227 206 179
-5.489007 2.428107 0.458234 113 107 95
-4.626779 0.830826 -0.031496 58 52 38
-4.221015 0.753973 -0.161449 153 144 113
-4.510521 1.803603 0.099547 94 94 84
-5.126418 1.503554 0.182861 236 222 211
-5.628143 1.107689 0.168817 82 63 56
-5.815965 1.574776 0.295873 90 92 79
-5.832870 0.712971 0.090251 142 139 120
-4.049197 0.366643 -0.171629 190 178 152
-5.193479 0.604810 -0.024337 150 131 117
-3.942640 0.426405 -0.178747 221 204 178
-3.686906 2.001526 0.070420 56 60 45
-5.710308 0.738748 0.098729 241 221 210
-6.823460 2.185084 0.600245 188 166 155
-4.686364 2.555876 0.328699 121 109 95
-4.594391 0.937357 -0.004585 194 186 163
-5.270085 1.968662 0.304895 75 69 55
-5.851079 0.928589 0.163828 200 199 181
-6.088250 1.871792 0.432208 46 46 34
-4.358788 2.544877 0.283752 99 87 61
-4.781573 1.536677 0.103299 111 104 94
-5.340638 0.558197 -0.011122 208 202 190
-3.911769 2.280178 0.112484 53 51 36
-4.166129 0.712066 -0.192893 121 112 103
-4.410741 1.268883 0.034696 199 186 167
-3.892381 1.005099 -0.199135 132 111 90
-6.120891 2.369616 0.527885 175 152 138
-6.156137 2.333918 0.539050 183 173 163
-5.818291 0.848525 0.135314 182 174 163
-4.158669 0.786760 -0.198672 139 124 103
-4.311497 1.469558 0.040934 217 212 192
-4.357859 0.844981 -0.094308 115 101 74
-4.652457 0.672149 -0.054695 199 184 165
-5.038887 1.340963 0.099995 104 101 92
-4.630283 1.884764 0.173868 18 20 7
-4.548669 2.339032 0.255503 89 89 77
-5.567244 1.611733 0.288362 128 116 102
-5.392055 1.563100 0.237438 180 168 154
-4.258597 0.648047 -0.117082 220 224 207
-4.161217 0.722052 -0.194957 232 220 204
-6.776242 2.015550 0.570324 104 91 83
-5.306249 2.288597 0.389892 151 141 129
-4.169071 0.703170 -0.190153 237 232 226
-4.145728 0.738041 -0.194400 184 163 142
-3.465920 2.008936 0.041114 139 113 80
-4.845090 1.777671 0.195799 65 55 46
-3.809944 0.629948 -0.185719 203 181 158
-4.312775 1.379008 0.027911 207 195 171
-6.071896 1.935896 0.454535 196 179 163
-3.972024 1.004224 -0.203115 123 112 82
-4.069448 0.682155 -0.190272 222 202 177
-4.325736 1.474454 0.041695 75 74 53
1.817494 -0.689107 0.073382 217 209 198
2.017087 -0.798614 0.100948 236 237 232
1.420087 -1.902661 0.093772 47 52 56
1.977314 -0.980389 0.122143 214 199 178
0.814154 -1.170988 0.086421 59 70 54
2.022800 -0.941620 0.103631 214 200 174
1.971642 -0.863343 0.103221 216 221 217
1.489686 -1.736589 0.113800 42 35 25
0.891519 -1.170566 0.127062 207 201 185
0.983094 -1.115905 0.136416 237 213 185
0.696024 -1.546885 0.208112 201 167 132
2.122222 -1.202585 0.146743 83 81 84
1.124603 -1.220292 0.129799 105 100 68
2.003972 -1.064777 0.133375 199 190 183
0.494372 -0.652814 -0.034208 163 165 162
1.801427 -1.430297 0.152863 80 80 82
0.691374 -0.975447 0.020997 97 101 100
2.047043 -0.732936 0.099748 197 173 145
2.093023 -1.164813 0.144363 141 137 134
0.510182 -0.765574 -0.034042 200 214 215
1.274281 -2.152852 0.084644 210 217 233
1.174470 -2.140261 0.114873 2 6 7
1.318147 -1.847450 0.121090 147 152 148
1.901473 -1.040902 0.115841 204 196 183
1.638621 -0.525261 0.040638 86 101 58
1.243190 -2.294073 0.079725 194 198 197
2.007117 -0.849419 0.106262 203 202 197
1.852939 -0.726565 0.080360 204 184 160
1.518506 -0.775946 0.143452 219 207 191
1.367321 -0.818115 0.117785 201 177 149
1.360937 -2.277426 0.119222 185 178 162
2.051715 -0.708828 0.098417 197 171 138
1.606119 -0.581257 0.025913 212 210 195
1.998619 -0.868252 0.104836 213 219 217
1.167029 -0.912905 0.110161 222 215 197
1.073398 -1.020843 0.126477 74 84 50
2.130111 -1.040601 0.125442 109 97 71
0.609844 -1.261670 0.170272 62 65 44
1.529049 -0.909832 0.159046 214 190 164
1.577545 -1.379654 0.151239 94 91 84
0.981005 -1.977393 0.199142 157 159 158
2.067132 -1.052616 0.128441 171 149 128
0.998372 -1.189445 0.146653 214 185 151
2.079825 -1.127040 0.138507 175 171 168
2.048593 -1.010360 0.112292 71 76 44
1.511047 -0.732002 0.103104 224 202 179
1.092756 -1.139223 0.152210 215 189 156
1.091539 -1.139988 0.151001 215 189 156
1.760901 -1.389720 0.146627 165 165 165
1.958321 -1.169796 0.134379 168 133 103
1.932871 -1.241575 0.136359 76 62 59
1.408155 -0.799991 0.115380 77 80 61
1.473546 -0.798966 0.147138 229 215 188
1.476235 -0.798635 0.143400 229 215 188
