ply
format ascii 1.0
element vertex 1202
property float x
property float y
property float z
property uchar red
property uchar green
property uchar blue
end_header
7.912647 0.279790 0.070787 205 208 201
8.004531 0.363985 -0.132202 22 34 14
7.302420 0.757191 0.184457 248 244 233
5.017648 3.438842 -0.063781 239 237 242
8.063706 0.409771 -0.027043 26 39 21
5.126169 1.399579 0.204927 157 162 165
7.404178 2.553523 -0.006521 24 35 18
7.773523 0.623623 0.180249 248 244 219
5.372214 -1.406292 -0.069944 52 61 42
7.853399 0.448529 -0.088601 151 158 140
6.763830 1.661861 0.168842 118 99 84
7.563394 -1.721223 -0.115731 115 140 85
6.933413 0.899806 0.086158 219 230 216
5.562949 3.046294 -0.189586 87 96 69
6.993094 0.339449 -0.016546 7 46 0
5.966692 0.345012 0.193123 203 208 201
6.878287 -1.632963 -0.008157 92 117 59
7.884742 0.062202 0.046968 18 28 17
7.053741 1.089584 0.047757 6 20 0
7.549777 -1.602541 -0.000717 3 22 0
7.676382 -0.084079 0.020699 33 59 14
5.505838 -1.992942 0.022165 36 51 12
7.186921 -2.706909 -0.040104 142 151 122
7.726244 1.279483 0.108352 18 24 20
6.722136 1.726295 0.167537 186 171 142
7.207245 1.612461 -0.137357 28 36 13
5.157534 0.578946 0.194023 213 217 220
7.219392 0.098456 -0.190407 108 128 77
5.047649 0.729350 0.149414 235 236 220
6.945380 -2.518383 0.183930 5 9 12
6.819186 0.529503 0.029692 155 180 96
4.201070 -1.022512 0.067532 96 110 84
7.089232 -2.386557 -0.021181 205 222 152
4.813617 -1.487254 0.131850 17 37 0
7.060834 0.279588 -0.065198 140 160 101
7.278436 -2.712211 -0.096892 48 55 37
7.300007 0.068606 -0.144789 147 163 98
7.392441 -2.696091 -0.055024 48 58 34
5.007609 -2.408035 0.195834 35 47 25
7.072662 -2.779598 -0.055463 132 143 100
6.123632 0.081398 0.152107 126 142 106
5.020645 -2.361167 0.359262 38 42 53
7.680693 0.289756 0.011396 75 75 63
7.844309 0.653901 0.132689 124 140 52
7.195988 2.011397 0.020190 109 126 58
6.862662 -0.044894 0.046929 232 239 223
6.847944 0.690090 -0.200820 37 55 13
7.579553 -2.442234 0.057149 136 148 100
7.792241 -1.658924 -0.141229 23 44 5
6.001292 -1.726446 -0.068301 20 34 9
6.854944 -2.243712 -0.047497 134 148 99
7.158203 0.646943 -0.011710 159 173 112
7.126299 -2.061330 -0.028906 22 31 12
7.044966 -2.188687 -0.196012 75 91 46
6.245634 0.812299 -0.096908 10 21 7
7.266611 -1.713702 0.159872 42 36 70
6.871917 0.733034 -0.176436 105 122 80
7.472892 -2.381407 -0.039592 15 29 16
6.081825 0.064411 0.285442 212 207 204
7.371094 0.230108 -0.140539 55 66 36
4.916821 1.363354 -0.197816 122 121 127
6.675974 -2.208992 -0.006218 145 155 120
6.693915 1.355786 0.110686 81 108 67
4.885611 1.401112 0.045582 104 108 117
5.737949 3.025229 -0.254422 107 122 63
6.568799 -2.474393 -0.072514 115 135 82
7.110749 -2.314851 -0.043537 20 34 0
7.150983 0.282285 -0.053072 16 28 8
5.113986 0.108372 0.175056 232 242 234
6.951758 -2.747310 -0.024268 119 129 94
4.275716 3.454346 -0.064188 146 142 115
7.188434 1.338629 -0.041800 135 150 109
5.109958 0.583681 0.135851 251 254 247
6.191281 -2.742488 -0.007773 48 56 32
5.348507 2.569484 0.046276 255 253 242
6.913849 -2.505185 0.005140 29 32 21
7.919135 -1.868549 0.129310 29 44 15
7.276264 -1.916406 -0.099252 55 86 29
5.432617 2.987708 -0.238226 126 133 100
7.403651 -2.344892 -0.100401 118 132 106
6.411489 2.747984 0.043270 113 95 91
7.514967 -2.394275 0.069943 52 61 70
5.361071 3.442433 -0.039274 141 141 153
4.536139 -3.067272 -0.212234 46 46 56
5.648502 3.035379 -0.221776 111 122 79
4.509570 -3.036385 -0.211208 55 58 67
4.324868 3.335835 -0.036798 226 220 220
4.795238 2.249238 0.105422 115 131 66
5.497750 2.968969 -0.163205 176 186 162
5.931191 1.424095 0.128687 68 82 47
5.019703 3.226643 -0.236924 146 145 151
4.683802 1.338859 -0.321044 223 224 226
4.476448 -2.590379 0.300011 187 180 174
8.010300 -0.237480 0.006111 99 101 100
7.871752 -0.395748 0.059404 157 149 130
7.717007 -1.023297 -0.290119 54 72 30
7.457312 -1.359079 -0.248435 156 172 127
7.673668 -0.377412 -0.165028 29 42 25
6.983531 -1.197679 -0.006738 5 15 6
7.654188 -1.503143 0.079939 183 190 172
7.912740 -1.084276 -0.337835 156 171 130
7.412165 -1.316637 -0.170695 17 30 0
7.567030 -1.048740 -0.156418 116 125 106
7.962134 -1.183822 0.142737 172 170 173
7.343213 -1.390994 -0.280783 45 59 24
7.702181 1.645122 -0.094553 205 212 194
6.894750 -1.334487 -0.285640 39 54 21
7.734294 -0.772182 -0.291413 156 167 125
7.444999 -0.192366 0.037297 94 135 75
8.015774 -1.227095 0.010855 195 193 180
7.587341 -1.155369 -0.245837 83 91 54
7.593972 2.089968 -0.065499 128 146 72
7.633168 1.515909 -0.134391 157 169 129
7.682966 1.528038 -0.087464 133 144 128
7.539000 2.292351 0.045642 117 112 93
7.415115 -0.652027 -0.364899 66 77 37
7.711885 1.789236 -0.330634 30 45 12
8.046288 2.308302 -0.180695 134 145 111
8.093427 2.422392 -0.158596 134 150 101
8.177505 2.437034 -0.017987 4 10 0
7.515145 -1.479687 -0.026241 4 27 0
7.936478 1.842770 -0.193262 108 118 93
7.080285 -0.471801 0.145753 6 25 3
6.842459 -1.459466 -0.316078 126 146 83
7.685426 -0.345153 -0.111532 30 46 19
7.397669 -1.302411 -0.171585 150 163 119
7.607143 1.503714 -0.118429 128 142 89
6.691501 -0.580655 0.079124 69 85 49
7.725582 2.280317 0.123544 115 102 86
7.219902 -1.031852 -0.316174 11 21 0
7.323251 -1.222227 -0.255518 30 39 20
7.983070 1.617822 -0.062503 54 81 30
7.642359 2.021082 -0.050026 69 83 30
6.638659 -1.229486 -0.194939 128 143 112
7.737579 1.677752 -0.338014 124 142 90
7.674568 1.545769 -0.083893 22 30 15
8.071317 0.995317 -0.204670 147 158 124
7.608982 1.281304 -0.181146 24 38 12
7.504634 -1.293150 -0.042056 128 138 111
7.736393 -0.437077 -0.011670 75 95 106
7.305328 -0.853088 -0.265533 129 146 104
7.771238 0.113550 -0.120566 23 32 13
7.151400 -1.252152 -0.236332 156 173 118
3.734894 -0.393625 -0.018703 10 28 6
2.831955 1.356322 0.121993 27 37 29
5.817634 1.368905 0.009599 139 132 106
4.985598 -1.615523 0.197147 175 174 172
5.402751 1.982065 0.154673 175 125 124
3.916931 -2.556718 0.131412 227 219 206
5.325815 -2.181305 0.175507 14 17 10
2.841606 -2.765496 -0.019189 246 250 249
5.885372 0.789306 -0.056950 21 34 16
5.798018 -0.588039 0.291201 74 91 55
5.260811 -0.686479 -0.015192 92 113 46
4.015249 1.825126 -0.250387 209 211 208
5.852129 -1.235832 0.172246 211 207 204
5.578416 -0.805646 0.062428 5 12 4
5.271221 -1.885976 0.043675 14 19 12
4.990796 1.251537 -0.185860 92 105 113
6.092255 1.063120 0.104471 12 17 13
4.864870 -1.776283 0.294805 2 9 17
6.188325 2.218604 -0.057917 22 27 20
5.787506 -0.082051 0.183446 27 27 35
4.782938 1.743409 -0.760780 124 131 77
5.306115 0.151620 0.197150 67 81 58
3.361408 2.243035 0.109117 205 174 143
5.621432 -0.981862 0.122849 111 116 109
5.475398 -0.607598 0.016226 55 67 21
3.071105 2.580215 0.060093 53 65 41
5.627477 -0.294686 0.141496 11 16 10
3.134534 -2.017930 0.084864 101 114 122
4.912253 1.245456 -0.001164 19 24 30
2.717228 0.229447 0.006137 42 52 25
3.169912 -2.085047 0.113998 97 111 120
4.985739 -1.080284 -0.054904 25 32 25
5.940245 -0.595044 0.069293 80 107 52
3.206341 -2.167991 0.142144 85 93 104
5.397530 2.557569 0.103335 131 115 118
4.501789 -1.924645 0.320203 183 169 168
4.895172 2.699157 0.000686 33 47 24
4.917098 -2.434093 0.206640 75 95 46
3.337019 -1.664307 0.050004 192 194 191
2.623508 3.472098 0.001437 152 151 149
2.479999 1.902187 0.152738 29 25 24
5.241007 1.278716 0.057942 15 20 14
3.018783 3.483576 -0.059848 162 154 151
6.012790 0.170279 0.000619 18 35 0
3.088067 -1.583024 0.174520 46 70 36
3.199346 -2.816649 0.265410 210 203 187
3.199903 -2.813840 0.265627 210 203 187
4.753962 1.585853 -0.531220 254 255 255
3.385688 -2.977282 0.359884 51 61 36
5.485738 -2.026324 0.052453 39 57 15
5.421364 -1.572815 0.168710 189 174 155
2.718240 -2.961821 0.062267 179 174 170
5.795208 1.754753 0.318139 152 156 139
3.810658 2.260658 -0.256610 8 13 6
5.300883 -0.350348 0.267729 41 32 35
2.969207 3.418272 -0.048943 50 51 37
4.309658 1.609935 -0.372774 241 243 238
5.167922 0.832294 0.110734 23 28 21
3.880032 3.176395 0.013237 135 135 133
3.743954 -2.508245 0.296924 45 62 26
4.299567 -2.014999 0.385182 199 192 182
2.824007 1.470942 0.132403 35 35 27
5.840472 0.709310 0.216729 207 208 213
5.836142 -0.592307 0.264882 42 54 30
5.662954 2.628998 0.105053 64 59 56
5.708622 -1.270431 0.204929 213 213 215
6.144523 2.127893 0.077929 147 125 111
4.035097 2.559076 -0.075107 130 151 86
4.618656 1.121099 0.088809 238 239 231
6.149078 0.574936 -0.187049 112 136 60
6.050064 -0.687182 0.156728 44 48 31
5.929445 -0.162071 0.172431 238 243 239
2.798945 2.824381 -0.055461 182 174 172
5.363256 -2.185042 0.124461 10 16 12
5.215236 -0.996944 0.047295 76 86 59
2.772710 1.489905 0.047270 64 73 46
6.139221 1.180884 0.028306 10 18 7
4.530978 0.284287 0.155644 125 139 104
5.582350 2.691542 0.066378 88 82 50
5.326937 -1.859279 0.062232 90 107 63
5.603839 -2.070495 0.162664 72 84 64
4.210837 1.096693 -0.300027 206 207 209
2.421311 -1.327650 0.240811 51 91 28
2.431661 -0.427576 0.182789 56 53 34
5.700422 -2.011557 0.168350 9 14 7
2.891905 -0.408797 0.239683 9 11 10
3.011137 -0.802278 0.153384 46 58 36
5.902130 1.135919 0.059967 72 89 45
2.484123 0.799441 0.161569 87 103 67
2.990227 -1.062124 0.031910 75 95 23
5.498583 -0.940739 0.042922 37 45 34
4.764368 -2.823880 0.251865 7 12 6
6.142055 2.304644 -0.220016 16 24 9
4.523356 -1.495081 0.144379 76 84 61
6.174179 2.287583 -0.155188 20 22 19
3.006299 -2.763517 -0.044313 111 105 93
5.654004 -1.869391 0.101804 117 133 97
5.161304 -1.927647 0.191576 174 175 167
3.644079 -2.210906 0.389312 59 51 48
5.396114 -0.738333 0.207882 133 128 99
3.783608 -0.472823 0.315489 152 139 122
4.901525 2.241904 0.154576 228 226 227
5.625044 -0.941250 0.107666 33 38 32
5.962876 -2.624688 0.339719 6 10 13
3.453610 -0.512792 0.256477 10 21 7
2.454747 -0.519177 0.044418 46 51 47
4.398388 -2.178343 0.390457 38 39 44
6.171347 2.205006 -0.112067 16 23 16
3.029592 1.435263 0.181205 154 132 118
4.682440 -2.047065 0.135276 95 103 80
4.488164 0.087220 0.251571 194 194 184
6.000139 1.113491 0.004553 43 50 34
4.772238 -0.619971 0.239098 251 252 254
5.287754 -0.444042 0.195029 238 240 235
4.091037 1.801494 -0.326760 245 246 250
5.965682 -2.556688 0.268883 7 7 5
2.625399 -0.613593 0.148874 26 31 24
2.508532 -1.474338 0.143960 13 23 14
4.841287 0.793520 0.258946 225 204 187
3.717597 1.030435 0.204605 222 198 172
2.940153 3.377346 0.004529 199 177 154
3.070839 -1.981847 0.220410 11 16 20
5.054906 1.131317 0.019422 14 19 15
4.163668 -1.156894 0.169760 47 52 55
3.087268 -1.221599 0.031956 52 62 27
4.914361 -2.728119 0.310249 106 133 28
4.280715 0.791584 0.239027 27 18 19
4.740935 -2.242953 0.171190 177 168 159
5.421147 -0.794987 0.063840 81 98 54
4.637831 -1.790664 0.300881 22 26 29
3.675245 -0.737835 0.212965 7 22 0
4.681076 -1.259803 0.143460 80 108 24
5.426720 -0.494646 0.129198 85 106 65
2.626577 2.488195 -0.103504 32 44 20
6.111166 0.307856 0.106695 113 143 53
5.926493 -2.537247 0.309700 11 10 5
5.331123 -1.608978 0.279949 71 56 51
2.617236 -0.840977 0.243173 48 52 37
5.333021 -1.727985 0.223301 217 218 213
4.999071 0.699994 0.243025 72 79 89
5.935929 0.172092 0.081387 81 109 51
4.813496 0.744077 0.231192 66 51 46
4.718632 2.160209 0.117682 118 132 71
3.832499 -0.954225 -0.031890 123 126 141
3.090154 3.513101 -0.007206 113 116 121
5.526314 -2.172511 0.173821 30 40 13
2.535496 -1.036350 0.084609 92 120 43
5.421323 -1.047251 0.001843 95 112 70
5.692665 -1.954740 0.143507 72 95 49
5.797746 -1.583536 0.086411 33 33 35
4.978309 -1.094787 -0.103284 30 30 20
2.462924 -2.034744 0.052362 177 176 172
5.864153 -1.156510 0.157429 211 213 212
4.570675 1.939971 -0.503701 124 128 78
5.657106 2.763796 0.036185 119 116 83
3.284712 -0.479681 0.269859 213 215 202
5.534260 1.089365 0.101649 17 30 12
4.509902 -2.731690 0.232579 221 220 202
5.538769 0.932184 0.232953 216 216 214
3.864784 -1.602516 0.254461 20 28 15
5.328246 0.155216 0.210686 5 19 6
5.786883 0.862926 0.054497 52 71 26
6.208900 2.350665 0.059165 8 14 14
2.855853 2.504490 -0.074875 15 21 9
5.483790 -0.443705 0.164861 241 243 232
5.485558 -0.441075 0.155613 241 243 232
5.330321 -2.539368 0.199532 86 107 50
5.246766 0.153273 0.191215 249 251 248
5.417306 -1.155441 -0.008067 66 80 44
3.302385 -0.361486 -0.072574 19 30 16
5.786298 -1.777512 0.048850 78 91 65
5.954145 1.841253 0.071676 165 124 122
2.560687 -0.819643 0.230560 227 223 211
3.644404 -0.720519 -0.055131 24 36 22
2.652764 0.438523 -0.030603 22 38 9
5.835881 2.365319 0.109318 45 47 26
4.877324 2.748702 -0.089340 14 23 6
5.624772 0.610026 0.154639 70 73 64
5.284807 -1.766935 0.221932 207 206 202
5.926098 -0.695675 0.150100 101 107 79
4.500850 -1.003762 0.305787 186 169 161
5.820383 -2.352632 0.134916 54 67 47
5.556968 0.061738 -0.008535 74 88 65
2.547854 -0.558900 0.243402 70 66 54
5.420026 -2.197028 0.275809 74 98 48
6.053136 -1.610265 -0.033134 11 17 13
2.971475 -2.770733 -0.009213 111 104 96
5.255590 -1.033765 0.190492 179 163 140
2.669579 -0.654184 0.007906 48 55 39
4.408243 1.367223 0.205428 116 117 109
4.183334 -0.772083 0.102570 104 120 84
4.951012 1.534577 0.102842 11 16 19
2.361749 0.422383 0.133362 69 86 44
3.577276 -1.833971 0.349286 120 118 97
6.223054 2.013184 0.175046 115 114 122
5.804701 1.056792 0.129060 199 210 206
2.172917 0.518415 0.205929 6 11 4
5.562992 1.103950 0.151943 206 218 216
4.128521 2.783368 -0.189944 91 98 82
4.441720 0.441478 0.211825 252 252 254
6.018387 -1.041469 0.267217 43 51 28
4.474740 -1.302693 0.141445 106 133 30
4.668156 0.769808 0.134090 252 253 255
6.104362 2.177201 -0.135206 63 73 36
3.650366 -0.132263 0.077702 13 15 14
5.841245 -2.410185 0.076679 13 26 9
5.936643 -1.290320 0.070045 78 94 57
4.637016 -0.976779 0.297421 51 50 58
2.782050 1.536413 0.118335 196 176 149
5.677843 0.414968 0.150682 20 27 19
4.304348 -2.768732 0.220948 33 36 41
4.232622 -2.090488 0.378034 36 47 15
6.049066 -0.054905 0.065473 67 66 45
5.156073 2.822955 -0.103221 0 12 0
5.441430 -0.852791 -0.003959 91 103 67
6.012483 -1.006263 0.197697 186 169 149
3.873896 -2.077160 0.380990 37 29 18
3.565011 0.055731 -0.053248 180 183 198
5.588030 -1.988537 0.171165 7 12 5
5.261344 -1.989475 -0.042184 33 30 25
5.749624 0.563997 0.198674 18 24 22
4.129550 0.346355 0.175405 57 85 36
5.263018 -1.671870 0.246660 196 196 206
2.784208 1.329987 0.026361 72 85 57
4.002469 1.548495 -0.286042 216 218 217
5.426426 -2.487455 0.241345 22 22 14
4.763908 -1.551976 0.098146 90 121 51
4.984534 -2.350953 0.116237 58 78 19
2.665148 0.339945 -0.002614 61 78 42
5.108907 2.664264 0.027733 181 163 149
5.787872 -0.738807 0.203957 29 31 28
5.899241 0.613502 0.028005 72 92 39
2.846945 1.204291 -0.002637 21 30 13
5.901112 -2.465914 0.310568 9 11 8
4.099791 2.601598 -0.067196 66 79 33
5.487439 0.018815 0.072674 197 195 182
2.534890 0.097482 0.088616 173 175 151
2.285448 -0.992555 0.205732 81 77 78
2.353173 2.402046 0.028224 62 81 51
5.160550 -0.961173 0.056559 67 81 45
5.710812 0.275175 0.252310 19 40 9
3.155278 -0.558073 0.316828 209 206 189
5.628995 -2.496387 0.131409 55 73 35
4.683960 -1.977648 0.236967 67 76 55
4.036249 0.519313 0.081764 197 198 184
5.612620 -1.045179 -0.001550 53 55 44
5.542734 0.985458 0.272072 36 27 18
5.671371 0.772006 -0.034699 29 44 21
4.161159 -2.172098 0.370974 95 98 67
5.794899 0.999132 0.254115 182 176 140
4.413099 -1.988267 0.417740 198 193 190
5.802931 -1.654768 0.224745 194 195 197
5.925496 -0.772204 -0.025766 16 27 10
3.517933 -2.823131 0.323775 16 23 5
5.851536 -2.566074 0.013582 126 134 113
2.926550 1.320840 0.076303 9 19 11
5.937606 -2.302443 0.232243 127 138 98
5.297690 1.219471 0.215006 15 18 11
2.675025 -1.441073 0.106780 16 29 12
5.346812 -0.065972 0.229551 204 201 184
4.993319 -0.778121 0.202662 7 7 7
5.338659 0.079119 0.240710 209 190 175
6.049661 0.026757 0.177657 191 187 175
4.094130 -0.602355 0.302959 7 11 12
4.624516 -1.020516 0.300919 189 181 196
4.763543 -2.798043 0.329242 11 22 6
6.191504 1.443039 0.108258 67 78 62
5.640005 -1.437861 0.330986 22 20 5
4.174329 0.634613 0.201028 10 20 9
4.219231 0.612034 0.119935 12 6 8
6.053898 -1.072182 0.136242 85 95 71
5.622190 -0.754632 0.100878 106 130 82
3.583059 -2.279808 0.339125 212 218 192
3.612601 -0.244378 -0.239772 65 79 53
2.727233 -0.781413 0.190495 85 89 62
6.044589 -0.607430 0.152639 14 15 9
4.816921 0.102674 0.204613 240 247 253
5.096355 -2.642947 0.357074 73 30 50
5.366648 -0.135315 0.198454 207 200 181
5.857341 0.918385 0.154424 40 48 27
4.388576 -2.733462 0.391292 61 62 57
2.909742 2.501266 -0.078223 71 79 58
5.997865 1.788669 0.120909 30 28 13
3.046189 3.088280 -0.008908 143 143 143
5.535645 -2.587594 0.084994 20 29 12
5.648462 -1.138773 0.037932 47 53 41
4.770550 -0.483393 0.245057 155 146 149
6.083060 1.181712 0.003246 15 25 1
4.045201 -1.664322 0.240237 73 87 51
5.723412 -1.477982 -0.009817 6 11 7
3.603408 -2.830715 0.329273 117 105 89
5.966756 -2.469098 0.313656 178 167 145
4.283315 -0.133672 0.250634 23 23 25
5.184575 -1.664772 0.022839 240 245 248
5.137940 0.884089 0.116157 57 71 48
4.891107 -1.566754 0.318007 186 185 183
5.378848 0.400122 0.212848 203 191 175
5.690740 -1.459983 -0.028729 52 61 44
4.174395 -1.771634 0.372264 46 46 46
5.297767 -1.731467 0.208781 49 56 64
5.791894 1.020960 0.181788 98 121 65
3.039155 1.044080 -0.031000 38 52 27
3.588538 -0.692217 0.086859 11 20 15
3.536922 -2.615567 0.304623 94 97 68
3.125179 1.569877 -0.271315 129 125 126
5.764918 -1.353488 0.280534 17 19 8
4.704314 2.882045 -0.055237 17 24 8
5.993764 2.319281 0.123668 25 19 5
5.634522 -0.723403 0.242066 139 149 124
4.747875 2.675977 -0.005186 157 174 120
5.823260 -1.035537 0.119732 83 102 46
5.850039 -0.370534 0.183741 123 139 129
6.040738 -1.338851 0.052993 27 43 17
5.890242 -1.968451 0.123914 101 125 73
4.082312 -0.943001 -0.074317 219 220 224
4.926691 -1.951299 0.361598 166 159 153
5.029657 1.084027 0.251653 165 145 120
5.963442 2.314665 0.106014 120 123 76
4.236505 1.737097 -0.404518 234 229 235
5.610658 -0.976407 0.048663 28 34 24
5.663510 -0.053765 0.092680 216 198 186
2.891455 -1.891042 0.113256 19 25 15
2.614070 -1.107282 0.165657 16 20 5
5.416463 0.270742 0.247017 80 121 43
5.301063 0.205648 0.231831 95 124 70
5.272385 -1.204352 -0.034302 58 69 35
5.553639 0.417122 -0.004256 67 101 24
5.798317 1.426735 0.116635 144 138 114
5.749823 0.654996 0.176182 114 127 71
5.061380 1.214046 0.142030 12 16 15
5.874081 2.635806 0.131305 80 88 51
5.834077 -2.366479 0.202804 2 13 5
5.492662 -1.516600 0.056066 58 54 42
5.998474 0.228632 0.086189 105 134 70
5.967887 2.669791 0.033845 190 166 142
4.417450 -1.910212 0.378559 184 179 173
6.101590 0.545289 0.030402 16 31 8
5.711571 -0.791428 0.073364 68 94 49
2.671667 -1.739686 0.310461 32 31 26
5.878886 1.591222 0.188231 172 144 140
5.898744 -0.561721 0.185417 15 37 0
3.376135 -1.881174 0.262209 13 20 12
5.674245 1.131879 0.180163 85 113 55
4.355904 -1.129357 0.184615 82 95 49
2.988058 1.150083 0.091865 106 118 98
2.731900 0.945940 0.227888 12 14 13
4.270873 -2.201970 0.310985 34 45 28
5.597756 1.489636 0.122219 184 159 162
4.883956 1.942172 0.111967 122 133 67
3.014215 1.212181 0.228875 119 128 81
5.752488 1.616898 0.181557 169 125 124
4.541424 1.424692 -0.434246 234 234 234
5.365965 -2.215547 0.267487 186 183 176
5.724782 -2.299913 0.164131 17 20 11
5.353279 -1.713528 0.261188 28 21 15
5.906263 2.509464 0.118647 85 88 59
2.245631 0.570040 0.195570 51 57 55
3.801153 0.269808 -0.052321 60 74 83
5.567726 0.120478 -0.095805 72 87 66
6.256810 2.341053 0.036464 2 10 0
5.720909 -0.483310 0.282970 202 194 181
5.599498 0.653959 0.142669 73 87 61
4.053606 -0.651160 0.107497 95 115 66
5.965754 -0.708555 0.136800 9 15 1
3.733521 1.060982 0.112990 217 202 173
5.069860 -0.993403 0.147841 33 34 36
6.055122 -2.029311 0.173851 174 169 166
6.127006 2.296730 -0.211007 26 41 8
4.896136 -0.232992 0.259920 198 163 157
2.829598 -2.864763 0.039307 109 107 112
4.666919 -1.071091 0.307689 227 218 219
6.204648 1.416632 0.117034 222 221 216
5.783012 0.325404 0.242912 92 117 51
4.550415 -2.399765 0.381621 238 242 253
5.652855 -2.413205 0.160105 1 13 1
5.974311 2.324027 0.085874 61 58 51
5.320062 2.722270 -0.088855 73 87 54
3.196443 -1.390681 -0.029392 248 248 246
2.613781 -3.009092 0.075604 125 121 112
5.698631 -0.819755 0.018908 87 109 63
4.716182 -1.455605 0.097398 55 79 27
6.012644 -0.511221 0.222597 46 63 21
3.370335 3.345213 -0.057685 179 178 186
5.955685 -1.581591 0.221000 49 55 45
5.261896 1.195314 0.037845 78 87 66
4.146642 0.690525 0.068322 94 114 53
5.350638 -1.666577 0.246319 214 211 218
3.381907 -2.979528 0.323655 41 43 29
5.515132 0.802144 0.060043 25 40 9
4.618311 -1.116887 0.251673 80 90 100
3.463092 2.605146 -0.107427 66 78 42
3.108059 -0.389167 0.263920 88 124 52
5.551298 0.710533 0.062200 19 38 6
3.807693 1.641975 -0.293619 222 223 218
6.116861 -0.836304 0.157200 69 69 57
3.655714 -0.170983 0.093132 95 96 88
2.685928 -2.928685 0.053552 244 245 237
4.733691 2.045724 0.135963 119 136 66
3.022276 2.519171 -0.153516 103 118 63
4.994031 -2.309762 0.074263 77 100 30
4.982847 -1.172807 -0.048624 191 187 178
5.573949 0.085198 -0.026728 15 28 11
5.784442 0.905620 0.084037 186 186 152
5.599681 0.144476 0.228429 12 16 15
5.842306 -0.408905 0.238960 56 50 50
3.759802 -1.733994 0.361626 114 138 60
5.682244 -0.098816 0.194667 113 102 82
4.801104 1.515056 -0.378725 105 108 117
3.124942 0.962298 0.092149 9 19 10
5.563923 -0.850817 0.060894 14 22 9
5.515873 -1.538421 0.000670 31 26 6
6.091998 -1.731704 -0.030801 22 31 10
5.989829 -1.425747 0.040751 49 56 38
5.400500 -1.253549 0.040226 90 101 69
4.494473 -2.150326 0.370077 27 26 34
6.037138 1.631157 0.107956 79 78 58
4.669966 1.434609 -0.458329 230 234 237
5.271277 0.306639 0.218121 10 22 12
4.246294 -2.316212 0.181305 12 23 6
3.580939 -2.905680 0.348129 237 231 217
4.520473 -1.463540 0.145457 176 173 154
5.965555 0.057598 0.115278 41 56 15
4.780767 2.313006 0.082886 73 93 34
5.540240 -0.087988 0.258447 224 198 173
5.014091 -2.316161 0.330400 93 102 109
6.032270 2.134385 0.039348 111 115 78
5.621574 -1.292296 0.228368 159 135 133
5.454056 -1.427159 0.061304 51 57 45
6.114398 -0.889482 0.164100 221 225 228
3.126514 -0.021152 -0.003990 202 203 205
5.276263 -2.440009 0.205790 168 175 144
4.504489 -0.646366 0.271174 103 132 148
5.747068 -2.458401 0.100339 73 82 53
5.894259 -2.221681 0.307195 194 55 96
6.054878 -2.240317 0.109589 27 42 13
3.760240 0.392558 -0.043289 88 95 103
5.809294 1.125840 0.158199 240 244 243
5.314482 1.483497 0.189064 173 125 125
4.081269 2.809954 -0.191928 152 154 141
5.429295 -1.201597 0.013139 13 19 9
5.622293 1.203466 0.210839 82 109 58
4.154741 1.298561 0.239203 21 21 21
5.141129 -1.657025 -0.051976 33 30 23
4.892634 -1.993098 0.356758 15 18 25
2.439456 1.986773 0.127401 200 187 168
5.449796 0.424817 0.125790 211 217 203
3.220388 -1.092158 0.087673 18 26 11
5.608646 0.378801 0.016153 109 140 73
5.188755 2.750300 -0.074120 5 20 0
4.810764 -2.454319 0.176200 69 82 38
4.095870 1.631167 -0.336389 193 194 198
5.358038 0.578753 0.194663 143 130 114
3.168246 2.663325 -0.078657 195 209 186
3.709675 -2.162832 0.403314 198 185 176
2.466595 2.113988 0.159893 209 183 150
3.759111 -0.973973 -0.073481 242 244 241
6.115133 2.184410 -0.177526 26 31 11
2.500577 3.536844 -0.126346 129 132 137
5.011464 -2.544310 0.205507 81 102 23
4.342132 -1.979886 0.364541 76 71 77
3.070415 -1.358102 0.018920 42 54 14
5.737130 0.729938 0.151878 22 30 17
5.825595 -1.687014 0.021855 95 111 74
2.755997 0.794194 0.079239 16 24 11
5.815919 -1.624458 0.197526 57 55 68
4.723770 -2.021930 0.183296 103 115 93
5.806063 -2.252260 0.315981 189 182 176
2.510711 3.470872 -0.004489 230 234 243
5.708253 0.370050 0.239926 152 159 108
3.939954 0.073510 0.187268 11 19 8
4.950454 0.013893 4.676829 196 193 200
2.771475 2.102399 0.113034 193 173 149
4.784023 2.552988 -0.059197 70 79 58
3.445077 -1.133073 0.034155 28 27 25
3.748141 -0.703926 0.225682 28 41 13
6.219563 0.836202 -0.144166 11 24 6
6.175755 2.279097 -0.118997 21 25 8
3.899351 -1.587592 0.287378 15 17 3
5.648073 -2.613203 0.017792 91 106 63
6.196364 2.044794 0.131469 247 255 255
5.980001 -1.194653 0.049200 88 109 66
5.406086 -0.595575 -0.050704 9 14 8
6.245303 2.127661 0.189616 34 27 19
5.303497 -1.916692 0.053034 78 87 66
4.033285 -0.286688 0.311729 14 16 29
6.079698 1.527246 0.170972 104 123 59
3.571318 2.462934 0.013487 7 19 0
5.851709 1.125035 0.167015 164 178 153
3.270202 2.456538 -0.025111 79 86 70
4.468808 2.689851 -0.148047 95 111 66
5.392904 2.756343 0.029796 12 19 3
5.543234 -0.229617 0.243799 199 188 168
5.812317 -0.135358 0.207026 51 51 53
5.977018 -0.574671 0.068673 72 90 50
5.828880 -2.255053 0.302879 32 29 20
5.704091 -0.752057 0.045293 109 132 90
4.735171 -0.089310 0.235211 79 91 55
5.570177 -0.860487 0.059468 13 16 5
4.672385 2.909340 -0.160632 66 75 56
2.621488 -2.593594 0.018335 239 240 234
5.484227 0.896502 0.148929 29 37 22
5.587638 0.607420 0.242146 176 174 153
5.956543 -0.892791 -0.165095 109 123 74
6.010205 -2.281676 0.124042 20 38 0
5.461914 2.779778 -0.049334 10 18 5
5.653976 -1.915635 0.132299 122 136 100
5.404138 -1.190346 0.000145 21 29 8
2.962748 3.690619 0.075569 15 18 27
5.379451 -0.703359 0.160554 13 20 12
4.442529 -2.611515 0.376607 39 39 29
5.025045 -0.959988 0.185982 7 15 4
5.807249 0.362420 0.204694 119 134 69
4.399142 -2.448958 0.287971 18 24 14
5.971994 -2.432516 0.290568 32 23 14
6.058112 2.206983 0.160705 86 89 44
4.158898 -2.588782 0.343993 85 92 102
6.208117 1.460597 0.091258 56 66 42
5.701893 0.461957 0.101728 113 129 92
4.274229 1.295910 0.012026 16 16 16
3.597504 1.169243 0.212485 223 203 192
5.274175 -0.856414 -0.010450 19 30 13
5.274846 -0.856748 -0.008011 12 18 8
4.051716 -0.817044 -0.082351 236 235 240
5.049164 -0.036957 0.105561 78 92 67
4.769516 -2.386391 0.148452 60 73 30
4.081697 0.419739 0.122595 83 93 68
4.877178 1.155170 -0.287890 129 138 145
5.884392 0.519085 0.140040 166 183 149
3.223971 0.008108 0.007365 189 189 189
4.467966 -2.741887 0.282633 180 177 170
2.377955 -1.190244 0.087100 59 69 44
4.509963 -2.664787 0.474529 223 216 208
3.872063 1.063449 0.221565 34 34 32
3.624386 -2.184933 0.326965 140 137 122
4.276105 -2.253967 0.253175 7 12 5
2.702318 2.302279 0.058136 67 60 42
3.686351 0.818828 0.097216 53 65 43
3.110313 0.221941 -0.035374 122 126 137
5.498211 -1.124839 0.049066 19 27 14
2.472086 1.255472 0.000706 22 27 21
5.806468 -1.979671 0.150128 65 77 39
2.714333 2.456187 -0.102022 11 19 6
3.617828 -1.434191 -0.002930 79 77 80
2.809530 -3.059271 0.071902 151 146 142
5.924290 -0.724024 0.122711 22 28 0
4.881879 2.111982 0.107913 211 211 199
5.177025 0.777330 0.117486 3 22 0
3.640921 0.720872 0.136073 15 18 27
6.023503 2.258762 0.062814 137 128 95
6.053814 0.722502 -0.142977 21 32 15
4.646034 1.778612 -0.511524 204 210 210
3.719985 0.574752 0.067334 75 83 96
5.222673 -0.949294 -0.034354 83 94 64
5.145962 2.768280 -0.083953 68 79 47
5.589368 -1.036076 -0.007125 90 101 69
5.311873 -2.399430 0.160245 44 58 5
3.184878 3.320673 0.018216 174 175 167
5.345855 -0.850244 0.048289 26 34 21
2.538804 2.380456 0.006880 47 55 34
6.000024 1.033643 0.050564 31 40 19
2.791936 -0.400267 0.126366 17 23 11
2.840884 1.433952 0.014941 70 79 60
4.856145 -2.465524 0.137884 68 87 59
5.469783 -1.760313 0.004707 87 95 72
5.356219 -1.226278 0.009034 111 122 92
5.980313 2.230886 0.124805 144 136 100
4.510979 0.692337 0.134663 97 105 81
5.146709 0.744139 0.108272 21 38 2
6.056859 -0.713002 0.198298 53 56 37
2.818792 0.694085 -0.013810 10 20 9
4.616872 -1.383534 0.199340 144 146 109
4.361288 2.872160 -0.165187 97 108 50
5.604293 -2.144319 0.175063 16 24 1
3.732998 -1.868176 0.358439 67 99 36
6.012880 1.285819 0.128704 7 10 3
3.272640 3.489761 -0.043870 43 50 76
3.825180 -2.523051 0.260138 82 97 42
5.371581 1.236689 0.238049 216 198 184
4.129901 -1.597885 0.360861 118 128 93
6.173466 2.307110 -0.178244 97 109 73
3.485161 -0.564367 0.265138 14 20 16
4.994211 -1.042526 0.018188 30 34 19
2.497554 -0.501583 0.056563 81 85 68
4.606487 -2.805190 0.235231 72 90 66
4.766541 -0.568565 0.252265 8 14 26
3.562683 1.430406 -0.278802 147 148 153
5.599610 -1.325749 -0.002030 100 97 62
4.726619 2.477930 -0.153408 32 42 18
4.122905 1.951198 -0.307828 184 177 169
5.952542 0.933969 0.056394 191 183 164
5.910074 2.091048 0.105176 52 45 27
5.572729 -0.197948 0.217628 254 249 255
3.697578 0.671704 0.065223 97 106 115
6.058395 -1.789234 -0.026348 1 15 0
5.327902 -0.224310 0.226691 108 109 114
5.320758 -2.471962 0.199952 91 117 56
4.079697 1.443433 0.263136 71 70 68
4.003395 2.843095 -0.144704 141 147 119
6.059653 1.521531 0.145847 54 62 23
3.949657 0.329403 0.231211 179 178 160
6.164986 0.156283 -0.004278 21 37 8
5.801357 0.675981 0.163691 125 141 68
3.856959 -1.928815 0.294759 84 87 66
3.510197 3.277602 0.003199 182 182 182
4.069353 -0.590556 0.188158 80 91 59
5.815392 -1.786239 0.014527 94 112 72
5.014540 -1.227055 -0.110215 185 185 173
5.930298 -1.656620 -0.046666 59 76 42
2.315004 -0.241443 0.128465 86 94 57
6.085489 1.195025 -0.061177 34 44 17
5.794117 1.481561 0.076214 175 151 149
5.554211 -0.768902 0.005623 77 86 69
4.943292 -2.246469 0.074243 52 74 25
3.730400 -0.393271 0.318967 0 22 0
5.117124 -2.543683 0.379731 188 185 180
4.844651 2.744933 -0.094428 12 23 9
5.972248 0.190274 0.013812 95 122 67
5.415422 -1.812685 -0.007933 18 26 5
3.489665 -0.877796 0.292455 54 56 43
3.499351 -0.539295 0.308508 56 55 50
5.921279 -2.192811 0.251931 249 235 248
3.011723 -1.184353 0.001989 42 61 16
5.657726 -1.305915 0.239467 78 79 84
4.428963 2.819581 -0.181197 151 160 107
6.140307 1.116801 0.232160 13 7 0
2.527280 3.540667 -0.160709 93 98 102
3.191171 3.491726 -0.045277 239 243 254
5.479607 0.670260 0.089823 67 90 48
6.107266 0.710833 -0.163831 108 126 68
4.899535 2.067042 0.093976 186 187 173
6.015285 -2.162102 0.240097 74 75 96
3.858817 -0.594646 0.175237 7 28 0
4.254516 1.104098 -0.170517 68 70 69
5.479722 -1.892058 -0.045510 26 38 14
6.219426 2.543622 0.069370 95 89 77
4.720069 0.162256 -0.057097 96 112 76
3.339492 1.148582 0.236056 32 30 15
2.797694 -0.597460 0.216460 18 14 3
5.531959 0.641522 0.036124 24 49 10
2.719431 2.449680 -0.076087 70 76 64
5.538833 -0.641453 -0.015987 29 38 11
5.489215 -1.060637 -0.001895 18 30 6
5.887534 -1.648969 -0.032358 22 35 9
2.735806 -0.892008 0.199200 23 26 0
5.932431 -0.472620 0.214823 96 93 84
5.035432 -0.660797 0.207307 49 57 33
2.766955 -1.476539 0.277741 77 68 63
3.834526 0.668999 0.142595 73 79 69
5.971015 0.085279 0.044417 77 104 49
2.794910 3.463139 0.000105 213 211 212
6.041474 -0.143561 0.215502 211 195 136
5.785019 1.262968 0.201140 242 240 243
2.577322 3.404279 0.014959 30 28 39
2.576364 3.405097 0.016231 25 24 22
5.488301 -2.334528 0.318828 27 30 11
2.782912 -2.979083 0.048239 226 223 216
5.086716 2.795646 -0.087721 134 151 117
5.612806 -1.987859 0.190718 97 107 80
4.152848 0.112174 0.205043 235 247 227
5.760292 -0.017971 0.243311 201 195 183
5.407626 -2.331921 0.151903 126 151 68
5.684958 -2.264030 0.191596 13 22 1
6.073927 0.081349 0.208334 12 20 7
5.685434 -1.236060 0.186670 40 43 52
5.691271 -2.391521 0.121962 86 105 50
4.686955 -2.760508 0.234004 12 23 9
5.423109 -2.459987 0.217136 125 147 65
4.901461 -1.793031 0.348184 168 164 163
5.337877 -0.560645 -0.071046 98 112 77
6.087654 -1.575042 0.021282 97 114 70
5.362732 1.509286 0.198306 169 123 123
5.350961 2.749980 -0.087725 147 163 126
4.434300 -2.597097 0.302946 28 34 22
4.321908 -2.622603 0.305295 60 67 51
4.168075 -0.988436 0.041865 0 10 1
5.466181 2.759719 0.012843 12 18 6
4.509760 1.069276 0.147657 246 249 222
3.626519 -2.306018 0.284428 123 139 100
5.051175 -0.313244 0.223954 8 25 7
5.419480 -1.440866 -0.018328 90 100 76
3.984328 -0.416111 0.199782 63 84 43
6.014424 -0.991248 0.273987 44 34 25
4.774122 -2.852650 0.275227 19 25 11
5.252696 -1.786549 0.246204 54 52 40
5.315662 -2.546927 0.187060 101 114 60
4.922072 -0.526043 0.204384 97 121 69
4.943370 2.068290 0.155445 251 245 245
6.109616 2.623382 0.004961 106 112 84
5.482434 1.015368 0.038920 195 201 173
2.982192 3.448684 -0.017789 161 149 137
5.475593 -2.651850 0.039403 128 137 108
6.048478 1.366169 0.134331 93 120 53
3.133906 -2.053518 0.155065 47 56 63
5.956159 -1.974640 0.102400 0 11 0
6.140122 1.639367 0.171476 183 179 170
3.331493 -1.878957 0.341165 64 69 49
5.820145 -1.384637 0.326081 177 171 159
5.969299 -1.228202 0.048848 105 125 72
6.156724 0.408356 0.255293 140 166 77
5.892770 -1.725217 -0.056109 30 46 10
5.597901 -0.347960 0.047428 114 127 101
5.442952 0.403199 0.163821 215 218 209
2.951985 0.176643 -0.015562 82 79 86
2.783366 1.437577 0.005703 26 40 17
5.656297 -1.192118 0.058877 18 25 9
5.611739 -0.358439 0.131631 92 107 76
5.314844 -0.555838 -0.056159 21 36 3
5.312953 -0.554769 -0.051051 21 36 3
5.702118 -1.347274 0.233471 174 176 173
3.899967 0.471381 0.273257 67 54 48
6.167358 1.249251 0.111638 65 72 80
3.407830 -2.982431 0.327251 73 82 51
6.096192 -0.265444 0.183122 118 105 73
4.978040 -0.961506 0.086774 15 22 15
6.132305 1.151884 0.161034 87 102 69
4.126533 -2.265572 0.307009 169 175 163
5.512885 0.045581 -0.075227 9 31 8
3.100948 2.316280 0.128867 24 6 0
4.894820 -0.350175 -0.177705 25 34 17
2.709771 0.365994 0.010329 21 35 12
3.346258 -1.719820 0.198418 44 56 36
5.083977 1.880949 0.183593 249 242 249
5.947236 -1.202686 0.056675 103 129 84
6.057459 0.726082 -0.197415 81 93 69
4.947167 -0.410827 -0.204630 100 113 83
4.424340 -2.399015 0.388618 54 55 57
5.741786 0.755219 0.094001 11 22 6
5.807500 0.636910 0.189653 117 129 65
5.780260 2.354023 0.123028 49 26 32
4.105302 0.190809 0.252902 254 255 255
3.555404 0.339583 -0.077354 93 95 92
4.649025 -0.148251 0.225372 94 96 121
3.843762 -0.963171 -0.032543 50 54 66
3.540934 2.644810 -0.085525 26 37 7
5.332058 -0.673900 -0.098065 22 37 6
5.332619 -0.674361 -0.100003 22 37 6
6.250037 2.329127 0.085089 45 54 37
5.920949 1.852130 0.132924 53 26 45
5.919275 1.858939 0.144048 78 47 62
3.039504 1.402428 0.153901 136 113 99
5.483090 -0.941552 0.025695 18 29 13
5.897544 -1.153528 0.111390 62 78 39
4.130791 0.637095 0.039325 93 119 45
6.094403 1.945549 0.176163 233 228 222
3.387102 2.362100 0.142347 51 28 10
2.410231 2.312108 0.166993 25 17 4
4.329080 2.482711 0.095513 197 178 146
5.763686 -2.368959 0.105343 45 61 32
5.504114 -1.335852 -0.031203 99 102 71
5.623084 -1.785663 0.060916 19 25 11
4.692168 2.473334 -0.065313 101 111 76
5.939798 -0.034496 0.241627 208 183 163
5.973475 -0.096836 0.232756 54 46 35
5.364599 2.734056 -0.022916 13 22 1
3.120441 0.908468 0.012481 13 34 3
2.266363 2.101929 0.214706 197 177 144
5.900823 2.183487 0.109962 78 83 61
6.158641 2.107879 0.150321 26 26 26
4.824075 2.690107 -0.049188 10 19 0
5.684218 -2.303565 0.113326 12 26 0
3.872357 -2.238032 0.364890 11 14 7
4.244660 0.010804 0.261681 23 27 26
6.119026 0.092035 0.081404 85 106 67
4.766856 0.172769 -0.000796 26 37 20
4.412490 -0.793965 0.247333 123 133 109
5.401515 -2.328392 0.344809 50 44 44
5.296680 -2.124843 0.076260 68 75 57
5.873770 1.487646 0.184720 130 116 90
5.354375 -0.925991 0.041652 16 25 8
3.855125 0.424961 0.157009 6 13 6
5.240363 -1.521807 0.086087 64 69 49
5.952505 -2.546718 0.289851 19 7 7
5.351759 -0.638159 -0.141889 18 32 0
3.260499 1.078082 0.074653 19 36 4
5.561534 2.759291 0.054945 31 32 0
4.790645 1.033680 0.022864 76 92 63
5.633230 0.749334 -0.004508 84 105 66
2.977785 3.328496 -0.001965 167 164 155
2.385417 2.488505 0.004955 100 109 78
4.695359 0.761741 0.206051 108 107 112
3.441162 0.848441 -0.066506 71 71 79
2.511456 0.884548 -0.001006 13 28 5
5.565364 1.173060 0.175617 21 29 18
6.122965 0.540375 0.077940 125 148 94
2.704015 -2.814989 0.034774 115 113 114
5.736602 0.179243 0.248733 114 136 74
4.024435 0.398060 0.163705 78 89 47
3.784292 0.201099 0.058678 33 40 50
2.501450 -0.712336 0.071695 79 86 78
5.514880 -0.876283 0.023597 29 39 14
2.962506 3.578114 -0.014737 28 27 35
6.086984 -0.498305 0.258275 130 133 90
5.346914 0.384534 0.271890 195 182 173
3.459831 -1.894042 0.242933 91 107 70
5.687066 1.097908 0.175333 37 61 13
3.014433 2.531844 -0.020433 14 26 4
4.475864 -0.366810 0.271170 48 51 60
2.761555 -0.608165 0.196882 16 27 11
5.580633 -2.430181 0.196573 17 29 9
5.295183 -0.588961 -0.121715 25 42 0
4.361078 -0.112428 0.250370 78 75 96
4.957493 -2.083773 0.353791 7 10 15
4.044574 0.415629 0.141801 214 220 194
5.409650 -0.616132 -0.036720 94 102 89
4.706068 -2.746594 0.291175 8 19 2
5.699669 0.662728 0.155068 192 198 196
3.789391 -0.472063 0.282693 218 217 186
5.883610 -0.437631 0.218960 135 148 131
3.217825 3.491360 -0.061458 47 55 68
5.499646 -1.796660 0.018389 91 104 84
5.926932 -0.428817 0.165253 104 115 111
6.113257 2.195709 -0.230518 75 90 49
4.518102 -0.683882 0.250274 218 221 226
4.605496 -2.723649 0.420153 44 54 53
3.338293 -0.518524 0.231900 46 54 33
5.015652 1.118505 0.074742 26 32 20
5.586968 -0.817589 0.034107 11 16 9
2.418904 -0.751730 0.129622 9 21 0
5.799889 -0.465174 0.234107 202 194 171
3.762835 0.563142 0.066780 14 21 13
5.498353 -0.769882 0.024297 26 37 7
4.383248 -1.398523 0.222706 109 121 99
5.721508 0.776151 0.068490 13 22 5
3.389820 -1.062279 0.013404 201 202 204
5.974609 -1.168877 0.073586 102 124 78
5.766568 -2.011339 0.224551 63 78 49
5.401596 -0.436404 0.263232 91 101 67
3.380370 2.485479 -0.099246 1 7 3
3.459531 -2.142184 0.092059 28 36 23
6.172309 2.071147 0.154230 73 78 84
2.899249 2.361161 -0.013740 67 81 56
4.505445 1.671436 -0.495953 251 251 249
6.158139 1.108588 0.237288 196 191 162
4.878920 -2.059596 0.135246 33 49 20
5.625728 -1.362972 0.276325 140 136 127
2.815361 1.233467 -0.034638 42 54 16
2.455946 -1.461354 0.176606 12 23 6
6.132623 0.167387 -0.012052 82 101 71
2.453034 -0.930028 0.105097 147 167 106
4.118038 2.451831 0.116375 154 125 93
4.320109 -2.036717 0.361565 211 205 205
3.877325 -0.302936 0.106303 48 63 20
5.750918 -1.681985 0.232858 21 17 14
6.142424 2.206513 0.155427 15 5 0
5.756879 1.450306 0.179724 124 130 96
5.308639 0.318512 0.235121 24 17 11
4.920998 1.992637 0.094489 191 188 173
4.977888 -2.513331 0.182992 96 121 38
5.438154 0.646603 0.167836 40 39 21
2.865804 3.479298 -0.033745 227 226 224
4.662796 -1.252781 0.249499 3 6 0
4.742322 2.490648 -0.159566 72 82 58
4.074711 3.344196 -0.013648 199 191 188
5.618498 1.061991 0.172059 102 116 91
4.182200 2.622817 -0.117859 18 31 3
3.199836 -2.178587 0.297704 102 109 119
4.582700 1.549709 -0.475931 229 233 236
5.046992 -1.040351 0.124515 9 14 10
3.608436 1.304550 0.258626 87 117 57
3.512889 -2.362658 0.271522 17 24 17
4.521786 1.753841 -0.504117 254 255 255
5.844738 1.315535 0.214377 94 80 69
3.083803 3.332457 -0.016765 201 202 206
5.394176 0.313332 0.245468 88 108 45
4.631736 2.451075 0.077488 188 158 134
3.846585 -2.412570 0.324900 104 90 87
5.665686 -0.809688 0.068029 15 36 3
5.571322 0.227900 0.251095 31 39 15
6.231597 1.517026 0.115300 71 75 76
2.707137 3.493978 -0.002033 174 175 177
4.661206 -1.221234 0.285532 27 31 42
3.125838 2.547986 -0.064576 59 70 53
3.280601 2.980223 -0.032746 45 48 41
4.520414 0.071087 0.257959 191 189 176
5.455983 -0.064036 0.134853 60 56 44
6.012749 0.081643 0.053328 92 115 69
6.131065 2.201438 -0.237644 94 109 70
6.015097 1.202922 0.041524 203 206 195
4.558997 0.531187 0.138729 20 34 9
5.569398 -1.868526 0.066343 17 20 9
6.045256 -1.487097 0.007039 83 108 68
5.309930 1.226595 0.121426 78 78 78
4.380118 0.709280 0.239078 228 216 202
5.045666 -2.799753 0.378397 61 77 32
2.867278 1.553658 0.182074 32 9 1
3.263192 2.581998 -0.116115 15 27 3
5.168452 0.926892 0.112355 79 102 76
5.206387 -0.756951 0.027435 11 24 0
4.129465 3.292853 -0.048792 207 206 204
5.714759 0.124419 0.253768 136 144 103
5.703570 0.300328 0.263833 122 134 96
3.814223 2.021508 -0.308547 246 231 234
5.737156 2.757649 0.080216 53 50 17
4.484188 -0.983569 0.279621 105 99 75
5.590795 -1.293104 0.027854 98 104 76
5.333700 2.746016 -0.065403 14 28 2
5.789943 0.434561 0.241712 154 154 120
3.328240 -0.498505 0.105460 64 91 46
5.126008 0.016321 0.157189 77 93 66
5.510611 1.269577 0.151743 26 31 27
5.939364 0.326708 0.181779 165 172 138
5.080920 1.273710 0.128427 7 11 10
4.391872 2.831604 -0.189132 186 187 121
5.163408 0.632236 0.165288 42 51 32
3.198943 2.356347 0.021448 105 111 85
4.433971 1.316810 0.182328 107 102 99
5.695337 -0.776101 0.084203 26 48 10
5.700258 -1.326164 0.237312 189 198 195
4.074620 -0.582599 0.218254 4 8 0
4.013287 -1.772481 0.363125 38 53 14
4.904174 2.303506 0.168000 254 253 251
5.885452 2.286911 0.094425 48 54 18
3.783197 -2.030225 0.353364 83 77 55
3.385019 -1.129495 -0.000094 254 249 246
5.318885 -1.242492 -0.008657 20 29 10
2.751540 -0.538591 0.229434 16 13 4
4.668342 1.455707 -0.459824 78 83 87
3.813693 2.507382 0.044751 86 98 60
3.921191 2.446836 0.130272 76 75 29
6.035692 1.971786 0.101533 168 161 153
6.166903 0.466423 0.213917 101 118 82
2.814273 1.017342 0.037253 76 86 59
4.715601 -1.347306 0.282062 252 255 255
2.953287 -1.950070 0.194085 57 58 62
4.486389 0.903327 0.166832 29 36 18
3.670768 -0.377799 0.302742 4 32 0
3.015652 -1.967231 0.248596 141 139 144
4.797676 1.906968 0.130127 51 56 52
5.394076 -1.759252 -0.000289 23 37 14
2.468158 3.299535 -0.000484 10 23 29
4.965299 1.543274 0.146142 55 55 55
6.045584 -1.428446 0.071833 13 27 1
5.592078 -0.947344 0.058830 31 36 14
3.131783 0.546243 -0.052642 45 48 55
4.826595 2.752660 -0.119094 18 32 0
4.998866 1.591314 0.134901 62 60 61
3.135962 2.623683 -0.102392 95 119 45
5.389391 -1.248248 0.005753 37 47 23
4.628241 1.440859 -0.466543 227 231 242
4.521589 -2.271863 0.359547 43 36 43
5.068244 2.578143 0.065614 102 90 64
2.400433 -1.600608 0.053042 55 66 50
5.234234 0.647558 0.107148 8 20 8
5.654043 -0.552030 0.149223 22 42 5
5.336457 0.252272 0.249688 136 168 101
4.049164 0.540601 0.047173 47 61 35
4.213766 0.721777 0.255922 51 50 55
4.569689 -1.424104 0.172531 199 191 178
3.084836 -1.208626 0.028043 26 40 4
4.815335 0.734220 0.227903 81 62 55
5.260018 0.494475 0.180375 131 133 132
4.628836 -1.248099 0.150941 80 98 56
4.826887 0.686685 0.136353 250 249 247
6.193319 1.607993 0.080244 164 157 151
3.811723 1.282866 -0.282663 249 250 254
3.120178 1.065283 0.020524 12 30 8
2.498758 2.112625 0.164484 186 163 132
4.040755 1.278606 -0.280101 216 217 212
5.208652 1.127214 0.194922 103 127 69
5.601905 1.163224 0.182983 16 32 0
6.075774 -1.582154 0.007108 19 29 5
2.915788 1.473406 0.177224 57 43 43
5.622317 1.505258 0.123780 193 166 175
2.781967 -0.930810 0.108676 28 42 6
6.052062 -1.609675 0.030799 7 15 2
4.397351 -1.918105 0.379373 220 208 218
2.239528 -1.743157 0.216565 62 65 58
4.205723 2.596134 -0.061776 1 15 0
4.544244 1.481475 -0.464203 49 49 57
5.704106 0.984987 0.191012 63 77 51
2.904716 3.033031 0.001016 201 203 202
5.461993 -2.374456 0.236050 13 30 0
5.815361 -1.362386 0.288872 79 76 59
2.974187 1.343967 0.208708 113 102 84
3.646636 -1.415902 -0.000682 107 101 103
4.715889 -1.591122 0.094323 22 40 0
2.929950 -0.386335 0.280013 225 228 207
2.619837 -1.721001 0.266326 17 9 0
2.323740 3.389967 0.015989 175 184 189
4.939848 -2.085521 0.334146 6 9 14
5.273595 0.422356 0.175368 149 152 157
4.029297 0.504587 0.122250 72 67 47
2.670572 2.372738 -0.002387 78 85 69
4.887999 -0.353507 -0.216029 123 132 101
6.102679 2.187687 -0.223815 10 23 0
5.128875 2.535363 0.063012 249 245 234
3.081692 2.620417 -0.132749 42 51 20
4.540063 1.750717 -0.471207 58 57 63
4.929065 -2.276302 0.070638 89 117 56
2.714699 -0.405254 0.127223 86 87 71
5.127579 2.555598 0.068526 74 69 49
2.845845 -0.663886 0.245813 52 56 59
5.174109 1.108759 0.210094 89 114 57
6.130526 1.158493 0.100577 106 112 98
5.621448 0.983618 0.216424 94 112 60
4.338349 -0.974173 0.054726 80 96 60
4.196182 2.578673 -0.069004 87 102 71
4.421245 -0.625624 0.297925 85 61 57
4.710385 2.041680 0.137099 89 109 38
5.916090 -2.175561 0.300034 225 192 203
5.412979 -0.047459 0.205987 209 202 192
2.765633 0.226658 0.001629 48 51 34
4.032737 -2.508063 0.020174 95 93 94
2.761315 1.167232 -0.031614 30 45 6
2.802143 3.528954 -0.019289 206 205 210
6.134829 2.006050 0.149829 108 103 83
2.767841 -1.731170 0.292618 37 30 22
2.904344 -2.971167 0.059240 88 85 78
2.565732 -1.269819 0.194625 70 83 37
4.066246 -2.083491 0.344111 78 83 77
4.795943 -1.734875 0.350100 181 180 186
6.154915 2.085969 0.167928 238 243 249
4.743473 2.838285 -0.082815 153 173 110
-4.800632 0.065144 -0.044218 216 216 214
-4.872475 -0.019185 -0.044866 170 166 163
-5.006690 -0.095644 0.073335 44 49 52
-4.812660 0.027884 -0.068403 128 127 132
-5.020241 -0.076836 0.060629 140 139 144
-4.757791 0.090765 -0.082623 31 23 21
-4.759219 0.090911 -0.085031 37 28 31
-4.813319 0.096101 -0.052738 121 137 152
-4.860985 -0.011009 0.015540 148 152 155
-4.966143 -0.129344 -0.068169 39 26 20
-4.830779 0.057995 -0.044794 201 201 199
-4.908544 -0.093605 0.015573 112 109 94
-4.875602 -0.057596 0.008580 109 98 94
-4.967353 -0.329098 0.091362 106 99 71
-4.983347 -0.092745 0.087441 202 184 160
-4.838378 0.003329 -0.059523 148 108 106
-4.944587 -0.101202 0.077017 179 164 141
-4.976423 -0.125764 0.082324 13 13 13
-4.903151 0.011824 0.098127 27 18 21
-5.005177 -0.252737 0.093321 17 18 13
-4.755929 -0.138204 -0.113567 200 190 191
-4.599631 0.059011 -0.130188 155 162 168
-4.752045 0.102949 -0.103550 203 155 143
-4.755272 0.212249 -0.046067 172 170 171
-5.021845 -0.250025 0.094647 15 16 11
-4.930332 -0.120172 0.013370 100 105 111
-5.002555 -0.230192 0.092400 135 111 85
-4.690842 0.151923 -0.017049 134 126 123
-4.768801 0.071669 -0.035798 187 205 207
-4.626855 0.005852 -0.129070 27 41 50
-4.947646 -0.112036 0.069285 26 25 23
-4.913604 0.028529 -0.034161 131 134 139
-4.735733 0.206685 -0.027709 48 47 45
-4.841008 0.009350 -0.109224 73 53 54
-4.759890 0.244776 -0.028334 238 239 241
-4.666165 0.175937 -0.015305 100 94 94
-4.853972 -0.028923 0.051085 40 35 32
-4.970563 -0.338310 0.089465 14 15 10
-4.996912 -0.222199 0.091576 18 19 13
-4.991954 -0.122233 0.083395 50 50 50
-4.973034 -0.232204 0.088026 178 147 116
-4.836371 -0.010288 -0.029126 123 128 134
-5.007907 -0.118941 0.083542 19 23 22
-4.853999 -0.035276 0.000556 124 125 130
-4.903791 -0.096152 0.060112 106 100 84
-4.816431 0.103403 -0.027082 15 28 44
