ply
format ascii 1.0
element vertex 1143
property float x
property float y
property float z
property uchar red
property uchar green
property uchar blue
end_header
-8.745240 -3.123532 0.477615 52 48 39
-5.950216 -5.670089 0.427920 25 24 19
-9.069712 -1.425898 -0.338159 27 35 37
-7.073846 -0.955100 0.056864 50 52 31
-7.784902 -2.821723 0.341304 46 50 25
-7.881273 -1.559109 -0.579332 45 55 57
-4.055726 -3.191887 -0.317263 196 207 213
-4.482413 -2.873048 -0.344818 126 143 150
-6.018129 -5.274066 0.382981 26 28 14
-7.739203 -4.176597 0.244230 42 42 32
-7.559708 -4.891259 0.271941 46 48 37
-5.418663 -7.404738 0.523887 207 221 232
-9.486486 -3.113197 0.457263 203 201 189
-7.778918 -2.963901 0.304806 71 64 54
-6.353149 -4.416618 0.333819 95 87 64
-5.638669 -5.632961 0.299153 63 66 71
-5.186420 -1.944108 0.105373 58 57 39
-4.142133 -3.892298 -0.275307 209 210 214
-7.522560 -5.055164 0.341444 222 223 217
-4.074300 -4.046681 -0.278325 207 215 218
-4.985360 -2.440380 -0.168515 66 48 44
-10.107872 -1.299251 -0.035760 157 162 156
-7.823196 0.099133 0.200635 25 21 9
-9.576141 -2.601855 0.407172 32 34 20
-4.014224 -4.412541 -0.231647 205 218 224
-6.817341 -3.717136 0.284534 94 91 56
-3.690984 -3.724379 -0.261383 140 157 164
-5.322918 -4.713104 0.272040 35 40 20
-7.622811 -2.885308 0.309114 88 80 69
-7.629271 -4.766926 0.281337 221 215 203
-4.660004 -2.718442 -0.213424 88 99 103
-9.832526 -2.707103 0.490682 221 217 206
-7.116800 -0.646456 0.058760 149 126 110
-7.300273 -0.478133 0.114820 218 214 205
-7.150113 -1.870683 0.141817 214 205 190
-7.714605 -4.421660 0.248126 223 214 199
-6.158720 -4.634319 0.332902 94 98 65
-7.035453 -1.073520 0.085783 211 205 193
-7.996128 0.999585 0.284440 67 70 77
-8.547081 0.161512 0.328221 174 147 120
-7.845475 -0.030502 0.179976 26 27 21
-8.124845 -1.313422 -0.573875 69 75 73
-6.263644 -4.624042 0.344231 72 78 44
-6.034524 -5.961174 -0.185368 54 51 44
-7.616660 -4.672544 0.270388 223 219 208
-7.131484 -2.457101 0.190606 198 190 179
-7.428753 -3.453150 0.255248 109 105 94
-3.854338 -3.426828 -0.283908 181 190 195
-5.531910 -4.456345 0.257160 88 92 67
-5.862586 -5.981245 -0.210535 209 208 206
-7.815710 -3.921992 0.302333 22 23 27
-9.027588 -1.900420 -0.249870 148 152 151
-5.411548 -5.541391 0.072841 30 34 37
-5.746029 -5.052880 0.170395 5 7 2
-8.809716 -1.604619 -0.290692 69 74 77
-9.961031 -1.783650 -0.010469 153 154 156
-10.211916 -1.685595 -0.009002 30 40 41
-5.324124 -3.474603 -0.407696 63 76 84
-6.096436 -0.978072 0.112928 105 95 85
-6.214733 -5.989986 0.509694 91 91 79
-3.762110 -3.758014 -0.263727 184 194 195
-8.806357 -1.387060 -0.380353 39 50 56
-6.962131 -1.959303 0.153984 95 89 75
-7.820796 -3.174082 0.344874 100 91 82
-5.056928 -5.347978 -0.085901 84 83 37
-7.437332 -4.824532 0.343313 102 91 85
-5.837931 -5.726674 0.119158 92 97 103
-6.328862 -5.873556 0.442276 161 149 137
-9.009400 -3.766212 0.327200 112 116 119
-8.833096 0.196315 0.307798 164 153 133
-6.688216 -4.877795 0.377170 133 117 104
-9.294910 -1.879660 -0.332009 81 91 101
-8.794574 -0.943593 -0.310668 159 163 162
-9.506531 -0.491902 -0.095716 230 229 224
-8.777230 -2.633541 0.421560 90 79 75
-7.754541 -4.260294 0.235323 31 31 21
-7.865666 -1.989922 -0.405251 193 198 194
-7.694912 -2.599317 0.303593 51 44 16
-8.293423 -2.885203 0.407405 71 65 51
-10.133880 -1.747445 -0.043928 122 132 131
-6.884000 -5.044537 0.351735 216 211 205
-7.348276 -5.211935 0.382834 54 56 43
-7.956663 -1.655145 -0.573145 94 99 102
-7.728554 -3.138752 0.320337 181 171 161
-10.064381 -2.052225 -0.007133 26 31 34
-6.179954 -5.063996 0.361871 109 106 75
-9.639783 -1.081315 -0.002678 152 154 149
-6.402929 -5.746812 0.437773 86 78 55
-7.032321 -2.140192 0.169765 77 70 54
-7.036855 -1.336609 0.110548 188 175 158
-4.510514 -2.699727 -0.353545 21 30 39
-8.048725 0.033516 0.245048 37 39 26
-6.350338 -5.692804 0.416865 108 100 79
-10.138000 -1.661084 -0.032818 146 156 155
-7.233950 -3.602624 0.272717 83 74 65
-4.398611 -3.432098 -0.321886 49 66 73
-6.665912 -4.755885 0.364712 89 82 54
-8.684939 -1.343558 -0.324545 169 181 181
-5.936451 -2.270685 0.122034 78 69 52
-4.658017 -5.092399 0.018314 67 49 47
-7.582890 -2.900307 0.310154 88 79 70
-8.892492 0.129528 0.301710 157 145 131
-5.630431 -5.640980 0.132010 84 91 97
-7.441609 -1.901266 -0.590768 65 69 72
-4.465470 -3.157721 -0.358481 52 60 62
-9.641552 -2.860425 0.473942 198 189 180
-8.441409 -3.304198 0.435140 35 25 26
-7.041817 -2.284219 0.177455 79 72 62
-8.503631 -3.218727 0.361234 37 29 26
-9.161123 -1.592743 -0.356897 71 81 82
-5.133995 -5.087662 0.270327 39 43 28
-9.949452 -1.175275 -0.030078 161 166 162
-6.097114 -5.835024 0.103846 102 105 112
-8.027102 -1.335337 -0.600756 63 69 69
-5.583139 -4.862164 0.179640 11 17 5
-7.150963 -0.209809 0.153752 227 229 226
-5.867816 -5.801602 -0.248535 202 211 210
-9.785136 -3.129628 0.466768 200 191 184
-9.405180 -0.060969 0.335266 218 211 203
-7.616814 -3.574095 0.282711 167 160 150
-7.304530 -4.636414 0.336890 60 58 43
-5.386393 -5.704740 0.097364 13 13 13
-5.825009 -3.916529 -0.383544 217 220 227
-8.702552 0.109906 0.290816 63 62 57
-5.658187 -3.841642 -0.379901 189 192 197
-9.170527 -1.939986 -0.308600 164 180 179
-4.722942 -3.353142 -0.114089 169 160 161
-10.044843 -1.148412 -0.032351 198 204 200
-4.693498 -2.599542 -0.225988 188 193 187
-3.386566 -4.089802 -0.228194 192 200 203
-3.782753 -3.679170 -0.266388 186 200 201
-5.812020 -4.893854 0.293435 119 119 109
-7.852217 -0.065529 0.240247 71 67 66
-8.687362 -2.807645 0.455596 61 54 44
-4.211563 -4.216812 -0.237159 181 194 202
-5.847048 -5.912967 -0.193581 75 74 70
-6.691065 -2.007524 0.171611 99 93 81
-5.794761 -6.009671 -0.219491 225 228 237
-8.890091 -0.978296 -0.303199 156 170 170
-7.920518 -3.182846 0.368832 82 73 66
-7.306465 0.181422 0.108994 222 233 229
-5.361436 -5.757227 0.105383 28 29 34
-10.019659 -2.845833 0.551682 71 68 61
-7.531486 -2.261342 -0.397775 107 99 88
-9.932778 -1.550384 -0.000638 178 182 185
-6.096700 -5.824169 0.270827 97 98 100
-6.298609 -5.920738 0.435737 67 58 49
-9.650647 -3.069805 0.490608 55 52 45
-5.366785 -4.715041 0.318446 71 76 53
-9.431434 -2.770992 0.464992 197 197 187
-9.341211 -2.714763 0.458654 51 44 34
-7.330058 -4.928552 0.351437 47 47 35
-5.899636 -5.169900 0.072777 44 50 36
-4.087427 -3.135364 -0.326213 203 220 228
-7.016453 -5.193813 0.373903 61 61 53
-9.058872 -1.847183 -0.276144 89 94 88
-5.738723 -3.876178 -0.378686 184 189 193
-5.778199 -3.894649 -0.381523 176 183 189
-9.672499 -2.680932 0.439251 72 68 57
-8.898526 -1.574110 -0.343845 209 227 229
-5.876077 -3.673800 -0.415634 238 247 254
-9.059717 -1.336848 -0.323105 179 191 191
-8.770384 -2.903900 0.459163 208 204 192
-8.185978 -1.609006 -0.592092 71 81 83
-6.616414 -2.075879 0.179055 120 109 87
-8.101346 -1.548712 -0.601397 42 54 52
-9.282891 -1.778280 -0.272451 68 67 72
-7.282523 -1.255604 0.047142 234 227 211
-8.779629 0.423999 0.234394 89 80 75
-8.020852 -3.111108 0.355695 210 200 191
-7.005763 -4.939290 0.370870 49 49 37
-8.972065 -3.804238 0.370680 17 18 22
-5.069757 -2.185459 -0.103284 183 182 177
-8.084107 -0.944734 -0.634686 132 142 143
-5.343534 -4.559444 0.257560 36 45 18
-6.810265 -0.889255 0.090500 225 218 208
-7.054850 -2.519967 0.198684 216 209 199
-8.726931 -1.012460 -0.297206 207 211 210
-6.995756 -4.680351 0.351414 62 58 47
-6.752124 -3.950170 0.301895 133 124 91
-8.838432 -2.663978 0.430243 232 229 220
-6.698617 -4.793253 0.360992 138 116 103
-6.466200 -2.839229 0.219276 106 107 75
-8.723985 -3.256554 0.462691 116 116 106
-8.051892 0.112605 0.260146 82 85 68
-5.921798 -6.069654 -0.192267 50 55 51
-8.814186 0.200407 0.307514 170 155 136
-8.826269 0.126687 0.293539 31 39 42
-9.268113 -1.964864 -0.293715 179 195 192
-9.916977 -3.086901 0.551531 200 196 187
-4.537664 -3.663299 -0.291086 203 214 210
-7.027088 -5.457647 0.406935 66 66 58
-3.821866 -3.740824 -0.284979 205 222 229
-5.889054 -6.602798 -0.197835 205 220 223
-10.192316 -2.010919 0.015062 144 154 153
-6.134639 -5.586053 0.422625 95 88 72
-7.950507 -3.131186 0.363174 213 204 195
-7.950204 -1.341353 -0.582745 81 82 84
-7.981819 -0.942928 -0.678488 66 80 81
-9.776443 -0.815594 -0.067844 69 83 84
-7.819665 -1.078017 -0.599307 84 96 96
-8.988950 -1.652701 -0.341524 201 212 216
-8.725949 0.823931 0.289253 59 55 46
-8.951691 -1.169559 -0.339511 201 209 211
-4.371660 -3.375049 -0.310550 140 155 160
-6.191455 -5.191951 0.379743 72 71 41
-10.082326 -1.947755 0.046546 51 61 63
-7.116947 -1.817089 0.116955 224 214 202
-9.609900 -3.180361 0.505114 216 206 196
-6.180284 -1.105234 0.118828 127 126 122
-6.392732 -4.933975 0.360576 132 123 92
-7.339138 -2.465188 0.108376 26 27 11
-4.296962 -3.567201 -0.299093 213 223 225
-8.356187 -1.885758 -0.553743 190 200 202
-5.433587 -3.224073 -0.445833 66 79 87
-5.256634 -3.617635 -0.394308 63 76 85
-5.343421 -5.580730 -0.084791 73 78 84
-6.225223 -6.208864 0.045530 41 45 48
-4.037147 -4.104481 -0.262736 221 227 227
-6.166639 -4.810426 0.335177 67 74 40
-6.405329 -4.591643 0.349111 126 114 90
-5.982628 -2.783125 0.212499 10 11 6
-5.275472 -3.573359 -0.405162 52 62 71
-10.334103 -2.798008 0.618752 82 79 70
-7.669585 -1.326370 -0.647069 48 62 65
-9.098691 0.482585 0.352244 19 22 11
-5.484597 -4.300275 0.236991 111 112 81
-6.681273 -0.616695 0.082111 225 217 204
-6.523685 -4.349868 0.326897 118 107 79
-5.227068 -3.650178 -0.377044 179 188 195
-5.875303 -6.043491 -0.195729 105 107 102
-4.952457 -6.152991 -0.202881 48 58 70
-6.173101 -4.031831 -0.389850 61 72 76
-6.100434 -1.574815 0.143462 100 101 57
-7.308702 -0.112563 0.159696 142 143 138
-9.105034 -1.015127 -0.438154 146 156 157
-4.358375 -3.444667 -0.339219 224 231 237
-9.144961 -1.643513 -0.363178 212 232 233
-4.934267 -4.825206 0.253388 118 113 94
-7.618498 -1.046719 -0.648963 51 56 60
-5.296187 -3.527871 -0.414344 61 69 80
-8.440940 -0.770005 -0.338359 191 196 190
-5.816040 -4.848547 0.337551 12 12 2
-7.929269 -1.881810 -0.537050 156 158 153
-6.223512 -1.589937 0.144668 126 118 79
-7.445445 -1.664231 -0.614302 175 185 184
-10.152884 -2.171743 0.031832 153 149 140
-10.146317 -2.824410 0.528495 181 174 168
-6.237376 -1.777663 0.141785 217 214 205
-6.228086 -6.196493 0.199430 33 35 30
-6.570646 -0.404943 0.008556 73 75 64
-8.777349 -1.724765 -0.276592 192 199 192
-4.931639 -6.198656 -0.196867 33 35 48
-8.746741 -0.774676 -0.323883 181 189 191
-4.042640 -4.060951 -0.315757 66 76 77
-7.334098 -5.082579 0.368652 146 146 138
-7.692855 -1.031968 -0.669643 226 241 238
-9.764310 -2.937094 0.478623 208 204 192
-6.603890 -3.957794 0.294076 126 119 90
-4.566666 -3.141887 -0.332519 211 216 219
-5.181007 -5.094045 0.284726 76 78 64
-3.419918 -3.896035 -0.283365 223 228 224
-8.999063 -0.800513 -0.350903 50 59 58
-10.035733 -2.160337 0.038869 146 147 139
-8.048426 -1.636960 -0.559605 50 55 58
-6.352560 -3.635559 -0.438593 69 82 91
-5.880811 -1.573455 0.109306 218 217 212
-4.140503 -4.191096 -0.244362 191 194 199
-6.227847 -5.109244 0.373346 61 60 30
-8.535910 -1.542871 -0.307456 97 98 90
-5.626887 -1.390608 0.134784 230 228 215
-3.859345 -3.468602 -0.286076 213 226 232
-5.363969 -2.060224 0.048219 85 85 61
-6.214506 -3.943473 -0.407224 67 81 90
-4.870542 -2.435289 -0.211579 151 153 148
-10.002740 -2.636409 0.513318 52 45 37
-8.320998 -1.929685 -0.574941 66 70 73
-5.976670 -4.531700 0.110045 34 39 17
-5.830279 -6.658091 -0.184229 68 81 87
-7.648896 0.096669 0.199533 139 169 177
-5.921610 -3.657633 -0.428169 61 71 80
-4.401464 -3.247681 -0.361424 46 63 70
-7.595757 -4.812271 0.294932 104 97 91
-3.890047 -3.605480 -0.295108 202 217 224
-9.042429 -1.219804 -0.300225 169 175 173
-5.005603 -6.031798 -0.214660 48 60 72
-6.453468 -3.777306 -0.402155 168 185 192
-10.240873 -1.980001 0.004856 56 61 64
-7.583011 -4.166357 0.286088 164 161 154
-4.912464 -6.244833 -0.189649 49 68 75
-7.418793 -3.699718 0.300894 180 172 159
-4.400642 -5.175608 -0.137914 166 166 164
-6.846653 -4.666393 0.345827 216 203 197
-8.878970 -1.111167 -0.331151 185 205 204
-6.663432 -3.247550 0.248791 205 195 183
-9.797514 -3.210381 0.459040 176 171 168
-7.639869 -1.661544 -0.587128 59 63 64
-5.489012 -2.382526 0.064766 172 169 154
-5.488038 -2.382106 0.058612 159 157 144
-4.611156 -3.076889 -0.336285 157 172 175
-8.151920 -1.012336 -0.589631 73 84 86
-5.819013 -4.804721 0.324716 75 78 59
-7.058991 -0.768203 0.059939 72 77 45
-6.433088 -4.507467 0.341918 138 124 98
-5.485865 -3.347235 -0.451541 58 71 79
-6.436049 -5.088190 0.382323 90 78 54
-6.874151 -1.531278 0.122735 226 214 200
-6.125950 -4.013693 -0.389416 65 75 77
-7.580164 -1.743982 -0.632009 175 181 181
-7.713587 -4.048145 0.277369 219 212 204
-6.181599 -3.772844 -0.427076 77 87 96
-6.387599 -4.649992 0.341148 130 116 89
-5.394360 -4.192913 0.215770 103 110 69
-6.272351 -3.811574 -0.425162 62 71 78
-6.655608 -4.812794 0.365437 81 68 49
-6.634465 -5.221524 0.230512 47 44 25
-4.353139 -3.346025 -0.333333 46 59 65
-5.243521 -3.211805 -0.528347 190 201 205
-5.822185 -3.876860 -0.392541 65 76 82
-11.217867 -1.967656 0.633774 169 166 161
-5.998340 -4.464025 0.307382 75 80 57
-7.615246 -4.610293 0.259627 228 224 212
-8.894977 -1.784556 -0.263334 24 30 28
-8.371986 -2.801708 0.386663 36 41 37
-7.301270 -3.699453 0.260486 104 102 90
-9.952753 -2.827710 0.528491 166 159 149
-6.352564 -1.887044 0.157759 115 102 70
-9.591742 -0.882907 -0.062690 147 171 171
-6.069745 -3.373373 -0.408901 91 97 95
-6.144671 -3.317658 -0.393301 87 89 88
-11.178574 -1.542340 0.641652 165 165 157
-8.013234 -1.815010 -0.546723 186 189 182
-9.174550 -1.356670 -0.309228 37 42 45
-5.463755 -2.216065 0.050216 127 117 107
-9.916229 -1.211885 -0.008529 60 71 73
-8.799900 -1.934641 -0.317447 171 179 182
-5.301799 -3.642568 -0.390554 53 64 70
-8.793032 -3.297851 0.470374 118 114 105
-8.185850 -1.869816 -0.597167 178 187 192
-9.062657 -3.073630 0.474717 88 76 62
-5.851766 -6.613135 -0.191492 62 72 82
-7.091728 -5.711162 0.426924 73 70 63
-6.314089 -3.719667 -0.449079 77 85 96
-4.702941 -3.349045 -0.331027 68 76 79
-5.478707 -3.247983 -0.444266 61 70 79
-6.168397 -2.107723 0.175720 116 108 69
-8.893029 -1.622029 -0.363424 185 205 204
-4.237296 -4.259326 -0.230915 210 225 228
-6.562487 -4.058315 0.314131 123 113 86
-6.224629 -3.793225 -0.422916 60 70 80
-7.165565 -1.248657 0.060063 199 188 170
-4.609725 -2.596180 -0.172905 10 11 15
-10.105670 -2.079537 -0.035821 61 66 69
-7.927823 -3.643645 0.351077 100 98 99
-4.717708 -4.950428 -0.077161 66 46 45
-5.965072 -3.676374 -0.426426 73 87 96
-6.093127 -3.624077 -0.448023 61 74 83
-3.724995 -3.465680 -0.273807 205 220 225
-6.737412 -0.956763 0.062976 87 80 70
-5.424401 -3.370748 -0.451325 55 64 73
-10.010469 -2.580381 0.468838 196 193 188
-3.937722 -3.496569 -0.310364 201 218 225
-5.804024 -3.337463 -0.458533 61 71 80
-5.488418 -2.326500 0.062901 166 164 151
-6.534407 -0.463625 0.056393 204 197 187
-6.444993 -2.320541 0.184973 137 128 89
-6.193305 -3.513359 -0.453468 71 75 86
-11.332387 -1.737007 0.661641 58 53 50
-6.131498 -5.875110 -0.167778 5 5 5
-6.484751 -4.717363 0.341245 86 78 55
-4.713910 -4.945921 0.102013 28 24 23
-5.544820 -3.219413 -0.461686 67 71 80
-6.136912 -3.643656 -0.448246 64 77 85
-6.006256 -3.584236 -0.450411 71 79 90
-10.011735 -1.239226 -0.030595 180 192 192
-6.164877 -3.923667 -0.403356 69 83 92
-6.357827 -6.264913 0.444937 30 18 6
-6.775417 -0.120107 0.175340 71 72 76
-9.389076 -3.027329 0.471651 95 87 74
-7.639987 -4.566851 0.252587 173 164 147
-4.958858 -6.270486 -0.183717 39 58 62
-8.852264 -1.290139 -0.329555 37 41 44
-10.125594 -1.593234 -0.043366 130 144 144
-8.758140 -3.063375 0.474626 107 100 90
-6.601804 -1.885139 0.156731 224 218 202
-6.146281 -3.965445 -0.402301 59 67 80
-4.188815 -4.178329 -0.247978 239 252 255
-9.148629 -2.644500 0.423461 230 226 217
-8.142924 -3.614131 0.409417 81 83 82
-9.136171 -3.643619 0.439707 116 118 117
-6.047833 -3.552414 -0.453557 62 72 81
-5.489378 -3.307033 -0.428387 50 61 67
-5.848357 -5.311330 0.071454 7 12 6
-5.052451 -6.056476 -0.212113 41 62 67
-6.050912 -3.604560 -0.449807 60 70 80
-10.229991 -1.945477 0.032937 151 152 156
-3.787766 -3.810497 -0.265643 205 220 227
-4.165608 -3.758590 -0.298999 54 62 65
-7.503875 -4.602207 0.294005 181 168 152
-9.685161 -2.514635 0.404987 54 64 40
-6.304864 -5.630967 0.418866 155 149 127
-5.778234 -3.857891 -0.394158 50 59 64
-6.322673 -3.574195 -0.452714 71 81 93
-7.516691 0.438615 0.122616 195 205 215
-6.621925 -4.283237 0.317355 93 82 54
-4.048981 -3.118862 -0.320540 215 227 227
-8.251625 -1.981105 -0.536821 166 175 172
-6.228636 -3.975701 -0.406765 178 195 203
-8.786062 -1.829889 -0.267136 210 212 211
-8.775676 -1.096689 -0.318613 68 79 75
-8.710558 -3.169975 0.477639 97 96 92
-7.594665 -1.411118 -0.673956 217 231 234
-7.607292 -4.553610 0.250141 224 224 216
-10.279865 -1.593880 -0.017752 65 64 69
-9.213876 -3.724960 0.399805 116 117 119
-10.373794 -1.694920 0.021679 165 174 173
-6.848042 -3.525373 0.288680 129 125 122
-7.253240 -1.904446 0.117684 68 66 45
-7.621403 -1.390932 -0.675110 72 81 90
-7.810154 -4.118083 0.232103 42 41 36
-8.876390 -3.368892 0.490156 221 214 204
-5.410351 -4.576927 0.259560 43 49 21
-8.107335 -3.062228 0.407636 201 192 183
-7.389509 -1.707921 -0.646289 187 195 198
-4.668289 -3.136113 -0.331375 200 212 212
-5.970569 -6.124832 -0.214480 26 41 44
-5.629142 -3.065233 -0.066320 8 11 16
-8.758127 0.623088 0.271778 86 81 75
-11.048013 -2.091607 0.664078 61 58 53
-8.949943 0.389581 0.316950 76 66 56
-7.938004 -2.840686 0.337185 166 158 139
-9.949950 -2.774308 0.531308 190 186 175
-6.433460 -4.892125 0.359893 100 86 57
-7.675188 -1.385099 -0.679381 43 52 59
-6.630850 -4.943157 0.385863 81 73 54
-8.477520 -1.170426 -0.322848 224 225 220
-8.614152 0.049721 0.307098 163 141 120
-4.615117 -4.865212 0.080597 3 12 11
-8.028275 -1.844824 -0.527579 81 86 82
-6.243792 -4.814110 0.348253 60 56 27
-8.269796 -3.624034 0.407902 15 16 20
-8.463465 -3.579709 0.469567 95 95 97
-6.301352 -3.888770 -0.405333 163 179 179
-4.682950 -4.360045 0.200647 37 9 6
-6.646551 -5.962676 0.440688 84 81 64
-8.906610 0.184746 0.301563 91 79 65
-8.762555 -1.523223 -0.384322 58 73 78
-9.547979 -3.158790 0.479088 138 125 109
-8.808546 -1.518233 -0.382724 74 83 88
-5.963721 -5.163429 0.072983 57 64 46
-8.612711 -1.529771 -0.388997 68 79 81
-6.124857 -5.870005 -0.336880 38 40 35
-8.608157 -1.473358 -0.390344 61 71 73
-8.759085 -1.465612 -0.381980 66 84 88
-9.139021 -0.834554 -0.319452 150 159 154
-7.632331 -4.522549 0.248689 167 156 138
-5.202642 -3.300597 -0.416612 127 141 142
-5.359379 -7.589278 0.599286 67 95 119
-8.799597 -1.465335 -0.393992 71 80 87
-6.241206 -4.780659 0.344534 120 115 86
-7.786567 -1.401916 -0.576317 161 172 174
-5.805734 -4.191595 0.211897 216 208 197
-11.208223 -1.389987 0.695309 172 171 166
-7.832871 -1.142406 -0.584308 108 113 106
-6.188067 -3.408699 -0.369838 51 52 47
-6.595234 -4.628883 0.348624 83 71 45
-6.269967 -5.502121 0.412349 66 63 32
-10.794311 -2.514973 0.670676 33 26 18
-7.622261 -2.795804 0.327156 46 31 12
-6.741900 -5.161549 0.141610 16 22 12
-6.668539 -5.546941 0.399365 89 91 70
-4.744575 -4.934457 0.113943 111 113 108
-6.559182 -4.995161 0.386377 75 68 39
-6.299661 -5.594869 0.416733 79 77 54
-6.841916 -4.495169 0.346261 70 63 47
-6.332488 -5.938354 0.431352 193 183 173
-7.515076 -4.652085 0.308899 174 165 148
-7.324443 -4.355981 0.297046 211 207 195
-4.673060 -5.796090 -0.158444 14 16 15
-5.672189 -3.052578 -0.391545 33 24 27
-3.792419 -5.027323 0.059154 38 37 33
-3.896887 -4.021907 -0.234952 171 190 197
-3.800468 -5.325513 -0.129540 176 187 191
-6.019858 -3.184282 -0.401928 242 244 243
-3.216915 -6.521833 -0.074438 188 208 215
-4.588385 -5.051854 -0.043473 179 191 191
-6.215124 -1.312530 0.044760 41 50 21
-4.979735 -5.857598 -0.170856 204 219 224
-4.724656 -3.673823 -0.382915 54 50 41
-2.097389 -4.818330 0.158151 172 164 151
-4.616834 -4.780899 0.137059 71 50 49
-3.729322 -4.727234 0.084525 102 112 114
-5.961384 -1.862096 0.158288 123 118 78
-5.738147 -2.723833 -0.246158 98 98 86
-4.070727 -5.216065 0.001798 9 8 6
-4.674055 -3.189610 -0.337919 201 206 210
-6.503855 -4.831629 0.376971 117 105 81
-4.533974 -3.985887 -0.218941 57 56 38
-4.122742 -5.420584 -0.121737 138 159 164
-3.942709 -3.400320 -0.310160 145 165 174
-7.802091 -2.744688 0.319366 75 68 40
-5.041545 -3.822197 -0.225866 70 73 54
-5.738937 -0.886442 0.071190 85 88 77
-7.009609 -2.428116 0.135937 218 215 206
-5.583178 -4.284690 0.257793 66 81 42
-4.978409 -2.161131 -0.217707 55 60 53
-3.794717 -4.938497 0.139989 22 24 21
-3.129390 -6.274158 0.062481 16 15 13
-3.664878 -4.525536 -0.069060 188 192 195
-6.036697 -5.339021 0.357065 34 32 20
-6.251631 -4.567489 0.343873 87 98 66
-6.416836 -1.417804 0.152625 188 188 188
-4.108302 -3.252135 -0.310059 132 151 158
-4.248846 -3.736177 -0.297853 214 224 225
-5.369263 -1.255776 0.170669 84 86 64
-4.808118 -4.794189 0.167620 20 21 16
-7.640423 -3.402565 0.270355 200 190 180
-5.540721 -0.913843 -0.020485 226 222 213
-5.490327 -5.687964 0.115386 28 20 18
-5.639341 -5.674790 0.132771 167 177 187
-2.172328 -4.472433 0.128473 117 106 84
-4.414014 -4.752293 -0.279290 203 212 219
-3.260671 -7.466569 0.177454 209 224 227
-3.528863 -5.167324 -0.016592 70 69 51
-7.783556 -3.425618 0.276250 26 21 18
-2.297143 -4.991064 0.121389 15 25 0
-6.927099 -2.070264 0.148042 216 216 206
-4.292730 -3.632612 -0.290194 156 179 187
-7.821034 -4.067417 0.162663 15 13 16
-3.843244 -3.663436 -0.285418 138 159 164
-3.066012 -7.213330 0.234295 47 45 50
-2.450985 -4.794351 0.182364 27 35 20
-3.412259 -7.552858 0.193704 208 226 230
-4.638645 -4.988791 -0.030154 178 195 205
-5.385927 -3.374487 -0.427505 75 88 105
-5.320724 -5.470584 0.036295 23 28 21
-6.950493 -1.176902 0.107686 222 214 203
-6.775998 -0.963228 0.098026 68 61 55
-3.966564 -5.499192 -0.115118 69 82 88
-3.972271 -5.500713 -0.133181 42 59 67
-4.065594 -3.156147 -0.334614 222 230 232
-4.150038 -5.082695 0.010150 36 30 34
-4.495038 -5.421975 -0.037549 119 130 136
-7.720623 -4.575203 0.260268 218 212 198
-4.418288 -5.314272 0.000528 29 31 26
-8.701941 -2.967057 0.461307 127 122 116
-5.374500 -5.029909 0.289827 69 74 52
-3.274248 -4.741209 0.159877 10 17 23
-6.896221 -1.270306 0.109724 204 184 151
-5.448789 -3.288448 -0.421616 128 141 149
-4.139122 -5.566594 -0.152544 79 92 100
-4.558101 -2.647532 -0.362945 220 229 234
-4.730105 -6.713220 -0.101588 49 53 36
-4.679831 -4.628868 0.223101 88 92 59
-3.950689 -4.392190 -0.229713 228 238 240
-3.916916 -3.323217 -0.295944 177 188 192
-1.844069 -5.342046 0.243531 118 110 99
-2.844337 -6.074684 0.206368 196 210 221
-4.856598 -2.251411 -0.253534 181 177 176
-1.996989 -4.808399 0.151984 180 177 168
-5.618186 -4.040309 0.203059 116 120 70
-7.313550 -1.513260 0.084418 211 200 180
-1.367079 -5.533488 0.257213 9 12 5
-6.258749 -4.942505 0.353128 87 86 55
-4.720759 -2.674875 -0.224554 31 30 28
-7.298006 -1.415857 0.076474 214 206 195
-3.166567 -7.026752 0.068248 81 82 77
-4.171149 -4.474091 -0.207828 226 229 234
-6.281995 -4.427440 0.326566 205 206 198
-1.755113 -5.307937 0.232012 199 190 181
-4.357597 -5.116484 -0.080360 31 30 35
-3.734608 -4.118180 -0.312876 143 162 168
-3.731722 -4.114582 -0.312945 168 186 198
-4.487015 -3.512610 -0.325525 159 179 188
-4.394454 -5.029905 -0.118612 37 35 36
-4.284547 -5.278145 -0.011450 0 4 8
-6.849628 -4.581616 0.335015 198 195 186
-5.427210 -4.143252 0.210894 81 89 50
-6.802374 -1.062451 0.109601 227 220 212
-3.085948 -4.843599 0.155510 154 149 143
-3.495082 -6.189730 -0.087874 161 179 189
-2.347885 -5.784482 0.231561 17 28 30
-2.374189 -4.766092 0.161697 163 152 130
-7.651442 -2.200770 -0.418299 190 195 191
-2.643851 -4.664948 0.156807 158 150 148
-3.972446 -4.915128 0.037514 196 195 193
-1.786200 -5.038326 0.218267 181 172 165
-1.790578 -5.037902 0.211964 181 172 165
-5.994778 -1.347293 0.133417 85 87 48
-3.119098 -5.905984 0.228335 63 59 58
-2.592127 -4.664795 0.139840 64 63 68
-8.077345 -2.911806 0.338652 73 61 49
-3.670019 -3.429363 -0.284512 187 196 205
-3.846889 -4.219386 -0.264657 217 226 231
-3.625106 -3.494720 -0.292336 203 208 212
-3.160072 -4.645936 0.142817 90 94 93
-8.675529 -2.878440 0.455488 220 220 208
-3.731221 -4.658417 -0.058353 121 128 136
-5.940842 -3.703022 -0.419333 220 236 249
-2.900118 -6.093215 0.214029 21 25 34
-5.387488 -3.450040 -0.415433 209 216 226
-3.765839 -3.594818 -0.278543 173 184 188
-1.919324 -5.186281 0.232115 162 161 143
-7.863208 -2.809602 0.324154 59 54 32
-4.530339 -7.078031 -0.067276 37 41 24
-3.055899 -6.166447 0.184122 163 173 183
-5.829929 -4.298995 0.258969 50 48 33
-7.151084 -1.865833 0.147816 214 205 190
-9.056599 -2.610677 0.399940 226 222 213
-7.188986 -2.836574 0.196289 212 199 190
-4.659920 -5.694455 -0.049917 89 89 87
-5.248411 1.247711 -0.057093 74 82 61
-5.743881 -5.970432 -0.165414 200 209 208
-6.321394 -1.427036 0.027564 56 59 40
-7.768791 -4.336355 0.220798 39 39 31
-7.691255 -2.985072 0.248621 79 72 62
-5.890477 -5.902777 -0.216772 203 205 202
-7.295121 -1.333659 0.069011 217 206 188
-4.012147 -3.307542 -0.306105 205 218 226
-3.478061 -5.463303 0.005230 132 93 88
-8.129279 -3.347660 0.359228 19 20 22
-6.233608 -3.832277 -0.414583 231 240 245
-4.927297 -6.121003 -0.187277 202 212 222
-7.276688 -3.055762 0.214595 49 47 35
-7.437431 -4.824725 0.343134 102 91 85
-6.095794 -0.978971 0.112741 101 92 85
-7.082573 1.619826 0.150038 23 26 19
-8.440876 -2.983433 0.460781 134 126 115
-3.928024 -3.019631 -0.310650 164 179 184
-3.867685 -4.869698 0.124600 185 180 177
-3.619696 -4.949415 0.104943 26 38 18
-1.842863 -4.657935 0.205434 82 71 53
-3.441005 -4.760215 0.109483 17 26 31
-3.813597 -3.798412 -0.314688 144 157 165
-3.728574 -4.990685 0.136466 39 41 40
-1.435137 -5.451751 0.260731 42 38 29
-5.453756 -3.179048 -0.462120 75 82 90
-6.608889 -0.677522 0.084357 223 219 208
-1.866500 -4.597040 0.207545 179 156 140
-3.086299 -6.083001 0.218526 192 199 207
-5.962987 -5.890704 -0.214167 86 95 90
-5.697972 -3.855552 -0.387516 174 183 188
-1.381230 -5.431537 0.260153 61 55 43
-5.309246 -3.680635 -0.390922 176 185 192
-7.315436 -1.846195 0.100444 195 183 171
-1.798638 -5.410218 0.245763 181 182 164
-1.908428 -5.515376 0.257946 42 40 28
-3.671403 -4.260146 -0.235401 148 163 168
-4.189501 -4.517984 -0.199291 89 85 86
-1.619382 -5.416627 0.254514 178 169 160
-7.587170 -4.172796 0.250223 221 220 215
-5.126213 -3.510620 -0.387853 132 158 175
-5.627990 -4.260122 0.243735 98 107 62
-2.528837 -4.169143 0.099284 49 48 53
-3.980603 -4.852124 0.059687 24 23 18
-5.357647 -3.398217 -0.429262 62 71 88
-9.454480 -2.850321 0.475470 210 206 197
-2.541285 -4.828630 0.173767 192 206 215
-2.326559 -5.841818 0.213481 240 241 245
-2.106239 -4.761441 0.140554 105 96 81
-2.080176 -5.234496 0.226857 57 54 37
-4.010335 -5.055418 0.024094 179 174 168
-1.712085 -5.401709 0.230604 148 146 134
-6.295003 -1.814988 0.142510 85 88 57
-5.777517 -4.321933 0.274687 87 85 62
-2.873355 -6.009960 0.215161 33 42 51
-2.397106 -4.207830 0.122747 133 131 108
-2.561938 -4.401458 0.112265 121 107 98
-3.462114 -3.158510 0.028315 186 186 184
-5.664612 -4.641724 0.285273 73 77 54
-3.372386 -3.144048 0.023192 93 93 95
-8.290437 -2.887088 0.402253 61 59 46
-3.973213 -4.482080 -0.217388 76 94 98
-9.185978 -2.613829 0.418043 82 71 67
-5.916714 -3.315610 -0.430173 209 218 225
-8.686588 -2.807910 0.452042 61 54 44
-2.225982 -4.822368 0.150436 47 50 31
-3.249616 -7.389487 0.242667 159 163 172
-2.597986 -5.071953 0.204099 179 170 163
-5.045576 -4.612078 0.236857 52 69 27
-5.380544 -2.805008 -0.221302 128 133 129
-3.086289 -6.045379 0.239750 9 16 24
-3.077638 -6.122310 0.202496 46 53 59
-2.028565 -5.241977 0.217524 180 172 161
-7.831187 -3.655717 0.353184 105 104 102
-2.531997 -5.047511 0.206851 38 35 20
-3.219976 -3.314294 0.017188 47 48 50
-6.247606 -3.518140 -0.444124 61 70 79
-5.256511 -3.617380 -0.394037 63 76 85
-3.129822 -5.968251 0.236767 155 146 147
-6.691083 -2.006339 0.171100 99 93 81
-6.690148 -2.007227 0.165803 99 93 81
-6.272884 -3.473968 -0.431455 140 150 152
-3.313672 -6.748869 -0.025766 178 197 204
-3.499628 -7.515326 0.196539 10 18 21
-3.789324 -7.418936 0.128489 176 181 185
-3.689368 -7.636301 0.158740 224 229 235
-3.660481 -7.496311 0.166522 19 26 32
-1.802796 -4.959026 0.212651 67 57 47
-7.202554 -3.362912 0.255842 75 69 53
-4.543228 -2.192558 -0.090358 194 189 186
-5.853462 -3.221325 -0.410996 238 239 244
-6.995417 -4.680887 0.353904 62 58 47
-7.036648 -1.681881 0.137582 228 216 204
-4.479892 -2.135004 -0.138520 218 233 228
-5.256249 -4.403554 0.229457 72 78 42
-2.608882 -4.290212 0.128549 198 208 217
-2.374238 -5.182325 0.169128 33 29 28
-3.484106 -3.217201 0.014156 194 190 187
-2.551209 -4.870215 0.146962 44 60 73
-2.561897 -4.792744 0.182800 25 25 25
-2.604643 -4.332395 0.115540 36 45 54
-8.595788 -2.573474 0.424323 86 73 67
-1.845057 -5.164873 0.214956 184 177 167
-3.552648 -3.006053 0.033047 44 53 62
-4.115582 -5.598269 -0.194109 184 197 203
-8.660244 -2.945281 0.458319 123 120 113
-2.095488 -4.837243 0.154178 195 185 173
-4.460299 -5.040187 -0.051335 160 161 165
-8.259713 -3.112051 0.427657 109 111 106
-3.491553 -3.775622 -0.271237 230 231 236
-3.444490 -3.200919 0.024699 73 73 75
-6.103690 -1.337110 0.128599 40 38 17
-6.870167 -3.061825 0.237561 221 214 206
-4.483851 -5.278627 0.009905 131 136 142
-4.480915 -5.279286 0.020667 131 136 142
-4.463230 -2.714830 -0.351355 201 218 228
-1.586890 -5.454809 0.268898 37 30 20
-6.315185 -4.794238 0.349516 128 118 91
-7.702495 -2.644239 0.320346 171 135 113
-9.204979 -2.487200 0.413231 51 36 33
-2.955179 -6.116430 0.169771 62 69 75
-6.583753 -0.769199 0.087633 220 221 213
-2.478958 -4.668002 0.152883 75 80 83
-9.169360 -3.345517 0.474012 214 201 184
-6.962392 -3.773051 0.291888 217 207 195
-6.646133 -2.014325 0.173514 232 222 210
-7.261676 -4.183323 0.308558 183 183 175
-1.575891 -5.757437 0.241774 79 80 75
-6.475774 -4.595795 0.338941 138 123 100
-1.669112 -5.333060 0.246341 186 179 169
-6.513165 -1.927082 0.157886 125 118 89
-5.512374 -3.181921 -0.433691 57 65 84
-3.579482 -3.868031 -0.260077 235 243 245
-3.611476 -4.195012 -0.232437 234 242 245
-5.612948 -5.235390 0.051281 7 13 1
-2.006340 -5.050773 0.226083 189 181 168
-3.789010 -3.326612 -0.280555 237 246 253
-5.877253 -3.638772 -0.429253 56 69 78
-8.701052 -3.088135 0.467060 109 106 99
-1.732349 -5.574748 0.273440 45 41 30
-7.258113 -1.483592 0.065235 184 171 152
-3.558654 -3.067966 0.018725 99 109 119
-6.758940 -2.886478 0.222091 215 211 202
-3.670420 -4.842326 0.122496 56 55 53
-4.664185 -2.046910 -0.083382 56 47 48
-5.715019 -4.398056 0.277542 114 110 85
-3.272828 -7.386328 0.280134 88 93 99
-4.862567 -6.470707 -0.237186 18 26 13
-4.885327 -4.735050 0.243330 88 91 64
-5.486341 -3.463917 -0.433926 61 74 90
-2.148390 -4.904680 0.171060 95 85 73
-7.131841 -1.749884 0.127201 209 201 188
-4.019196 -3.105602 -0.316990 215 224 223
-7.557220 -4.781111 0.296555 199 185 176
-6.094606 -3.735217 -0.427777 63 73 82
-4.103527 -2.697527 -0.337727 231 242 246
-4.524979 -3.704297 -0.282276 67 76 85
-1.448606 -5.309544 0.247187 130 124 110
-5.585562 -4.232952 0.244047 54 64 29
-5.584822 -4.233101 0.242268 54 64 29
-2.705362 -4.690024 0.172607 160 153 145
-5.342926 -3.552300 -0.417113 53 69 85
-5.344129 -3.550933 -0.411412 57 65 76
-6.435762 -5.087986 0.381007 90 78 54
-6.462997 -2.533008 0.214394 93 88 59
-1.653190 -5.197504 0.235205 138 134 122
-8.842304 -2.866537 0.459953 227 223 211
-1.687984 -5.460473 0.259374 152 143 134
-8.882448 -2.827764 0.457541 208 201 191
-3.057455 -6.012199 0.242622 146 146 146
-4.135721 -2.687718 -0.339212 166 181 184
-2.008116 -5.389435 0.200331 63 63 53
-6.050271 -3.715558 -0.427275 52 68 84
-3.437834 -5.809008 -0.128804 228 237 246
-5.864191 -3.897091 -0.391772 73 82 87
-2.169210 -4.723370 0.141704 175 168 152
-2.741989 -4.694161 0.172319 191 184 178
-5.324559 -3.593145 -0.407157 55 68 85
-5.324222 -3.592582 -0.406667 61 70 79
-6.136495 -3.754666 -0.428554 57 70 89
-6.309323 -0.465203 0.061359 235 228 220
-8.316309 -3.018319 0.412127 215 208 200
-3.374016 -4.701607 0.134978 56 58 57
-6.304708 -5.630712 0.417499 155 149 127
-6.328403 -0.264083 0.063154 92 77 56
-4.151211 -5.672201 -0.197611 145 162 172
-4.088879 -2.669163 -0.338610 168 179 183
-4.797785 -6.062824 -0.203563 197 200 205
-4.050197 -3.271194 -0.330101 200 215 222
-5.466720 -3.391545 -0.443772 63 69 81
-4.093665 -5.266425 -0.059200 21 13 10
-6.035289 -3.865292 -0.404673 61 71 83
-6.182008 -3.773276 -0.422708 50 62 84
-2.048767 -5.052728 0.217895 91 89 77
-6.007567 -3.696380 -0.427162 70 86 99
-4.028998 -4.502116 -0.213241 88 103 106
-3.147815 -4.600803 0.139356 80 84 87
-7.324723 -1.608292 0.073863 221 209 195
-3.666737 -7.437894 0.180502 217 218 222
-3.640870 -7.414129 0.135940 85 84 89
-5.101672 -4.901831 0.259451 49 53 30
-7.633074 -4.274996 0.283741 227 220 202
-1.931721 -4.974244 0.211552 67 69 48
-5.829895 -2.122783 0.106002 218 205 186
-5.286306 -3.054568 -0.438529 166 181 188
-2.615041 -4.861797 0.186060 181 176 170
-3.523452 -4.259284 -0.256833 161 178 188
-3.404358 -3.292586 0.024959 89 87 88
-6.444060 -3.634375 -0.399606 153 167 170
-3.888621 -4.444618 -0.224177 99 111 111
-2.139676 -5.097011 0.219597 64 59 39
-3.336911 -4.085019 -0.270452 222 222 222
-5.788658 -4.156909 0.215347 80 64 51
-3.730082 -7.485007 0.138176 73 76 83
-7.935859 -2.986027 0.341829 208 204 195
-3.725131 -7.634396 0.135452 66 63 70
-3.111704 -6.537555 -0.072499 205 214 223
-5.604637 -4.125223 0.226221 104 119 64
-1.698910 -5.250710 0.241165 53 49 40
-7.166296 -1.243869 0.064908 199 188 170
-5.670914 -3.924184 0.185395 66 77 43
-5.277766 -3.067532 -0.397375 162 172 181
-2.012300 -5.201994 0.218078 78 70 59
-4.708697 -3.124369 -0.327716 137 147 148
-7.391413 -4.550225 0.327072 191 180 162
-5.042204 -5.944683 -0.230933 110 117 123
-7.335370 -1.304315 0.072039 124 123 105
-6.295718 -4.655512 0.342333 131 122 91
-1.308567 -5.513669 0.262982 18 19 14
-3.630869 -4.312320 -0.230472 173 187 196
-1.701140 -5.128337 0.227388 195 189 177
-5.323914 -3.103664 -0.407182 193 207 216
-8.375998 -2.750158 0.394862 217 210 204
-3.972931 -5.053771 0.011629 36 27 18
-3.199540 -4.412734 0.113860 72 72 82
-6.367701 -5.395247 0.392684 99 98 68
-3.136293 -4.849486 0.163930 129 124 121
-5.523442 -4.284832 0.240683 66 71 39
-3.994592 -4.168430 -0.306524 105 114 119
-3.642815 -3.784831 -0.240893 192 200 203
-7.990086 -3.157693 0.362794 79 70 65
-2.103853 -4.500491 0.145406 220 206 180
-6.108357 -2.067436 0.170203 82 88 52
-3.466930 -3.327137 0.018606 178 173 169
-4.813679 -6.085593 -0.231895 164 174 176
-4.649551 -4.420783 0.212270 69 69 43
-7.711303 -4.119626 0.280662 106 103 98
-4.519826 -5.296516 0.019429 78 84 96
-8.432032 -3.147942 0.401691 36 31 28
-1.984729 -5.265716 0.228309 72 62 52
-7.381076 -3.142680 0.235647 151 143 132
-1.961959 -4.798702 0.154714 206 198 185
-6.863736 -1.666850 0.484755 223 217 203
-7.323890 -4.358223 0.295936 211 207 195
-7.141368 0.338258 0.166846 166 165 160
-7.029921 -3.178106 0.138789 213 213 201
-9.690607 0.582650 0.401427 201 170 124
-5.780882 -0.709647 0.107635 45 53 32
-6.554369 -0.241850 0.107371 57 61 44
-9.339458 1.273540 0.408951 184 156 116
-7.367992 -2.647479 -0.012963 56 53 36
-7.922279 0.372874 0.078888 10 12 9
-9.228926 0.719024 0.479055 71 82 48
-10.497608 0.875995 0.484815 54 65 35
-6.314710 -4.060804 -0.224261 165 185 194
-7.442383 0.954425 0.113158 40 50 25
-8.989447 -2.024050 -0.256448 155 143 127
-5.223750 -1.307611 0.134327 80 72 53
-10.651566 -0.721276 0.183773 209 206 199
-11.536576 0.207290 0.556254 27 30 21
-10.307694 1.612438 0.494155 50 59 40
-4.531184 -2.368974 -0.192916 16 16 14
-8.061025 -0.996934 -0.663621 178 178 176
-8.057693 -0.099268 0.264085 46 40 26
-8.095222 -1.760995 -0.606106 229 235 231
-7.799307 -1.260500 -0.597523 162 167 161
-5.515230 -3.348128 -0.402676 30 45 50
-5.432481 -2.367975 0.038813 57 58 42
-6.552393 -2.266411 0.207886 111 111 75
-9.652093 1.242647 0.273748 9 16 8
-9.305577 0.091425 0.339423 100 82 60
-7.293134 -3.199400 0.218559 210 207 198
-7.642795 -2.361870 -0.434302 130 116 107
-8.295240 -0.298207 0.221464 196 180 155
-7.045656 -3.736743 0.238885 212 208 197
-9.355615 -0.150349 0.320362 232 225 207
-5.331057 -3.155047 -0.382925 188 206 208
-4.880205 -2.341317 -0.239802 163 166 159
-4.694589 -2.870472 -0.387823 137 156 163
-9.565771 -0.562954 -0.091165 196 208 204
-6.586234 -1.011356 0.108811 220 220 210
-10.951818 -0.240973 0.562060 211 211 201
-10.448377 0.231293 0.556122 105 99 87
-9.246048 2.060952 0.358363 23 24 16
-10.085791 -1.757938 -0.085696 95 104 103
-6.246397 -0.153100 0.031984 60 63 44
-4.638588 -3.149440 -0.351846 194 206 206
-10.746333 0.756729 0.393102 222 222 212
-11.030600 1.618767 0.554559 227 227 215
-7.672005 -3.539398 0.289558 204 196 183
-10.397265 0.019579 0.549987 216 214 202
-11.366034 0.709859 0.461014 73 63 51
-5.989568 -0.405138 0.068987 231 228 219
-9.407710 0.402834 0.397082 221 196 156
-9.788515 0.958618 0.349582 59 68 47
-10.634478 0.960076 0.429836 55 63 42
-6.160269 -0.291161 0.090848 216 212 201
-7.700893 -1.664245 -0.565387 103 108 101
-11.315152 1.180353 0.415860 27 27 17
-10.579058 1.243935 0.580152 225 227 222
-8.104049 -3.411318 0.301546 62 56 60
-7.186214 -2.095215 0.111771 218 206 194
-5.736570 -0.699391 0.085536 39 49 22
-9.835136 2.304348 0.424383 63 79 43
-7.825664 -4.059587 0.215035 37 37 35
-11.427648 0.917643 0.571169 33 33 25
-4.628220 -2.703130 -0.361393 55 45 46
-7.740512 1.016627 0.170954 153 141 129
-10.384386 1.049209 0.473997 50 52 41
-12.028888 -0.016251 0.637679 171 163 142
-5.436305 -1.769591 0.137540 58 55 46
-5.364607 -4.595849 0.193267 20 23 14
-11.389984 -0.966148 0.588837 70 66 55
-7.805509 -3.453632 0.219601 31 20 24
-11.360565 0.579288 0.576858 206 206 196
-8.107298 -1.848781 -0.573869 97 106 103
-6.757312 -0.359509 0.062719 15 16 10
-5.994406 -0.241525 0.068413 179 174 168
-9.168127 -1.822714 -0.310758 204 218 205
-9.166454 -1.823186 -0.318786 209 214 207
-9.236896 0.835596 0.323109 23 18 22
-11.258730 1.346625 0.555223 218 220 215
-9.219241 -1.171977 -0.410437 163 173 165
-9.265853 -1.376425 -0.325904 126 138 138
-5.330599 -1.681185 0.139455 96 97 89
-8.339410 -1.660195 -0.480197 206 215 212
-9.054467 -2.881463 0.438671 169 165 154
-6.918891 -0.326906 0.214398 68 72 57
-8.471780 2.638450 0.423632 166 120 84
-11.413543 1.053936 0.275957 59 65 39
-11.542437 -0.871441 0.468925 36 39 30
-6.943474 -2.073610 0.144546 220 220 210
-7.690788 0.446445 0.001576 126 128 117
-6.208838 -2.199278 0.193123 113 107 71
-9.746019 -1.333138 -0.022872 158 159 153
-11.450065 -0.844834 0.524692 156 146 136
-7.687588 0.625247 0.170908 14 19 12
-6.551291 -3.581080 -0.352359 70 79 84
-4.093730 -2.284164 -0.074786 26 24 25
-11.482874 -1.203145 0.637120 45 46 32
-10.503566 1.400610 0.491924 208 210 209
-8.951869 2.305379 0.361092 208 172 120
-9.155222 -0.894376 -0.341968 51 57 53
-6.957597 -0.331243 0.091099 16 19 12
-11.976096 0.441162 0.369643 81 82 74
-8.045912 1.730813 0.218324 64 67 74
-8.893276 -0.990389 -0.303435 132 138 134
-9.821437 2.749675 0.468685 104 115 59
-11.271916 0.989739 0.527395 221 221 213
-8.410190 -3.567055 0.454172 86 90 89
-10.267439 -0.786050 -0.062987 62 71 68
-5.312034 -1.959543 -0.076638 22 28 18
-8.195114 0.388880 0.169432 36 45 26
-6.688382 -2.321073 0.190079 223 223 215
-9.711012 -1.463729 -0.017837 36 41 44
-7.836993 -1.840093 -0.564851 176 181 177
-8.366383 -1.999078 -0.586225 199 204 200
-11.398510 0.295270 0.510714 40 42 29
-8.099126 -1.956192 -0.562091 73 81 83
-8.846067 2.302529 0.406837 174 129 90
-11.562329 -0.362728 0.614547 51 55 38
-9.182597 2.104263 0.337636 53 49 48
-11.107867 0.398234 0.508340 218 220 215
-8.218488 -3.559846 0.402762 80 82 79
-10.092463 -0.816294 -0.069684 43 55 55
-7.140146 -3.768289 0.218581 215 212 203
-8.000853 -4.117689 0.058169 108 113 109
-9.610870 -1.479174 0.002385 143 144 138
-9.486346 1.912601 0.359356 50 62 42
-8.240970 -3.640871 0.377842 62 63 67
-8.419871 -3.440596 0.429831 25 26 21
-8.928502 -0.061025 0.269474 45 38 30
-10.481850 1.694132 0.468454 204 204 204
-6.724443 -3.165763 0.243576 87 78 73
-8.284068 -1.990643 -0.565983 196 202 198
-7.615946 -3.666862 0.305340 202 193 188
-9.170968 -0.899920 -0.376832 33 34 39
-6.030874 -2.872590 0.247413 20 17 12
-9.150298 -0.120869 0.252003 226 222 213
-5.491992 -2.719265 -0.321792 49 55 51
-7.016587 0.761617 0.120903 164 160 151
-6.561661 -2.520035 0.196443 128 116 104
-9.163648 1.444847 0.388968 213 190 148
-5.965338 -2.904132 0.180052 64 61 52
-6.496965 -0.342921 0.011947 36 38 25
-6.156910 -1.612086 0.129047 128 121 79
-10.370367 0.141295 0.538467 103 100 83
-7.867762 2.061366 0.258022 204 185 155
-7.115702 -2.147789 0.120330 211 202 185
-10.460849 2.256107 0.520570 229 231 228
-7.819492 -1.588617 -0.539798 206 212 208
-7.140028 -3.639922 0.336921 208 205 196
-9.792689 1.672260 0.372646 27 39 15
-7.044140 -1.922009 0.137953 215 206 191
-5.041392 -2.350759 -0.095955 181 182 177
-6.252478 -1.861059 0.156463 91 92 60
-7.575672 -1.655208 -0.600318 220 229 226
-9.032747 -0.293090 0.274266 139 135 123
-11.346611 1.137906 0.512959 43 41 29
-8.553997 -2.916580 0.498127 219 215 203
-7.813347 0.887186 0.196422 48 46 23
-4.622081 -2.783907 -0.394759 166 185 189
-9.151181 -1.724951 -0.298408 25 28 33
-6.300087 -5.507898 0.384992 62 61 31
-11.202528 0.798577 0.407264 217 220 211
-10.790931 0.370472 0.432606 227 228 220
-9.195982 0.189907 0.415892 96 75 58
-7.524336 -1.297688 -0.667613 203 212 211
-6.481978 -2.148911 0.182983 79 81 44
-8.853930 1.496188 0.391089 20 31 37
-7.013925 -0.418209 0.046716 229 224 218
-10.343002 -1.897138 0.012391 180 192 190
-5.881501 -3.190532 -0.443526 221 230 235
-5.524556 -2.045901 0.023422 21 23 18
-8.966092 0.158413 0.290836 210 194 178
-10.006938 -1.256666 -0.019658 155 166 158
-11.486351 0.670642 0.557246 43 44 28
-4.165156 -2.204998 -0.098337 156 152 153
-3.995861 -2.389530 -0.067024 17 17 17
-6.410021 -2.803315 0.222366 49 50 32
-7.610886 0.578001 0.093746 39 42 33
-10.256694 -1.158723 -0.087518 214 220 216
-10.136889 0.863559 0.412329 35 52 20
-8.250079 -0.547826 0.304834 166 161 141
-9.288792 1.771826 0.385719 36 66 116
-9.952434 2.406931 0.421062 82 99 44
-11.511620 0.228708 0.407650 43 46 27
-4.404798 -2.226828 -0.149526 239 239 239
-6.685956 -5.093538 0.167542 29 35 23
-7.564950 -3.667435 0.270554 195 188 178
-5.459577 -1.822464 0.124116 23 20 13
-4.639678 -2.642502 -0.229485 39 39 39
-8.657000 0.141268 0.318430 202 176 149
-8.722318 2.510381 0.254903 88 96 55
-10.199504 2.059367 0.445835 104 108 73
-9.832284 -0.592445 -0.121487 184 195 189
-9.253472 -1.398486 -0.278739 163 174 170
-11.344051 -1.077348 0.611918 219 218 213
-5.214015 -1.780074 0.107707 151 143 130
-9.870087 2.464512 0.458830 211 215 192
-8.159880 -0.176807 0.282140 37 34 29
-10.279995 -1.310722 -0.045031 215 221 217
-7.346914 -3.823042 0.057375 223 219 208
-8.068925 1.606833 0.253808 73 51 63
-8.663496 -3.580051 0.464422 11 12 14
-9.686133 -0.908294 -0.060131 226 232 228
-7.623601 -1.434358 -0.669099 225 234 239
-4.779021 -3.280240 -0.132105 26 18 15
-9.319005 -1.777131 -0.322616 181 186 182
-8.481524 1.172920 0.110922 135 137 126
-10.504234 1.989006 0.558427 217 218 212
-5.548125 -2.082019 -0.072327 18 25 7
-7.594754 -1.286067 -0.674438 198 207 202
-11.117738 1.034918 0.524526 219 222 213
-5.034126 -1.261413 0.137598 199 198 196
-10.450073 -0.172479 0.548004 99 92 76
-10.523158 1.598256 0.518907 230 232 227
-5.226742 -2.717830 -0.198415 51 51 51
-9.944523 -0.658112 -0.125279 206 216 215
-8.646562 1.839818 0.382902 46 38 35
-8.576626 -0.116890 0.298683 41 34 26
-8.124803 -1.338513 -0.631911 33 43 44
-7.867009 1.300145 0.254452 201 194 176
-11.155553 -1.031133 0.594626 74 66 53
-9.221035 -0.968339 -0.428801 219 222 215
-11.900115 0.056819 0.489284 132 131 111
-7.714082 -3.504190 0.292022 198 192 176
-8.400390 0.266508 0.296085 213 199 164
-10.230714 -2.069070 0.007652 31 40 37
-8.819464 -3.119948 0.483877 205 201 189
-7.101809 -2.263765 0.125157 215 207 194
-6.840182 -0.375015 0.120172 19 20 14
-9.042604 2.464900 0.285871 138 117 96
-8.493283 -0.943760 -0.308070 82 88 86
-6.649399 -1.067904 0.102852 223 225 214
-6.201020 -3.172457 -0.446043 236 245 250
-7.653573 -1.844974 -0.518707 171 172 166
-10.047015 -1.013477 -0.061167 99 105 103
-5.801910 -4.806448 0.242210 11 11 9
-9.075045 -1.661907 -0.339137 190 194 195
-7.295184 -0.374101 0.110814 217 219 208
-11.553604 0.446577 0.541064 42 36 22
-5.053303 -2.279657 -0.102659 38 38 38
-8.306982 -1.736401 -0.440231 230 234 233
-6.553582 -3.583134 -0.149578 51 54 61
-10.414056 -1.375317 -0.036185 222 222 214
-10.408131 -1.473216 -0.022655 191 201 200
-8.146556 2.118725 0.315830 37 33 21
-8.085605 -3.491484 0.377106 15 10 14
-6.512973 0.081386 0.172733 43 39 28
-5.775554 -1.583581 0.136698 102 99 66
-6.471308 -2.532348 0.213649 93 88 59
-11.473909 -0.776329 0.356485 95 99 84
-8.772339 2.969998 0.293305 68 73 51
-8.252902 -2.069954 -0.534474 13 29 28
-8.098823 -1.433159 -0.618377 61 73 69
-8.983804 -0.933016 -0.345625 49 59 60
-11.179506 -0.313473 0.581219 30 30 20
-5.958069 -3.252275 -0.390883 229 234 237
-10.986073 -0.382319 0.571756 212 201 195
-6.460871 -3.273599 0.120715 28 26 27
-10.810017 -0.036326 0.467083 218 218 208
-11.177180 -0.312986 0.578903 30 30 20
-4.573325 -3.000543 -0.345774 30 44 45
-8.027681 -4.048319 0.075454 54 56 53
-6.701123 -0.329735 0.099695 48 62 39
-8.721476 -1.107511 -0.314692 67 72 68
-5.750881 -2.485207 0.115827 20 23 14
-7.356825 -3.313823 0.242240 207 207 195
-10.363385 -0.051453 0.553902 230 221 212
-5.486949 -2.508159 0.073797 17 19 18
-7.170457 -2.662091 0.194755 214 208 196
-5.267128 -2.095187 -0.118854 13 19 9
-9.621565 -2.558345 0.387969 177 189 189
-7.082602 -2.246590 0.182784 218 212 200
-11.208427 -0.534975 0.586178 42 32 23
-8.925151 2.394688 0.309604 37 37 37
-7.942201 -1.442598 -0.608900 81 87 83
-7.949242 -1.446242 -0.609613 81 87 83
-9.569225 -2.967095 0.453194 219 221 208
-11.152885 1.439801 0.537986 64 60 48
-9.284169 2.428709 0.266621 50 61 27
