ply
format ascii 1.0
element vertex 1196
property float x
property float y
property float z
property uchar red
property uchar green
property uchar blue
end_header
-0.998806  -3.30823   2.88834 255 255 255
 2.91748 -5.97472  3.44991 255 255 255
 0.67921 -2.14708  3.02634 255 255 255
-1.74018 -5.42378  3.11932 255 255 255
   2.59832 -0.0239243     3.2831 255 255 255
  1.40164 -0.801402   3.05588 255 255 255
 1.14562 0.633522  3.11484 255 255 255
-1.85539  1.01785  2.67176 255 255 255
 2.28659 0.368593  2.52814 255 255 255
 2.17677 0.607408  2.34314 255 255 255
-2.40556 -1.29947  2.61969 255 255 255
-2.35014 0.833722  2.57502 255 255 255
 -0.486117 -0.0440996    2.28259 255 255 255
-0.523899  0.793509    2.5092 255 255 255
-2.12283 0.731338  2.71638 255 255 255
-0.613729  0.943582   2.65374 255 255 255
0.647395 -1.08028  2.31494 255 255 255
    1.7987 -0.0820836    3.10418 255 255 255
0.352219  1.22575   2.4117 255 255 255
 2.66681 0.125863  3.28739 255 255 255
 0.486902 -0.120707   2.71751 255 255 255
  1.23747 -0.117664   2.89882 255 255 255
-2.20526 0.959643  2.66513 255 255 255
-0.205131   1.39842    2.6437 255 255 255
-2.24517   1.0121  2.20958 255 255 255
-0.544202 -0.280512   2.06854 255 255 255
 -2.03433 -0.884372   2.51416 255 255 255
 3.14041 -1.03545  2.99872 255 255 255
0.917816  1.34183  2.46683 255 255 255
1.07038 1.33595 2.54665 255 255 255
-0.744595  -1.01841   2.14057 255 255 255
-2.49537 -1.49942  2.68305 255 255 255
-0.320849    1.0898   2.62588 255 255 255
0.22117 1.01292 2.65805 255 255 255
   -1.592 -0.739106    2.2314 255 255 255
 1.57642 -1.71728  3.06833 255 255 255
 1.79666 -0.25779  3.09877 255 255 255
 1.24797 0.354816  2.74986 255 255 255
 -1.59426 -0.632077   2.29012 255 255 255
-0.544645   1.31968   2.70305 255 255 255
 -1.93198 -0.273784   2.26806 255 255 255
1.35946 1.49765  2.9232 255 255 255
 0.656563 -0.111139   2.79545 255 255 255
-1.18769 -1.38228  2.33553 255 255 255
-1.54313 -0.58996  2.49889 255 255 255
0.122032 0.361633  2.62831 255 255 255
-0.83479 -0.76551  2.37321 255 255 255
-2.37695 -1.21547  2.65241 255 255 255
 -1.23944 -0.782335   2.10557 255 255 255
0.628893  1.39823  2.69227 255 255 255
-0.516834   1.50576   2.58754 255 255 255
1.01946 0.65572 2.84653 255 255 255
  1.45155 -0.208626   2.90734 255 255 255
-1.93228 0.829457  2.69692 255 255 255
-0.223254  0.943563   2.54751 255 255 255
 -1.42174 -0.817065    2.1511 255 255 255
0.193802 0.754985  2.74702 255 255 255
  2.05282 -0.780392    3.0836 255 255 255
 2.67936 -1.18664  3.06593 255 255 255
 -1.22365 -0.942198   2.25139 255 255 255
 2.77739 -1.44619  3.05157 255 255 255
 1.07355 -0.33423  2.68743 255 255 255
 -1.00918 -0.423889   2.27271 255 255 255
-0.910422 -0.971246   2.31583 255 255 255
-1.24517    1.319  2.71905 255 255 255
 -2.01903 -0.247706   2.22295 255 255 255
1.20175 1.32777 2.86574 255 255 255
-1.0123 1.06405 2.50164 255 255 255
1.29725 0.18899 3.02286 255 255 255
-1.97414 -1.40129  2.79937 255 255 255
 -0.68413 -0.188773   2.07864 255 255 255
 -1.08495 -0.254039   2.34683 255 255 255
 -1.27878 -0.362059    2.3885 255 255 255
 -2.69675 -0.526507   2.65226 255 255 255
 -1.4015 -1.41243  2.36994 255 255 255
 -1.7422 0.405228  2.36455 255 255 255
 -2.60126 -0.645013   2.58403 255 255 255
-2.06562 -1.35738   2.8138 255 255 255
 2.16694 0.263246  3.05504 255 255 255
 -2.49533 -0.387068   2.40339 255 255 255
  -2.08047 -0.0269648    2.22475 255 255 255
  -1.3499 -0.857761   2.17837 255 255 255
1.25215  0.4172  3.0179 255 255 255
-2.10426 -1.52512   2.7891 255 255 255
 0.628815 -0.317899   2.82981 255 255 255
 -0.81626 -0.702963    2.4836 255 255 255
  1.07268 -0.852685   3.06583 255 255 255
-1.56606 0.528757  2.37615 255 255 255
 2.54822 0.684799  2.33664 255 255 255
-1.23692  1.22599  2.50312 255 255 255
 -1.0992 -1.15189  2.28582 255 255 255
-2.13967  0.66567  2.68708 255 255 255
-2.48354 -1.27607  2.65145 255 255 255
  -1.93013 -0.0974777    2.24542 255 255 255
-0.313182  0.941253   2.62363 255 255 255
0.196767  1.42721  2.44954 255 255 255
  1.19255 -0.552862   3.04256 255 255 255
 -1.9455 -1.47426  2.65037 255 255 255
-1.04706 -1.07818  2.28687 255 255 255
-1.97647  1.08856  2.71645 255 255 255
 -1.35685 -0.958329   2.20542 255 255 255
0.763996  1.27313  2.22882 255 255 255
  1.06018 -0.737219   3.06247 255 255 255
-0.711567   1.21374   2.73686 255 255 255
0.593436 -1.02864  2.28822 255 255 255
-1.25368 -1.13426  2.27654 255 255 255
0.179149   1.0183  2.32848 255 255 255
 -2.143 0.76455 2.61741 255 255 255
0.215453 0.933351  2.84597 255 255 255
 2.95566 0.251556  3.15531 255 255 255
-2.49027 0.834983  2.64451 255 255 255
0.802222  1.45898  2.72504 255 255 255
-2.05811 -0.37471   2.2828 255 255 255
1.89631 1.42454   2.381 255 255 255
1.30258 1.59478 3.15133 255 255 255
2.45263 1.47251 2.36762 255 255 255
  1.46629 -0.405407   3.08009 255 255 255
-1.75357 -1.31613  2.49398 255 255 255
  3.23441 -0.931514   3.05937 255 255 255
 -1.95899 0.0444911   2.28253 255 255 255
 -2.52183 -0.528486   2.53774 255 255 255
 0.597905 -0.205693   2.65496 255 255 255
0.316792   1.4451  2.65223 255 255 255
0.230845   1.2192  2.46066 255 255 255
-2.08151 0.877407   2.6726 255 255 255
2.51771 1.13444 2.40524 255 255 255
2.57839 1.01147  2.3898 255 255 255
-2.06478 0.606807  2.61995 255 255 255
-0.908512  -1.55325   2.69377 255 255 255
-1.08481  1.35345  2.10015 255 255 255
-2.14855 -1.00927  2.48246 255 255 255
-2.17364  1.07443  2.71545 255 255 255
  1.02249 -0.100021   2.76231 255 255 255
-0.420918   1.24547   2.68243 255 255 255
-2.29662  1.03575  2.64688 255 255 255
1.39023 1.60196 2.79965 255 255 255
-1.66713 -1.40988  2.49567 255 255 255
-2.20918  1.08303  2.67586 255 255 255
-1.98279 0.651487  2.65694 255 255 255
0.463538 0.148531   2.6295 255 255 255
-0.736595   1.48755   2.66063 255 255 255
-0.702152 -0.813461   2.13077 255 255 255
  0.900124 -0.0712808    2.76871 255 255 255
2.53578 1.06485 2.37504 255 255 255
-2.05998 0.895817  2.73559 255 255 255
-1.25805 -0.51246  2.20481 255 255 255
-2.31233 0.953165  2.47233 255 255 255
-0.293942  0.830031   2.52012 255 255 255
  1.83467 -0.810619    2.9575 255 255 255
-2.31656 0.786766  2.68735 255 255 255
0.767013  1.04134  2.73631 255 255 255
0.0142805 -0.235248    2.7044 255 255 255
-0.426454 -0.147485   2.21338 255 255 255
0.727188  -1.0796  2.29142 255 255 255
-2.18844 -1.55751   2.7464 255 255 255
  1.59342 0.0570538   2.84494 255 255 255
-1.99789 -1.14186  2.63962 255 255 255
 0.686448 -0.454811   3.05966 255 255 255
0.641702  1.00838  2.82094 255 255 255
 1.41033 -1.49537  3.04142 255 255 255
-0.164154   1.46228   2.50149 255 255 255
  0.42795 -0.398714   2.52959 255 255 255
 0.426607 -0.389897   2.48629 255 255 255
-1.29392 -1.38274  2.38065 255 255 255
-0.0806958    1.24793    2.75182 255 255 255
2.51601 0.75687 2.34446 255 255 255
 3.19592 -1.15587  3.03943 255 255 255
  3.32537 -0.882366   3.03875 255 255 255
 -2.1219 0.739703  2.68898 255 255 255
-0.664681 -0.453291    2.3162 255 255 255
-0.967065 -0.388626   2.17669 255 255 255
-0.866462 -0.604188   2.19566 255 255 255
-2.48793 0.898589  2.64292 255 255 255
 0.924157 -0.112289    2.7282 255 255 255
2.25518 1.21139 2.36123 255 255 255
0.0347162   1.31561   2.53262 255 255 255
2.32555 1.44969 2.37204 255 255 255
 -2.3556 -1.62086  2.67162 255 255 255
-0.453746 -0.698939   2.25836 255 255 255
-2.61545 -1.33454  2.58315 255 255 255
-0.413149   1.13645   2.62129 255 255 255
 3.28739 -0.99812  3.00866 255 255 255
-2.33907 0.264452  2.36018 255 255 255
 -2.30226 -0.689126   2.47522 255 255 255
1.49315 1.41489 2.79299 255 255 255
  0.963989 -0.0694598    2.73922 255 255 255
1.65788 1.12577 2.78427 255 255 255
  -1.0954 -0.483356   2.81641 255 255 255
-0.975586 -0.614886   2.16257 255 255 255
-1.79571  1.17622  2.57944 255 255 255
 2.53436 -1.14362  3.10976 255 255 255
  2.1792 -1.27749  3.09144 255 255 255
 2.46438 0.835162  2.34091 255 255 255
-2.24919  -1.1427   2.6784 255 255 255
 1.75248 0.958379  2.78154 255 255 255
-0.153001  0.360126   2.73417 255 255 255
 -0.766 1.41213 2.71796 255 255 255
 2.16915 0.508832  2.38036 255 255 255
1.66041 1.07369 2.99246 255 255 255
  1.0421 -1.55178  3.05797 255 255 255
-2.29489 0.123909  2.31854 255 255 255
 -2.16421 -0.981088   2.54984 255 255 255
-0.249432   1.40752   2.66518 255 255 255
-1.87498 0.729788  2.69979 255 255 255
  1.37474 -0.467086   2.93589 255 255 255
 -0.61025 -0.854696   2.14536 255 255 255
2.29876 1.12038 2.34684 255 255 255
-0.859273 -0.466552   2.33659 255 255 255
1.59093 1.25268 2.69878 255 255 255
-0.975624  -1.05601   2.28219 255 255 255
-1.85623  1.15301  2.62188 255 255 255
 2.33237 0.981658  2.34215 255 255 255
  1.29984 -0.381852   2.75135 255 255 255
 -2.5365 -1.02254  2.46158 255 255 255
0.696699  1.06249  2.82879 255 255 255
-0.425468 -0.329548   2.20451 255 255 255
2.14674 1.05821 2.35448 255 255 255
  2.23409 -0.934382   3.11378 255 255 255
 2.37782 0.889921  2.32651 255 255 255
2.39179 1.19813 2.35706 255 255 255
-1.19012 -1.13993  2.27168 255 255 255
  -2.08175 -0.0845138    2.21302 255 255 255
2.19944 1.20504 2.34339 255 255 255
-2.25088 -1.01136  2.46286 255 255 255
 1.8258 1.42221 2.35673 255 255 255
 2.29834 0.459021  2.35488 255 255 255
2.30884 1.33142 2.35098 255 255 255
  2.39621 -0.697505   3.13299 255 255 255
-1.62234 0.929786  2.69885 255 255 255
-1.50991 0.996301  2.72121 255 255 255
  1.14106 -0.212948    2.8179 255 255 255
0.313716 -1.19255  2.18975 255 255 255
-0.868642 -0.524508   2.46493 255 255 255
2.06155 1.00929 2.34936 255 255 255
 -1.36466 -0.529396   2.66422 255 255 255
-1.31195  1.23934  2.09803 255 255 255
2.09194 1.38649  2.3396 255 255 255
 1.94661 -1.78199  3.06902 255 255 255
 -2.29556 -0.365426   2.28184 255 255 255
2.44121 1.10472 2.34869 255 255 255
2.07032 1.43825 2.35476 255 255 255
2.49269 1.01327 2.34427 255 255 255
2.41511 1.15083 2.35025 255 255 255
 -1.2052 0.853006  2.36803 255 255 255
2.25228 0.68936 2.35274 255 255 255
-0.652044  0.980708   2.69177 255 255 255
  -2.00543 -0.0401973     2.2269 255 255 255
 2.43405 0.670625  2.32419 255 255 255
0.365764 -1.28852  2.19982 255 255 255
0.338356 -1.24429  2.20891 255 255 255
1.62683 1.42907 2.37684 255 255 255
1.59572 1.23381 2.78873 255 255 255
 2.2858 1.37941 2.35605 255 255 255
-0.123507   1.40924   2.54293 255 255 255
 0.943974 -0.300391   2.60837 255 255 255
2.46696 1.05897 2.34576 255 255 255
  -1.3441 -0.974772   2.28245 255 255 255
 1.6473 1.50917 2.36933 255 255 255
 2.64859 -1.30714  3.04632 255 255 255
0.287111 -1.15364  2.21169 255 255 255
 3.15104 -1.25993  3.03849 255 255 255
0.0534011 -0.747574   2.23712 255 255 255
  0.74696 -0.398486   2.74937 255 255 255
 2.16511 0.825994  2.34232 255 255 255
-0.919388  0.989855   2.39432 255 255 255
0.257858 0.288611  2.55694 255 255 255
  1.8692 0.932579  2.36737 255 255 255
  -2.6698 -0.774208   2.60534 255 255 255
-1.14961  1.31027  2.73444 255 255 255
-2.56762 -1.16259  2.49004 255 255 255
0.153516  1.40188  2.79436 255 255 255
  1.95292 -0.769039   3.08176 255 255 255
 2.07114 -1.17105  3.08159 255 255 255
1.74322 1.16252 2.37537 255 255 255
  2.73353 -0.815191   3.09748 255 255 255
 1.7225 -1.4541 2.88256 255 255 255
 0.2314 1.45496 2.46086 255 255 255
  2.8505 0.151503  3.17525 255 255 255
2.66714 1.02535 2.41954 255 255 255
-1.82386 -1.45813  2.49278 255 255 255
 1.5399 1.34911 2.81455 255 255 255
-0.769261   1.38939   2.15273 255 255 255
  2.5222 0.968161  2.34849 255 255 255
 1.07173 0.855617  2.96025 255 255 255
-1.63384  1.30567  2.10714 255 255 255
 2.19456 0.779912  2.34689 255 255 255
 -2.24089 -0.505502   2.27041 255 255 255
-0.392896   1.21589   2.62592 255 255 255
2.29502 1.20434  2.3415 255 255 255
 2.13912 0.871934  2.34253 255 255 255
-2.38768  -1.2676  2.65934 255 255 255
0.475401  1.09846  2.93957 255 255 255
  1.48698 0.0357096   2.81341 255 255 255
 1.87393 0.758613  2.68746 255 255 255
0.466767  0.54995  2.93599 255 255 255
 1.94501 0.129016   3.0257 255 255 255
 -2.64503 -0.586203   2.58129 255 255 255
-1.95023 0.595901  2.64275 255 255 255
 2.46096 0.932517  2.35223 255 255 255
  2.4878 0.886966   2.3525 255 255 255
0.897577  1.42619  2.50086 255 255 255
-2.24935 0.853587  2.65815 255 255 255
0.0126605    1.3931   2.40198 255 255 255
-0.229314   1.51074   2.74316 255 255 255
-2.62809 -1.02226  2.45974 255 255 255
-0.226504  0.649621   2.60695 255 255 255
 3.08684 -1.03243  3.04164 255 255 255
0.727575 -1.17984  2.21488 255 255 255
2.31902 1.15798 2.33695 255 255 255
 -1.13035 -0.873023    2.1466 255 255 255
0.268549 0.716821  2.74961 255 255 255
2.38144 1.07114 2.35398 255 255 255
 2.4078 1.02426 2.35134 255 255 255
-0.0207724   0.376557    2.74113 255 255 255
2.14752 1.48231 2.36373 255 255 255
 -2.6006 -1.24737  2.49138 255 255 255
-0.934484 -0.429528   2.20673 255 255 255
 -1.95117 -0.637383   2.34751 255 255 255
-0.151042 -0.802005   2.24792 255 255 255
2.35438 1.11575 2.35255 255 255 255
-1.27214  1.03626  2.67861 255 255 255
 0.290514 -0.706431   2.64506 255 255 255
-2.63689 -1.41838  2.63073 255 255 255
1.71692 1.21227 2.37675 255 255 255
 2.51362 0.841343  2.35148 255 255 255
 0.518574 -0.230581   2.76603 255 255 255
-2.57282 -1.01002   2.4493 255 255 255
 1.55518 -0.25485  3.01407 255 255 255
 2.53078 0.917877  2.31793 255 255 255
 -2.66062 -0.825073    2.4882 255 255 255
0.678523 0.976264  2.71052 255 255 255
1.55737 1.28137 2.75696 255 255 255
-2.12119 -0.90386  2.62308 255 255 255
-1.47143 0.700967   2.3381 255 255 255
 2.43466 0.979131  2.35329 255 255 255
 -0.8833 -0.82202  2.31996 255 255 255
1.22402 1.22562 2.74257 255 255 255
-0.204663   1.32563   2.60073 255 255 255
 -2.13807 -0.142912   2.27198 255 255 255
-2.56569 0.866664   2.6524 255 255 255
-2.19889  1.03643   2.6987 255 255 255
-0.981822  -1.11248   2.49234 255 255 255
-2.21295 0.944947  2.68252 255 255 255
0.470395 -1.29673  2.22639 255 255 255
-0.761269 -0.851872   2.16707 255 255 255
 0.13922 0.916695  2.80754 255 255 255
0.137437  -1.3018  2.22106 255 255 255
   2.561 0.872493  2.32474 255 255 255
 -1.43285 -0.775222   2.25088 255 255 255
 -2.4164 -1.22193  2.58551 255 255 255
-0.476881   1.29487    2.7531 255 255 255
-1.09714  1.30186  2.72683 255 255 255
2.12442  1.2275 2.34886 255 255 255
 0.213869 -0.714124   2.23242 255 255 255
-1.56651 0.993184  2.61356 255 255 255
 -2.21957 -0.918063   2.43653 255 255 255
-0.492736   1.46729   2.68557 255 255 255
-1.06935 -0.28468  2.59247 255 255 255
-2.16845   1.1003  2.68976 255 255 255
-1.84718  1.10943  2.70596 255 255 255
-0.184634   1.51492   2.44999 255 255 255
1.04154 1.17842  2.9452 255 255 255
-1.82873 0.498827  2.31536 255 255 255
-1.22743 -1.06139  2.29669 255 255 255
  2.256 1.42464 2.35395 255 255 255
-0.0687106   -1.30991    2.25167 255 255 255
 0.240255 -0.758733    2.2273 255 255 255
-1.28124  0.37589  2.27715 255 255 255
-1.42538 -1.12552    2.318 255 255 255
-2.11291 -1.52098  2.76036 255 255 255
-0.0304947    1.06301    2.68727 255 255 255
0.209937 -1.27122  2.25303 255 255 255
-2.05692  1.10727  2.74833 255 255 255
-0.351884 -0.674167   2.25007 255 255 255
  1.10469 -0.365257   2.77531 255 255 255
-2.23242 0.259086  2.28759 255 255 255
0.108313  1.35077  2.67801 255 255 255
2.22695 1.46806 2.34904 255 255 255
0.527155 -1.26802  2.22601 255 255 255
0.303801 0.612209   2.7564 255 255 255
-1.76563  1.23278  2.19648 255 255 255
0.60079 1.03299 2.93196 255 255 255
 0.888394 -0.375451   2.58481 255 255 255
 1.03221 -0.24674  2.75153 255 255 255
  1.1058 -1.37451  2.83418 255 255 255
 3.28958 0.975687  3.15942 255 255 255
-1.96571 0.682431  2.69281 255 255 255
 -1.32382 -0.986136   2.20353 255 255 255
-0.721672    1.4563    2.7289 255 255 255
-0.434021 -0.220456    2.2095 255 255 255
-1.52926  0.65917   2.3134 255 255 255
-2.41242  -1.4095   2.6108 255 255 255
 2.23053 -1.56751  3.09664 255 255 255
 1.14112 0.893354  2.79508 255 255 255
-0.580792 -0.880181   2.21516 255 255 255
1.21438 1.48973  2.9961 255 255 255
-2.60411 -1.17991  2.47042 255 255 255
1.63214 1.40001 2.42257 255 255 255
0.492572  1.13121  2.92651 255 255 255
-2.22707 0.939007  2.16895 255 255 255
2.67638 1.50913 2.41388 255 255 255
 0.762849 -0.441796   2.69049 255 255 255
-2.56432 -1.11151  2.46375 255 255 255
-2.25695  1.08273  2.65361 255 255 255
 2.14994 -1.64747  3.07843 255 255 255
 -1.12237 -0.495544   2.20342 255 255 255
 2.17899 0.228971  2.96924 255 255 255
-0.478898 -0.420774   2.21459 255 255 255
 -2.14158 -0.980748   2.62467 255 255 255
 -0.95991 -0.478193   2.15986 255 255 255
1.69485 1.03642 2.74984 255 255 255
-1.54392 -1.42859  2.43882 255 255 255
-2.51497 0.788722   2.6927 255 255 255
 1.2376 -0.9941 3.05986 255 255 255
-2.50558  1.33002  2.78133 255 255 255
 2.72133 -1.19273  3.06523 255 255 255
-1.11121  1.34179   2.0604 255 255 255
-0.842419   1.04129   2.41478 255 255 255
   1.12216 -0.0430592    2.73639 255 255 255
 -0.71961 -0.764412   2.20016 255 255 255
0.857038   1.5313  2.46019 255 255 255
 -2.0653 0.814707  2.66877 255 255 255
-1.00065 0.194746  2.36627 255 255 255
-2.73948  1.47576  2.76872 255 255 255
 2.62952 0.586899  2.37257 255 255 255
 -1.64581 -0.899408   2.29215 255 255 255
-0.642216 -0.983793   2.13397 255 255 255
 -1.0424 0.936575  2.36679 255 255 255
-1.20619 -1.09267  2.27089 255 255 255
-1.14533 -1.41278  2.36766 255 255 255
 2.5753 -1.2689 3.00115 255 255 255
  2.3671 -1.30079  3.10677 255 255 255
-1.55388 -0.67429  2.23586 255 255 255
  1.14502 -0.323341   2.72744 255 255 255
  1.06798 -0.224812   2.74887 255 255 255
0.109832 0.963582  2.43848 255 255 255
-1.31276 0.018122  2.32205 255 255 255
-1.96833 0.733356  2.70553 255 255 255
 1.03522 -1.30529  2.78692 255 255 255
-1.07542 -1.43819  2.43034 255 255 255
 -1.4833 -1.13478  2.34352 255 255 255
-2.10242 0.326096  2.35022 255 255 255
 -1.44987 -0.967954   2.20831 255 255 255
 1.71817 0.996127  3.00199 255 255 255
-0.431365   1.17955   2.64485 255 255 255
-1.21456 -1.56792  2.53406 255 255 255
 -1.1387 0.133071  2.26347 255 255 255
-0.985702  0.581941    2.3157 255 255 255
0.0255465  0.738566   2.60042 255 255 255
 0.256251 -0.406558   2.70425 255 255 255
0.914579 0.668224   2.9725 255 255 255
0.356687  1.52154  2.41387 255 255 255
-2.32564 0.962748  2.70833 255 255 255
-1.28044   0.4219   2.3175 255 255 255
-2.17444 0.315277  2.36904 255 255 255
 -2.35834 -0.806504   2.47046 255 255 255
1.09024  1.2855 2.95087 255 255 255
  1.06257 -0.754447    3.0561 255 255 255
 1.04565 -0.31894   2.7349 255 255 255
-0.668329  0.244487   2.36591 255 255 255
    -1.3543 -0.00805673     2.32227 255 255 255
 2.77021 -1.32086  2.99114 255 255 255
 1.73826 -1.34029  2.90088 255 255 255
0.145753 0.833958  2.76493 255 255 255
0.291962  1.25312  2.26368 255 255 255
 2.25062 0.523465  2.35909 255 255 255
  3.08167 -0.963656   3.05235 255 255 255
 -1.43199 -0.108071    2.3191 255 255 255
-2.15304 0.861808  2.73111 255 255 255
-2.48672  1.27361  2.64575 255 255 255
 0.25721 0.181808  2.53686 255 255 255
1.68119 1.08779 2.95639 255 255 255
-2.06078 0.974194  2.71932 255 255 255
-0.610617  0.840461   2.47024 255 255 255
-0.469556   1.00102   2.67938 255 255 255
 3.28209 -1.04562  3.04131 255 255 255
-2.29973 -1.06202  2.46757 255 255 255
-1.03069 0.557377  2.31729 255 255 255
-0.906705   0.58224   2.27982 255 255 255
-2.41023 -1.21621  2.64586 255 255 255
  2.3281 0.383426  2.33965 255 255 255
 -1.87486 -0.305735   2.27914 255 255 255
-0.906489   1.37995    2.1561 255 255 255
-0.513878  -1.00262   2.31251 255 255 255
-2.19653 -1.02293  2.43435 255 255 255
-0.859755   -1.0001   2.22932 255 255 255
 0.729978 -0.948075   2.29055 255 255 255
 -2.61768 -0.758293   2.62752 255 255 255
 -2.24999 -0.188124   2.24949 255 255 255
2.60827 1.12548 2.42523 255 255 255
 -1.27748 -0.936636    2.2185 255 255 255
-0.538382 -0.856864   2.23296 255 255 255
  -2.2886 -0.153247   2.27657 255 255 255
-1.86853 0.778375  2.71821 255 255 255
 -1.92927 -0.334968   2.29413 255 255 255
 -1.23579 -0.271427   2.33683 255 255 255
 2.66269 0.710915  2.37974 255 255 255
-1.54448 -1.18527   2.3195 255 255 255
-1.59662 -1.11956  2.33064 255 255 255
 -2.33966 -0.181162   2.28877 255 255 255
 2.27637 -1.59689  3.10545 255 255 255
 1.34982 0.140991  2.83923 255 255 255
 -1.84641 -0.321058   2.29258 255 255 255
  -2.3717 -0.290439   2.28726 255 255 255
-2.01003 -1.30554  2.78942 255 255 255
0.0477684   1.00941   2.54392 255 255 255
0.229888  1.46187  2.70676 255 255 255
-2.26488 0.787027  2.62608 255 255 255
  1.52709 -0.437437   3.07955 255 255 255
0.621081 -1.24795   2.2274 255 255 255
 1.04471 -1.26995  2.79229 255 255 255
  2.9758 -1.16628  3.03858 255 255 255
0.147883 0.336116  2.63072 255 255 255
0.324364 -0.72922  2.52629 255 255 255
 -1.06331 -0.197459   2.34417 255 255 255
 -2.35101 -0.328615    2.2844 255 255 255
  -2.08179 -0.0328608    2.29399 255 255 255
  2.37838 -0.118582   3.11742 255 255 255
 -2.6516 -1.34196  2.54709 255 255 255
0.78279 -1.1274 2.30362 255 255 255
  1.08471 -0.860585    3.0569 255 255 255
-0.512747 -0.890335   2.21284 255 255 255
 2.72037 0.655007  2.37723 255 255 255
 -2.66597 -0.949495   2.64518 255 255 255
-1.41912 0.308032  2.29879 255 255 255
  0.986209 0.00176244    2.74868 255 255 255
-0.122875   1.31951   2.73859 255 255 255
  3.12834 -0.748337   3.09833 255 255 255
0.406034 0.293452  2.57934 255 255 255
-2.54354  1.32739  2.74549 255 255 255
 1.91443 0.896175  2.39158 255 255 255
0.174526 0.515132  2.76291 255 255 255
 2.88605 -1.00435  3.08303 255 255 255
-2.38434 -1.01178  2.45447 255 255 255
  1.54584 -0.806113   3.08149 255 255 255
0.816662 0.321157  2.71804 255 255 255
0.375996 -0.34931   2.5244 255 255 255
-1.30397 -1.46857  2.43725 255 255 255
-0.517309 -0.917817   2.20175 255 255 255
 1.58827 0.218447  2.80042 255 255 255
 1.14285 -1.51826  2.99461 255 255 255
0.834741 -0.91889  3.04143 255 255 255
 -1.02822 -0.754742   2.14549 255 255 255
0.232458 0.587672  2.75707 255 255 255
 -2.50952 -0.985103    2.4652 255 255 255
  2.80562 -0.615479   3.14393 255 255 255
-0.676795  0.981017   2.60016 255 255 255
0.0382305  0.796208   2.60737 255 255 255
 -2.12382 -0.128008   2.18849 255 255 255
-0.11181 0.301617  2.77396 255 255 255
 1.04403 -1.43957   2.8837 255 255 255
 2.21343 -1.53286  3.10562 255 255 255
0.704849   0.9993  2.65928 255 255 255
-2.48415 -1.49134  2.65258 255 255 255
-2.11504 0.496462  2.05137 255 255 255
 -2.63016 -0.938545     2.505 255 255 255
 -2.31228 -0.938551   2.45846 255 255 255
  1.14644 -0.408393   2.73754 255 255 255
   2.3612 -0.178668   3.11822 255 255 255
 1.84799 0.151555  2.99421 255 255 255
 0.252468 -0.293711   2.61318 255 255 255
    1.64919 -0.00909886     3.02176 255 255 255
-0.131394   1.28886   2.75427 255 255 255
 1.03454 -1.30152  2.68973 255 255 255
-0.397428 -0.436021   2.19788 255 255 255
   3.12841 -0.0162577    3.03179 255 255 255
0.632424 -1.20418   2.2634 255 255 255
-1.90021  1.13776  2.71767 255 255 255
 -2.61559 -0.825736   2.61539 255 255 255
 -1.35943 -0.961148    2.2042 255 255 255
  2.80685 -0.187645   3.22629 255 255 255
-2.07796 0.767548  2.71821 255 255 255
2.01597 -1.7207   3.102 255 255 255
  2.59737 -0.197275   3.14677 255 255 255
  0.78441 -0.234482   2.67466 255 255 255
0.173676  0.31228  2.56817 255 255 255
   1.2426 -0.290663   2.73128 255 255 255
 0.669507 -0.946987   2.32958 255 255 255
 2.55286 -1.25001  3.10938 255 255 255
-0.741758  0.337134   2.34541 255 255 255
 -2.3746 -1.45633  2.59354 255 255 255
  2.53607 -0.211736   3.16514 255 255 255
 1.76682 0.627234  3.01515 255 255 255
-1.02411 -1.36709  2.48448 255 255 255
 -2.30888 -0.993554   2.47156 255 255 255
0.0810953  0.110548   2.55278 255 255 255
 0.437267 -0.953302   2.36121 255 255 255
 -1.88062 -0.115143   2.27432 255 255 255
 1.34678 0.874403  2.99053 255 255 255
  1.4657 -1.55689  3.04491 255 255 255
0.27853 1.47996 2.44208 255 255 255
0.433265   -1.049  2.23158 255 255 255
-0.0481107    1.51162    2.44837 255 255 255
 -2.32027 -0.852432    2.4613 255 255 255
  2.79454 0.0918939    3.1432 255 255 255
   1.265 0.549753  2.76773 255 255 255
2.20301 0.49627 2.36661 255 255 255
0.914067 -1.12777  3.06796 255 255 255
-2.76355  1.36859  2.80148 255 255 255
 -0.617405 -0.0563876    2.15847 255 255 255
-0.0200868    1.46221    2.40621 255 255 255
   3.1669 -0.730427   3.09991 255 255 255
-0.828422 -0.819378   2.20875 255 255 255
 0.348008 -0.669994   2.71026 255 255 255
 0.933615 -0.352406   2.57304 255 255 255
-2.70006 -1.43052  2.62078 255 255 255
 0.351096 0.0760835    2.5057 255 255 255
-1.49569 0.955103  2.70335 255 255 255
0.359122 -0.93485  2.28981 255 255 255
  3.32812 -0.979853   3.05457 255 255 255
-2.08886  -1.3788  2.78235 255 255 255
-1.45555 -1.04536  2.26089 255 255 255
 1.92619 0.122753  3.00555 255 255 255
1.30378 1.59065  2.9534 255 255 255
 1.64066 0.491588   3.0005 255 255 255
-2.67747  -1.4205  2.51062 255 255 255
 1.69817 0.455928  3.01149 255 255 255
 0.0963808 -0.0271903     2.4582 255 255 255
0.232302 0.487453  2.74625 255 255 255
-2.23912 0.425503  2.56222 255 255 255
 0.720558 -0.485409   2.99217 255 255 255
 1.62634 0.605345  3.01422 255 255 255
 1.38335 0.834621  3.01431 255 255 255
-0.0144886   0.767271    2.58992 255 255 255
0.279679 0.316756  2.57351 255 255 255
-0.347599  0.374691   2.34109 255 255 255
    1.04623 -0.00601163     2.73992 255 255 255
  1.79943 -0.107788   3.11499 255 255 255
-0.798809  -0.89503    2.1514 255 255 255
2.65111 1.06826 2.44132 255 255 255
  1.75681 -0.553476   3.11311 255 255 255
 0.184888 -0.339391   2.73666 255 255 255
 0.306063 0.0141017   2.51701 255 255 255
 1.41271 -1.53591  3.08627 255 255 255
-0.010782  0.712349   2.58556 255 255 255
 1.4642 0.23875 2.77706 255 255 255
 0.431406 -0.664637   2.68517 255 255 255
  1.22933 -0.668666   3.07547 255 255 255
-0.591216 -0.527221   2.25842 255 255 255
-1.97912  0.74936  2.68428 255 255 255
 2.66068 0.612795   2.4487 255 255 255
 1.08165 -1.00291  3.05922 255 255 255
-2.07487 -1.14621    2.414 255 255 255
   2.14823 -0.0684331    3.11865 255 255 255
 0.903962 -0.938438   3.04589 255 255 255
 0.781884 -0.795372   3.06275 255 255 255
 1.92127 0.270343  2.99606 255 255 255
 0.232161 -0.521098   2.51902 255 255 255
-2.00677  1.09945  2.72622 255 255 255
0.174671  1.41917  2.37427 255 255 255
1.33925 0.78419  3.0111 255 255 255
0.205071 -0.89951  2.97506 255 255 255
  1.94751 -0.622793   3.11971 255 255 255
 1.63657 0.634698  3.01635 255 255 255
0.322691 0.551913  2.74998 255 255 255
  0.679804 -0.0998221    2.67642 255 255 255
0.133441  1.42011  2.51917 255 255 255
-0.155694  0.430537   2.58042 255 255 255
 0.133952 -0.534671   2.28228 255 255 255
  3.38395 -0.917985   3.07271 255 255 255
-0.55757 0.727464  2.55118 255 255 255
1.70032 0.84381 3.01133 255 255 255
 1.95985 0.307248  3.01047 255 255 255
0.287774 0.199472  2.49335 255 255 255
-0.241545  0.274742   2.59619 255 255 255
 0.148147 0.0221929   2.45408 255 255 255
0.474147  0.90865  2.94632 255 255 255
0.229868   0.1927  2.51463 255 255 255
 0.247596 -0.641924   2.64029 255 255 255
  1.24689 -0.683638   3.06363 255 255 255
 2.43732 -6.74451   3.3672 255 255 255
 8.63877 -3.70916   3.4971 255 255 255
 4.96668 -6.87671  3.55133 255 255 255
 7.4117  -7.105 3.87299 255 255 255
 2.24358 -7.20926   2.6162 255 255 255
 6.23285 -4.91953  3.66566 255 255 255
 2.34956 -7.20974  2.68643 255 255 255
 5.6706 -5.0088 3.66255 255 255 255
 5.17468 -5.23205  3.52048 255 255 255
 5.58665 -7.54417  3.55362 255 255 255
 10.2736 -2.93732  4.29101 255 255 255
 10.3736 -6.48866  4.32997 255 255 255
 6.64128 -4.13466  3.73255 255 255 255
 7.16923 -5.76933  4.16188 255 255 255
 3.93822 -4.13547  3.15929 255 255 255
 5.07513 -3.83242  3.64908 255 255 255
 3.39885 -8.38686  3.12413 255 255 255
 7.51176 -6.50597  4.15129 255 255 255
3.70969 -4.3275 2.95385 255 255 255
 5.28457 -4.37667  3.71157 255 255 255
 1.68208 -7.95934  2.82704 255 255 255
 8.35766 -6.48905  4.07724 255 255 255
 10.4059 -7.68654  4.31013 255 255 255
 3.10522 -6.28507  3.46211 255 255 255
 8.0102 -3.6894  3.4253 255 255 255
 1.43141 -4.78809   3.3332 255 255 255
 2.38836 -5.49494  3.45945 255 255 255
 5.03222 -4.97776   3.6508 255 255 255
 3.02513 -5.52798  3.58102 255 255 255
 1.45958 -5.77254  3.34923 255 255 255
 9.15797 -4.89322  4.15058 255 255 255
  8.6366 -6.22874   4.1877 255 255 255
 7.39952 -8.10129  3.76119 255 255 255
 5.86577 -6.37358  3.72809 255 255 255
 5.03672 -2.97777  3.05709 255 255 255
 3.64801 -3.71626  2.60955 255 255 255
  5.5207 -3.95453  3.66279 255 255 255
 4.96468 -2.33485  2.85504 255 255 255
0.292613 -6.19541  3.23828 255 255 255
0.513107 -3.95644  2.65086 255 255 255
   1.924 -3.21859  2.16005 255 255 255
1.82707 -5.4647 3.27487 255 255 255
 3.56873 -3.23925  2.23975 255 255 255
 1.25595 -4.30858   2.6004 255 255 255
  4.6167 -2.92991  2.97696 255 255 255
 2.25859 -6.99282  3.29004 255 255 255
0.145896 -3.99398  2.54333 255 255 255
0.514103 -2.79191  2.98305 255 255 255
2.15984 -4.5613 3.11289 255 255 255
 8.53465 -5.44958  4.26785 255 255 255
 8.23167 -6.31266  4.17646 255 255 255
 4.61103 -3.15863  2.82795 255 255 255
 1.05096 -4.28621  2.60146 255 255 255
 2.88144 -4.42208  2.87017 255 255 255
  2.9954 -7.40685  3.40884 255 255 255
 4.99876 -3.49645  3.04418 255 255 255
 5.55441 -2.32749  3.02897 255 255 255
 5.30531 -3.24543  3.23462 255 255 255
0.831083 -4.24733  2.59636 255 255 255
0.817616 -4.24751  2.61731 255 255 255
 7.48336 -4.21063  3.85433 255 255 255
 4.16097 -4.37264  3.62804 255 255 255
 6.94865 -2.88622  3.86342 255 255 255
4.87314 -3.4469 2.98544 255 255 255
 7.63807 -2.54642  3.84412 255 255 255
 3.44205 -4.12537  1.99114 255 255 255
 3.06194 -6.00518  3.52559 255 255 255
-0.684036   -5.9303   3.22165 255 255 255
 6.93497 -1.73351  3.80676 255 255 255
0.780877 -3.64947   2.9608 255 255 255
 3.10414 -2.62444  1.97179 255 255 255
0.0259432  -3.22998   2.97002 255 255 255
 1.70715 -6.89894  2.56475 255 255 255
0.976341 -3.79928  2.59367 255 255 255
 3.29709 -2.70414  2.09347 255 255 255
 6.17704 -2.88864  3.27912 255 255 255
 2.13775 -3.47525  2.01971 255 255 255
 6.35157 -5.39317  3.66726 255 255 255
 7.74002 -2.74576  3.74928 255 255 255
 4.77147 -3.84368  3.24551 255 255 255
 2.78046 -4.93011  3.51583 255 255 255
-0.258289  -3.73191   2.86617 255 255 255
 3.15886 -3.91647  2.03851 255 255 255
-0.170357  -3.67807   2.90434 255 255 255
  4.2267 -3.16236    2.986 255 255 255
 2.25367 -4.14298  1.85649 255 255 255
 7.36871 -1.37078  3.90205 255 255 255
0.247741 -3.84648  2.70331 255 255 255
 5.09336 -5.04701  3.64143 255 255 255
 3.05427 -5.09086  3.52129 255 255 255
-1.30288 -3.78631  2.93208 255 255 255
-1.09207 -4.66491  3.03701 255 255 255
6.11131 -2.8338 3.27012 255 255 255
  3.3718 -2.67476  2.04452 255 255 255
 1.63615 -4.15247  2.67284 255 255 255
3.41943 -2.5557 2.03986 255 255 255
 4.33874 -3.11212  2.74452 255 255 255
 4.17959 -3.08902   3.0172 255 255 255
7.66334 -2.3983  3.8588 255 255 255
 3.31668 -2.60076  2.01629 255 255 255
 3.06039 -2.75544  2.05688 255 255 255
  3.9799 -2.99088  2.99265 255 255 255
-0.129152  -3.95396    2.7875 255 255 255
-0.344093  -3.76882    2.8714 255 255 255
  1.5503 -6.77342  2.50154 255 255 255
 2.62344 -4.24794  1.99766 255 255 255
 2.12451 -4.05629  1.88346 255 255 255
2.84584 -3.5147 1.98963 255 255 255
 7.67044 -2.93151  3.81515 255 255 255
 1.64907 -4.27046  2.71755 255 255 255
  5.9173 -4.07669  3.61662 255 255 255
 3.03377 -3.10506  1.93366 255 255 255
 7.52596 -3.26319   3.8452 255 255 255
-0.461874  -6.67456   3.01189 255 255 255
 3.41267 -5.96705  3.42264 255 255 255
 6.61137 -6.59778  3.56988 255 255 255
 7.39325 -1.18728  3.90269 255 255 255
 7.11987 -2.47354  3.85407 255 255 255
  2.1095 -3.92204  1.94512 255 255 255
 1.87127 -4.32684  2.67554 255 255 255
 4.61405 -6.03623  3.61555 255 255 255
  2.3293 -3.09925  2.04469 255 255 255
0.308054 -3.88334  2.70797 255 255 255
 1.58788 -6.83111  2.44643 255 255 255
  3.6894 -2.50921  2.02976 255 255 255
 4.90971 -6.16531  3.59706 255 255 255
 3.59458 -2.61082  1.95456 255 255 255
0.609156  -4.2573  2.67294 255 255 255
 5.75132 -4.29319   3.7057 255 255 255
0.193534 -3.71366   2.8887 255 255 255
 2.63474 -3.44607  1.88594 255 255 255
-0.886548  -3.91559   2.89737 255 255 255
 3.59346 -4.26376  2.93328 255 255 255
-1.12901  -3.3374  2.93098 255 255 255
 1.06497 -5.79431  3.18491 255 255 255
  3.6078 -6.05381  3.41306 255 255 255
 5.17282 -5.23178  3.51578 255 255 255
 1.22214 -5.99958   2.8981 255 255 255
5.28913 -7.1172 3.57116 255 255 255
 6.18815 -4.01859  3.72362 255 255 255
 5.87625 -2.38242  3.31432 255 255 255
5.77842 -3.4447 3.33115 255 255 255
 3.49794 -2.45653  1.98994 255 255 255
 2.65446 -3.77003  1.95472 255 255 255
 2.15048 -4.82332   3.3158 255 255 255
-0.207385  -4.71127   3.26404 255 255 255
0.269943 -7.48809  2.62869 255 255 255
 3.52454 -2.56316  1.98218 255 255 255
0.445863 -2.85305  2.97536 255 255 255
 2.57417 -3.59667  1.97676 255 255 255
1.03161 -3.9396 2.71211 255 255 255
   4.258 -3.07317  3.00994 255 255 255
0.374419  -6.6826  2.61476 255 255 255
0.584249 -4.16968  2.72839 255 255 255
-0.616654  -4.92356   3.19552 255 255 255
 2.61391 -3.56246  2.01032 255 255 255
6.81828 -4.3132 3.72659 255 255 255
 4.57049 -3.00941  3.01701 255 255 255
0.932054 -4.09398  2.58823 255 255 255
-0.828099  -6.96804   3.02776 255 255 255
 2.28388 -3.74432  1.96499 255 255 255
 5.04216 -3.42637  2.99583 255 255 255
 2.31899 -3.38491  1.99756 255 255 255
-1.07956 -3.21063  2.87093 255 255 255
-0.13449 -4.73062  3.33552 255 255 255
6.27465 -5.7868 3.67819 255 255 255
 5.71968 -5.06188  3.62578 255 255 255
0.815705 -6.56989  3.05125 255 255 255
-0.821966  -7.00754   2.99791 255 255 255
0.781542 -5.82214  3.23714 255 255 255
 2.88369 -5.82492  3.37286 255 255 255
 5.16106 -4.68456  3.64825 255 255 255
 6.91913 -1.20791  3.80893 255 255 255
 6.67657 -5.04334  3.68369 255 255 255
 6.20933 -3.63055  3.73114 255 255 255
0.0264127  -3.70982   2.76975 255 255 255
-0.249636  -3.28456    2.9484 255 255 255
 5.52558 -3.34538  3.20838 255 255 255
 3.37667 -6.11009  3.48109 255 255 255
 8.78988 -5.95021  4.27173 255 255 255
0.943182  -4.1382  2.64029 255 255 255
 1.80003 -3.96947  1.79694 255 255 255
 4.81172 -2.54996  3.03601 255 255 255
0.692388 -3.81093  2.51589 255 255 255
0.905179 -4.30335  2.60842 255 255 255
 5.30644 -2.41114  3.05099 255 255 255
 1.71974 -4.30631  2.71678 255 255 255
 2.66183 -3.83394   1.9096 255 255 255
 6.36952 -6.67631  3.67107 255 255 255
 3.27937 -2.84535  2.06439 255 255 255
0.160103 -7.81441  3.16651 255 255 255
 2.87354 -2.90306  1.92014 255 255 255
 5.25531 -6.42034  3.63362 255 255 255
 2.55748 -3.50382  2.01835 255 255 255
3.35499 -2.9107 1.92961 255 255 255
 2.49382 -4.18151  1.96077 255 255 255
-0.252848   -4.7668    3.1879 255 255 255
 7.52436 -1.90483  3.88423 255 255 255
 2.90666 -2.90107  2.02498 255 255 255
 1.98376 -5.57397  3.25826 255 255 255
 7.04759 -4.02216  3.51215 255 255 255
 1.33022 -5.84204  3.29541 255 255 255
 2.20225 -3.50336  2.01038 255 255 255
 6.16988 -4.06685  3.74004 255 255 255
1.31172 -4.7473 3.32104 255 255 255
 2.26644 -3.70821  1.93428 255 255 255
 3.24019 -3.09667  1.92259 255 255 255
  -1.266 -4.66275   3.0776 255 255 255
 2.86428 -3.07728  1.89743 255 255 255
 3.22728 -5.78641  3.45534 255 255 255
 2.21431 -6.40539  3.41324 255 255 255
 5.24112 -5.44598  3.54513 255 255 255
 4.30926 -4.30571   3.6517 255 255 255
 6.41524 -5.67039  3.73184 255 255 255
 3.79137 -2.83763  2.93373 255 255 255
  2.9884 -3.04487  1.91032 255 255 255
 4.11663 -6.69451  3.52651 255 255 255
-0.402281  -5.67363   3.18242 255 255 255
 1.73805 -4.25748  2.71849 255 255 255
-0.932796  -3.43097   2.94062 255 255 255
 2.06157 -4.05415  1.80149 255 255 255
 2.94672 -3.97975  2.03012 255 255 255
 6.32664 -6.98367  3.70198 255 255 255
 3.95053 -2.91773  2.95894 255 255 255
 2.53987 -2.56511  2.07114 255 255 255
-0.71442 -7.05136  3.00622 255 255 255
 2.63548 -4.10266  2.01502 255 255 255
 1.88987 -4.21605  2.64243 255 255 255
0.546041 -3.99187  6.62725 255 255 255
 2.46008 -4.17227  1.95632 255 255 255
  4.1161 -3.50942  2.99272 255 255 255
 0.42648 -7.41274  3.02578 255 255 255
-1.33503 -4.64062  3.03628 255 255 255
-1.38619 -4.92086  3.14884 255 255 255
 1.79039 -5.59316  3.35664 255 255 255
 8.44623 -4.44253  4.07188 255 255 255
1.54136 -2.8973 2.95867 255 255 255
 4.04855 -3.00332  2.97727 255 255 255
6.81722 -1.6234 3.78657 255 255 255
0.031021 -3.00896  2.96153 255 255 255
7.53423   -2.38 3.88844 255 255 255
 3.85647 -3.03821  2.96104 255 255 255
 2.22128 -6.12869  3.36801 255 255 255
 3.45367 -4.09634   2.0293 255 255 255
1.29391 -5.8357 3.32715 255 255 255
0.701289 -4.11814  2.68727 255 255 255
  2.9322 -3.16173  1.86831 255 255 255
 2.16674 -3.59491  1.97727 255 255 255
 2.05079 -3.57147  1.95616 255 255 255
 4.73186 -3.52228  3.04846 255 255 255
 3.02718 -3.54537  1.91649 255 255 255
 5.22857 -3.10258    3.025 255 255 255
 1.86924 -6.97167  2.74151 255 255 255
 2.54353 -3.53858  2.01381 255 255 255
 2.30744 -5.55524  3.27468 255 255 255
 4.40577 -3.37831  2.84433 255 255 255
-0.717538  -5.99453   3.17058 255 255 255
 5.34701 -2.34242  3.05742 255 255 255
-0.087406  -3.58165   2.95732 255 255 255
 7.04222 -1.30964   3.8844 255 255 255
 4.55373 -4.28468   3.6736 255 255 255
0.387696 -4.55889  3.36031 255 255 255
 1.88922 -5.46652  3.35433 255 255 255
-0.314189  -5.94823   3.19745 255 255 255
-0.734628   -5.0414   3.19364 255 255 255
-0.90619 -3.38307   2.9496 255 255 255
 5.36285 -4.95682  3.63912 255 255 255
 7.46297 -2.81927  3.82549 255 255 255
 7.61726 -2.39835  3.88411 255 255 255
 2.75159 -4.82003  3.57278 255 255 255
 6.42748 -2.28754  3.34466 255 255 255
 2.43274 -4.07684  1.91091 255 255 255
 2.64143 -4.21028  2.00203 255 255 255
0.888449 -5.34019  3.31474 255 255 255
 3.89232 -7.09057  3.48937 255 255 255
-0.83004 -4.49237  2.97771 255 255 255
 4.98419 -5.24296  3.52148 255 255 255
0.487451 -3.59782  2.97015 255 255 255
2.05907 -3.5999 2.00714 255 255 255
 2.06926 -5.16962   3.3035 255 255 255
 4.85125 -6.11855  3.57088 255 255 255
 1.47248 -4.90236  3.30429 255 255 255
 7.78616 -6.74572  4.07873 255 255 255
0.0815007  -5.71262   3.20049 255 255 255
 6.41231 -5.21438  3.57332 255 255 255
 7.64443 -2.31999  3.87965 255 255 255
 4.38607 -2.80619  2.79162 255 255 255
 5.28632 -4.61295  3.65907 255 255 255
 7.35263 -1.83186  3.88807 255 255 255
 6.48528 -3.55161   3.7661 255 255 255
 1.12982 -2.49693  3.03153 255 255 255
 4.53084 -7.17105  3.55482 255 255 255
 5.02286 -5.19974  3.53126 255 255 255
 5.31617 -2.46557  3.00942 255 255 255
 2.29658 -3.33907   2.0289 255 255 255
 7.90072 -6.44787  4.14121 255 255 255
 3.41938 -2.86161  1.94783 255 255 255
 5.76256 -4.04271  3.72182 255 255 255
0.685021 -3.44301  2.98937 255 255 255
 1.90486 -3.97361  1.98779 255 255 255
 6.66516 -3.11756  3.79392 255 255 255
-0.464023  0.296196   2.55964 255 255 255
0.409978 0.112766  2.67495 255 255 255
0.226421 0.155583  2.62159 255 255 255
1.26772 0.34888 2.88168 255 255 255
 1.29047 0.189856  3.02102 255 255 255
 0.780502 -0.311154   2.63192 255 255 255
 0.495397 -0.257011   2.61187 255 255 255
   0.372662 -0.00982037     2.55468 255 255 255
0.166321 0.480954  2.76356 255 255 255
 1.25038 0.415386  3.01463 255 255 255
-0.427224 -0.147867   2.21494 255 255 255
0.203092 0.193502  2.45624 255 255 255
-0.234574  0.251972   2.44636 255 255 255
 0.739439 -0.388619   2.69785 255 255 255
 0.546264 -0.614931   2.72391 255 255 255
 0.721133 -0.302416   2.69581 255 255 255
0.368008 -0.68106  2.58628 255 255 255
-1.05041  0.15617  2.28976 255 255 255
-0.257077  0.388452   2.54462 255 255 255
0.948746 0.634622  2.80657 255 255 255
0.957846 0.625035  2.97906 255 255 255
-0.285729  0.543348   2.57099 255 255 255
 0.597319 -0.286538   2.70876 255 255 255
 0.279379 -0.411993   2.47593 255 255 255
-0.530232 -0.158845   2.24824 255 255 255
1.09872 0.76544 2.98003 255 255 255
-0.733702 -0.212035   2.24899 255 255 255
-0.838653 -0.113332   2.35211 255 255 255
-0.164844  0.623816    2.6038 255 255 255
  0.432796 -0.0850639     2.5863 255 255 255
   1.1058 -0.295409    2.7549 255 255 255
-0.730309  0.361379   2.28656 255 255 255
0.250794 0.745201  2.74575 255 255 255
0.800616 0.277147   2.7734 255 255 255
 0.885586 -0.370827   2.57354 255 255 255
 0.521894 -0.623595   2.62841 255 255 255
-0.257686  0.213704    2.7381 255 255 255
-0.405883 -0.046037   2.41848 255 255 255
 -0.407248 -0.0776337    2.37081 255 255 255
-0.377929  0.415291   2.33831 255 255 255
  0.296294 -0.0764339    2.53559 255 255 255
-0.952007  0.561527   2.28965 255 255 255
 0.413409 -0.162215   2.58721 255 255 255
-1.09655 0.152275  2.26293 255 255 255
  1.04037 -0.210679   2.79764 255 255 255
-1.03023 0.516358  2.27688 255 255 255
 0.732584 -0.579001    3.0192 255 255 255
 -0.96271 0.0297823   2.33783 255 255 255
0.708696 0.665949  2.96455 255 255 255
   1.0327 -0.247424   2.75379 255 255 255
0.969719  0.60886  2.86305 255 255 255
 0.853866 -0.338993   2.56427 255 255 255
 -1.02324 -0.165843   2.33902 255 255 255
-1.02105  0.10784  2.34573 255 255 255
  0.6114 0.818826  2.92636 255 255 255
-0.348629  0.414977   2.35053 255 255 255
0.041616 0.510462  2.63897 255 255 255
 0.169798 -0.374389    2.7284 255 255 255
-0.277183 -0.140941   2.45507 255 255 255
 0.972657 -0.036317   2.80069 255 255 255
 0.199765 -0.505702   2.50006 255 255 255
-0.396719 -0.106377   2.45341 255 255 255
0.868824 0.282523    2.629 255 255 255
 0.409357 -0.340074   2.48229 255 255 255
-0.151545  0.298766   2.71371 255 255 255
 0.396555 -0.312936   2.54168 255 255 255
-0.945213  0.239442   2.32884 255 255 255
 -1.31717 -0.496991   2.76248 255 255 255
-0.911474 -0.441057   2.14935 255 255 255
 0.123361 0.0408593   2.43224 255 255 255
0.955506 0.828162  2.96796 255 255 255
-0.345196   0.57762   2.54772 255 255 255
  1.19815 -0.941678   3.04048 255 255 255
 0.919414 -0.520462   2.76757 255 255 255
 1.38109 0.829471   3.0027 255 255 255
0.955758 0.651676  2.98335 255 255 255
-0.515374 -0.180273   2.22763 255 255 255
-0.219337  0.520863   2.52159 255 255 255
 0.976848 -0.257366   2.65504 255 255 255
-0.891682 -0.454976   2.12326 255 255 255
  0.328936 -0.0406349    2.52802 255 255 255
-0.381197  0.556359   2.52121 255 255 255
 0.33711 0.223332  2.52062 255 255 255
 -0.48333 -0.263706   2.19029 255 255 255
-0.564585 -0.167732   2.21692 255 255 255
-0.356569  0.554045   2.57652 255 255 255
-0.410357 -0.190905   2.52233 255 255 255
  0.26965 -0.192458    2.7618 255 255 255
-0.571259 -0.023852   2.31335 255 255 255
 1.29548 0.657512  2.99885 255 255 255
-0.0322285 -0.0592182    2.71844 255 255 255
 0.901121 -0.897896   3.02342 255 255 255
 0.124817 -0.359962   2.55686 255 255 255
 0.107793 -0.489346    2.2844 255 255 255
0.0418067 -0.376205   2.29924 255 255 255
 0.251694 -0.467855   2.47979 255 255 255
-0.313827 -0.185127   2.38166 255 255 255
 -0.358959 -0.0974857    2.41107 255 255 255
0.121473 0.268641  2.53042 255 255 255
 -0.31904 -0.233768   2.41394 255 255 255
  1.18413 -0.314673   2.71039 255 255 255
  1.07877 -0.228688   2.76379 255 255 255
  0.29472 -0.441659    2.4858 255 255 255
0.936453 0.571918  2.98964 255 255 255
 1.06361 0.004769  2.72093 255 255 255
-0.257811  0.409082   2.53211 255 255 255
-0.0381243   0.464076    2.60235 255 255 255
-0.200655   0.63808   2.58574 255 255 255
 1.36735 0.170045  2.80776 255 255 255
-0.81676 0.640801  2.29322 255 255 255
  0.1931 0.139375  2.44671 255 255 255
-0.0236752  -0.189662       2.29 255 255 255
  0.24966 -0.232128   2.58065 255 255 255
-0.32489 0.574209  2.58276 255 255 255
-0.192263  0.431271   2.49379 255 255 255
-0.579844 -0.129219   2.41196 255 255 255
  1.0793 0.868516  2.96423 255 255 255
  1.01742 0.0703213   2.77736 255 255 255
 0.797126 -0.250843   2.63116 255 255 255
  1.19944 -0.276341    2.7057 255 255 255
-0.325111  0.361799   2.32721 255 255 255
-0.0293283   0.359232    2.74731 255 255 255
   0.098056 -0.00711073     2.49904 255 255 255
 0.110979 -0.194047   2.71394 255 255 255
  0.152779 -0.0374313     2.4554 255 255 255
0.922228 0.470836   2.9763 255 255 255
 -1.33481 -0.468764   2.76704 255 255 255
 0.220443 -0.279871   2.57803 255 255 255
0.325346 0.171705  2.50939 255 255 255
-0.896349 -0.160437   2.30441 255 255 255
  0.20602 -0.386327   2.74691 255 255 255
0.132553 -0.43442  2.64481 255 255 255
-0.466528 -0.259945   2.23104 255 255 255
 0.173381 0.0401235    2.4469 255 255 255
-0.694125   0.37321   2.27985 255 255 255
 0.309768 0.0761866   2.45903 255 255 255
 0.646479 -0.496495   2.98012 255 255 255
-0.164177  0.663085   2.57712 255 255 255
0.202478 0.317473  2.49723 255 255 255
-0.110293    0.6367   2.56296 255 255 255
-0.919458 -0.174035   2.30239 255 255 255
0.239637 0.532712  2.77768 255 255 255
  0.19575 -0.456668   2.70688 255 255 255
0.0803418 0.0423957   2.48398 255 255 255
 0.115119 -0.320627   2.69308 255 255 255
0.115937 0.296446  2.62223 255 255 255
-0.0319838  -0.204629     2.2804 255 255 255
-0.0915809   0.645971    2.56297 255 255 255
 0.383468 -0.360969   2.50042 255 255 255
0.124326 0.171255  2.42298 255 255 255
  0.135393 -0.0733578    2.46961 255 255 255
0.393846  0.73505  2.92822 255 255 255
 0.249409 -0.421777   2.69663 255 255 255
-1.14004 -0.32379  2.29589 255 255 255
0.411722 0.777874  2.93259 255 255 255
0.339509 0.271006  2.56045 255 255 255
0.911936 0.672135  2.97065 255 255 255
 0.337082 -0.699813   2.61773 255 255 255
0.658449  0.32118  2.95275 255 255 255
0.141839 0.424279  2.71436 255 255 255
  0.197955 -0.0638877     2.4651 255 255 255
  1.02151 -0.110636   2.80755 255 255 255
 0.096566 -0.372611   2.63358 255 255 255
 0.866802 -0.794553   3.05035 255 255 255
0.428037 0.821544   2.9382 255 255 255
-0.866357  -0.16902   2.66117 255 255 255
 0.10834 0.410994  2.75779 255 255 255
0.127375 0.315971  2.60633 255 255 255
 0.84313 0.752782  2.96759 255 255 255
0.0370792   0.49043   2.69123 255 255 255
 0.733787 -0.333347   2.66363 255 255 255
 0.283118 0.0138108   2.49303 255 255 255
-0.092057  0.629803   2.57392 255 255 255
 0.316213 -0.703908   2.68848 255 255 255
0.707879 -0.21612  2.66703 255 255 255
  1.10062 -0.273902   2.75947 255 255 255
-0.0555445   0.320789    2.75384 255 255 255
0.0239796  0.452216   2.73305 255 255 255
  0.993458 -0.0282771    2.76457 255 255 255
  0.517192 -0.0695453    2.64215 255 255 255
 0.86286 -0.32429  2.60094 255 255 255
 0.817227 -0.565731   3.01191 255 255 255
-0.166583  0.408354   2.56579 255 255 255
-0.262304   0.59218   2.59988 255 255 255
  1.55544 -0.693502   3.06977 255 255 255
0.170798 0.146747  2.50103 255 255 255
  0.707649 -0.0545173    2.69623 255 255 255
 0.791552 -0.274807   2.66374 255 255 255
 0.327317 -0.380487   2.66864 255 255 255
0.345894 0.581529  2.73367 255 255 255
  1.09859 -0.233323   2.75727 255 255 255
 0.110897 -0.401752   2.64893 255 255 255
 1.39828 0.227859  2.76712 255 255 255
0.0853026 -0.260782   2.68258 255 255 255
-0.263223  0.473622   2.56387 255 255 255
 0.271179 -0.257882   2.60419 255 255 255
0.234653 0.158981  2.47018 255 255 255
   1.09077 -0.0386724     2.7426 255 255 255
  1.07133 -0.937626    3.0573 255 255 255
 1.19496 0.487143  3.01723 255 255 255
  0.246455 -0.0294803    2.51339 255 255 255
  1.12843 -0.786677   3.05979 255 255 255
0.434542  0.18512  2.58052 255 255 255
  0.12904 0.0830583    2.4756 255 255 255
-0.238714  0.352354   2.50028 255 255 255
 0.290818 -0.185334   2.69812 255 255 255
 -1.28629 -0.420914   2.62953 255 255 255
-0.307043  0.583622   2.57797 255 255 255
 1.29069 0.734992  3.00184 255 255 255
0.220053 0.543523  2.77038 255 255 255
0.0980889  -0.28854   2.68892 255 255 255
0.212906 0.357237  2.57418 255 255 255
 0.152382 -0.471366   2.64148 255 255 255
   0.120895 -0.00896228     2.44157 255 255 255
0.922875  0.78204  2.97659 255 255 255
 -1.12758 -0.290954   2.33557 255 255 255
  1.29806 -0.924716   3.03934 255 255 255
 0.163741 -0.415665   2.69037 255 255 255
-1.16587 -0.35784    2.296 255 255 255
 1.29415 0.692807  2.99468 255 255 255
0.370086 0.125279  2.53246 255 255 255
 0.703338 -0.533056   2.99562 255 255 255
0.806149 0.159797  2.97232 255 255 255
 -1.08707 -0.309448   2.63702 255 255 255
 0.815364 -0.379645   2.68996 255 255 255
