ply
format ascii 1.0
element vertex 1224
property float x
property float y
property float z
property uchar red
property uchar green
property uchar blue
end_header
-0.381471  -1.95066   3.04701 255 255 255
-0.190974  -1.07694   2.27398 255 255 255
 1.45233 -2.68777  3.07828 255 255 255
3.27011 -1.6175 2.14754 255 255 255
-0.915942 -0.601206    2.1984 255 255 255
0.965787 -2.79021  3.07286 255 255 255
-1.04013 -2.35631  3.00519 255 255 255
 0.440839 -0.412113   2.72108 255 255 255
 1.89892 -1.26562  3.13701 255 255 255
 1.57975 -2.94802  2.99397 255 255 255
 2.19808 0.956515  2.37673 255 255 255
 1.44828 -1.91581  3.10293 255 255 255
 6.17205 0.943783  2.82836 255 255 255
-0.367303  0.125624   2.38618 255 255 255
0.190091 -1.09882  2.26088 255 255 255
    3.10863 0.000488838     3.05936 255 255 255
2.61086 0.69312  2.4241 255 255 255
 2.17607 0.475954  2.39366 255 255 255
 2.89993 -2.59936   2.0332 255 255 255
0.0689364  -2.91149   3.00427 255 255 255
-1.36143 0.322214   2.3137 255 255 255
   7.339 -1.83905   3.9288 255 255 255
 1.63823 0.651343  3.04352 255 255 255
 3.01276 -1.09897  3.08367 255 255 255
 0.922531 -0.912784   3.08706 255 255 255
1.52253 -3.3836 2.96441 255 255 255
 1.63558 -1.22795  2.84249 255 255 255
-1.02797 -3.21637  2.95776 255 255 255
 3.06135 -1.01264  3.09564 255 255 255
-0.101992  0.697495   2.59057 255 255 255
-0.525288   1.05607   2.65701 255 255 255
 1.54209 -3.01473  2.95891 255 255 255
-0.863836  0.598426   2.32589 255 255 255
 3.92525 -1.08496  2.19116 255 255 255
 5.61366 -1.66295  3.31184 255 255 255
  6.7675 -1.56278  3.80898 255 255 255
 4.29857 -3.05274  2.78649 255 255 255
 4.02053 -1.10456  2.18723 255 255 255
 4.59969 -0.38889   3.4715 255 255 255
 4.34861 -2.87413  2.74496 255 255 255
  1.4782 -1.64178  3.10694 255 255 255
 0.394212 -0.859687   2.36581 255 255 255
3.95476 -1.7128 2.00128 255 255 255
 0.582248 -0.514444   2.97281 255 255 255
7.20326 -2.3689 3.85853 255 255 255
-0.31905 0.147546  2.37644 255 255 255
 4.80389 -7.04278  3.65151 255 255 255
 1.87369 -6.77159  3.21092 255 255 255
 3.43967 -6.68142  3.53543 255 255 255
0.492063 -6.47441  2.98782 255 255 255
 5.57375 -7.79709  3.60097 255 255 255
 2.51051 -7.08808  3.40722 255 255 255
5.02959  -6.186 3.69798 255 255 255
  5.5959 -7.16156  3.66803 255 255 255
 4.18004 -7.74654  3.52442 255 255 255
 4.58627 -4.32769  3.65519 255 255 255
-0.177035  -4.86894   3.24796 255 255 255
  5.3924 -7.58441  3.63865 255 255 255
0.00458244   -6.66028      2.958 255 255 255
 7.35382 -8.19771  3.78772 255 255 255
 6.01483 -7.26408  3.67003 255 255 255
2.05665 -8.0045 2.80722 255 255 255
 2.15812 -8.26432  2.70279 255 255 255
 6.70513 -4.66114  3.73094 255 255 255
0.546065 -5.04582  3.42329 255 255 255
0.875573 -7.52113  3.08565 255 255 255
 2.82626 -7.77219  2.94225 255 255 255
 2.33822 -6.59256  3.39975 255 255 255
  3.8266 -8.47866  3.11919 255 255 255
-0.0664105   -5.58266    3.18521 255 255 255
 1.12174 -7.67058  2.72003 255 255 255
-0.184369  -6.37924   2.87723 255 255 255
7.50416 -7.2116 3.62781 255 255 255
  2.1706 -7.15211  2.76766 255 255 255
 2.70779 -7.43369  2.77112 255 255 255
 3.09635 -7.72708  2.98623 255 255 255
 6.14094 -8.14084  3.68631 255 255 255
 2.54904 -6.23572  3.48188 255 255 255
 3.04182 -5.72104  3.59264 255 255 255
 2.45952 -7.55628  2.84817 255 255 255
 7.95977 -7.30303  3.69702 255 255 255
 4.16938 -3.97583   3.2333 255 255 255
 3.19263 -4.48644  2.94217 255 255 255
 1.50584 -7.83679  2.77812 255 255 255
0.386575 -4.82762  3.37008 255 255 255
  1.4007 -6.83332  2.62337 255 255 255
0.285448 -5.02979  3.29687 255 255 255
 5.23653 -8.08027  3.65938 255 255 255
 4.60395 -4.02263  3.75982 255 255 255
 7.78351 -6.26822  4.21131 255 255 255
0.165204 -6.43689  2.72687 255 255 255
 6.48878 -7.55864   3.7485 255 255 255
0.282323 -8.05989  2.75752 255 255 255
-0.544289  -6.76902    3.0778 255 255 255
 5.77369 -7.95728  3.62843 255 255 255
-0.266872  -6.12029    3.2467 255 255 255
 4.63552 -6.90661  3.60962 255 255 255
 4.40029 -4.14122  3.72048 255 255 255
 3.40078 -4.30366  2.97429 255 255 255
 2.91828 -8.27601  3.08368 255 255 255
 1.25733 -6.88805  2.62781 255 255 255
0.997565 -8.91765  2.82631 255 255 255
 5.57012 -5.41988  3.68736 255 255 255
 2.30108 -5.41369  3.57371 255 255 255
  1.1075 -6.41239  3.35891 255 255 255
 5.26296 -8.35056  3.52106 255 255 255
 5.57963 -7.72683  3.66014 255 255 255
 5.72521 -8.11111  3.63707 255 255 255
-1.65775 -6.44846   3.1886 255 255 255
0.0842644  -7.20409   2.93473 255 255 255
  7.1596 -7.83702  3.80513 255 255 255
0.0836818  -7.76863   2.68247 255 255 255
 4.84885 -6.96692  3.62942 255 255 255
7.71735 -7.7361 3.56999 255 255 255
 6.90559 -7.73701  3.76924 255 255 255
8.26948 -8.2308  3.8284 255 255 255
0.489743 -7.22882  3.05978 255 255 255
-0.254567  -6.36007   2.85846 255 255 255
 2.21757 -5.18506  3.41721 255 255 255
 2.82059 -7.30573  3.46006 255 255 255
 1.79493 -6.99135  2.54878 255 255 255
 3.10185 -8.01329  3.23195 255 255 255
 1.57846 -9.01802  3.26513 255 255 255
 6.35723 -5.38422  3.74543 255 255 255
2.55205 -7.8302 2.86885 255 255 255
  1.4582 -8.36658  2.65661 255 255 255
 6.40278 -4.47467  3.79623 255 255 255
-0.32059 -8.85681  3.18143 255 255 255
-0.148402  -7.17256   2.81985 255 255 255
 5.76004 -6.06082  3.70498 255 255 255
 1.44588 -4.37314  2.65443 255 255 255
  4.8059 -6.65456  3.61563 255 255 255
 4.53602 -8.24705   2.9322 255 255 255
 6.56598 -4.36291   3.6814 255 255 255
 6.37299 -4.36044  3.76951 255 255 255
 7.93268 -8.12189  3.86402 255 255 255
 6.89571 -7.51776  3.79027 255 255 255
-1.00298 -5.87246  3.22211 255 255 255
-0.299066  -8.70322    3.2079 255 255 255
 7.50352 -7.25945  3.63108 255 255 255
 1.29089 -7.66941  2.81017 255 255 255
 6.5765 -3.9042 3.81587 255 255 255
  6.8734 -3.36353  3.83781 255 255 255
 7.62078 -8.01444  3.82853 255 255 255
 6.17167 -4.81226   3.7769 255 255 255
 3.49735 -5.40244   3.6474 255 255 255
0.943884 -6.60205  3.26038 255 255 255
 7.66491 -5.53485  4.26199 255 255 255
 2.79895 -4.86902  3.55173 255 255 255
 1.30317 -7.76064  2.79449 255 255 255
-0.480752  -5.04204   3.30128 255 255 255
-0.254881  -4.36757   2.95696 255 255 255
 3.52379 -6.55125  3.54281 255 255 255
 2.77572 -8.20315  3.18995 255 255 255
 5.13673 -8.20593  3.38648 255 255 255
 2.27961 -4.49859  3.16482 255 255 255
-0.556054  -6.88887   3.06463 255 255 255
8.25064 -7.1366 4.09265 255 255 255
 2.40291 -6.78794  3.41975 255 255 255
0.140972 -7.03341  2.72751 255 255 255
 5.54777 -7.37916  3.64947 255 255 255
 5.05574 -4.75439  3.71808 255 255 255
 1.49425 -4.98008  3.36471 255 255 255
8.07234 -6.3101 4.21879 255 255 255
 6.98577 -3.99466  3.64352 255 255 255
 7.92342 -7.33363  3.66564 255 255 255
 4.43207 -3.77253  3.26111 255 255 255
 4.09132 -8.51938   3.2506 255 255 255
 1.56662 -6.75651  2.51369 255 255 255
-0.401628  -8.45835    3.2163 255 255 255
 3.63366 -5.83097  3.58456 255 255 255
 3.16921 -6.36254  3.51657 255 255 255
0.164906 -7.38032  2.81223 255 255 255
0.891472 -6.52495  3.20113 255 255 255
 4.16748 -4.84414  3.70526 255 255 255
 1.72024 -7.59878  3.11273 255 255 255
 2.19053 -8.58871  2.64325 255 255 255
 3.75317 -4.30216  2.98407 255 255 255
 3.16489 -4.68567  2.76533 255 255 255
-0.644079  -5.79936    3.2649 255 255 255
-0.475957  -6.90488   3.06682 255 255 255
  4.3251 -4.50738  3.71682 255 255 255
 4.63043 -5.23069  3.68812 255 255 255
7.57132 -4.6225 4.25791 255 255 255
-0.926218  -4.92876   3.23276 255 255 255
 2.54304 -6.19451  3.48076 255 255 255
0.0516143  -8.45843   3.22531 255 255 255
 1.70795 -5.40816  3.41444 255 255 255
0.066225 -6.60644  2.70207 255 255 255
 5.29693 -4.82096  3.65117 255 255 255
-0.522007  -8.28702   3.22506 255 255 255
 2.84417 -5.52278  3.59826 255 255 255
 2.78481 -4.79126  3.51327 255 255 255
 4.42842 -8.21331  3.06363 255 255 255
 1.54455 -8.02769  2.73357 255 255 255
-1.72546 -5.97382  3.17249 255 255 255
 1.60988 -4.30694  2.66084 255 255 255
-0.640281  -6.74334   3.08064 255 255 255
 2.46655 -5.59742  3.33315 255 255 255
-0.667367  -8.18506   3.16283 255 255 255
 1.56675 -7.92768  3.07148 255 255 255
 4.79842 -5.31552  3.69278 255 255 255
 2.5737 -7.4345 2.83549 255 255 255
 1.68049 -7.97231   2.9447 255 255 255
 4.19726 -8.20022  3.50804 255 255 255
0.895707 -4.96116  3.35452 255 255 255
-1.28972 -4.92427  3.21502 255 255 255
0.663528 -7.90288  2.61456 255 255 255
0.0253239  -4.32663   2.97369 255 255 255
 4.26669 -8.68368  3.19273 255 255 255
0.0955602  -7.62493   2.70163 255 255 255
-0.433767  -8.83531    3.1901 255 255 255
 1.08776 -4.57074  3.39179 255 255 255
 5.52116 -3.34507  3.23867 255 255 255
 3.27987 -4.40227  2.97148 255 255 255
 3.92655 -4.64107  3.63979 255 255 255
 5.08179 -5.59579  3.68651 255 255 255
-1.75791 -6.33016  3.19124 255 255 255
 3.49911 -4.34951  2.97999 255 255 255
  5.9427 -8.06265  3.65435 255 255 255
0.467178 -6.92134  2.60699 255 255 255
0.563294 -7.56297  3.13269 255 255 255
 4.29428 -7.49628  3.56248 255 255 255
0.576006 -4.56293   3.3986 255 255 255
6.31087 -5.6028 3.75338 255 255 255
0.944326  -6.5069  3.27647 255 255 255
 2.44645 -7.83623  2.89928 255 255 255
 4.72511 -4.11304  3.73836 255 255 255
-0.233192  -4.79591   3.21607 255 255 255
 2.78428 -5.13841  3.62926 255 255 255
 6.40946 -5.90646  3.71824 255 255 255
-1.43098 -4.78303  3.20684 255 255 255
 5.54956 -3.54543  3.78638 255 255 255
  6.0136 -3.52146  3.83631 255 255 255
3.17793 -8.3959   3.353 255 255 255
  4.9694 -6.23959  3.63783 255 255 255
0.831774 -4.60411  3.40292 255 255 255
-0.298128  -6.29638   2.92754 255 255 255
0.914703 -5.04046   3.3833 255 255 255
 7.81162 -8.01016  3.86405 255 255 255
0.162334 -7.79235  3.22811 255 255 255
 6.76705 -4.36655  3.76291 255 255 255
0.989082 -8.00975  2.57127 255 255 255
0.874661 -5.02097  3.35676 255 255 255
-0.210659  -7.48964   2.57969 255 255 255
0.0212476  -7.56406   2.56244 255 255 255
 1.58622 -8.19584  2.67904 255 255 255
0.388214  -7.4957  3.13404 255 255 255
 1.37529 -7.63967  2.81791 255 255 255
-1.64939 -6.56084  3.19112 255 255 255
-0.448114  -6.48951   2.79002 255 255 255
 6.40245 -6.66819  3.66829 255 255 255
 5.89463 -4.50322  3.76577 255 255 255
 2.58511 -8.07104  3.22196 255 255 255
  6.1086 -3.62536  3.77966 255 255 255
 6.40644 -3.34219  3.82216 255 255 255
 2.18585 -4.50023  3.17083 255 255 255
 7.46789 -8.02983  3.79425 255 255 255
0.128305 -7.41301    2.702 255 255 255
 5.32138 -5.81374  3.69115 255 255 255
 3.67478 -5.92154  3.59241 255 255 255
 1.08112 -8.19178  2.62483 255 255 255
0.864319 -8.92524  3.06788 255 255 255
 6.40625 -5.99625  3.71953 255 255 255
 1.48395 -8.41522  2.66417 255 255 255
 1.81845 -5.08948  3.36721 255 255 255
 3.68626 -4.55967  3.13984 255 255 255
 7.69192 -3.95293  4.08409 255 255 255
 5.28491 -3.37507  3.27616 255 255 255
 3.46298 -4.53594  2.96345 255 255 255
 3.32839 -7.00538  3.51849 255 255 255
 5.58106 -5.35308  3.64707 255 255 255
0.459889 -4.60128  3.38858 255 255 255
 1.35669 -4.09068  2.67596 255 255 255
0.458308 -5.78287  3.29964 255 255 255
-0.253698  -6.25776   3.00648 255 255 255
0.0298073  -7.65172   2.70969 255 255 255
 2.40107 -7.68814  2.77031 255 255 255
 2.22229 -7.09502  3.47807 255 255 255
 5.54059 -4.42975  3.68442 255 255 255
 6.65943 -6.87904  3.46361 255 255 255
 6.68415 -6.89366  3.51989 255 255 255
   4.086 -4.10504  3.22166 255 255 255
 1.57559 -8.91082  3.25523 255 255 255
 1.0078 -5.1585  3.3307 255 255 255
 1.26363 -7.97274  2.51634 255 255 255
 6.7198  -6.864 3.39901 255 255 255
-0.201684  -7.56077   2.61286 255 255 255
 4.47253 -8.61644  3.09759 255 255 255
0.201196 -6.18356  3.28727 255 255 255
 4.18526 -4.97368  3.68942 255 255 255
 4.73593 -5.83317  3.66738 255 255 255
 7.51871 -4.96315  4.28882 255 255 255
  5.2972 -5.41383  3.65387 255 255 255
0.388162 -7.34878  3.08449 255 255 255
 3.95503 -5.15411  3.67729 255 255 255
 2.60377 -5.13448  3.60786 255 255 255
 5.11932 -4.79517  3.69512 255 255 255
   5.338 -5.70864  3.69129 255 255 255
-0.726894  -4.62457   3.16322 255 255 255
 5.59034 -7.49632  3.63992 255 255 255
 3.31524 -7.38579  3.48802 255 255 255
 7.62989 -6.19665  4.19995 255 255 255
-0.0428165   -8.54691    3.16247 255 255 255
 3.03049 -5.52215  3.62751 255 255 255
-0.472405  -7.02161   3.03889 255 255 255
0.178286 -7.43441  3.11101 255 255 255
 1.55367 -8.44995  2.69664 255 255 255
 1.40361 -5.26483  3.38355 255 255 255
 6.54486 -3.45554  3.81933 255 255 255
0.00748951   -7.73887    2.69983 255 255 255
  5.9011 -8.72423  3.62187 255 255 255
-0.503638  -8.43832   3.21611 255 255 255
 6.89343 -3.58684   3.8284 255 255 255
 4.87706 -6.09068  3.65469 255 255 255
 7.88091 -6.77079   4.1649 255 255 255
 8.00672 -8.07748  3.88085 255 255 255
 6.08616 -4.19826  3.80078 255 255 255
 6.63267 -5.01839  3.67261 255 255 255
-0.57021 -7.08031  2.94262 255 255 255
  5.1376 -5.28305  3.55434 255 255 255
 6.47305 -7.61256  3.70388 255 255 255
 5.14405 -5.52168  3.52801 255 255 255
 3.92324 -5.90744  3.63847 255 255 255
6.01819 -4.4421 3.78421 255 255 255
 1.71874 -6.81994  2.52543 255 255 255
-0.0402237   -7.84075    2.70535 255 255 255
-1.39364 -4.73146  3.18629 255 255 255
 2.76873 -7.47413  2.55408 255 255 255
  4.5042 -6.10926  3.63156 255 255 255
 2.50613 -4.76392  3.62406 255 255 255
 5.70915 -7.49429    3.666 255 255 255
  2.468 -4.7964 3.57109 255 255 255
0.384722 -4.60991  3.38644 255 255 255
-0.158617  -8.76692   3.10851 255 255 255
-1.19142 -6.00151  3.20142 255 255 255
 6.73676 -4.56361  3.74703 255 255 255
0.790196 -5.62328  3.35973 255 255 255
 3.09069 -5.62798  3.59464 255 255 255
0.505868 -6.78281  2.58332 255 255 255
 7.39226 -7.84195  3.83289 255 255 255
 4.96928 -4.15984  3.74731 255 255 255
 2.54665 -5.29387  3.61569 255 255 255
 5.50618 -5.10932  3.68377 255 255 255
 5.93645 -7.85079  3.67899 255 255 255
-0.461156  -8.41943   3.06427 255 255 255
 2.32529 -6.73026  3.45939 255 255 255
 1.68851 -7.03813  2.58529 255 255 255
 6.87058 -4.09968  3.78965 255 255 255
 1.42221 -9.13966  3.21284 255 255 255
 5.72149 -7.24363  3.68433 255 255 255
-0.401051  -7.10061   2.85081 255 255 255
-0.851799  -4.89584   3.18909 255 255 255
-0.387482  -6.51704   2.79008 255 255 255
0.430943 -7.37144  3.10401 255 255 255
  7.6444 -4.11186  4.11574 255 255 255
 1.24422 -7.55854  2.85082 255 255 255
 1.21788 -8.88669  2.72371 255 255 255
-0.547706  -8.14368   3.22375 255 255 255
 2.81507 -6.39705  3.50574 255 255 255
 2.77142 -8.10253  3.14856 255 255 255
0.804283 -4.48224  3.41084 255 255 255
 4.18607 -7.50806  3.55542 255 255 255
 7.23435 -7.89111  3.67269 255 255 255
-0.611088  -8.16287    3.1782 255 255 255
 5.13929 -7.57681  3.62125 255 255 255
0.0692695  -7.72494   2.68859 255 255 255
 1.84131 -5.97387  3.23547 255 255 255
 3.11774 -4.59225  2.96559 255 255 255
  1.2629 -7.59723  2.81954 255 255 255
0.989958 -8.20818  2.70276 255 255 255
-0.341451  -4.86577   3.21077 255 255 255
 5.78802 -4.65501  3.71598 255 255 255
 4.49331 -7.88859  3.54698 255 255 255
 6.15528 -3.53953  3.78943 255 255 255
 2.99346 -6.93754    3.491 255 255 255
0.132207 -7.29722  2.81471 255 255 255
0.00356428   -8.53788    3.25829 255 255 255
 2.22318 -5.96247  3.46521 255 255 255
 -1.7497 -5.38597  3.18357 255 255 255
 5.49637 -5.18446  3.71196 255 255 255
 4.28789 -6.21937  3.61122 255 255 255
 8.00688 -6.09517  4.22895 255 255 255
 7.62399 -6.60588  4.19088 255 255 255
 2.46119 -7.20335  2.78903 255 255 255
 3.23726 -5.27545  3.64011 255 255 255
 1.03707 -7.50721  2.98398 255 255 255
 3.49718 -4.26273   2.9751 255 255 255
 1.96036 -4.99628  3.35897 255 255 255
 8.04402 -5.22091  4.29251 255 255 255
 7.34097 -6.51939  4.18202 255 255 255
 5.40462 -6.81549  3.66685 255 255 255
0.968783 -4.99926  3.37289 255 255 255
  1.0896 -4.42844  3.39092 255 255 255
-0.561806  -6.67396   3.07436 255 255 255
-0.176613  -5.56085   3.13701 255 255 255
 4.43503 -4.84485  3.70053 255 255 255
 5.70277 -6.05363   3.6879 255 255 255
 1.22475 -8.76021  2.70699 255 255 255
 5.40879 -5.72133  3.67336 255 255 255
 7.24336 -3.06005  3.87005 255 255 255
 5.19514 -6.39477   3.6622 255 255 255
5.71262 -5.5094 3.72457 255 255 255
 4.35686 -6.09911  3.64372 255 255 255
 3.11322 -4.31821  2.96124 255 255 255
  4.5011 -8.15656  2.97886 255 255 255
 6.75093 -6.83286  3.36058 255 255 255
-0.297166   -5.5095   3.26768 255 255 255
0.702349 -4.22803  2.63938 255 255 255
-0.269404  -4.63488   3.31829 255 255 255
 2.16152 -7.19129  2.63558 255 255 255
 3.61585 -6.25996  3.55787 255 255 255
  3.8459 -4.02698  2.99905 255 255 255
0.00688529    -7.5933    2.54616 255 255 255
 2.40998 -4.64679  3.17315 255 255 255
 4.21964 -8.05222   3.5321 255 255 255
 2.27408 -8.00184  2.92175 255 255 255
 7.81709 -7.10097  4.01192 255 255 255
 7.61738 -4.35031  4.04478 255 255 255
 1.03316 -8.16422   2.6822 255 255 255
 3.00762 -5.84211  3.45954 255 255 255
0.27916 -5.1902 3.34594 255 255 255
 5.02612 -4.73721  3.71054 255 255 255
  2.3015 -7.18737  2.67386 255 255 255
-0.406841  -8.67966   3.20789 255 255 255
 3.25932 -8.31317  3.36904 255 255 255
 2.31378 -8.09103   2.8275 255 255 255
 4.39525 -8.54683   3.1695 255 255 255
 7.92655 -7.75611   3.8145 255 255 255
 4.61514 -5.35211  3.69213 255 255 255
  2.4515 -8.03023  3.02681 255 255 255
 1.39767 -5.22441  3.38366 255 255 255
 6.34571 -6.46124  3.78856 255 255 255
 3.13596 -7.59705  3.19075 255 255 255
 3.95109 -8.41771  3.17323 255 255 255
-0.962662  -5.87573   3.23619 255 255 255
 1.20773 -5.22096  3.24409 255 255 255
 7.70671 -4.70202  4.28562 255 255 255
 3.96932 -3.64069  3.00695 255 255 255
 4.53335 -6.15245   3.6313 255 255 255
7.83659 -4.7242 4.27176 255 255 255
-0.741933  -5.04684   3.26905 255 255 255
 7.33621 -6.38476   4.2035 255 255 255
  7.5612 -6.49062  4.20284 255 255 255
 8.32099 -6.14664   4.2366 255 255 255
  6.3186 -4.85316  3.79041 255 255 255
 6.03783 -3.98976  3.68754 255 255 255
 5.62789 -3.53305  3.80596 255 255 255
 4.85932 -6.16027  3.63637 255 255 255
 6.68927 -7.62667  3.75673 255 255 255
 6.73515 -6.81909  3.42701 255 255 255
 4.15828 -4.78343  3.69567 255 255 255
0.746872 -4.72206  3.40262 255 255 255
-0.0910435   -8.58268     3.3225 255 255 255
 1.78154 -6.80327  2.64785 255 255 255
  8.2693 -8.41333  3.89725 255 255 255
 7.83244 -5.04831  4.27955 255 255 255
-0.122831  -8.64236   3.20406 255 255 255
  5.2458 -4.56061  3.70301 255 255 255
2.28397 -5.7371 3.35243 255 255 255
 1.64518 -8.90289  3.21751 255 255 255
0.703484 -4.70553  3.40702 255 255 255
 8.42706 -6.15641  4.23939 255 255 255
 7.13659 -8.41494   3.7574 255 255 255
  5.2119 -5.63866  3.69521 255 255 255
 4.44775 -6.30477  3.60171 255 255 255
3.94958 -7.5125 3.54857 255 255 255
 7.78394 -6.41952  4.20844 255 255 255
 5.67279 -3.66604  3.80109 255 255 255
3.69073 -4.1427 2.98199 255 255 255
 3.17939 -8.84308  3.14117 255 255 255
  5.1325 -6.49834  3.72312 255 255 255
-0.846547  -5.03905   3.27122 255 255 255
 6.56269 -7.56794  3.72328 255 255 255
 1.37417 -8.20236  2.61333 255 255 255
7.27247 -4.7295 4.26767 255 255 255
 4.5989 -4.0528 3.72768 255 255 255
 2.73107 -7.12897  3.46542 255 255 255
 6.15361 -4.26599  3.80055 255 255 255
 3.68654 -4.04231  2.98281 255 255 255
 7.40994 -7.45162  3.82676 255 255 255
 5.06221 -5.89378  3.67219 255 255 255
2.68997  -4.702 3.18004 255 255 255
-0.339278   9.48917   3.18338 255 255 255
-4.78079  7.89236  2.85628 255 255 255
-1.12807  8.05791  3.03741 255 255 255
-1.1568  8.9416 2.88572 255 255 255
-4.58211  7.08445   2.6195 255 255 255
-3.40297  6.69094  2.64176 255 255 255
-0.777597   6.69115   3.04961 255 255 255
-3.2858 8.37049  2.6889 255 255 255
-3.84897  9.27101  2.75606 255 255 255
-3.56092  8.68168  2.66468 255 255 255
-2.24307   6.0263  2.64158 255 255 255
-3.71985  7.64497  2.88271 255 255 255
-6.00001   7.4781  2.77989 255 255 255
-1.58866  7.88711  2.96063 255 255 255
-4.4946 8.10914 2.70563 255 255 255
-1.14698  7.65737  3.05261 255 255 255
-5.69349  7.19352  2.71513 255 255 255
-3.02692  8.05578  2.64864 255 255 255
-5.1951 7.78092  2.8298 255 255 255
-4.83848  7.03004  2.46498 255 255 255
 -5.728  8.1971 2.67363 255 255 255
-3.8641 7.40817 2.69108 255 255 255
-5.02512  8.22782  2.66463 255 255 255
-6.5015  7.2929 2.81793 255 255 255
-5.47372  7.48013  2.80973 255 255 255
-4.9968 8.80021 2.76141 255 255 255
-6.0906 6.60766 2.44888 255 255 255
-2.31056  7.91988  2.87289 255 255 255
-4.33555  7.45878  2.62098 255 255 255
-6.05018  7.32046   2.8075 255 255 255
-4.29243  8.30515  2.77308 255 255 255
0.708937  6.85219  2.70465 255 255 255
-0.956817   8.90288   2.60611 255 255 255
0.27919 7.45802 2.52237 255 255 255
-4.28478  6.34192  2.22187 255 255 255
0.100609  9.26489  2.84299 255 255 255
-4.66567   7.5633  2.58294 255 255 255
-4.95698  9.43716  2.72422 255 255 255
-5.20287  9.49085  2.79283 255 255 255
-3.27226  9.59836  2.77201 255 255 255
-2.09585  5.78232  2.69781 255 255 255
-2.01264  8.01485  2.82935 255 255 255
-2.39643  6.27404  2.64192 255 255 255
-4.98772  5.66878  2.37955 255 255 255
-4.20912  7.90627  2.74222 255 255 255
-5.77973  6.50229  2.30538 255 255 255
-1.00414  9.80999  2.79449 255 255 255
-3.92264  6.96785  2.56679 255 255 255
-3.64343   7.4617  2.78042 255 255 255
0.228043  8.58607  2.90439 255 255 255
-2.58136  6.49387  2.66646 255 255 255
-1.40305  9.36416  3.10601 255 255 255
-4.2387 9.22933 2.80231 255 255 255
-1.51118  8.01737  3.03989 255 255 255
-0.257912   8.68291   3.14618 255 255 255
-1.02391  7.16216  3.03963 255 255 255
-1.02621  7.16589  3.02526 255 255 255
-6.14236  9.24743  2.72469 255 255 255
-1.09206  9.97145  2.79135 255 255 255
-2.37953  9.67241  3.15267 255 255 255
-3.51793  7.31875  2.78749 255 255 255
-5.21582  8.72243  2.64782 255 255 255
-3.13747  6.66483  2.72614 255 255 255
-5.42916  8.64723  2.67197 255 255 255
-4.26758  6.55036  2.25394 255 255 255
1.03441 6.63144 2.67523 255 255 255
-3.99411  8.56001  2.87465 255 255 255
-2.55096  7.87697  2.36131 255 255 255
0.126098   7.9319  2.74462 255 255 255
-3.49364  7.08019  2.74039 255 255 255
-4.40827  9.38947  2.63815 255 255 255
-3.29435  9.15326  2.39188 255 255 255
0.180637  8.14174  2.72199 255 255 255
-1.7781 8.84566 3.09979 255 255 255
-0.842759    5.9852   2.98026 255 255 255
-0.0551022    8.66379    3.09365 255 255 255
-2.16028  9.26323  3.12652 255 255 255
-5.31204  9.24399  2.73531 255 255 255
-0.57585  10.0296  2.82726 255 255 255
-4.76398  8.75381  2.79954 255 255 255
-6.15853  6.93573   2.5566 255 255 255
-3.01764  5.80128  2.55622 255 255 255
-5.52687  6.68364  2.29404 255 255 255
-4.71292  6.65837  2.18203 255 255 255
-0.0257756    9.51939    2.82133 255 255 255
-4.26021  8.96014  2.82382 255 255 255
-3.54304  5.92323  2.51755 255 255 255
-4.13831  6.00422  2.22313 255 255 255
-5.89348  8.67046  2.69164 255 255 255
-3.76551  7.98079  2.69126 255 255 255
-4.54299  6.62435  2.22577 255 255 255
-4.2951 6.05807 2.22896 255 255 255
-2.97949  7.58647  2.58803 255 255 255
-4.61425  8.83249  2.79253 255 255 255
-1.02708  8.34153  3.04569 255 255 255
-3.39139  6.28146  2.56161 255 255 255
-3.11614   7.2542  2.61866 255 255 255
-2.8069 7.19581 2.76102 255 255 255
-3.87636  9.46563  2.71658 255 255 255
-2.6126 8.26675 2.63003 255 255 255
-4.18459   6.3314  2.23733 255 255 255
-1.97854  8.30113  2.80852 255 255 255
-4.47775   6.2354  2.15216 255 255 255
0.15406 7.56449 2.52739 255 255 255
-6.43453  9.28671  2.72478 255 255 255
-1.5023 5.96174 2.77185 255 255 255
-2.9478  8.6845 2.58807 255 255 255
-1.9836 8.29185 2.81138 255 255 255
-3.11183  7.70912  2.70002 255 255 255
-5.74022  7.67277  2.82122 255 255 255
-4.49827  7.83346  2.66561 255 255 255
-4.12146  7.47652  2.65353 255 255 255
-6.28434  7.25568  2.78748 255 255 255
-6.39492  8.08523  2.56539 255 255 255
-5.45998  6.55716  2.28266 255 255 255
-1.41687  7.14556   2.7035 255 255 255
1.24145 6.95053  2.6048 255 255 255
-6.30983  8.47098   2.6311 255 255 255
-4.66668  8.49369  2.77126 255 255 255
-4.66454  8.19555  2.69006 255 255 255
-4.95056  8.48828  2.66643 255 255 255
-3.37993  8.70611  2.66295 255 255 255
-4.74958  6.93353  2.38263 255 255 255
-4.4458 8.62182 2.80096 255 255 255
0.355318  7.60743  2.75807 255 255 255
-0.0613234    8.83638    3.00552 255 255 255
-3.4604 6.16717 2.51962 255 255 255
-2.51782   7.6348  2.41453 255 255 255
-3.08859  8.38393   2.6583 255 255 255
-5.09429  8.72781  2.66604 255 255 255
-5.9479 7.00497 2.55657 255 255 255
-3.67426  7.98821  2.88593 255 255 255
-1.7395 9.04901 3.13697 255 255 255
-1.87097  7.69812  2.62164 255 255 255
-0.964872    7.4049   3.10402 255 255 255
-6.34695  7.38644  2.80498 255 255 255
-3.90658   6.3492  2.34152 255 255 255
-6.47954  9.02411  2.69138 255 255 255
-5.80858  6.85751  2.53046 255 255 255
-5.2559 7.44249 2.79331 255 255 255
0.491222  7.90781  2.63689 255 255 255
-1.9752 6.82535 2.65007 255 255 255
-2.75087  7.09868  2.73354 255 255 255
0.448532  7.99826  2.64467 255 255 255
0.988768  7.03468  2.60693 255 255 255
-0.827766   6.18531   3.02603 255 255 255
-0.733586   7.68117   3.04326 255 255 255
-4.84931   7.5597  2.57921 255 255 255
-1.18951  5.92994  2.70923 255 255 255
-4.84676  8.01172  2.62264 255 255 255
-5.77289  8.08671  2.81718 255 255 255
-4.80093  8.52177  2.72871 255 255 255
0.925284  7.34688  2.82299 255 255 255
-1.83345  7.02729  2.86262 255 255 255
-6.11406  6.43128   2.2855 255 255 255
-5.62749  8.56396  2.68757 255 255 255
-1.9384 6.89437  2.7945 255 255 255
1.09388 6.85615 2.60509 255 255 255
-5.65513  7.33433  2.78934 255 255 255
-3.00917  6.02192  2.56422 255 255 255
-3.82347  7.49183  2.76991 255 255 255
-5.35217  8.53045  2.65389 255 255 255
-4.3492 5.96138 2.22391 255 255 255
0.393945  8.09192  2.64289 255 255 255
-2.86308  7.31135  2.71373 255 255 255
-6.0161 8.52163 2.83136 255 255 255
-1.69933  8.94498  3.08653 255 255 255
-4.47894  6.12113  2.18139 255 255 255
-2.59139  9.83092  3.09186 255 255 255
-4.59855   6.1656   2.1635 255 255 255
-4.08113   6.3533   2.2695 255 255 255
-4.14792  7.00085  2.44211 255 255 255
-1.13903  9.47354  3.07953 255 255 255
-3.88875  8.57709  2.80229 255 255 255
-5.84217  7.01411  2.57878 255 255 255
-6.42916  7.19019  2.75994 255 255 255
-2.41041  6.46462  2.75859 255 255 255
-3.56447  6.07103   2.4765 255 255 255
-4.75996  8.09083  2.62563 255 255 255
-3.30367  6.84149  2.72756 255 255 255
-4.01339   6.2893  2.32808 255 255 255
-5.72358  8.73536  2.69376 255 255 255
-4.20714  9.54811  2.70526 255 255 255
2.56074 7.55871 4.35952 255 255 255
-3.51281  8.87747   2.6556 255 255 255
-3.84454  6.93907  2.60154 255 255 255
-5.74566    8.346   2.6679 255 255 255
-3.83762  6.24617  2.34841 255 255 255
0.0973455   8.61105   3.05004 255 255 255
-4.48199  8.28236  2.75303 255 255 255
-4.71977  6.83807  2.33253 255 255 255
-2.87961  8.28404  2.52571 255 255 255
-1.7034 7.90501 2.73071 255 255 255
-4.68443  9.01446  2.74147 255 255 255
-4.73598  7.16309  2.53883 255 255 255
-3.17421  6.57941  2.70182 255 255 255
-3.05151  8.45998  2.68934 255 255 255
-6.21696  7.36273  2.79215 255 255 255
-5.55069  8.50754  2.67309 255 255 255
-4.25266  8.74673  2.82107 255 255 255
-4.54974  8.22305  2.71154 255 255 255
-3.86856    8.836  2.80311 255 255 255
-6.10115  8.10127  2.72105 255 255 255
 -5.636 6.79159 2.47275 255 255 255
-4.65706  8.38453  2.72338 255 255 255
-3.91411  6.64738  2.40386 255 255 255
-5.82719  7.88171  2.85095 255 255 255
-5.07189  7.76688  2.55129 255 255 255
-1.64766  8.82484  3.07077 255 255 255
-4.33979  8.48026  2.79496 255 255 255
-3.51613  7.03144  2.71719 255 255 255
-3.97094  8.82043  2.82137 255 255 255
-5.07585  8.07331  2.63958 255 255 255
0.137451  8.49671  2.98831 255 255 255
-1.21607  7.94214  3.08139 255 255 255
-4.09066  6.64514  2.36713 255 255 255
-3.43627  8.05868  2.79405 255 255 255
-2.48007  7.29805  2.37157 255 255 255
-2.94571   7.3476  2.71176 255 255 255
-6.58552  8.76995  2.65084 255 255 255
-4.46387  8.72328  2.80307 255 255 255
-2.94811  6.72114  2.77224 255 255 255
-5.84106  9.36707  2.58871 255 255 255
0.324176  8.18205  2.76409 255 255 255
-5.48759  8.37832  2.63496 255 255 255
-1.54215  8.64628     3.03 255 255 255
-5.03283  8.64358  2.66383 255 255 255
-4.07731  5.82338  2.30111 255 255 255
-4.04086   7.5051  2.68643 255 255 255
-4.09926  8.54093  2.80509 255 255 255
-6.01163  8.04559  2.66927 255 255 255
-6.2443 8.46321 2.70747 255 255 255
-2.23733  7.39099  2.37259 255 255 255
-0.946468   7.26465   3.05051 255 255 255
-4.59422  6.65642  2.21418 255 255 255
-4.01756  6.88009  2.47907 255 255 255
-5.13435  5.46636  2.42615 255 255 255
-1.54946  7.06224   2.5854 255 255 255
-1.28623  7.87008  3.08398 255 255 255
-5.02444  7.87428  2.58866 255 255 255
-3.43729  6.35113  2.55634 255 255 255
-5.9605 8.27556 2.79329 255 255 255
-4.95647  5.70168  2.40388 255 255 255
-5.05018   8.5165  2.65852 255 255 255
-5.17885  8.54806  2.63656 255 255 255
-6.23809  6.95895  2.58073 255 255 255
-4.04245  6.72346  2.41096 255 255 255
-5.78035  7.48019  2.80947 255 255 255
-5.04279  7.94204   2.6127 255 255 255
-4.42134  8.00535  2.70226 255 255 255
-3.2457 7.82582 2.80924 255 255 255
-5.84461  8.00659  2.77892 255 255 255
 -4.253 8.65086 2.81008 255 255 255
-3.77775  8.45728   2.7918 255 255 255
-5.70212  7.78719  2.81917 255 255 255
-5.11251  8.56347  2.65055 255 255 255
-4.96394  7.13664  2.56179 255 255 255
-5.72005  8.55782   2.6787 255 255 255
-6.39718  6.72378  2.49428 255 255 255
-5.95065  7.84934  2.82655 255 255 255
-6.20428  7.67718  2.79878 255 255 255
-6.35491  8.06654  2.70595 255 255 255
-2.58283  8.08167  2.43802 255 255 255
-2.98831   6.3893   2.7296 255 255 255
-2.27443  6.46115  2.79397 255 255 255
-5.50056  6.79935   2.4303 255 255 255
-1.32344   8.0335  3.08895 255 255 255
-4.91389  8.94768  2.80355 255 255 255
-3.67572  6.66013   2.5413 255 255 255
0.289342  6.92318  2.96132 255 255 255
-4.98143  7.46471   2.5762 255 255 255
-4.11163  6.14963  2.24817 255 255 255
-5.85368   6.6277  2.42945 255 255 255
-3.31153  7.41169  2.65407 255 255 255
-4.77442  8.61723  2.77748 255 255 255
-1.55339  8.88127  3.09534 255 255 255
-3.49912  6.35556  2.50098 255 255 255
-4.17928  6.84527  2.34606 255 255 255
0.466819  8.82467  2.91873 255 255 255
-0.742741   6.02839   3.02612 255 255 255
-0.860715   6.97879   3.02654 255 255 255
-4.69908  6.17498  2.16318 255 255 255
-4.01792  8.69829  2.76042 255 255 255
-4.6698 7.98943   2.622 255 255 255
0.274839  6.84383   3.0246 255 255 255
-3.71257   6.0462  2.40506 255 255 255
-6.4662 7.98644 2.79148 255 255 255
-5.0687 9.21024 2.83147 255 255 255
-4.44885  7.19137  2.55788 255 255 255
-3.30048   7.5062  2.63104 255 255 255
-5.5723 8.93267 2.74298 255 255 255
-4.40238  8.19617  2.77911 255 255 255
-6.22456  7.51792  2.82828 255 255 255
-2.90413  5.70623  2.55665 255 255 255
-1.33705  9.89304  2.77486 255 255 255
-3.87205  6.15488  2.33427 255 255 255
-3.49376  9.65033  2.73914 255 255 255
-4.4809 7.61239 2.61947 255 255 255
-1.86171  7.80906  2.58515 255 255 255
-3.9504 6.85566 2.50969 255 255 255
-3.98487  7.28163  2.63566 255 255 255
-4.87007  7.75946  2.58273 255 255 255
-0.558106   9.01732   2.80292 255 255 255
-3.16675  9.46011  2.82349 255 255 255
-4.74483  8.20619  2.64169 255 255 255
-4.37159  7.04805  2.48883 255 255 255
-3.76859  6.10351  2.36996 255 255 255
-4.55035  7.03256   2.4574 255 255 255
-4.54789  7.03631  2.44912 255 255 255
-2.26263  7.29594   2.4187 255 255 255
-4.32318   5.8623  2.27713 255 255 255
0.00766225    7.80031    2.53009 255 255 255
-3.4567 6.65797 2.49946 255 255 255
-5.74274  9.17711  2.74339 255 255 255
-5.44804  8.06438  2.78227 255 255 255
-1.01083  7.73076  3.05601 255 255 255
-5.02486  7.74913  2.59911 255 255 255
-5.51561  6.46167    2.245 255 255 255
-5.82043  8.79004  2.68754 255 255 255
-5.57576   7.0638  2.57589 255 255 255
-5.27785  8.30152  2.63096 255 255 255
-6.00779  9.07568  2.69273 255 255 255
-3.04764   8.3658  2.69019 255 255 255
-6.01644    6.639  2.44383 255 255 255
-6.26118  7.58311  2.80855 255 255 255
-4.96514  7.37723  2.56579 255 255 255
-6.05778  8.62273  2.68367 255 255 255
-2.51481  7.74332  2.40468 255 255 255
 -6.158 7.09964  2.8094 255 255 255
-5.52918  9.06229  2.76209 255 255 255
-4.3792  7.6766 2.63526 255 255 255
-6.02749  8.91689  2.69287 255 255 255
-6.27706  9.16865    2.707 255 255 255
-3.78094  6.34123  2.35595 255 255 255
-3.19184  6.70565  2.73242 255 255 255
0.0476294    9.5742   2.80852 255 255 255
0.0347465   8.65188   3.12376 255 255 255
-5.75858  8.42969  2.61293 255 255 255
-1.21787  8.03195   3.0888 255 255 255
-4.98526  7.98383   2.6263 255 255 255
0.0444079   8.00091   2.74265 255 255 255
-3.98492  8.64481  2.75661 255 255 255
1.22438 6.90882 2.60782 255 255 255
-3.55099  9.47303  2.83717 255 255 255
-6.10233  9.37282  2.73204 255 255 255
-5.90473   7.9239  2.83553 255 255 255
-3.56629  6.37331  2.48591 255 255 255
-4.75645  5.92583  2.26366 255 255 255
-5.63637  8.50472  2.67904 255 255 255
1.69264 7.66084 4.80508 255 255 255
-4.74168  7.94418  2.62543 255 255 255
-6.57435  9.00755  2.66952 255 255 255
-4.86828  7.76783  2.56778 255 255 255
-4.2592 7.03033 2.42685 255 255 255
0.479899  8.75798  2.95346 255 255 255
-4.01836  6.11624  2.28907 255 255 255
-5.45108  8.51182  2.65655 255 255 255
-1.06434  6.44827  2.95996 255 255 255
-2.96893  7.36503  2.63346 255 255 255
-0.772103    9.3515   2.77183 255 255 255
0.450224  7.74681  2.66617 255 255 255
-0.910462   9.27108   2.76313 255 255 255
-0.00853843     9.01521     2.81481 255 255 255
-2.97906  6.48631  2.75492 255 255 255
-6.32314  9.11118  2.70719 255 255 255
2.51066 7.58711 4.60264 255 255 255
-5.24094  9.22938  2.79031 255 255 255
2.37792 7.82708 4.61789 255 255 255
-3.45134  7.36329  2.78271 255 255 255
-5.1091 8.47015 2.64506 255 255 255
-0.433817   6.08205   3.03859 255 255 255
-5.05514  8.41904  2.65303 255 255 255
-4.64166  8.27228  2.70449 255 255 255
-4.8345 6.73038 2.23066 255 255 255
-3.83402  6.68855  2.52617 255 255 255
-4.29996  6.98179  2.41768 255 255 255
-4.30204   6.9806  2.42702 255 255 255
0.398642  7.61744  2.68361 255 255 255
0.680412  8.74096  3.08094 255 255 255
-4.42985   8.5362  2.79884 255 255 255
-4.67746  7.39021  2.56951 255 255 255
1.12044 6.84889 2.59605 255 255 255
0.565329  7.70097  2.72333 255 255 255
0.568108  7.46443  2.23809 255 255 255
-5.00018  7.35408  2.52724 255 255 255
-4.82532  8.32184  2.65917 255 255 255
-6.20293  7.26969   2.7818 255 255 255
-5.56812  6.89938  2.51896 255 255 255
-5.71832  6.90428  2.57167 255 255 255
-4.33916  7.47315  2.59661 255 255 255
-5.08022   8.1658  2.60718 255 255 255
-2.23676  9.34395  3.11782 255 255 255
-4.68044  6.98014  2.41693 255 255 255
-4.79178  6.65932  2.18198 255 255 255
-3.63474  9.44718  2.80302 255 255 255
-4.24889  7.31535  2.60076 255 255 255
-4.99344  7.27606  2.52064 255 255 255
-5.67054  7.28968  2.81551 255 255 255
-1.05964  8.26025  3.05938 255 255 255
-3.20248  9.19597  2.55623 255 255 255
0.88644 7.15819 3.13991 255 255 255
-4.53991  7.98086  2.63615 255 255 255
-0.904421   6.39361   3.02258 255 255 255
0.267561  8.09795  2.71055 255 255 255
-4.8601 8.03544 2.62009 255 255 255
0.362188  7.69254  2.70576 255 255 255
-6.44445  7.59645  2.80304 255 255 255
-4.03563  5.60689   2.3738 255 255 255
-5.71788  8.75925  2.70913 255 255 255
-5.95239  9.19498  2.71539 255 255 255
-5.00912  6.57587  2.20334 255 255 255
-0.892794   7.43054   3.05062 255 255 255
-1.09581  7.14454  3.05797 255 255 255
-5.68223  7.97913  2.82781 255 255 255
-4.21964  8.55499   2.8034 255 255 255
-2.23674   9.4632  3.12584 255 255 255
0.547351  7.57614  2.66397 255 255 255
-4.06412  7.88965  2.78725 255 255 255
-1.01977  7.61583  3.00491 255 255 255
0.180858  8.03868  2.74196 255 255 255
-1.04494  9.26142  2.81413 255 255 255
-1.9266 7.74179 2.66845 255 255 255
-1.38718  8.11644  3.09126 255 255 255
-0.798182   6.27804   3.02262 255 255 255
-6.67504  9.27472  2.69957 255 255 255
-5.48362  8.17532  2.86341 255 255 255
-4.52123  6.80506  2.27675 255 255 255
-2.91316   6.1942   2.6876 255 255 255
-1.20473  8.13769   3.0937 255 255 255
-4.98707  6.24479  2.18768 255 255 255
-4.82946  8.13574     2.62 255 255 255
-2.28415  7.23013  2.41311 255 255 255
-5.84111  7.71818   2.8027 255 255 255
-4.03163  7.67652   2.7664 255 255 255
-6.16757  7.19573  2.76937 255 255 255
-5.95245  6.65552  2.44062 255 255 255
-6.11204  8.46845  2.82376 255 255 255
-4.05617  7.22042    2.608 255 255 255
0.613279  6.79721  2.72358 255 255 255
-4.88812  8.15892  2.62512 255 255 255
-4.7036  9.0706 2.72811 255 255 255
-2.73853  6.95169  2.72856 255 255 255
-6.69544  8.95985  2.65181 255 255 255
-4.22897  6.95004  2.37637 255 255 255
0.197296  6.80228  3.04463 255 255 255
-1.49388  5.90191  2.76868 255 255 255
-3.83748  6.58055  2.43187 255 255 255
0.367854  7.67363  2.70545 255 255 255
-4.81915  8.50266  2.72222 255 255 255
-1.33133  8.40309  3.05213 255 255 255
-3.78235  6.52587  2.43351 255 255 255
-5.41715  6.40237   2.2566 255 255 255
0.425134  8.80435   2.9318 255 255 255
-3.32909  8.68978  2.67775 255 255 255
-1.0475 7.80867 3.06526 255 255 255
-4.82267  7.78781  2.58436 255 255 255
-6.3718 7.29842  2.7853 255 255 255
-3.25964  8.61797  2.63158 255 255 255
-1.67857  5.58446  2.74849 255 255 255
-3.61048  9.67095  2.60845 255 255 255
-0.860481   7.98037   3.05891 255 255 255
-4.69996  8.99523  2.74663 255 255 255
-5.64016  7.83686  2.83771 255 255 255
-5.38645  6.76501  2.40917 255 255 255
0.446373  7.45356  1.98985 255 255 255
-4.80491  7.68656  2.60249 255 255 255
0.872568  7.03226  2.67368 255 255 255
-0.983034   7.87121   3.02407 255 255 255
-3.34606  5.60941  2.54093 255 255 255
-5.8185 6.76573 2.50561 255 255 255
-1.27481  7.98253  3.08418 255 255 255
0.466898   7.7341  2.68298 255 255 255
2.65992 7.10368 5.35391 255 255 255
-4.31488  5.78405  2.29833 255 255 255
-3.37868  7.06829  2.77836 255 255 255
-1.19676  7.50627  3.06921 255 255 255
0.169601  8.56031  2.96916 255 255 255
-0.81041  6.03901  3.02127 255 255 255
-4.83209  5.84225  2.31663 255 255 255
1.07303 6.94612 2.60438 255 255 255
-5.89987  7.15542  2.81894 255 255 255
-2.11407  7.75272  2.94041 255 255 255
-2.82144  6.59524  2.78662 255 255 255
0.0724044   7.71283   2.56452 255 255 255
-4.54403  8.62815  2.79943 255 255 255
-4.73253  6.74135  2.21982 255 255 255
-1.50528  8.07727  3.07964 255 255 255
-3.03895  7.38754  2.62524 255 255 255
-3.7194 9.03872 2.84705 255 255 255
-4.7273 8.02111  2.6245 255 255 255
-2.34121   10.065  3.07057 255 255 255
0.89836 6.97269 2.65812 255 255 255
-6.05997  6.99781  2.56439 255 255 255
-3.41669  8.57343  2.66674 255 255 255
-6.39464  7.17339  2.78834 255 255 255
0.500954  8.18005  2.64585 255 255 255
-5.97478  8.72646   2.6799 255 255 255
-1.86266  9.08359  3.11073 255 255 255
-0.804868   6.28344   3.01685 255 255 255
-3.23044  6.54881  2.63883 255 255 255
-3.22979   6.5492  2.63817 255 255 255
-1.66258  5.86618  2.73063 255 255 255
-3.10111  9.79897  2.71701 255 255 255
-4.95397  7.92541  2.62494 255 255 255
0.550618  6.86839  3.03773 255 255 255
-0.68874  8.09667  3.06426 255 255 255
-4.97675  8.62688  2.67436 255 255 255
-3.90741  7.30764   2.6467 255 255 255
-6.12946  6.53163  2.29059 255 255 255
-0.822637   8.37747   3.08511 255 255 255
-4.9519  7.6235 2.58105 255 255 255
-2.7876 6.91988 2.71534 255 255 255
-4.76066  8.05587  2.62316 255 255 255
-3.92713  8.67892  2.75205 255 255 255
-1.03677  7.56524  2.97799 255 255 255
-6.16528  6.57167  2.36125 255 255 255
-3.20475  6.44726  2.62824 255 255 255
-5.38634  6.64592  2.33227 255 255 255
-4.29979  6.50687  2.23709 255 255 255
-0.778421   8.01154   3.02792 255 255 255
-0.906751   7.96292   3.05097 255 255 255
-4.30854  8.09545   2.7828 255 255 255
-4.05652  6.52848  2.33237 255 255 255
-2.08668  9.32798  3.12261 255 255 255
-5.58882  8.14884  2.94157 255 255 255
-5.69739   8.9423  2.71544 255 255 255
-3.82016  5.95464  2.35504 255 255 255
-4.66575  6.26096  2.15975 255 255 255
-2.10605  9.57938  3.05097 255 255 255
-4.23648  9.63209  2.72171 255 255 255
-2.89535  6.10738  2.65593 255 255 255
-4.90028   7.8141  2.60178 255 255 255
-4.20123  7.36258  2.60811 255 255 255
-5.61087  7.00651  2.54094 255 255 255
-4.27134   6.3218  2.25211 255 255 255
1.07196 6.81568 2.60545 255 255 255
-6.17878  7.82279  2.82806 255 255 255
-2.91389  9.62794  2.74633 255 255 255
-0.933867   7.91944   3.01627 255 255 255
-4.69291  6.30542  2.17262 255 255 255
-3.8402 6.34503 2.35947 255 255 255
-5.62011  9.19989  2.75867 255 255 255
-4.46904  6.15267  2.19006 255 255 255
-5.41042  8.45564   2.6502 255 255 255
-4.00079   8.9247  2.83032 255 255 255
-3.00579  6.54881  2.77763 255 255 255
-1.01548   7.5071   3.0313 255 255 255
-2.25376  9.78604  3.06157 255 255 255
0.456243  7.76176  2.69611 255 255 255
-1.30601  8.36201  3.03007 255 255 255
-4.73083  9.02728  2.73599 255 255 255
-4.41968  8.03067  2.70794 255 255 255
0.459962  7.88257    2.627 255 255 255
1.01764 6.52948   2.664 255 255 255
-5.18204  8.88748  2.71505 255 255 255
0.432121  8.85814  2.96603 255 255 255
-4.38846  6.23026  2.17553 255 255 255
-4.3397 8.67321  2.8033 255 255 255
-6.01143   8.1171  2.71919 255 255 255
-4.84104  8.08061  2.62215 255 255 255
-3.50802  7.45428  2.79449 255 255 255
0.94344 7.03423 2.60405 255 255 255
-6.1902 8.92631 2.68461 255 255 255
-3.12945  7.94244  2.76355 255 255 255
-0.948747   7.18538   3.06156 255 255 255
-4.24112  7.94779  2.75431 255 255 255
-4.88981  8.33042  2.64724 255 255 255
-4.85418  7.15456  2.57519 255 255 255
-6.61994  7.93025  2.83064 255 255 255
0.758046  8.98139  3.32315 255 255 255
-4.53315  7.81882  2.62792 255 255 255
-0.00281414     8.32262     2.99596 255 255 255
-3.83602  6.78818  2.56018 255 255 255
-4.6256 8.22504 2.70937 255 255 255
-6.51918  8.79648  2.66189 255 255 255
-4.4729 6.36876 2.13969 255 255 255
-1.77355  7.86312   2.5626 255 255 255
-1.88653  6.90807  2.81705 255 255 255
1.85554 7.72264 5.34629 255 255 255
-0.410274   9.18237   2.75934 255 255 255
-4.49244   7.7453  2.63072 255 255 255
-4.12452  8.36306  2.78823 255 255 255
-2.09856  9.37808  3.12863 255 255 255
0.187203  8.54347  3.08829 255 255 255
-5.89301  6.60149  2.40258 255 255 255
-1.14126  9.44186  3.10249 255 255 255
-1.18742  7.34351  3.07617 255 255 255
0.610574  7.64263  2.64772 255 255 255
-3.09781  7.33455  2.62188 255 255 255
-6.65477  9.42296  2.70443 255 255 255
-5.19653  8.26245  2.66595 255 255 255
-3.70512  6.30033   2.3948 255 255 255
-5.95069  6.68445  2.48254 255 255 255
-2.78089  5.74591  2.57737 255 255 255
-0.0503256     6.8666    3.03646 255 255 255
0.356755  8.09203  2.66022 255 255 255
-4.74906  8.27209  2.67439 255 255 255
-5.25087  6.73211   2.3643 255 255 255
-2.65459  8.13958  2.45704 255 255 255
0.0646509   8.61652    3.1097 255 255 255
-4.25725  7.67548  2.64235 255 255 255
-0.71243  8.05237  3.01022 255 255 255
-2.92881  6.62659  2.70824 255 255 255
-3.56629  7.25817  2.77666 255 255 255
0.428564  7.96172  2.65282 255 255 255
-0.405264   5.85798   2.97152 255 255 255
-1.29201  9.26285   3.0572 255 255 255
-2.67992  9.98035  3.02561 255 255 255
-2.8544 7.03392 2.78411 255 255 255
-2.21567  6.41989  2.78491 255 255 255
-5.72135  6.80362  2.50474 255 255 255
-2.21717  9.76095  3.08421 255 255 255
-6.34298  7.26168  2.78468 255 255 255
-2.0956 9.17379  3.1141 255 255 255
-1.53907   7.2522   2.5886 255 255 255
-1.37024  7.96946  3.07846 255 255 255
-1.04111   6.6367  3.04092 255 255 255
0.458092  7.90567  2.64932 255 255 255
-3.69839  5.74362   2.4616 255 255 255
-3.74739  6.66131  2.52933 255 255 255
-4.22593  6.62398  2.27253 255 255 255
-3.33086   8.6397  2.68743 255 255 255
0.0468564    9.5181   2.80945 255 255 255
-3.32077  7.43544   2.6279 255 255 255
-5.68645  7.70458  2.84232 255 255 255
-4.23141  6.49199  2.25989 255 255 255
-5.73706  7.83864  2.83621 255 255 255
-4.20716  6.89179  2.34794 255 255 255
-3.87619  9.23011  2.85927 255 255 255
-3.11102  6.88838  2.77848 255 255 255
-2.82561  7.07097  2.77003 255 255 255
-1.54812  8.16431  3.08303 255 255 255
-3.57672  5.79088  2.51373 255 255 255
-0.713555   7.99079   2.47185 255 255 255
-4.26546  7.82186  2.68049 255 255 255
-0.0877089    7.01007    3.03962 255 255 255
-4.06255  6.93358   2.4552 255 255 255
-4.04781  6.97949  2.48803 255 255 255
-4.04583  6.98101  2.48741 255 255 255
-5.57796  8.56825  2.68973 255 255 255
-1.76997  8.96978  3.11246 255 255 255
-0.719016   9.30311   2.78012 255 255 255
-3.41883  8.81755  2.68522 255 255 255
-5.82877  6.81681  2.52549 255 255 255
-4.19072  7.42282  2.63317 255 255 255
-5.85945  7.77164  2.79719 255 255 255
-4.66883  8.97487    2.778 255 255 255
-2.10693  9.03264  3.12346 255 255 255
-3.14317  6.15376  2.54514 255 255 255
-6.20062  8.46144  2.73308 255 255 255
-3.45406  7.16529  2.76996 255 255 255
-6.04035  8.29439   2.7168 255 255 255
-5.74254  7.95504  2.84141 255 255 255
-3.95316  6.70005   2.4545 255 255 255
-6.12197  6.70734  2.48417 255 255 255
-4.35041  8.45954  2.80629 255 255 255
-4.69709  6.48311  2.16234 255 255 255
-4.70127  7.50187  2.60133 255 255 255
-4.31708  7.65299  2.62654 255 255 255
-1.38652  8.05645  3.08203 255 255 255
-5.72986   7.7697  2.83511 255 255 255
-0.611547    6.5896   2.97491 255 255 255
-5.1063  6.9592 2.46928 255 255 255
-4.79193  7.94138  2.62522 255 255 255
-1.61414  7.94514  3.05426 255 255 255
-5.91255  7.41205  2.80758 255 255 255
-6.38732  7.22703  2.78351 255 255 255
-1.00548  8.18181  3.07199 255 255 255
-4.07979  8.73012  2.76303 255 255 255
-5.9206 7.36119 2.81207 255 255 255
-0.698206   7.88569   3.06728 255 255 255
-4.24299  5.95434  2.25829 255 255 255
-0.666462   9.00435   2.75861 255 255 255
-4.63639  6.28107   2.1665 255 255 255
-0.763999   9.25999   2.78519 255 255 255
-2.07498   9.8519  2.51067 255 255 255
-5.31543  9.32253  2.76066 255 255 255
-5.3531 8.46374 2.63645 255 255 255
-6.19303  7.77432  2.81713 255 255 255
-4.46988  9.43699  2.70235 255 255 255
-3.66759  7.62373  2.79214 255 255 255
-4.66563  6.74638  2.22628 255 255 255
-3.19748  6.28696  2.55695 255 255 255
-3.17949  6.31892  2.57458 255 255 255
-4.40287  8.35253  2.79644 255 255 255
-5.27863  6.81855  2.44098 255 255 255
-1.04828  6.79804  3.08526 255 255 255
-5.95661  6.35634  2.34417 255 255 255
-3.51498  8.79187  2.67616 255 255 255
-5.75493  7.06005  2.57901 255 255 255
-4.26153  8.71485  2.80952 255 255 255
-2.16122  8.54845  2.65861 255 255 255
-1.19213  9.41143  3.13213 255 255 255
-2.11433  7.81204  2.94123 255 255 255
-0.45681  9.12501  2.75703 255 255 255
-3.97115  6.01382  2.32288 255 255 255
-4.79869  6.74863  2.25221 255 255 255
-4.80436  7.18302  2.56021 255 255 255
-3.45507  7.10941  2.77444 255 255 255
-4.17619  9.23115   2.8428 255 255 255
-1.92672  5.69046  2.71954 255 255 255
-2.2503 9.93512   3.158 255 255 255
-4.5125 7.24595 2.56422 255 255 255
-2.99973  7.18906   2.7372 255 255 255
-6.02051  9.42963  2.69769 255 255 255
0.11725 8.50265  3.1309 255 255 255
-6.32281  7.47128  2.79508 255 255 255
-4.59296  6.75719  2.22854 255 255 255
-0.830614   9.23089   2.76967 255 255 255
-6.21164  8.52092  2.67399 255 255 255
-0.561395   9.06542   2.75613 255 255 255
-5.41887  8.72523  2.68516 255 255 255
-6.33513  6.61251  2.35721 255 255 255
1.28696 6.23372 3.00601 255 255 255
-6.28046  6.57799  2.31267 255 255 255
-6.28701  6.40911   2.3092 255 255 255
-4.87459  7.83755  2.62688 255 255 255
-1.16864  8.03679  3.08303 255 255 255
-6.31097   6.3006  2.34532 255 255 255
-5.16029  5.73028  2.39752 255 255 255
-5.84643  6.75057  2.48447 255 255 255
-4.15387  7.31552  2.55578 255 255 255
-3.59647  7.54976  2.78259 255 255 255
-6.06974   8.4909  2.83451 255 255 255
-5.47157  6.75641  2.41394 255 255 255
-3.50295  6.93097  2.70519 255 255 255
-5.45297  8.55804   2.6729 255 255 255
-3.49052   6.8847  2.65681 255 255 255
-2.60222  9.90665  3.02229 255 255 255
-3.24392  6.26272  2.56889 255 255 255
-5.63692  8.42455  2.66499 255 255 255
-5.80593  7.98287  2.82797 255 255 255
-6.09292  6.62222  2.42758 255 255 255
-5.3815 6.83455   2.492 255 255 255
-5.62099  7.99046  2.84601 255 255 255
-2.85388  6.63158  2.76642 255 255 255
0.332193  6.84018  2.99353 255 255 255
-1.24132   8.0805  3.08992 255 255 255
-6.09442  9.15944  2.71062 255 255 255
-6.17611  8.08291   2.7461 255 255 255
-0.72959  8.99985  2.75923 255 255 255
