ply
format ascii 1.0
element vertex 1227
property float x
property float y
property float z
property uchar red
property uchar green
property uchar blue
end_header
-4.85833 -3.50547  2.76458 255 255 255
0.214684 -2.60652  3.03823 255 255 255
-2.66499 -2.23793   2.1592 255 255 255
 0.30068 -2.51971  3.04716 255 255 255
-0.419765  -1.57876   2.90156 255 255 255
 -6.2559 -2.59919  2.68611 255 255 255
0.999157  -2.6568  3.07085 255 255 255
-6.45627 -2.52834  2.62631 255 255 255
-4.80705  -1.9744  2.38486 255 255 255
-0.0594276   -1.44387    2.93483 255 255 255
 1.06556 -2.37576  3.08224 255 255 255
-5.42544 -3.00497  2.69953 255 255 255
-2.89975  -2.6347  2.06559 255 255 255
0.975424 -2.49083  3.07258 255 255 255
 1.37038 -2.70495  3.07337 255 255 255
-4.39485 -3.63616  2.79153 255 255 255
 -2.713 -2.2651 2.16261 255 255 255
-4.75129 -3.52177  2.76924 255 255 255
 -6.4335 -2.95149  2.54238 255 255 255
-0.847653  -3.00565   2.98838 255 255 255
-0.543651  -2.71787   3.00894 255 255 255
-4.38553 -3.54294   2.7996 255 255 255
0.221859 -1.45269  2.26257 255 255 255
 1.04128 -2.76401  3.06809 255 255 255
-5.02024 -3.41182   2.7491 255 255 255
 -1.1568 -2.33232  2.96984 255 255 255
-6.40647 -3.12445  2.59823 255 255 255
-0.244067 -0.990416   2.27928 255 255 255
-0.0917015   -1.77781    2.91338 255 255 255
-2.21789 -2.16109  2.23104 255 255 255
-0.829334  -2.05509    2.9574 255 255 255
-0.113658  -1.04216   2.22451 255 255 255
-2.06262 -2.75693  2.12622 255 255 255
0.408256 -2.33128  3.05133 255 255 255
-2.26179 -2.08096  2.15614 255 255 255
-5.80583 -3.32271  2.66673 255 255 255
-1.11157 -2.78396  3.00309 255 255 255
-0.202764  -1.37374   2.90814 255 255 255
-2.11172 -2.78068  2.54066 255 255 255
-6.18384 -3.48743  2.54885 255 255 255
-0.364112  -1.60764   2.90707 255 255 255
-4.52532 -3.46874  2.78822 255 255 255
  1.1591 -2.53249  3.07522 255 255 255
-0.979152  -2.24243   3.01275 255 255 255
-0.189454  -2.65884   3.00932 255 255 255
-1.74451 -2.42115  2.24299 255 255 255
 1.32088 -2.28267  3.08534 255 255 255
0.929068 -2.06686  3.03616 255 255 255
0.596245  -3.2451  3.04641 255 255 255
0.510788 -2.79993  3.03533 255 255 255
  1.3583 -1.73142  3.10501 255 255 255
0.935827  -2.9475  3.05672 255 255 255
0.447471 -3.17439  3.02943 255 255 255
 1.50103 -2.52475   3.0763 255 255 255
0.900168 -2.79729  3.05898 255 255 255
0.580768 -4.93596  3.36703 255 255 255
0.580832 -3.39297   3.0182 255 255 255
0.708186 -4.91876  3.35762 255 255 255
 1.34102 -2.43484  3.07858 255 255 255
1.44825 -2.4137 3.08443 255 255 255
 1.36399 -2.03144  3.09819 255 255 255
  1.5372 -1.85189  3.10777 255 255 255
 1.12609 -2.28982  3.08574 255 255 255
 1.08675 -5.09378  3.35283 255 255 255
 1.12289 -2.77293  3.06512 255 255 255
 1.86382 -1.90323  3.09509 255 255 255
0.905723 -3.14327  3.04558 255 255 255
0.393409 -2.09897  3.05584 255 255 255
 1.28149 -2.57447  3.07512 255 255 255
 1.63638 -1.93492  3.10178 255 255 255
 1.62604 -5.03733    3.363 255 255 255
0.950551 -2.56447  3.07198 255 255 255
 1.82011 -2.07572  3.10502 255 255 255
 1.30173 -2.68601  3.06994 255 255 255
 1.42359 -1.94495  3.09899 255 255 255
1.65851 -1.8074 3.11253 255 255 255
 1.62378 -2.26246  3.09282 255 255 255
0.801867 -2.63062  3.06428 255 255 255
0.400698 -3.14266   3.0376 255 255 255
 1.44197 -1.62367  3.10966 255 255 255
 1.52793 -5.21939  3.37822 255 255 255
 1.03817 -3.03686  3.05664 255 255 255
 1.18406 -2.73097  3.06882 255 255 255
 1.23986 -1.62772  3.10294 255 255 255
0.770935 -3.42958  3.03342 255 255 255
 1.2998 -4.8984 3.35388 255 255 255
0.754592 -2.58762  3.06755 255 255 255
 1.06137 -2.34008  3.08334 255 255 255
0.700312  2.75325    2.543 255 255 255
 1.5985 2.91755 2.59447 255 255 255
-2.21696  3.95198  2.77464 255 255 255
1.26493 2.78516 2.52007 255 255 255
1.72869 3.23958 2.85707 255 255 255
0.463998  2.43028  2.51755 255 255 255
0.593812  2.59921  2.54305 255 255 255
0.354634  4.76455  2.91438 255 255 255
0.428902  2.62032  2.54297 255 255 255
0.788543  2.85825  2.54605 255 255 255
0.259064  2.84979  2.87885 255 255 255
2.01462 2.75167 2.78392 255 255 255
0.603206  2.50818  2.52214 255 255 255
3.03009 2.26194  3.2107 255 255 255
1.16077  3.0359 2.57681 255 255 255
2.60764 2.40802 3.11037 255 255 255
0.253199  2.89342   2.8756 255 255 255
 0.8475 2.70914 2.58247 255 255 255
0.488331  3.88859  2.94978 255 255 255
0.383529  2.36576  2.51113 255 255 255
2.55438 2.36807 3.08969 255 255 255
0.429304  4.82395  2.97115 255 255 255
 1.01383 -1.69582  3.10572 255 255 255
 7.12786 -1.43323  3.91399 255 255 255
 6.35947 -2.42967  3.36541 255 255 255
0.718529 -1.73791   3.0758 255 255 255
6.94282 -2.2441 3.84819 255 255 255
 7.12111 -1.72016  3.87743 255 255 255
 8.22361 -2.01496  3.93887 255 255 255
0.599325 -3.24191  3.04611 255 255 255
 7.18703 -3.31474  3.84006 255 255 255
 7.00602 -1.95548  3.87913 255 255 255
-0.701623   -3.8425   2.98746 255 255 255
 5.29914 -2.25641  3.09923 255 255 255
  6.1719 -2.44868  3.30951 255 255 255
 3.34216 -1.63949  2.14179 255 255 255
 7.24092 -1.86532  3.93953 255 255 255
7.02305 -2.3965 3.89748 255 255 255
-0.455332  -3.69931   2.99601 255 255 255
 4.79148 -1.77948  2.87628 255 255 255
 1.42016 -2.68999  3.07679 255 255 255
7.75356 -2.0738 3.92849 255 255 255
 6.89045 -3.86003  3.79331 255 255 255
  7.7812 -1.77629  3.96987 255 255 255
 7.62768 -2.54848  3.88485 255 255 255
0.518904 -2.97757  3.04993 255 255 255
 4.87302 -1.86133  2.87232 255 255 255
0.900252 -2.79718  3.05875 255 255 255
 0.21632 -3.38302  3.02512 255 255 255
  7.1594 -3.67709  3.80675 255 255 255
 6.66401 -4.16584  3.77808 255 255 255
 7.79251 -1.60051  3.95923 255 255 255
0.0658608  -2.28002   3.04084 255 255 255
6.91237 -3.7037 3.82567 255 255 255
 7.18542 -3.17768  3.85576 255 255 255
  1.2014 -2.58431  3.07649 255 255 255
 1.20741 -1.52918  3.10555 255 255 255
 7.01201 -2.45953  3.89882 255 255 255
6.37897 -3.9244 3.81562 255 255 255
 3.76112 -1.91968  1.97398 255 255 255
1.18278 -2.1807 3.09406 255 255 255
 3.50125 -2.45478   2.0105 255 255 255
 7.81001 -2.27254  3.93327 255 255 255
0.420242 -3.38437  3.00758 255 255 255
 6.90208 -3.29498  3.83741 255 255 255
 7.31604 -3.19015  3.85196 255 255 255
 3.11978 -2.50544  2.05487 255 255 255
 7.96664 -3.57464  3.52123 255 255 255
 5.03234 -1.69083  2.87185 255 255 255
 7.78538 -3.61761  3.52178 255 255 255
 3.25605 -2.66531  2.05921 255 255 255
 7.87814 -3.24791   3.4203 255 255 255
 7.75057 -2.40834  3.92715 255 255 255
 6.45241 -3.83879  3.79664 255 255 255
 5.36813 -2.68917  3.02689 255 255 255
 2.14608 -2.23893  3.04392 255 255 255
 3.93313 -1.74706   1.9942 255 255 255
 3.04919 -2.19864  2.00829 255 255 255
 1.65817 -1.80867  3.11159 255 255 255
 3.46188 -2.40603   2.0042 255 255 255
  2.2273 -3.29427  2.05276 255 255 255
 7.44281 -2.40402  3.89092 255 255 255
 5.01981 -1.75141  2.87315 255 255 255
 2.90537 -2.13206   2.0098 255 255 255
0.979067 -3.75176  3.01631 255 255 255
 1.03682 -2.84461  3.06794 255 255 255
0.854097 -3.21323  3.04617 255 255 255
 1.93922 -1.70476  3.11554 255 255 255
  3.8649 -3.74195  3.00159 255 255 255
 4.96352 -3.35069   3.0546 255 255 255
0.768923 -3.04103  3.04668 255 255 255
 0.85562 -2.96843  3.04873 255 255 255
 6.76087 -3.98133  3.80985 255 255 255
 7.96684 -3.23009  3.47372 255 255 255
  3.8326 -1.90017  1.98738 255 255 255
 6.73554 -3.31618  3.82476 255 255 255
  6.9602 -2.52375  3.88262 255 255 255
 1.62384 -2.26236  3.09257 255 255 255
3.41312  -2.478 1.98187 255 255 255
  4.0143 -3.13189  2.97598 255 255 255
 1.19488 -2.49685  3.07819 255 255 255
 0.90169 -2.94027  3.05817 255 255 255
 7.86446 -3.60377  3.54732 255 255 255
0.922031 -3.03103  3.05077 255 255 255
 4.00534 -3.43015  3.02301 255 255 255
 1.87424 -1.78866  3.09959 255 255 255
   1.4308 -0.580992    3.1158 255 255 255
  2.9598 -2.01805  2.01706 255 255 255
 7.60648 -1.61017  3.94626 255 255 255
 1.59359 -1.88911  3.11708 255 255 255
0.731089 -3.40365  3.02833 255 255 255
 3.91858 -3.65926  3.00434 255 255 255
 8.04541 -3.60564  3.53152 255 255 255
 7.70501 -2.35434  3.92946 255 255 255
 1.11153 -3.07513  3.05806 255 255 255
 7.57861 -2.06163  3.92443 255 255 255
  1.9182 -1.42324   3.1233 255 255 255
  1.3521 -2.89116  3.06494 255 255 255
 5.17933 -2.66464  3.06385 255 255 255
 5.88752 -3.03921  3.32244 255 255 255
0.350596  -1.5008  2.26697 255 255 255
 6.60637 -3.45333    3.816 255 255 255
 7.58737 -2.51255  3.92035 255 255 255
 6.59414 -4.02171  3.80267 255 255 255
  6.9687 -1.18732  3.85069 255 255 255
 1.67325 -3.03591  2.95892 255 255 255
0.849706  -3.0478  3.05229 255 255 255
 2.22418 -3.38609   1.9997 255 255 255
-0.347783  -3.50405   3.00562 255 255 255
  8.3237 -2.05789  3.95827 255 255 255
0.776935 -1.72437  3.07541 255 255 255
 7.62177 -2.10219   3.9279 255 255 255
  6.9734 -3.35365   3.8386 255 255 255
 1.72005 -2.63409  3.06149 255 255 255
 5.08198 -2.96439   3.0691 255 255 255
0.851906 -3.11178  3.04749 255 255 255
 4.88355 -3.36433  3.04733 255 255 255
 3.66436 -2.33122  1.99776 255 255 255
 6.6251 -3.5102 3.79754 255 255 255
 7.08366 -2.28781  3.89379 255 255 255
0.674838 -3.36028   3.0288 255 255 255
 4.19968 -3.46024  3.02571 255 255 255
 2.84294 -2.19629  1.99948 255 255 255
 5.07604 -4.32006  3.73181 255 255 255
 6.79019 -3.45767  3.80298 255 255 255
 8.16691 -3.34567  3.47398 255 255 255
 6.79877 -4.02507  3.80903 255 255 255
 0.72992 -3.29376  3.03925 255 255 255
 7.67831 -1.75831  3.94332 255 255 255
 4.2851 -3.3625 3.03251 255 255 255
 5.78013 -3.96083  3.77114 255 255 255
  8.1303 -3.64557  3.53823 255 255 255
 1.98087 -2.28481   3.0915 255 255 255
 2.19065 -3.25705  2.04831 255 255 255
 7.45942 -1.92539  3.92787 255 255 255
0.247172 -1.49745  2.25944 255 255 255
 3.39669 -2.64218  2.04622 255 255 255
 2.81191 -2.17485  1.99802 255 255 255
 5.68042 -4.22825  3.75015 255 255 255
  1.1005 -3.31609  2.96971 255 255 255
7.57065  -2.755 3.88829 255 255 255
 6.71188 -3.84213  3.81097 255 255 255
0.769542 -2.03805    3.047 255 255 255
 7.53686 -2.65786  3.87497 255 255 255
7.20622 -3.0909 3.86304 255 255 255
0.760021 -3.20349  3.04153 255 255 255
 2.85703 -2.63825  2.04426 255 255 255
  1.80483 -0.697531   3.15359 255 255 255
 5.78988 -3.72568  3.77585 255 255 255
7.79975 -3.7165 3.53813 255 255 255
 6.81332 -3.83892  3.81919 255 255 255
 5.06098 -3.00651  3.06508 255 255 255
 5.00908 -4.30367  3.71713 255 255 255
 7.17432 -2.45115  3.88672 255 255 255
0.674339 -3.03613  3.04645 255 255 255
 7.86558 -3.68843  3.54274 255 255 255
6.46527 -3.9721 3.80594 255 255 255
 5.51695 -2.48031  3.04482 255 255 255
 6.14655 -4.16355  3.79523 255 255 255
0.979572 -2.43364  3.07457 255 255 255
-0.236358  -3.56285   3.00726 255 255 255
 7.10984 -3.79988  3.82121 255 255 255
 1.13544 -2.50047  3.08127 255 255 255
 3.92485 -3.27981  3.02179 255 255 255
 6.75522 -3.87422  3.81659 255 255 255
 7.55544 -1.38876  3.96003 255 255 255
  6.3461 -4.22572  3.76233 255 255 255
 6.53323 -3.31912  3.82182 255 255 255
  7.5559 -2.44934   3.9212 255 255 255
 7.76583 -1.71033  3.94937 255 255 255
  7.6895 -1.93012  3.94348 255 255 255
 7.93784 -3.62579  3.52409 255 255 255
4.75022 -1.5638  2.8862 255 255 255
 4.70811 -1.63567  2.87868 255 255 255
 6.17116 -3.89346  3.80537 255 255 255
  6.9374 -2.03239  3.87127 255 255 255
5.79459 -3.7761 3.78055 255 255 255
 6.15584 -4.26793   3.7953 255 255 255
 6.06953 -3.79617  3.80344 255 255 255
 5.43187 -3.77004  3.76301 255 255 255
  1.43941 -0.456671   3.11631 255 255 255
 3.37982 -2.94405  1.94611 255 255 255
 2.69933 -2.65426  2.05547 255 255 255
 5.36812 -3.88901   3.7571 255 255 255
 7.12375 -2.96163  3.86082 255 255 255
 7.35601 -3.04639  3.86063 255 255 255
-3.87602    3.165  2.45028 255 255 255
-3.42517  3.59828  2.41312 255 255 255
-4.06232  3.47303  2.37489 255 255 255
-3.61168   3.4458  2.42772 255 255 255
-3.52756  3.72174  2.40163 255 255 255
-2.96155  4.04748  2.46716 255 255 255
-2.92588  3.67142  2.48818 255 255 255
-2.31307  3.23529  2.86363 255 255 255
-2.67902  4.03857  2.53616 255 255 255
-3.9754  3.2149 2.44494 255 255 255
-3.95484  3.36494  2.41731 255 255 255
-3.56875  3.02906   2.4346 255 255 255
-3.67024  3.21519  2.42741 255 255 255
-4.76312   3.4027  2.46176 255 255 255
-2.45468  4.04232  2.62419 255 255 255
-4.8896 3.72589 2.37743 255 255 255
-1.85159  3.25689  2.90365 255 255 255
-3.38671    3.468  2.43816 255 255 255
-2.69096  2.92602  2.82734 255 255 255
-2.76916   3.9735  2.52058 255 255 255
-3.30199  3.78431  2.43945 255 255 255
-3.49746  3.47683  2.43168 255 255 255
-3.58028  3.31608   2.4321 255 255 255
-0.369344   4.16132   2.94554 255 255 255
-3.1085 3.56905 2.45837 255 255 255
-3.09664  3.48541  2.49244 255 255 255
-2.78835  3.74497  2.49012 255 255 255
-4.27217  3.78376  2.40248 255 255 255
-3.82138  3.41657  2.41115 255 255 255
-3.39977  3.75745  2.42044 255 255 255
-3.24935  4.15412  2.95913 255 255 255
-3.26534   3.4583  2.45361 255 255 255
-1.95256  2.93966  2.89278 255 255 255
-3.3535 3.83845  2.4563 255 255 255
-0.433748   4.41604   2.92932 255 255 255
-3.61802  3.12007  2.43027 255 255 255
-3.03205  3.81898  2.47932 255 255 255
-2.23623  3.36721  2.85633 255 255 255
-2.75379  3.13156  2.83827 255 255 255
-2.84511  3.68742   2.4746 255 255 255
-2.66241   3.0289  2.84614 255 255 255
-4.17038   3.7906  2.37614 255 255 255
-2.64846  3.74969  2.51393 255 255 255
-2.55101  3.36031  2.80669 255 255 255
-2.24339  3.01219  2.87278 255 255 255
-2.95283  3.05651   2.8092 255 255 255
-2.90367  4.05407  2.48851 255 255 255
-2.91555  3.94745  2.48645 255 255 255
-2.48206   3.4193  2.84428 255 255 255
-4.90543  3.63394  2.39985 255 255 255
-2.27342  3.82339  2.77467 255 255 255
-3.58629  3.21788  2.43068 255 255 255
-2.48507  3.34834  2.86633 255 255 255
-3.23272  3.57804  2.46856 255 255 255
-2.27605  3.72913  2.82493 255 255 255
-3.08883  2.95972  2.83283 255 255 255
-2.18707  3.14014  2.88053 255 255 255
-2.02722  2.97271   2.8869 255 255 255
-2.42577  4.07414  2.61603 255 255 255
-1.67914  3.14406  2.90224 255 255 255
-3.59279  3.59825  2.41687 255 255 255
-3.06405  3.99218   2.4922 255 255 255
-3.36516   3.5452  2.43906 255 255 255
1.11739 4.71893 2.99194 255 255 255
-3.15365  3.74027  2.46213 255 255 255
-2.89033  2.87195   2.8196 255 255 255
-3.5329 3.60938 2.42252 255 255 255
-2.66939  3.20586  2.84808 255 255 255
 -4.698 3.31668 2.44475 255 255 255
-3.12546  3.38673  2.49836 255 255 255
-3.19773  3.43717  2.46215 255 255 255
-2.8983 3.60373 2.47979 255 255 255
-3.66424   3.0001   2.4291 255 255 255
1.12087 4.77262  2.9965 255 255 255
-0.769179   4.02502   2.86384 255 255 255
-2.48528  3.88642  2.56887 255 255 255
-2.54616  2.79832  2.83718 255 255 255
-3.27543  3.64192  2.45214 255 255 255
-2.87626  3.78669  2.50849 255 255 255
-2.62351   3.9361  2.53633 255 255 255
-1.3737 3.45098 2.93006 255 255 255
-2.81162  3.12577  2.83137 255 255 255
-2.13807  3.52805  2.82221 255 255 255
-3.52591   3.2831  2.43992 255 255 255
-3.2726 3.59514 2.44729 255 255 255
-2.89473  2.99941  2.82149 255 255 255
-3.41926  3.32411  2.44578 255 255 255
-3.3368 3.60777 2.44529 255 255 255
-2.62321  4.01479  2.53981 255 255 255
 -2.574  3.2512 2.85239 255 255 255
-3.17109  3.88855  2.46824 255 255 255
-2.92197  2.81238  2.81358 255 255 255
-3.94675  3.30147  2.44113 255 255 255
-3.16101  2.77846  2.80414 255 255 255
-2.52224  3.19208  2.86076 255 255 255
-2.12174   2.9392   2.8629 255 255 255
-2.71367  3.73297  2.49871 255 255 255
1.11641 4.83124 2.98041 255 255 255
-3.50191  3.87751  2.38402 255 255 255
-3.53209  3.55371   2.4309 255 255 255
-2.94668  3.68791  2.48554 255 255 255
-3.37497  3.69785  2.43477 255 255 255
-4.79547  3.40261  2.45197 255 255 255
-2.45706  2.91794   2.8353 255 255 255
-1.69204  3.27078  2.92612 255 255 255
-4.89045  3.58013  2.37317 255 255 255
-3.43107  3.82519  2.43808 255 255 255
-2.71977  3.18404  2.85467 255 255 255
-2.35257  3.08412  2.87068 255 255 255
-3.77319  3.57263   2.4109 255 255 255
-2.62612  3.87386  2.50053 255 255 255
-2.1301 3.14099 2.87969 255 255 255
-2.00894  4.20695  2.66701 255 255 255
-1.63185  3.27601  2.93443 255 255 255
-2.62485  3.24307  2.83762 255 255 255
-3.72073  3.55361  2.40692 255 255 255
-2.16111  3.57683  2.83395 255 255 255
-2.46646   2.9722  2.83912 255 255 255
-2.61181  4.05749  2.55659 255 255 255
-1.38729  3.58431  2.93679 255 255 255
-1.94572  3.02007  2.87763 255 255 255
-1.59516  4.27053  2.66083 255 255 255
-1.89874   3.0405  2.87992 255 255 255
-2.26171  4.22262  2.65191 255 255 255
-2.92665  3.72195  2.48903 255 255 255
-3.91282  3.47479  2.39075 255 255 255
-2.58848  4.02675  2.54916 255 255 255
-3.22724  3.63034  2.46953 255 255 255
-3.12099  2.90764  2.81665 255 255 255
-2.10418  3.19627  2.89378 255 255 255
-2.67976  3.69594  2.51835 255 255 255
-2.55988  3.94554  2.53549 255 255 255
-4.5072 3.81689 2.41868 255 255 255
-2.44654    3.313  2.86453 255 255 255
-2.67456  3.80396  2.50846 255 255 255
-1.86333  3.22303   2.8889 255 255 255
-3.14594  3.68494  2.46668 255 255 255
-2.9726 3.76776  2.4855 255 255 255
-2.07767  3.11007  2.87867 255 255 255
-3.8134 3.58569  2.3945 255 255 255
-2.2334 4.09345 2.65389 255 255 255
-2.40504  2.89403  2.85565 255 255 255
-2.97715  3.72746  2.48628 255 255 255
-2.75872  3.69725  2.50237 255 255 255
-1.70881  3.85734  2.66217 255 255 255
-2.24845  3.44255  2.81751 255 255 255
-2.94277  3.99553  2.49422 255 255 255
-2.99712  3.70017  2.48313 255 255 255
-3.75583  2.99768  2.45473 255 255 255
-3.36283   3.3553  2.44881 255 255 255
 -3.081 3.62042  2.4683 255 255 255
-3.76175  3.66951  2.38411 255 255 255
-4.45243  3.08696  2.46128 255 255 255
-2.53211  3.29398  2.85432 255 255 255
-3.6772 3.33319 2.41249 255 255 255
-3.7035 3.02588 2.43984 255 255 255
-4.88193  3.49125    2.395 255 255 255
-1.98915  3.01233    2.886 255 255 255
-1.86389  3.08919  2.88123 255 255 255
-2.09776  4.13795   2.6691 255 255 255
-3.55756   3.4889  2.42788 255 255 255
-2.2883 3.33664 2.88334 255 255 255
-4.05533  3.36584   2.4186 255 255 255
-4.06119  2.86037  2.45443 255 255 255
-1.85946  2.96956  2.89332 255 255 255
-2.50944  3.48771  2.87438 255 255 255
-4.86544  3.58581  2.40044 255 255 255
-1.95315  4.26283  2.67734 255 255 255
-2.38406   4.0505  2.62835 255 255 255
-2.11554  4.28274  2.66313 255 255 255
-3.90498  2.79497  2.44958 255 255 255
-2.56556  3.31512  2.84514 255 255 255
-2.85428   3.7474  2.51225 255 255 255
-1.90388  3.16576  2.87788 255 255 255
2.61244 0.09202 3.15504 255 255 255
  1.85061 -0.493257   3.15292 255 255 255
 3.06333 0.142906  3.17091 255 255 255
 2.74613 -1.27699  3.07583 255 255 255
-1.01077 -1.90821  2.95192 255 255 255
-0.306966   -3.2782   2.91025 255 255 255
 1.82395 -1.53301   3.0431 255 255 255
-0.578353  -2.00295    2.9766 255 255 255
-0.738212  -3.01337   3.00502 255 255 255
-0.903899  -3.14426   2.99437 255 255 255
 1.76555 -2.20213  3.08232 255 255 255
0.876155 -2.62784   3.0608 255 255 255
0.419375 -2.24711  3.03405 255 255 255
 3.69962 0.195281  3.24511 255 255 255
 1.25272 -3.04517  3.04096 255 255 255
0.319099 -2.61284  3.03723 255 255 255
 1.61168 -2.68487  3.06831 255 255 255
  2.8739 0.170018  3.21845 255 255 255
 1.62558 -2.85159  3.03888 255 255 255
 -2.74318 -0.712518   2.51261 255 255 255
0.952964 -3.28761  3.05064 255 255 255
0.294708 0.550105  2.82013 255 255 255
 1.12421 -2.97618  3.06782 255 255 255
 4.82519 0.123651  3.50072 255 255 255
 2.99086 0.230321  3.21861 255 255 255
  4.18034 -0.383752   3.36851 255 255 255
 1.65768 -2.03506  3.08318 255 255 255
-0.744436  -2.55836   3.02267 255 255 255
0.447101 -2.67267  3.05007 255 255 255
0.447575 -2.66983   3.0483 255 255 255
-0.827048   -1.4421   2.92175 255 255 255
  1.75429 -0.177159   3.15153 255 255 255
   1.737 -1.76192  3.09607 255 255 255
-0.872766  -2.94454   2.99446 255 255 255
 1.34222 -2.80342  3.07434 255 255 255
 1.48268 -1.78681  3.10401 255 255 255
 -0.138 -3.6038 2.99431 255 255 255
  1.9748 -2.55803  3.00823 255 255 255
 -1.7489 0.973737  2.77802 255 255 255
 2.87477 -1.31032  3.05387 255 255 255
 3.53912 -2.23499  2.12521 255 255 255
  4.21481 -0.246104   3.36378 255 255 255
 4.52001 0.162063  3.41567 255 255 255
0.785791 -2.85198  3.05886 255 255 255
0.950415 -1.91246  3.08922 255 255 255
 -0.5091 -2.41393  3.01414 255 255 255
  1.8617 -1.31072  3.12157 255 255 255
  2.84624 0.0249459   3.20092 255 255 255
 2.83102 -1.38593  3.04521 255 255 255
 1.31604 -1.59359  3.10467 255 255 255
 1.50695 -1.67278  3.11222 255 255 255
0.394932 -2.74386  3.04045 255 255 255
 3.57154 0.194944  3.23632 255 255 255
-0.345696  -2.21386   3.02807 255 255 255
 1.00476 -3.22014   3.0384 255 255 255
0.620308  -3.1877  3.03024 255 255 255
-0.983036  -3.41564   2.91798 255 255 255
0.319011 -3.52077  2.99569 255 255 255
0.138321 -3.41619  3.02142 255 255 255
-0.364609  -2.83918   2.93937 255 255 255
 3.93297 -1.48007  2.02047 255 255 255
 2.93715 -2.22452  1.99432 255 255 255
-2.71803  -2.2159  2.17867 255 255 255
  -3.389 0.563677  2.74441 255 255 255
1.99025  -2.205 3.09788 255 255 255
-0.503965  -3.26967   2.93061 255 255 255
 1.48342 -3.31942  2.95968 255 255 255
-0.548371  -1.82954   3.01882 255 255 255
 1.36774 -2.11306  3.07887 255 255 255
 1.41165 -1.57777  3.11048 255 255 255
  3.5942 0.120653  3.23145 255 255 255
-1.36111 -3.72222  2.96687 255 255 255
-0.45803 -3.52284  3.00445 255 255 255
0.857402 -2.01281  3.05719 255 255 255
 4.38491 0.689921  3.42296 255 255 255
-1.10746 -3.69571  2.94882 255 255 255
  4.5827 0.391581  3.42643 255 255 255
 1.53768 -0.75485  3.11942 255 255 255
 2.29863 0.584572  2.36481 255 255 255
-2.29267 -1.19085  2.69157 255 255 255
 2.85554 0.418596  3.21359 255 255 255
-0.310055  -3.70836   2.98815 255 255 255
0.533983 -3.24181  3.01537 255 255 255
0.126089 -3.55694  2.99503 255 255 255
-1.80799  1.00874  2.77668 255 255 255
-0.454997  -3.18762    2.9798 255 255 255
-0.261834  -3.00555   3.00887 255 255 255
-3.41662 0.422988  2.74032 255 255 255
4.00543 -1.0535 2.19098 255 255 255
  1.3503 -2.88981  3.06022 255 255 255
 1.29662 -3.06423  3.05111 255 255 255
0.221878 -3.54207  2.98154 255 255 255
-1.76488 -2.61849  2.22769 255 255 255
0.0795718   -3.5277   3.00915 255 255 255
2.20403 -1.6392 3.12142 255 255 255
   2.5562 -0.465527    3.1812 255 255 255
 -2.81038 -0.690535   2.51327 255 255 255
 -2.83928 -0.723525   2.50764 255 255 255
 1.39037 -3.39134  2.95821 255 255 255
 1.12771 -2.14723  3.07925 255 255 255
-0.960558  -2.33039   3.01576 255 255 255
 1.87955 -2.83525  2.98124 255 255 255
1.90002 -1.7517 3.10495 255 255 255
 1.31985 -2.17859  3.09384 255 255 255
  2.27316 -0.605524   3.16583 255 255 255
-3.69005 0.418492  2.73767 255 255 255
-0.479796  -3.22083   2.94829 255 255 255
-0.479696  -3.22041   2.94727 255 255 255
1.33564 -3.0085 3.05396 255 255 255
 1.91853 -1.42299  3.12329 255 255 255
 1.12101 -3.36815  2.95409 255 255 255
0.216152 -1.62163   2.2565 255 255 255
  1.6739 -3.03454  2.95734 255 255 255
0.872086 -3.36044  3.04591 255 255 255
 1.13275 -3.29588  3.00957 255 255 255
 2.25215 -1.76055  3.12799 255 255 255
 2.38741 0.634039  2.36399 255 255 255
 2.13802 -1.45354  3.12883 255 255 255
-0.446711  -3.14818   2.99893 255 255 255
  1.83778 -0.126561     3.152 255 255 255
0.695736 -3.10551  3.04985 255 255 255
 2.15417 0.500089  2.37541 255 255 255
1.23461 -2.2173 3.09564 255 255 255
0.991112 -1.97514  3.08512 255 255 255
 -1.0048 -3.35635  2.94461 255 255 255
-3.74441  0.34563   2.7538 255 255 255
 2.20378 0.527049  2.37002 255 255 255
 1.77127 -3.11765  2.95722 255 255 255
-0.10021 -2.25138  3.03107 255 255 255
-0.730814  -3.07648   2.98706 255 255 255
 1.03874 -3.03644  3.05618 255 255 255
-1.97451 -1.28042  2.82801 255 255 255
  4.3541 0.642758  3.42076 255 255 255
 1.15448 -3.18514  3.04716 255 255 255
  1.1084 -3.16479  3.05074 255 255 255
 1.44671 -3.50764  3.12331 255 255 255
3.88294  -1.951 1.98223 255 255 255
-0.362756  -3.55876   3.01522 255 255 255
0.900212  -3.0783  3.05478 255 255 255
 1.91714 -2.94473  2.98151 255 255 255
-0.36162 -3.68212  3.00051 255 255 255
 2.71177 -2.59638  2.06429 255 255 255
-2.01618 -2.07856  2.43025 255 255 255
-0.402579  -3.52154   3.01758 255 255 255
0.868061 -3.52267  3.02905 255 255 255
 1.37001 -2.26267  3.02198 255 255 255
-2.00685 -1.31563  2.82589 255 255 255
 2.12229 0.548517  2.37665 255 255 255
-0.922204  -2.11997   3.01299 255 255 255
0.0178307 -0.995025   2.52428 255 255 255
 2.34202 -1.92705  3.05468 255 255 255
0.867904 -3.66219  3.00669 255 255 255
-0.429055  -1.95435   2.97982 255 255 255
   1.232 -3.07666  3.05808 255 255 255
0.673119 -3.03761  3.05092 255 255 255
 1.56477 -2.78437  3.07147 255 255 255
0.135021 -3.45789  3.00126 255 255 255
 3.27615 -2.83767  1.94863 255 255 255
-0.575418  -1.83475     3.018 255 255 255
-0.305202   -3.6633   2.99787 255 255 255
-3.78713 0.666909  2.70402 255 255 255
 1.06345 -2.70138   3.0722 255 255 255
0.328169 -3.79193  2.98888 255 255 255
 2.38336 -1.91057  3.05222 255 255 255
-1.87933 -3.08204  2.11764 255 255 255
 1.2699 -2.3853 3.08693 255 255 255
-0.201079  -3.66615   2.99931 255 255 255
-0.837767  -2.57871   3.01022 255 255 255
 2.36609 0.543502  2.37411 255 255 255
  4.88986 0.0970961   3.52106 255 255 255
 3.82008 -1.76679   1.9809 255 255 255
-0.127054  -3.55447    3.0167 255 255 255
 4.51893 0.460691  3.42055 255 255 255
 2.56877 0.608547  2.39931 255 255 255
-0.380314  -2.34643   3.01873 255 255 255
 4.43168 0.310737  3.41839 255 255 255
0.276116 -3.21456  3.03589 255 255 255
 1.50829 -2.30826  3.08014 255 255 255
 1.59171 -2.13849  3.08882 255 255 255
-4.32821   4.0818  2.42645 255 255 255
-2.54294  2.18511  2.80362 255 255 255
-4.77825  2.77157  2.28272 255 255 255
-1.64726  4.62809   2.6446 255 255 255
-3.49352  4.49057  2.35938 255 255 255
-3.7432 2.53415 2.45046 255 255 255
-0.946141    3.7711   2.82994 255 255 255
-1.60283  1.93877  2.81494 255 255 255
-0.504661   3.14011   2.87071 255 255 255
-2.05243  2.40932  2.82971 255 255 255
-4.51484  3.00562   2.4373 255 255 255
-1.27005  1.96513  2.80884 255 255 255
-1.36624  4.76114   2.7821 255 255 255
-2.78289   2.1541  2.80027 255 255 255
-2.75851  3.86896  2.51561 255 255 255
-2.75944  3.86847  2.51821 255 255 255
0.253848  4.97345  2.65281 255 255 255
-4.31879  2.81699  2.43514 255 255 255
-1.95386  3.49264   2.8415 255 255 255
-3.21654  3.99568  2.46555 255 255 255
-3.25435  4.85704  2.41921 255 255 255
0.0990445   4.06445   2.83734 255 255 255
-4.0817 4.49973   2.371 255 255 255
-2.4807 4.52556 2.52093 255 255 255
-4.9991 3.18423 2.49134 255 255 255
-1.73127  2.16403  2.80722 255 255 255
-1.61828  2.71968  2.83048 255 255 255
-2.14848  3.31552  2.81617 255 255 255
-4.72453  4.57792  2.40114 255 255 255
-1.63988  4.77015  2.64538 255 255 255
-3.9178 3.00338 2.37602 255 255 255
-0.572361   5.17988     2.998 255 255 255
-4.07647  1.96442  2.32144 255 255 255
-2.00339  2.57952  2.78429 255 255 255
-3.24748  3.07492  2.47124 255 255 255
-2.93391  4.79765  2.48843 255 255 255
-4.37521  2.57325  2.42444 255 255 255
-2.68067   4.2575  2.48482 255 255 255
-2.75133  4.58584  2.43628 255 255 255
-3.75891   4.1573  2.35359 255 255 255
-2.59044  2.69286  2.83594 255 255 255
-2.16659   2.6043  2.83356 255 255 255
-4.07706  2.59567  2.41279 255 255 255
-2.96247  4.04759  2.47759 255 255 255
-3.8809 2.17945 2.26724 255 255 255
-4.76987  4.26222  2.36343 255 255 255
-3.73985  4.33986   2.3413 255 255 255
1.65017 5.43264 2.37222 255 255 255
-3.68881  2.29003  2.44282 255 255 255
-5.06417   3.3135  2.46013 255 255 255
0.798533  5.38958  2.99915 255 255 255
-3.06164  2.82912  2.82657 255 255 255
-3.06361  2.83136  2.82094 255 255 255
-4.92532  4.23055  2.38669 255 255 255
-2.02537  3.07214  2.95068 255 255 255
-3.05881  4.47091  2.48162 255 255 255
-3.97796  3.70762  2.36223 255 255 255
-1.64462  2.32964  2.78306 255 255 255
-1.75662  2.67232  2.80988 255 255 255
-0.318486   4.81177   2.94668 255 255 255
-0.435312   5.17062   2.96685 255 255 255
-3.84446  4.07309  2.35951 255 255 255
-3.78792  2.27414  2.37948 255 255 255
0.223365  2.47832   2.5077 255 255 255
-1.87853  2.33813  2.77845 255 255 255
-3.46019  3.32618  2.44534 255 255 255
-2.36904  4.76188  2.53653 255 255 255
-2.96576  4.18856  2.48878 255 255 255
-1.4955 4.48352  2.6691 255 255 255
-0.36104  4.40759  2.89089 255 255 255
-2.97424  2.43472  2.80824 255 255 255
-2.88539  2.27703  2.71609 255 255 255
-2.45056  2.01621  2.80072 255 255 255
-2.19715   3.7647  2.82611 255 255 255
-1.16172  1.76115  2.81682 255 255 255
-3.74027  2.11801  2.32568 255 255 255
-0.738348   3.52037   2.93391 255 255 255
-2.57007  2.19528   2.7931 255 255 255
-1.31546   4.9894  2.73629 255 255 255
-4.93499  4.50027  2.39694 255 255 255
-3.29301  4.51388   2.4364 255 255 255
-3.02494  3.67093  2.46808 255 255 255
-3.5119  1.9002 2.37935 255 255 255
-3.31667  2.45975  2.74901 255 255 255
-4.17207  4.26283  2.41293 255 255 255
-2.10493  2.83062  2.89429 255 255 255
-3.1566 4.81446  2.4738 255 255 255
0.904185  5.24855  3.00582 255 255 255
-0.536944   5.03426   2.96852 255 255 255
-3.21646  2.47627  2.77862 255 255 255
-2.07637  2.01544  2.75779 255 255 255
1.32682 4.67783 2.67981 255 255 255
-0.526121   4.86369   2.99273 255 255 255
-3.03322  2.93893   2.8317 255 255 255
-2.6009 4.49878 2.51341 255 255 255
-2.01991  5.04825  2.71938 255 255 255
-1.57347  2.64218  2.82642 255 255 255
-4.38597  4.53834  2.37083 255 255 255
-4.5839 4.62778 2.40308 255 255 255
-2.77277  3.35876  2.83009 255 255 255
-3.0934 4.34061 2.44037 255 255 255
-1.74957  5.23145  2.75545 255 255 255
-1.71423  2.98106   2.9063 255 255 255
-2.12232  3.04147  2.87556 255 255 255
-0.395235   4.01313   2.94733 255 255 255
-0.394802   4.01304   2.94578 255 255 255
-2.66887  3.11437  2.84402 255 255 255
-2.23131  4.97748  2.62546 255 255 255
-2.56141  4.26998  2.51016 255 255 255
-1.61429  2.95315  2.89224 255 255 255
-0.344454   3.47629   2.85766 255 255 255
-2.93541  2.69032  2.81277 255 255 255
-2.52635  5.04571  2.52753 255 255 255
-3.3469 4.73279 2.43834 255 255 255
-2.65853  2.57544  2.80596 255 255 255
-3.63214  1.88049  2.32374 255 255 255
-0.707188   2.95221   2.79468 255 255 255
1.79088 3.54641  2.9321 255 255 255
-2.62137  2.10063  2.81587 255 255 255
-0.303729   4.58502   2.96323 255 255 255
-1.23516   4.9162  2.75925 255 255 255
-0.21374  4.50241   2.8649 255 255 255
-0.75339  2.84556  2.88553 255 255 255
0.115201   2.6255  2.51173 255 255 255
-4.53646  4.50908  2.39426 255 255 255
-2.8311 3.60729 2.49592 255 255 255
-1.97731  2.13393  2.72334 255 255 255
-1.94011  3.31703   2.8963 255 255 255
-1.84759  2.56367  2.85579 255 255 255
1.39493 4.55717 2.65111 255 255 255
-2.07237   4.2194  2.64711 255 255 255
-2.78835  3.74497  2.49012 255 255 255
-2.7926 3.74505 2.50974 255 255 255
-1.90261  4.89914  2.67639 255 255 255
-0.757398   3.13367   2.88095 255 255 255
-2.54035  4.34489  2.51995 255 255 255
-2.36814  3.88057  2.69255 255 255 255
-1.71165  2.86808  2.89336 255 255 255
-1.30972  5.08976  2.71094 255 255 255
-0.805193   3.30357   2.92633 255 255 255
0.544915  2.41949  2.49569 255 255 255
-0.798871   3.00596   2.95697 255 255 255
0.0941707    2.5497   2.52418 255 255 255
-3.96839  4.02501   2.3855 255 255 255
-0.338511   4.66069   2.91927 255 255 255
0.207597  2.22943  2.47249 255 255 255
-1.62759  5.00721  2.75385 255 255 255
-3.97137  4.15505   2.3557 255 255 255
-1.93919  2.80799  2.88635 255 255 255
-2.57436  4.71315  2.49099 255 255 255
-4.14303  1.61906  2.36754 255 255 255
-0.511542   3.28502   2.90105 255 255 255
-2.03942    4.635  2.68742 255 255 255
-1.95256  2.93966  2.89278 255 255 255
-1.49437  2.60333  2.84005 255 255 255
-3.58149  2.20798  2.38595 255 255 255
-2.41691  4.14799  2.62205 255 255 255
-3.14219  2.74498  2.83684 255 255 255
-2.76703  5.03418  2.49285 255 255 255
-3.47938  4.49862  2.67953 255 255 255
-1.20873  4.51278  2.75141 255 255 255
-0.392505    3.3388   2.86781 255 255 255
-2.69981  5.07909  2.55573 255 255 255
-2.71148  2.38066  2.81249 255 255 255
-3.35245   3.0913  2.45266 255 255 255
-1.37232   4.1631  2.67667 255 255 255
-1.91941  5.07467   2.7106 255 255 255
-1.07445  1.83874  2.82848 255 255 255
-2.28876  2.48345  2.81858 255 255 255
-2.55731  4.96137  2.50682 255 255 255
-2.4716 3.56714 2.86724 255 255 255
-3.10448  4.25235  2.47283 255 255 255
-2.22516  2.42354  2.82813 255 255 255
-3.65102  4.46171  2.37548 255 255 255
-5.00039  4.31129  2.37034 255 255 255
-3.55925  1.86543  2.34391 255 255 255
-2.84892  3.68771  2.48535 255 255 255
-2.95159  3.53778  2.54018 255 255 255
-2.35332  2.27136  2.82204 255 255 255
-2.31541  2.72925  2.84554 255 255 255
-5.0469  4.4592 2.37525 255 255 255
-3.29649  3.56455  2.44245 255 255 255
-2.72842  4.39298   2.4937 255 255 255
-3.26177  4.09488  2.46807 255 255 255
-4.04854  3.89067  2.37834 255 255 255
-2.63446  4.99982   2.5334 255 255 255
-2.11098  2.70702  2.86006 255 255 255
-0.0960562     4.0699     2.9316 255 255 255
-3.38901  3.21653  2.45378 255 255 255
-1.5526 2.26272 2.76646 255 255 255
-1.77002   2.2793  2.81268 255 255 255
-1.71437    2.224  2.79329 255 255 255
-2.78021  2.60366   2.8008 255 255 255
-2.32078  3.65332  2.81269 255 255 255
-1.95311  2.38667  2.77722 255 255 255
-3.64196  2.93788   2.4414 255 255 255
-0.45808  5.10283    2.963 255 255 255
-1.81979  4.68328  2.69548 255 255 255
-1.92905  2.08072  2.73248 255 255 255
-2.10123  1.64933  2.77858 255 255 255
-0.33916  4.23837  2.92953 255 255 255
-3.23567   4.7991  2.46544 255 255 255
-3.23567   4.7991  2.46544 255 255 255
-2.62309  4.36097  2.50485 255 255 255
-2.55101  3.36032   2.8067 255 255 255
0.74257 2.51935 2.51154 255 255 255
-0.929201   4.00862   2.94101 255 255 255
-1.60055  4.51519  2.67604 255 255 255
-4.55193  2.55406  2.41593 255 255 255
-3.73321  4.64916  2.38128 255 255 255
-3.03165  3.81849  2.48185 255 255 255
-2.75567  3.13019  2.84898 255 255 255
0.103089  3.57873  2.90627 255 255 255
-3.16971  2.24961  2.78131 255 255 255
-4.80129  4.47999  2.38628 255 255 255
-2.94918  4.66687  2.47629 255 255 255
-2.09034  4.73617  2.68548 255 255 255
-1.76886  3.09593  2.91935 255 255 255
-4.11831  2.94179  2.46954 255 255 255
-2.06411  2.91092  2.87068 255 255 255
-2.39662  3.96216  2.62849 255 255 255
0.791864  4.74393  2.92472 255 255 255
-2.44928  2.51705  2.82113 255 255 255
-4.97245  4.36028  2.40168 255 255 255
-2.24339  3.01219  2.87278 255 255 255
-3.65986  4.34086  2.36769 255 255 255
-3.97041   4.2921  2.35129 255 255 255
-2.34738  4.62251  2.54142 255 255 255
-4.18084  4.15023  2.37087 255 255 255
-2.11137  3.79758  2.86065 255 255 255
-3.58877  1.83169  2.30124 255 255 255
 -2.328 3.46154 2.83727 255 255 255
-1.55953  5.26398   2.7528 255 255 255
 -1.385 2.72348 2.88149 255 255 255
-1.94617  4.74655  2.71299 255 255 255
-0.352211    3.9346   2.91739 255 255 255
-4.29525  4.49548  2.37579 255 255 255
-3.58328  4.97883  2.45765 255 255 255
-2.13245   4.5967  2.68386 255 255 255
-1.95456  4.16238  2.68825 255 255 255
-2.11354  4.53683  2.66866 255 255 255
-2.83403   2.8351  2.82739 255 255 255
-2.24883  2.76268   2.8537 255 255 255
-0.848571   4.06585   2.91071 255 255 255
-3.34312  2.65846  2.72586 255 255 255
-1.57013  4.22585  2.64232 255 255 255
0.700912  5.58568  3.02185 255 255 255
1.83895 3.70442 2.92359 255 255 255
1.90972 2.63977 2.77191 255 255 255
-2.69064  2.66184  2.79832 255 255 255
-4.88723  4.41388  2.39165 255 255 255
-1.26495  4.73192  2.70959 255 255 255
-3.9826 2.60399 2.42023 255 255 255
0.445122    2.979  2.89274 255 255 255
-3.71958   4.4457    2.368 255 255 255
-2.53149  3.16688  2.88272 255 255 255
-4.01686  2.81318  2.43005 255 255 255
-1.16567  2.13189  2.84094 255 255 255
-1.07344  4.35813  2.86247 255 255 255
-2.75972  4.45301  2.48253 255 255 255
-3.32026  4.01314  2.47099 255 255 255
-2.3203 3.83944  2.7088 255 255 255
-2.07218  2.44843  2.76841 255 255 255
-2.54335  3.81426  2.53288 255 255 255
-0.284916    2.0712    2.4855 255 255 255
-3.60729  4.92211  2.42947 255 255 255
-2.66637  2.04123  2.78072 255 255 255
-3.85087  4.69503  2.36893 255 255 255
-2.08046  2.22794  2.79846 255 255 255
-0.627466    3.4865   2.89501 255 255 255
-3.05777  2.28331  2.79461 255 255 255
-3.17061  4.24134  2.47019 255 255 255
-1.42411  1.72248  2.77472 255 255 255
-2.63548  4.30023  2.48987 255 255 255
-2.37287  2.33904  2.82702 255 255 255
-3.37665  4.90995   2.4346 255 255 255
-2.4538 2.19647 2.82185 255 255 255
-3.58439  2.93007  2.46339 255 255 255
-2.27851  3.95693  2.73352 255 255 255
-2.21811  4.31335  2.67316 255 255 255
 -1.813  1.7977 2.81142 255 255 255
-3.0436  3.0171 2.82397 255 255 255
-4.43137  4.26859  2.39602 255 255 255
-2.35434   2.4546  2.82206 255 255 255
-3.08175  2.69565    2.809 255 255 255
-2.84694  1.88173  2.80462 255 255 255
-2.00728  1.55226  2.82003 255 255 255
-0.707895   4.27654   2.95591 255 255 255
-0.708299   4.27757   2.92994 255 255 255
-4.41004  4.21845  2.36064 255 255 255
-0.442477   5.55538    2.9943 255 255 255
-3.76424  2.19893  2.44044 255 255 255
-1.55719  2.88215  2.87475 255 255 255
-4.36596  3.76209  2.40243 255 255 255
0.166211  2.31145  2.50231 255 255 255
0.206987  2.97823  2.87726 255 255 255
-2.69302  3.33824  2.84454 255 255 255
-3.08956  2.33366  2.79249 255 255 255
-4.05641  1.59417  2.36682 255 255 255
-2.58872  2.58776  2.80169 255 255 255
-2.28983  3.12301  2.87343 255 255 255
-1.41865  3.52926  2.95102 255 255 255
-0.329253   3.87901   2.88858 255 255 255
-2.89101  2.87161  2.81604 255 255 255
-2.00001   3.2519  2.87262 255 255 255
-2.73943  4.53613  2.47764 255 255 255
-4.81911  3.45336   2.4368 255 255 255
-2.26621  2.55659  2.83788 255 255 255
-2.12185  1.74936  2.79397 255 255 255
-3.46248  3.76557  2.43598 255 255 255
-3.16701  4.33245  2.45812 255 255 255
-4.20431  3.73277  2.37912 255 255 255
-1.45176  1.81035  2.83265 255 255 255
-3.50259  3.05917  2.43688 255 255 255
-2.67288  3.64501  2.53118 255 255 255
-3.83781  4.18873  2.33766 255 255 255
-2.45153  2.73387  2.82364 255 255 255
-1.9935  5.1137 2.74256 255 255 255
-0.117045   2.34154    2.5417 255 255 255
-1.64372  2.96146  2.88754 255 255 255
-4.37278  4.46678  2.33384 255 255 255
-1.21837  2.57963  2.84492 255 255 255
-1.78164  4.83435  2.65383 255 255 255
-3.47381  4.82977  2.43202 255 255 255
-1.86158  4.32456  2.67087 255 255 255
-1.4316 1.98819  2.8366 255 255 255
-3.27543  3.64192  2.45214 255 255 255
-2.63317  2.27508  2.79888 255 255 255
-1.37332  3.63677  2.93844 255 255 255
-0.70888  3.17671   2.8982 255 255 255
-2.5113 1.93515 2.80796 255 255 255
-3.79861  3.63945  2.39334 255 255 255
-2.14484  3.36221   2.8274 255 255 255
-3.18979  3.15601  2.51895 255 255 255
-3.80996  2.34589  2.41722 255 255 255
-1.47067  2.54083  2.83754 255 255 255
-1.75588  3.84648  2.65565 255 255 255
-3.07769  4.23055  2.47694 255 255 255
-1.66324  2.11935  2.79942 255 255 255
-2.87638  3.78612  2.50195 255 255 255
-1.88768  5.03012  2.78743 255 255 255
-2.8739 2.18214 2.79996 255 255 255
-2.61731  3.40213  2.85295 255 255 255
-4.65389  4.72563  2.41244 255 255 255
-2.61776   2.5087  2.83212 255 255 255
-1.29447  2.47626  2.77766 255 255 255
-4.10503  1.66616   2.3726 255 255 255
 1.7892 3.63066    2.89 255 255 255
-2.3379 3.34798 2.86752 255 255 255
-3.34495  3.90583   2.4594 255 255 255
-1.26302  2.55872   2.8133 255 255 255
-0.680595   3.02847   2.84296 255 255 255
-3.94441  4.13018  2.35197 255 255 255
-2.3974 2.61398 2.82617 255 255 255
-1.82039  4.29288  2.61917 255 255 255
-4.85734  4.54356  2.40054 255 255 255
-4.03018  4.46845  2.37126 255 255 255
-3.97212    4.564  2.37166 255 255 255
-4.00952  3.26331   2.4485 255 255 255
-4.72826  3.36425  2.45056 255 255 255
-0.64799  3.20773  2.91564 255 255 255
-1.49532  5.12004  2.74317 255 255 255
-3.5957 1.58133 2.37296 255 255 255
-2.5843 4.12981 2.54831 255 255 255
-1.41764  3.65996  2.93773 255 255 255
-1.4559 3.92278 2.91803 255 255 255
-2.60046  3.78843   2.5214 255 255 255
-0.458417   5.49488   3.01139 255 255 255
-3.71397  3.95621  2.36245 255 255 255
-3.16178  4.51747  2.45808 255 255 255
0.208169  3.12815  2.92045 255 255 255
-1.8011 2.84709 2.86829 255 255 255
-1.07882  2.14131  2.84326 255 255 255
-4.48059  3.82982  2.43748 255 255 255
-1.57186  5.13198  2.75833 255 255 255
0.530754  3.88276  2.94027 255 255 255
-0.334091   2.08625   2.48664 255 255 255
-2.36651  4.46294   2.5601 255 255 255
-2.18223  2.29721  2.82385 255 255 255
-3.45429  4.09881  2.38457 255 255 255
-3.89836  4.15296  2.33981 255 255 255
-4.58777  3.41571  2.43847 255 255 255
-1.66223  4.32571  2.64594 255 255 255
0.794263  4.86624  2.93787 255 255 255
-3.3751 4.09431 2.45006 255 255 255
-2.71453  3.67608  2.49821 255 255 255
-2.56893   1.8709  2.80148 255 255 255
-3.30924  3.34771  2.45594 255 255 255
-1.80984  4.41042  2.68029 255 255 255
-4.61789  2.91478  2.26828 255 255 255
-1.43904  2.75447  2.86079 255 255 255
-2.43689  4.64992  2.52847 255 255 255
-1.49664  2.35389  2.79882 255 255 255
0.883747  5.31861  3.01334 255 255 255
-3.04898  4.16439  2.46985 255 255 255
-2.14723  5.01517  2.68572 255 255 255
-2.99767  2.29402  2.80146 255 255 255
-4.83268  4.66349  2.28329 255 255 255
-3.12896   4.2021  2.47033 255 255 255
-0.619877    5.3343   2.97235 255 255 255
-3.81655  4.90512  2.41913 255 255 255
-2.80032  2.46925  2.81198 255 255 255
-3.15718  3.27355  2.50869 255 255 255
-0.218153    3.6157   2.94367 255 255 255
-2.57352  1.95499  2.80445 255 255 255
-1.89901  4.94813  2.72713 255 255 255
-0.530471   3.41503   2.92942 255 255 255
-1.23853  4.81259  2.73289 255 255 255
-2.51487  4.04016  2.56937 255 255 255
-2.78725  2.35156  2.80854 255 255 255
0.91249 2.19871 2.49117 255 255 255
-2.87292  1.97064  2.80737 255 255 255
-2.65539  4.06287  2.53367 255 255 255
-2.99359  3.51458  2.45624 255 255 255
-2.91066  5.04884  2.48006 255 255 255
-2.45179  4.29972  2.52824 255 255 255
-3.43107  3.82519  2.43808 255 255 255
-3.34634  4.70646  2.44268 255 255 255
-2.5206 2.47458 2.82629 255 255 255
-3.3441 3.65734  2.4401 255 255 255
-1.06728  1.77007  2.82033 255 255 255
-3.79144   3.9606  2.38825 255 255 255
-2.11095  4.59651  2.69209 255 255 255
-2.07092  5.07854  2.69448 255 255 255
-2.51452  5.13198  2.54282 255 255 255
0.0332124   2.16738   2.48909 255 255 255
-3.73431  4.59567  2.36021 255 255 255
-2.43106  4.80101  2.52311 255 255 255
-2.35336  3.08237  2.88157 255 255 255
-3.96795  4.63886  2.36989 255 255 255
-2.01898  3.41474  2.88049 255 255 255
-2.33261  4.20928  2.61294 255 255 255
-2.9481  3.6871 2.48968 255 255 255
-3.1674 2.91923 2.83671 255 255 255
-1.47717  2.81448  2.86251 255 255 255
-4.4782 3.99276 2.36359 255 255 255
0.0973665   3.94532   2.85916 255 255 255
-2.55988  3.94554  2.53549 255 255 255
-2.33766  2.05364  2.80163 255 255 255
-2.74886  2.68355  2.80358 255 255 255
-3.19131  2.55282  2.77915 255 255 255
-3.11546  4.91122  2.47131 255 255 255
-3.05524  2.55647  2.81768 255 255 255
-2.03112   2.7325  2.84294 255 255 255
-2.49426   2.5776  2.83154 255 255 255
-2.01809  1.74234   2.7708 255 255 255
-2.33743  2.10481  2.80402 255 255 255
-3.77587  3.07946  2.42111 255 255 255
-3.13013  3.50757  2.45658 255 255 255
0.161815  2.23769  2.49877 255 255 255
-5.0111 3.48881 2.37149 255 255 255
-2.10642  4.64305  2.68835 255 255 255
-2.36238  4.51066   2.5523 255 255 255
-4.79022  4.61351  2.39546 255 255 255
-3.23135  2.22552  2.77609 255 255 255
-2.98586  2.62541  2.81877 255 255 255
-3.29689  3.70855  2.44511 255 255 255
   -0.2 3.71643 2.93654 255 255 255
-4.63046  4.56072  2.39081 255 255 255
-2.77073  2.23205   2.7976 255 255 255
0.0586783   2.41804   2.50362 255 255 255
-1.08545  3.40456  2.37691 255 255 255
-2.31085  4.45086  2.55279 255 255 255
-0.992486   2.00443   2.83692 255 255 255
 -3.423 4.34071 2.41584 255 255 255
-3.6465 4.64173 2.39367 255 255 255
-2.61232  2.02544  2.79453 255 255 255
-3.0368 3.42285 2.48013 255 255 255
-4.28878  2.17701  2.40428 255 255 255
-2.39756  2.71748  2.82458 255 255 255
-4.50326  4.76108   2.4017 255 255 255
-4.24076  3.93417  2.35759 255 255 255
-3.35351  3.16079  2.44171 255 255 255
-0.367796   4.32638   2.87328 255 255 255
-2.62613  3.24309  2.86149 255 255 255
1.20238 4.78884 2.99718 255 255 255
-1.88895  4.79683  2.69974 255 255 255
0.832399  5.30131   3.0061 255 255 255
-3.85092  4.65175  2.38424 255 255 255
-1.65235  5.13791  2.75358 255 255 255
-2.37605  3.27257  2.87861 255 255 255
-1.84404  4.58397  2.69565 255 255 255
-2.50856  4.39801  2.51727 255 255 255
-2.88031  3.28487  2.80283 255 255 255
-3.18409  2.67285  2.79753 255 255 255
-3.87207  3.01877  2.43865 255 255 255
-1.89769  4.67003  2.70705 255 255 255
-4.08002  3.44876   2.3836 255 255 255
0.78995 5.32063  3.0053 255 255 255
-3.2968 3.96665 2.46351 255 255 255
-2.08758  3.58837  2.87151 255 255 255
-2.39588  2.78491  2.83318 255 255 255
-3.41084  4.86321  2.45222 255 255 255
-2.83414  2.38576  2.80287 255 255 255
-1.29252  4.95318  2.70975 255 255 255
-3.80638  4.86235  2.38294 255 255 255
-1.45358   3.9723  2.89282 255 255 255
-1.99041  3.36848  2.91511 255 255 255
-3.33265  4.25391   2.4437 255 255 255
 -2.407 2.47979  2.8313 255 255 255
 -2.354   3.891 2.74567 255 255 255
-1.76255  5.07645  2.74317 255 255 255
-4.71656  4.22151  2.39807 255 255 255
-2.92471   2.1752  2.80861 255 255 255
-1.59826  4.61656  2.65215 255 255 255
-1.91556  3.37477  2.90039 255 255 255
-2.15543  3.95214  2.80798 255 255 255
-3.36312  3.25013  2.43885 255 255 255
  -3.98 3.91549 2.35182 255 255 255
-2.40726  2.67001  2.81696 255 255 255
-1.94671  4.79214  2.70042 255 255 255
-1.58197   4.3455  2.64826 255 255 255
3.05442 2.31614 3.22736 255 255 255
-4.39535  4.31015  2.38222 255 255 255
-4.14959  1.66699  2.36161 255 255 255
0.254112  3.00309  2.89658 255 255 255
-2.61431  1.77277  2.74753 255 255 255
-3.96214  2.71905   2.4482 255 255 255
-1.76686  1.85242  2.82902 255 255 255
-1.67669  1.67512  2.82318 255 255 255
-1.95477  2.56296  2.78585 255 255 255
-3.64477  3.29369   2.4299 255 255 255
-3.24666  2.56042  2.76565 255 255 255
-4.09234  3.27836  2.47321 255 255 255
-3.10323  3.33954   2.5135 255 255 255
-1.88815  2.19219  2.77907 255 255 255
-4.01921  4.29428  2.35094 255 255 255
-2.25683  2.69182  2.88345 255 255 255
-2.33001  2.33053  2.83219 255 255 255
-2.83626  4.66779   2.4623 255 255 255
-2.12998  2.44943  2.79484 255 255 255
-2.48783  3.24739  2.87604 255 255 255
-2.48753  3.24928  2.87073 255 255 255
0.801671  2.83493  2.55087 255 255 255
-4.55229  4.63656  2.39509 255 255 255
-0.30503  3.95579  2.92089 255 255 255
-3.33255  3.56238  2.44479 255 255 255
-2.74845  2.81373    2.829 255 255 255
-4.24067  4.55049  2.37834 255 255 255
-3.13508  2.71638  2.83611 255 255 255
-0.993756   2.17087   2.83695 255 255 255
-3.43776  4.84175  2.44523 255 255 255
-4.19882  4.61806  2.39122 255 255 255
-3.28661  4.43712  2.43859 255 255 255
-4.91417  4.27176  2.39828 255 255 255
0.473642  3.94982  2.98523 255 255 255
-3.10404  2.63757  2.81363 255 255 255
0.779356   5.6238  3.03091 255 255 255
-0.87783  2.39567   2.8039 255 255 255
 1.0469  2.9214 2.58545 255 255 255
-3.94429  2.77307  2.42212 255 255 255
-3.91845  2.40988  2.46309 255 255 255
0.257466  2.89364   2.8851 255 255 255
0.510036  5.52777     2.93 255 255 255
-3.74996  3.17867  2.43847 255 255 255
-1.62417  4.82755  2.64466 255 255 255
-3.46442  1.85179  2.39443 255 255 255
-3.20651  2.79406  2.79661 255 255 255
-1.83417  5.01125  2.70996 255 255 255
-1.29372  5.19047  2.71405 255 255 255
-1.79412  5.02256  2.71023 255 255 255
-0.319271   3.44511   2.92419 255 255 255
-1.42855  4.92802  2.73594 255 255 255
-4.38348  3.81617  2.40451 255 255 255
-2.27945  3.10307  2.87803 255 255 255
-2.28023  3.10563  2.87208 255 255 255
-2.97715  3.72746  2.48628 255 255 255
-2.14063  2.24151  2.82412 255 255 255
-2.83212  2.14642  2.79489 255 255 255
-3.69019  4.25401  2.36383 255 255 255
-1.42624   2.1295  2.83913 255 255 255
-1.3995  2.5447 2.85844 255 255 255
-3.45346  3.85227  2.40726 255 255 255
-4.75337  4.34378  2.39073 255 255 255
-1.96442  4.30244  2.67432 255 255 255
-2.41478  1.86218  2.51371 255 255 255
0.547253  5.56508  2.97724 255 255 255
-2.6087 4.69098 2.48108 255 255 255
-2.7928 3.71555 2.48232 255 255 255
0.108407   3.3557  2.92647 255 255 255
