ply
format ascii 1.0
element vertex 971
property float x
property float y
property float z
property uchar red
property uchar green
property uchar blue
end_header
 0.340853 -0.256596 -0.636661 0 255 0
0.00211323   0.010591  0.0111917 0 255 0
-0.00433896    0.957727    0.236845 0 255 0
 0.960169 -0.380945   2.76587 255 255 255
-0.000284798     0.200813      2.70691 255 255 255
-0.087296 -0.132608   2.72594 255 255 255
0.0235066  0.166188   2.68589 255 255 255
  0.41168 -0.122281   2.69383 255 255 255
 0.257444 -0.218375   2.69046 255 255 255
  -0.25381 -0.0745397    2.70056 255 255 255
 0.169736 -0.153467   2.70479 255 255 255
-0.036522 0.0416694    2.7418 255 255 255
0.149114 0.154913  2.65139 255 255 255
 0.278994 -0.403523   2.63059 255 255 255
-0.125896 -0.532203   2.55062 255 255 255
0.359306  -0.2226  2.69282 255 255 255
0.0361187 -0.453233    2.4998 255 255 255
 0.0106631 -0.0505415    2.72928 255 255 255
-0.29531 0.423332  2.68544 255 255 255
0.193719 0.413659  2.71482 255 255 255
-0.201407  0.368079   2.65407 255 255 255
-0.125713  0.229408   2.65852 255 255 255
-0.324811  0.458715   2.64957 255 255 255
 0.296345 0.0737468   2.75582 255 255 255
0.0754364  0.361089   2.70241 255 255 255
0.265972  0.41108   2.7098 255 255 255
  -0.23759 -0.0499325    2.72747 255 255 255
 0.239563 0.0736868   2.73068 255 255 255
-0.207653  0.134471   2.75778 255 255 255
-0.489687 -0.246858   2.66943 255 255 255
 -0.19756 -0.118607   2.72246 255 255 255
0.0972282 -0.288577   2.68109 255 255 255
0.249454 0.481634  2.67436 255 255 255
0.353518 0.395172  2.74704 255 255 255
-0.441411 -0.198209   2.65814 255 255 255
0.0999975  0.315141   2.69406 255 255 255
 0.166099 0.0776903    2.7564 255 255 255
-0.114774 -0.509872   2.55979 255 255 255
0.368333 0.193591  2.76478 255 255 255
-0.351562 -0.172219   2.67115 255 255 255
  0.194147 -0.0354129    2.62068 255 255 255
-0.340348  0.512948   2.66998 255 255 255
-0.0881586    0.12023    2.77392 255 255 255
 0.885122 -0.411363   2.68951 255 255 255
 0.620601 -0.503755   2.63645 255 255 255
-0.66611 0.468907  2.71885 255 255 255
-0.752744  0.500484    2.8775 255 255 255
0.0781254  -0.57139   2.53755 255 255 255
0.0538883  -0.56101   2.59275 255 255 255
 0.869902 -0.304452   2.60374 255 255 255
0.545836 -0.48025   2.6822 255 255 255
-0.772034  0.456491   2.90993 255 255 255
 0.087595 -0.493166   2.60486 255 255 255
  0.10981 -0.503885   2.46004 255 255 255
-0.0635906  -0.590995    2.53824 255 255 255
0.962106 0.561459  2.78365 255 255 255
-0.0386419  -0.630472    2.52445 255 255 255
-0.00657831    0.485306     2.68646 255 255 255
 0.161878 -0.301758   2.70058 255 255 255
 0.206523 -0.417612    2.6277 255 255 255
-0.212741 -0.158925   2.69752 255 255 255
 0.555067 -0.426767   2.65525 255 255 255
 0.133368 -0.114114   2.70855 255 255 255
 0.129449 -0.241739   2.70476 255 255 255
 0.605541 -0.486559   2.80298 255 255 255
-0.749408  0.600557   2.74779 255 255 255
 0.114453 -0.292724    2.6839 255 255 255
-0.907943 -0.105264    2.6776 255 255 255
-0.329618 -0.041331   2.72266 255 255 255
-0.929072 -0.206328   2.64805 255 255 255
 0.146558 -0.270089   2.69348 255 255 255
-0.979395 -0.227489   2.65375 255 255 255
 0.157906 -0.413916   2.64337 255 255 255
 0.240088 -0.514777   2.67584 255 255 255
  0.315013 -0.0710456    2.70854 255 255 255
 0.587086 -0.478828   2.79057 255 255 255
-0.539313 -0.525018   2.56751 255 255 255
 0.551921 -0.409569   2.69581 255 255 255
-0.912075  0.162119   2.74821 255 255 255
0.372692 0.120581  2.75361 255 255 255
-0.655995  0.313463   2.78381 255 255 255
-0.800681  0.225212   2.75352 255 255 255
-0.00818488   -0.481178     2.57053 255 255 255
-0.752744  0.560394   2.73958 255 255 255
  1.10333 -0.344434   2.68484 255 255 255
-0.805015  0.516064   2.90574 255 255 255
-0.0184151  -0.568424     2.5367 255 255 255
 0.362235 -0.601321   2.56084 255 255 255
0.807472 0.465078  2.73946 255 255 255
-0.949553  -0.25858   2.64028 255 255 255
0.915874  0.27882  2.79764 255 255 255
 0.708219 -0.551742   2.67368 255 255 255
 0.802708 -0.102259   2.71504 255 255 255
  0.708851 -0.0788416    2.69773 255 255 255
0.0452646 -0.200297   2.70676 255 255 255
-0.394131 -0.203159   2.65131 255 255 255
 0.389335 -0.369848   2.65866 255 255 255
-0.0770595    0.26342    2.68097 255 255 255
 0.859997 -0.177617   2.69452 255 255 255
0.0268871  0.272053   2.66919 255 255 255
 0.250467 -0.559954   2.62044 255 255 255
0.280985 0.455187  2.70424 255 255 255
-0.398592 -0.279561   2.63662 255 255 255
-0.932307 -0.531161   2.58559 255 255 255
  0.88299 -0.271146   2.66804 255 255 255
 0.227987 -0.329947   2.67663 255 255 255
 0.734109 -0.499509   2.80072 255 255 255
-0.599569   0.19835   2.74078 255 255 255
 0.288148 -0.610971   2.58608 255 255 255
-0.940253 -0.213911   2.66118 255 255 255
 0.738469 -0.566688   2.78672 255 255 255
  0.786067 -0.0255411    2.72096 255 255 255
0.395158 0.219452  2.77309 255 255 255
  0.23449 -0.261819     2.673 255 255 255
-0.368069 -0.497568   2.60709 255 255 255
 1.00284 0.602713  2.76515 255 255 255
-0.0460321  0.0374944    2.74303 255 255 255
  0.125612 -0.0673399    2.72072 255 255 255
0.224731 0.358603  2.70147 255 255 255
 0.516584 -0.336964   2.70831 255 255 255
-0.305756  0.320155    2.7604 255 255 255
 0.172405 -0.273732   2.69138 255 255 255
0.0373262  0.566521   2.66928 255 255 255
 0.622255 -0.619003   2.79453 255 255 255
0.532004 -0.51821  2.68571 255 255 255
0.296405 0.407619  2.70591 255 255 255
 0.574768 -0.108927   2.71351 255 255 255
-0.0881677    0.33162    2.67407 255 255 255
 0.151608 -0.535588   2.55257 255 255 255
0.292044 0.137424  2.74905 255 255 255
  0.173843 -0.0241315    2.72235 255 255 255
0.238407 0.132321  2.76177 255 255 255
 0.825779 -0.449961   2.68327 255 255 255
-0.351442  0.223859   2.67896 255 255 255
 0.363158 0.0608778   2.68858 255 255 255
 0.223161 0.0966945   2.67586 255 255 255
 0.95648 0.227921  2.72271 255 255 255
0.931256 0.119984  2.79486 255 255 255
  0.64287 -0.275408   2.65903 255 255 255
 0.435029 -0.240252   2.68855 255 255 255
  0.358366 -0.0457989    2.72753 255 255 255
0.171652 0.356467  2.71748 255 255 255
0.915874  0.27882  2.79764 255 255 255
 -0.40487 -0.213678   2.66913 255 255 255
0.219109 0.133495  2.74646 255 255 255
-0.17157 0.187563  2.67358 255 255 255
 0.592021 -0.322507   2.66353 255 255 255
 0.434388 -0.477852   2.66373 255 255 255
 0.581863 -0.259039    2.6674 255 255 255
  0.31486 -0.559492   2.60825 255 255 255
-0.999956  0.116008   2.74347 255 255 255
-0.313508 0.0316264   2.75477 255 255 255
-0.180219  0.304274   2.69745 255 255 255
0.762373 0.453521  2.71921 255 255 255
0.735428 0.440465  2.81692 255 255 255
-0.195695  0.428226   2.65981 255 255 255
 0.487562 -0.243603   2.67138 255 255 255
 0.264603 -0.383608   2.58973 255 255 255
-0.484239 -0.205307   2.65632 255 255 255
 0.83637 0.538006  2.80342 255 255 255
-0.676667 -0.253695   2.65114 255 255 255
-0.735725 -0.137603   2.66741 255 255 255
 0.386176 -0.105174   2.64086 255 255 255
 0.842866 -0.246026   2.65332 255 255 255
-0.72383 0.329783  2.84511 255 255 255
0.242633 0.556759  2.67966 255 255 255
0.657103 0.192371  2.76489 255 255 255
 0.734597 -0.333148   2.63464 255 255 255
 0.428616 -0.508054   2.62266 255 255 255
-0.165395  0.161589   2.75992 255 255 255
 -0.335155 -0.0794153    2.70919 255 255 255
-0.342517 -0.110512     2.682 255 255 255
 0.285417 -0.100577   2.70326 255 255 255
 0.378531 -0.168947    2.7042 255 255 255
 -0.183581 -0.0124702    2.73821 255 255 255
 0.792985 -0.178315   2.68655 255 255 255
-0.505569 -0.463842   2.60707 255 255 255
 0.527652 -0.394773   2.79936 255 255 255
-0.878859 -0.010255   2.71937 255 255 255
0.557793 0.473936  2.79303 255 255 255
-0.722277  -0.56124   2.59748 255 255 255
 0.800846 -0.212697   2.68836 255 255 255
0.763742 0.430458  2.74397 255 255 255
0.715136 -0.30998  2.63846 255 255 255
-0.903189 -0.182088   2.66259 255 255 255
-0.904038 0.0660016   2.65347 255 255 255
0.495329 0.589922  2.76558 255 255 255
-0.30715 0.361286  2.77718 255 255 255
0.0781225  0.391839   2.69501 255 255 255
 0.161878 -0.301758   2.70058 255 255 255
  0.753444 -0.0517905    2.70026 255 255 255
 0.194878 -0.449573   2.59389 255 255 255
-0.318632 -0.130602   2.70798 255 255 255
0.770083 0.198348  2.76372 255 255 255
 0.376696 -0.327436   2.64191 255 255 255
-0.0765552   0.216161    2.67738 255 255 255
 0.364523 -0.297731   2.67029 255 255 255
-0.882213   0.19619    2.7541 255 255 255
-0.920313  -0.35167   2.66759 255 255 255
-0.900241 -0.509241   2.60892 255 255 255
    0.15374 -0.00864441     2.72951 255 255 255
-0.153561 -0.124312   2.69071 255 255 255
0.736871 0.586294  2.78908 255 255 255
-0.250018  0.463389   2.66729 255 255 255
  0.80873 -0.619525   2.76323 255 255 255
  0.69913 -0.402879   2.67134 255 255 255
 1.02103 0.568182  2.76916 255 255 255
0.729714 0.457241  2.80109 255 255 255
-0.474556 -0.230413   2.64693 255 255 255
-0.148202  0.420006   2.68672 255 255 255
 0.798226 -0.235348   2.67671 255 255 255
  0.323812 -0.0751401    2.72298 255 255 255
-0.285677  0.449828   2.66729 255 255 255
0.332559 0.158454  2.75736 255 255 255
-0.527401 -0.220344   2.65091 255 255 255
-0.251041  0.433264   2.63812 255 255 255
-0.314465 -0.189535   2.69583 255 255 255
-0.136221  0.102196   2.77647 255 255 255
 0.240608 -0.161058   2.71193 255 255 255
 -0.515151 -0.0675988    2.70146 255 255 255
 0.0116823 -0.0622702    2.73399 255 255 255
 -0.280535 -0.0574258    2.71426 255 255 255
0.625621 -0.59871  2.78615 255 255 255
 0.135955 -0.326279   2.65138 255 255 255
 0.128744 -0.494889   2.49563 255 255 255
 0.069337 -0.396912   2.59768 255 255 255
 0.239609 -0.426454   2.58752 255 255 255
-0.252678 -0.207701   2.66881 255 255 255
-0.290723 -0.123654   2.68864 255 255 255
0.143634 0.190862  2.66342 255 255 255
 -0.25023 -0.245728   2.66204 255 255 255
 0.904372 -0.265866    2.6079 255 255 255
 0.832055 -0.197585   2.68928 255 255 255
 0.280337 -0.413858   2.63899 255 255 255
0.713685 0.400608  2.81037 255 255 255
  0.862606 -0.0265293    2.72289 255 255 255
-0.181411  0.321695   2.68957 255 255 255
0.0109328    0.3547   2.66884 255 255 255
-0.121702  0.503225   2.65323 255 255 255
  1.03103 0.0909707   2.65359 255 255 255
  0.20804 0.0740731    2.6175 255 255 255
0.00957353  -0.234347    2.64425 255 255 255
 0.236953 -0.220195    2.6519 255 255 255
-0.225075  0.450345   2.64644 255 255 255
-0.129488  0.345556   2.69708 255 255 255
-0.492064 -0.154396   2.70121 255 255 255
0.828439  0.61473   2.7907 255 255 255
  0.81091 0.0278799   2.73837 255 255 255
 0.668118 -0.233863   2.68018 255 255 255
  0.0249547 -0.00150156     2.70115 255 255 255
 0.933225 -0.239959    2.6653 255 255 255
-0.285869  0.307919   2.75619 255 255 255
0.0197045  0.260279   2.68165 255 255 255
  0.120257 -0.0415911    2.71361 255 255 255
 0.120736 -0.168743   2.71186 255 255 255
 0.168937 -0.077725   2.63308 255 255 255
 0.70091 0.326142  2.79155 255 255 255
-0.930916 -0.330555   2.66652 255 255 255
0.322474 0.112519  2.74561 255 255 255
-0.804823 -0.186152   2.65541 255 255 255
 0.187987 -0.307552   2.70786 255 255 255
0.135701 -0.36199  2.66675 255 255 255
-0.423582 -0.309674   2.63505 255 255 255
  0.189006 -0.0118494    2.62976 255 255 255
-0.69272 0.343514  2.85367 255 255 255
  0.31161 0.0254093   2.72178 255 255 255
 0.469882 -0.345009   2.70765 255 255 255
-0.0908747   0.523483    2.64285 255 255 255
-0.0481128   0.507553    2.66465 255 255 255
 -0.83663 -0.205023   2.66382 255 255 255
0.228394 0.391344  2.70629 255 255 255
 0.180948 -0.366744   2.68741 255 255 255
   0.111124 -0.00216684     2.73218 255 255 255
 0.122532 -0.267352    2.6943 255 255 255
0.135731 0.213027  2.67555 255 255 255
0.00116885   -0.24952    2.63834 255 255 255
-0.0325075   0.516343    2.67045 255 255 255
 0.351941 -0.339564   2.64181 255 255 255
0.158812  0.11492  2.74374 255 255 255
-0.737672 -0.581552   2.59378 255 255 255
 0.152769 -0.103494   2.69884 255 255 255
0.333534 0.527829  2.74687 255 255 255
 0.223175 -0.342789   2.67343 255 255 255
 -1.01145 -0.327776   2.62082 255 255 255
0.329397 0.200912  2.75907 255 255 255
0.704283 0.476009  2.80866 255 255 255
 0.288329 -0.562658   2.61231 255 255 255
0.513544 0.222304  2.77603 255 255 255
0.154721 0.311814  2.69092 255 255 255
   0.2064 -0.099958   2.62182 255 255 255
 0.786685 -0.103707   2.70987 255 255 255
 0.109112 -0.317587   2.67213 255 255 255
 0.567265 -0.496857   2.63679 255 255 255
 -0.64406 -0.137878   2.69829 255 255 255
0.126735 0.300196  2.70123 255 255 255
0.146291 0.230407  2.68557 255 255 255
0.656766 0.536099  2.80121 255 255 255
0.0730549  0.370528   2.70091 255 255 255
 0.594973 -0.287269   2.64472 255 255 255
  0.278162 -0.0322377    2.62672 255 255 255
-0.341178 -0.141754   2.67675 255 255 255
-0.031806  0.497279   2.65463 255 255 255
-0.0913578   0.107952    2.77121 255 255 255
0.261367 -0.53954  2.61578 255 255 255
 0.579257 -0.198387   2.64494 255 255 255
 0.838117 -0.229629   2.65103 255 255 255
-0.000608892     0.231309      2.68818 255 255 255
0.0623701  0.333436   2.68388 255 255 255
  0.775926 -0.0497741    2.67812 255 255 255
  0.445086 -0.0874248    2.65946 255 255 255
 -0.289385 -0.0960764    2.68793 255 255 255
0.713182 -0.29254  2.65035 255 255 255
-0.195851  0.206279   2.76267 255 255 255
 0.572997 -0.385065   2.69668 255 255 255
-0.0995597   0.316277    2.68607 255 255 255
-0.17061 0.461426   2.6444 255 255 255
  1.01445 -0.457194   2.68103 255 255 255
 0.186573 0.0934058   2.74252 255 255 255
 0.593733 -0.071544   2.72179 255 255 255
 0.651831 -0.245759   2.68049 255 255 255
 0.286592 -0.319403   2.67432 255 255 255
-0.037491 0.0800729   2.75055 255 255 255
-0.109181  0.169584   2.68519 255 255 255
0.316497 0.433892  2.70964 255 255 255
 0.847042 -0.200528   2.68249 255 255 255
 0.119321 -0.336678   2.67056 255 255 255
-0.209827  0.142677   2.75086 255 255 255
 0.100477 -0.222948   2.69536 255 255 255
-0.179534  0.371426   2.67129 255 255 255
 0.255192 -0.240481   2.69277 255 255 255
0.245833 0.101112  2.74661 255 255 255
  0.863017 -0.0591712    2.71426 255 255 255
 0.682541 -0.578964   2.61964 255 255 255
0.881446 0.331476  2.80563 255 255 255
  0.246501 -0.0615471    2.70967 255 255 255
 0.726801 -0.492106    2.6369 255 255 255
0.404534 0.123172  2.75016 255 255 255
 0.157128 0.0329036   2.74023 255 255 255
-0.168807  0.273952    2.6845 255 255 255
0.261968  -0.1678  2.71021 255 255 255
-0.880803 -0.547183   2.59554 255 255 255
-0.948271 -0.323155   2.65184 255 255 255
-0.210197  0.457863   2.64124 255 255 255
0.958234 0.505365  2.78637 255 255 255
0.214117 0.401067  2.70618 255 255 255
 0.109941 -0.243407   2.69368 255 255 255
0.219862 0.263446  2.67054 255 255 255
0.150854 -0.39207   2.6699 255 255 255
  0.143001 -0.0489885    2.70543 255 255 255
0.712618 0.554807  2.80371 255 255 255
 -0.99235 -0.294993   2.63807 255 255 255
 0.871145 -0.607925   2.74889 255 255 255
 0.158368 -0.339742   2.69067 255 255 255
 -1.02175 -0.358243   2.58417 255 255 255
 0.96429 0.477484  2.79493 255 255 255
 0.355613 0.0710958   2.73849 255 255 255
 0.503122 -0.366461   2.70247 255 255 255
0.605715 0.105169  2.76212 255 255 255
-0.801246 -0.243858   2.64275 255 255 255
 0.646788 -0.315922    2.6422 255 255 255
  0.54489 -0.370959   2.70087 255 255 255
0.0852044 -0.219187   2.70423 255 255 255
0.566811  0.16843  2.77765 255 255 255
0.0673397 -0.144579   2.70463 255 255 255
 0.529505 -0.370467   2.70183 255 255 255
-0.268836  0.429522   2.68584 255 255 255
0.0915565 -0.302901   2.68017 255 255 255
-0.141232  0.494863    2.6633 255 255 255
 0.720575 -0.266218   2.60521 255 255 255
  0.87348 -0.392074   2.79149 255 255 255
 0.890233 -0.224859   2.67845 255 255 255
 0.581641 -0.579303   2.79764 255 255 255
-0.219786  0.151947   2.75539 255 255 255
 0.146513 -0.317044   2.67669 255 255 255
-0.138724  0.360186   2.69937 255 255 255
  0.48903 -0.342087   2.70138 255 255 255
-0.208422  0.342252   2.67945 255 255 255
-0.32669 0.429078  2.66024 255 255 255
-0.113847  0.320205   2.68462 255 255 255
 0.320866 -0.528088   2.62196 255 255 255
 0.713585 -0.526176   2.79663 255 255 255
  0.48345 -0.469656   2.80233 255 255 255
-0.0922736   0.591597      2.656 255 255 255
-0.309034  0.493763   2.64243 255 255 255
 0.659761 -0.538414   2.67338 255 255 255
 0.101909 -0.207961   2.70538 255 255 255
 0.320766 0.0945206   2.74332 255 255 255
0.0630152 -0.252145   2.69776 255 255 255
-0.301044  0.285266   2.75042 255 255 255
-0.377544 -0.114379   2.68392 255 255 255
 0.276096 -0.552605   2.62287 255 255 255
-0.0469441   0.052815    2.75937 255 255 255
 0.269336 -0.571658   2.60797 255 255 255
0.0384042 -0.147664   2.71389 255 255 255
0.994896 0.551763  2.77246 255 255 255
0.0596318  0.481038   2.67632 255 255 255
0.318583 0.500762   2.7437 255 255 255
0.944605 0.389516  2.78396 255 255 255
0.982903 0.594995  2.78121 255 255 255
0.220268 0.191564  2.67107 255 255 255
0.717962 0.168669  2.62153 255 255 255
0.573601 0.489384  2.78456 255 255 255
 1.04464 0.561118  2.76349 255 255 255
-0.0284435   0.261466    2.68411 255 255 255
0.279485 0.220689  2.76789 255 255 255
 0.671214 -0.211929    2.6884 255 255 255
 0.794849 0.0590327   2.75075 255 255 255
  0.367594 0.00235877    2.72814 255 255 255
 1.03325 0.117672  2.64953 255 255 255
0.213917 0.215128  2.65669 255 255 255
-0.0110494   0.272028    2.68449 255 255 255
0.988868 0.536767  2.76956 255 255 255
0.103932 0.365364  2.69733 255 255 255
0.855814 0.574194   2.7958 255 255 255
  0.21539 -0.319111   2.68083 255 255 255
0.735777 0.459222  2.80021 255 255 255
 0.0947282 -0.0240831    2.73295 255 255 255
-0.0563708    0.54236      2.658 255 255 255
  0.809085 -0.0776484    2.70148 255 255 255
 0.60761 -0.13881  2.64055 255 255 255
-0.0467191   0.524998    2.67333 255 255 255
-0.0729623  -0.281491    2.66137 255 255 255
 0.277219 -0.237661   2.69188 255 255 255
  0.84433 -0.393839   2.66035 255 255 255
0.0785139 -0.158326   2.70695 255 255 255
 0.600555 -0.210856   2.69347 255 255 255
-0.164645  0.443363   2.69796 255 255 255
 -1.03317 -0.348823   2.58553 255 255 255
  0.111871 -0.0341953    2.72658 255 255 255
 0.552048 -0.352896   2.78503 255 255 255
-0.217905  0.172804   2.70179 255 255 255
 0.304783 -0.510577   2.62446 255 255 255
 0.606445 -0.475017   2.80594 255 255 255
 0.301943 -0.503133   2.63532 255 255 255
-0.320148  0.289586   2.77144 255 255 255
-0.121296  0.116452   2.68268 255 255 255
0.594306 0.491222  2.78712 255 255 255
 0.781207 -0.534739   2.77877 255 255 255
-0.151753  0.120084   2.75189 255 255 255
0.817633 0.592411  2.79443 255 255 255
-0.174699  0.113281   2.75097 255 255 255
 1.04231 -0.48597  2.67549 255 255 255
0.221766 0.412561  2.70212 255 255 255
 0.29136 0.173858  2.76187 255 255 255
 0.247212 -0.564671   2.66359 255 255 255
0.974652  0.61375   2.7825 255 255 255
0.475652 0.382919  2.77341 255 255 255
  0.61185 -0.605679   2.79841 255 255 255
0.766616 0.225545  2.75816 255 255 255
 0.0226067 -0.0349924    2.74191 255 255 255
-0.0660402  -0.164164    2.71629 255 255 255
  0.64114 -0.623323   2.79844 255 255 255
 0.565414 -0.531932   2.80623 255 255 255
  0.600065 -0.0325847    2.71622 255 255 255
 -0.109127 -0.0973225    2.68819 255 255 255
-0.384238  0.504141   2.66085 255 255 255
 0.104335 0.0213612   2.72167 255 255 255
 0.101488 0.0430419   2.73662 255 255 255
0.840784 0.572085   2.7906 255 255 255
   0.399788 -0.00350206     2.60087 255 255 255
 0.0603143 -0.0978669    2.72941 255 255 255
-0.231734  0.396851    2.6576 255 255 255
0.709091 0.501595  2.80079 255 255 255
 0.463888 -0.378616   2.78477 255 255 255
 0.255605 0.0107446   2.72351 255 255 255
 0.660504 -0.556238   2.80378 255 255 255
-0.337765 -0.129393   2.66594 255 255 255
0.731118 0.218329  2.63267 255 255 255
 -0.16699 0.0788302   2.68678 255 255 255
 0.560804 -0.551586    2.6243 255 255 255
0.0549802   0.49064   2.65933 255 255 255
 0.667684 -0.142377    2.6993 255 255 255
  0.842726 -0.0539401     2.7194 255 255 255
0.0498875 -0.141959    2.7036 255 255 255
-0.174671  0.139159   2.76046 255 255 255
  0.86447 -0.242431   2.67049 255 255 255
0.982059 0.580013  2.77881 255 255 255
 0.996625 -0.460077   2.67987 255 255 255
 0.865719 -0.397605   2.69376 255 255 255
0.255664 0.374419  2.70185 255 255 255
  1.02288 0.0979339    2.7471 255 255 255
 0.900605 -0.480399    2.7689 255 255 255
1.04173 0.10939 2.64739 255 255 255
0.871014   0.5935  2.79179 255 255 255
 0.132329 -0.309266   2.70914 255 255 255
-0.15569 0.223013  2.66248 255 255 255
 0.47331 0.242946  2.75939 255 255 255
0.682129 0.518332  2.80708 255 255 255
0.170923 0.191763  2.67491 255 255 255
 0.550574 -0.435484   2.69412 255 255 255
   1.0901 -0.528646   2.71266 255 255 255
-0.0586973    0.14556    2.77713 255 255 255
0.669942 0.529726  2.80932 255 255 255
0.251086 0.233053  2.64169 255 255 255
-0.0537782  0.0370222    2.75717 255 255 255
 0.257427 -0.218376   2.69046 255 255 255
0.507342 -0.40119   2.7008 255 255 255
 0.291565 -0.326371   2.67624 255 255 255
-0.00536309   -0.193071     2.69599 255 255 255
 0.200955 -0.658667   2.50317 255 255 255
-0.135663  0.186293   2.78262 255 255 255
 -1.06229 -0.229845   2.64263 255 255 255
 0.531832 -0.154573   2.70194 255 255 255
 0.280324 -0.413858   2.63899 255 255 255
 0.239609 -0.426454   2.58752 255 255 255
  1.05914 -0.345535     2.673 255 255 255
0.0419303 -0.127157   2.72352 255 255 255
 0.595295 -0.276021   2.67997 255 255 255
-0.00185844    -0.14931     2.72452 255 255 255
 0.203887 -0.329814    2.6772 255 255 255
 0.275262 -0.358118   2.64425 255 255 255
0.0118037 -0.244907   2.66695 255 255 255
 0.201146 -0.353437   2.67235 255 255 255
0.0624158 -0.433357   2.61842 255 255 255
 0.578874 -0.287889   2.67005 255 255 255
  1.15006 -0.477529   2.67564 255 255 255
0.712618 0.554807  2.80371 255 255 255
 0.670379 0.0878666   2.76312 255 255 255
0.285609 -0.56244  2.61106 255 255 255
0.0923735 -0.184369   2.70841 255 255 255
0.254575 0.222703  2.65592 255 255 255
    0.130969 -8.57454e-05      2.73463 255 255 255
 0.321615 -0.023759   2.71646 255 255 255
0.328403 0.221869    2.768 255 255 255
-0.817389  -0.34484   2.65635 255 255 255
 0.928095 -0.264335   2.68955 255 255 255
 0.174646 -0.331643    2.6825 255 255 255
0.490869 0.064276  2.74294 255 255 255
 0.899726 -0.124944   2.69965 255 255 255
-0.598074 -0.266287   2.65847 255 255 255
 0.695116 -0.162788   2.70521 255 255 255
 0.250096 -0.124545   2.72008 255 255 255
 -0.99094 -0.351106   2.64895 255 255 255
 0.608739 -0.415505   2.66546 255 255 255
-0.308641 -0.330098   2.65228 255 255 255
  0.195502 -0.0872367    2.72904 255 255 255
 0.258498 -0.504621   2.62369 255 255 255
-0.495726 -0.251294   2.66486 255 255 255
  0.319339 0.00279547    2.72984 255 255 255
 0.286326 -0.192009   2.70061 255 255 255
 0.688756 -0.455616   2.64665 255 255 255
 0.506228 -0.337746   2.68053 255 255 255
-0.283972 -0.276726    2.6682 255 255 255
   0.45433 -0.0225748    2.73812 255 255 255
 0.434733 -0.423875   2.64915 255 255 255
0.763686 -0.19361  2.69025 255 255 255
 0.394898 0.0848602   2.75267 255 255 255
-0.349503 -0.412138   2.63122 255 255 255
-0.737711 -0.370675   2.65404 255 255 255
 0.946078 -0.167651   2.69555 255 255 255
 0.796215 -0.283782   2.66704 255 255 255
  0.411022 -0.0137477    2.73132 255 255 255
 0.354215 -0.513259   2.62684 255 255 255
0.381515  0.19672  2.76773 255 255 255
 -0.41706 -0.135709   2.69111 255 255 255
-0.922129 -0.398703   2.62762 255 255 255
-0.573243 -0.444237   2.60705 255 255 255
-0.700905 -0.412196   2.65135 255 255 255
 0.199723 -0.219693    2.6759 255 255 255
-0.471904 -0.475063   2.60695 255 255 255
  1.02857 -0.221136   2.68162 255 255 255
 0.699099 -0.403659   2.64338 255 255 255
 0.752501 -0.112399   2.71227 255 255 255
 0.498739 0.0250206   2.74569 255 255 255
 -1.03275 -0.498865   2.60268 255 255 255
-0.479924 -0.177586    2.6974 255 255 255
 -1.00319 -0.435197   2.62483 255 255 255
-0.420666 -0.420356   2.63425 255 255 255
0.428131 0.102436  2.75443 255 255 255
 0.331635 -0.617793   2.55497 255 255 255
 0.635708 -0.099408   2.72151 255 255 255
-0.0143892  -0.667309    2.51538 255 255 255
 0.517892 -0.537648    2.6198 255 255 255
 0.414287 -0.347814   2.67009 255 255 255
-0.184943 -0.298519   2.66471 255 255 255
-0.906829 -0.431925   2.62438 255 255 255
-0.711137  -0.45153   2.62901 255 255 255
 0.270559 -0.640027   2.55564 255 255 255
0.649495 -0.12915  2.70832 255 255 255
 0.868946 -0.338853   2.65335 255 255 255
 0.538098 -0.185776   2.70018 255 255 255
-0.00621912   0.0787214     2.76762 255 255 255
 0.817067 -0.155636    2.7067 255 255 255
0.0100377 0.0459545   2.76227 255 255 255
 0.487944 -0.531023   2.60633 255 255 255
 1.05131 0.027673  2.74317 255 255 255
 -1.00045 -0.498125   2.61313 255 255 255
-0.840501 -0.459952   2.61491 255 255 255
0.253365 0.168147  2.76324 255 255 255
-0.996571 -0.248834   2.63723 255 255 255
  1.06898 -0.214033   2.69347 255 255 255
 0.182005 -0.194149   2.70915 255 255 255
-0.595674 -0.118305   2.70301 255 255 255
-0.130248  -0.23595   2.69337 255 255 255
 -0.0278069 -0.00149594     2.75557 255 255 255
 0.250926 -0.372282   2.65429 255 255 255
  -0.40321 0.00478763    2.73594 255 255 255
  0.21391 -0.392845   2.65371 255 255 255
-0.205376 -0.307716   2.66597 255 255 255
 0.413821 0.0855957   2.75347 255 255 255
0.409976 0.152925  2.76413 255 255 255
-0.172181 -0.527078   2.55822 255 255 255
-0.416268 -0.526285   2.58836 255 255 255
-0.838658 -0.509396   2.60896 255 255 255
 0.843888 0.0583509   2.74977 255 255 255
 0.196366 -0.457589   2.62892 255 255 255
 0.0116749 -0.0622703    2.73399 255 255 255
-0.486355 -0.103083   2.69596 255 255 255
 0.336722 -0.489671   2.63414 255 255 255
 0.109907 -0.210218   2.70701 255 255 255
0.31039 0.18775 2.77086 255 255 255
 0.928242 -0.196178   2.68755 255 255 255
 0.241812 -0.687722   2.51007 255 255 255
-0.946933 -0.426392   2.62522 255 255 255
-0.825509 -0.245981   2.67235 255 255 255
-0.871194 -0.375039   2.63554 255 255 255
 0.859013 -0.365251   2.65749 255 255 255
 0.728877 -0.195848   2.69345 255 255 255
 -0.200858 -0.0815782    2.72093 255 255 255
 0.814959 -0.310127   2.65711 255 255 255
  0.71632 -0.216283   2.68751 255 255 255
 0.308518 -0.298681   2.67029 255 255 255
   0.1637 -0.477643   2.62456 255 255 255
-0.883116 -0.432063   2.62436 255 255 255
  0.41516 -0.249272   2.68613 255 255 255
 0.734078 -0.249848   2.67602 255 255 255
 0.0679122 -0.0508343    2.73857 255 255 255
-0.633868 -0.187855    2.6778 255 255 255
    0.19815 -0.00899332     2.72599 255 255 255
 0.337531 -0.508397   2.62648 255 255 255
-0.527925 -0.272426   2.64126 255 255 255
 0.400194 -0.586297   2.56278 255 255 255
  0.29421 0.0977027   2.75069 255 255 255
-0.899507 -0.533021   2.60688 255 255 255
0.715688 0.153669  2.76013 255 255 255
-0.903497 -0.362302   2.63726 255 255 255
 -0.380508 -0.0787684    2.70535 255 255 255
-0.214217 -0.255055   2.68768 255 255 255
-0.918552 -0.493847   2.61354 255 255 255
  0.452381 -0.0672967    2.72002 255 255 255
0.334974 0.136704  2.76043 255 255 255
-0.570601 -0.404898   2.61596 255 255 255
  0.286471 -0.0608351    2.70388 255 255 255
   1.1049 -0.149042   2.70977 255 255 255
-0.399065  -0.43744   2.61952 255 255 255
 0.847673 -0.284806   2.67029 255 255 255
-0.11596  0.18067  2.76282 255 255 255
0.736032 0.189516  2.77026 255 255 255
 0.944521 -0.303311   2.65913 255 255 255
 0.793923 -0.421344   2.65179 255 255 255
 0.805788 -0.285918   2.66465 255 255 255
  0.291901 -0.0302112    2.73105 255 255 255
0.236591 -0.17815  2.69386 255 255 255
  0.17321 -0.497266   2.61733 255 255 255
0.0203526 0.0157858   2.75694 255 255 255
-0.388288 -0.492228   2.60003 255 255 255
 0.423733 -0.300303   2.68273 255 255 255
 0.678976 -0.113156   2.70796 255 255 255
 0.960671 -0.242794   2.66912 255 255 255
0.654955 0.227742  2.77877 255 255 255
  0.149131 -0.0537584    2.72084 255 255 255
 0.734938 -0.131144   2.72327 255 255 255
 0.563945 -0.534351   2.63205 255 255 255
  0.457024 -0.0873035    2.72384 255 255 255
 0.767596 -0.321444    2.6561 255 255 255
-0.282285 0.0800495   2.73635 255 255 255
-0.792266 -0.488807   2.61413 255 255 255
-0.972241 -0.439882   2.61763 255 255 255
 0.152279 -0.465732   2.62686 255 255 255
-0.469692 -0.207159   2.66651 255 255 255
0.600544 0.170793  2.77913 255 255 255
  0.809969 -0.0628404    2.71822 255 255 255
 0.755991 -0.440066   2.64833 255 255 255
0.241055 0.182566  2.77509 255 255 255
-0.443823 -0.168369   2.68628 255 255 255
 0.261026 -0.389316   2.64941 255 255 255
0.698522 -0.44345  2.64891 255 255 255
0.0909331 0.0129423   2.73822 255 255 255
-0.724858 -0.341457   2.65774 255 255 255
 0.259605 -0.205348    2.6819 255 255 255
 0.232791 -0.266233    2.6838 255 255 255
 -0.93888 -0.334318   2.65512 255 255 255
-0.553498 -0.125238   2.68989 255 255 255
0.201781 0.180891  2.76192 255 255 255
 0.0759891 -0.0180483    2.72294 255 255 255
 -0.175636 -0.0911716    2.72085 255 255 255
 -0.453085 -0.0143935    2.71081 255 255 255
-0.225634 -0.186806   2.68408 255 255 255
   0.4858 -0.198977    2.6982 255 255 255
 0.908493 0.0138497   2.73793 255 255 255
0.602809 -0.28843  2.67089 255 255 255
  0.238371 -0.0738093     2.7091 255 255 255
-0.386903 -0.518535   2.60247 255 255 255
  -0.4474 -0.243717   2.66605 255 255 255
 0.109543 -0.244225     2.695 255 255 255
 0.320273 -0.321275   2.66926 255 255 255
-0.17932  -0.1717   2.6969 255 255 255
 0.324735 0.0773608   2.75559 255 255 255
-0.381574 -0.117414   2.69329 255 255 255
 0.230237 -0.537112   2.62041 255 255 255
 0.741473 -0.270136   2.67043 255 255 255
 0.459199 -0.554995   2.56111 255 255 255
 0.230335 0.0149269   2.73829 255 255 255
 0.988261 0.0492739   2.74994 255 255 255
  0.47761 -0.240414   2.68205 255 255 255
  0.785233 -0.0474511    2.71871 255 255 255
0.110735 0.186808  2.77821 255 255 255
-0.972606 -0.428403   2.62648 255 255 255
-0.369531 0.0329057   2.72708 255 255 255
  0.547595 -0.0489846    2.73132 255 255 255
 0.675794 -0.406445   2.63358 255 255 255
-0.396593 -0.078172   2.70491 255 255 255
-0.349979 -0.445428   2.61914 255 255 255
  0.894719 -0.0228865     2.7248 255 255 255
  0.71568 -0.154601   2.69786 255 255 255
 0.156753 -0.337619    2.6705 255 255 255
 0.833336 -0.374934   2.66537 255 255 255
-0.183148 -0.292766   2.66946 255 255 255
 0.362123 0.0858653   2.75279 255 255 255
  0.272653 -0.0546823    2.72984 255 255 255
 0.595708 -0.238873   2.68638 255 255 255
 0.407412 -0.435396   2.65142 255 255 255
  0.21206 0.0724995   2.75232 255 255 255
  0.86722 -0.198103   2.68425 255 255 255
  0.894487 -0.0379302    2.72212 255 255 255
0.00448609 -0.0846166      2.727 255 255 255
 0.548357 -0.120217    2.7177 255 255 255
-0.863968 -0.405788   2.64386 255 255 255
-0.0903309   0.142032    2.77771 255 255 255
  0.39802 0.0616872   2.74589 255 255 255
0.806596 -0.41498  2.65579 255 255 255
 0.916519 -0.231907   2.65612 255 255 255
  -0.4936 -0.352423   2.63195 255 255 255
-0.472487 -0.156712   2.69054 255 255 255
 -0.67747 -0.274901   2.65628 255 255 255
-0.819875 -0.513157   2.60194 255 255 255
-0.389063 -0.276312   2.65635 255 255 255
 0.220953 0.0979729   2.75509 255 255 255
-0.172495  0.108107    2.7686 255 255 255
 0.281695 -0.467203   2.61986 255 255 255
 -0.72535 -0.448276   2.66829 255 255 255
 0.0858293 -0.0344757    2.72381 255 255 255
-0.693045 -0.163965    2.6828 255 255 255
-0.754662  -0.41386   2.70404 255 255 255
-0.605771 -0.590821   2.59637 255 255 255
 0.271791 -0.661727   2.53923 255 255 255
 -0.446934 -0.0957835     2.7085 255 255 255
-0.835405 -0.512075   2.60551 255 255 255
-0.735545 -0.498455   2.62139 255 255 255
-0.593841 -0.247518    2.6488 255 255 255
 0.186706 -0.266954   2.68858 255 255 255
0.377354 -0.66089  2.49704 255 255 255
 0.799686 -0.173402    2.6937 255 255 255
-0.927254 -0.429061   2.62341 255 255 255
  0.022602 -0.0349924    2.74191 255 255 255
  1.12814 -0.440514   2.67424 255 255 255
-0.119588 -0.247382   2.68651 255 255 255
0.297113  0.19813  2.77312 255 255 255
-0.728065 -0.184503   2.68198 255 255 255
-0.365794 -0.301704   2.65309 255 255 255
-0.587889  -0.57897   2.61335 255 255 255
  0.31475 -0.480183   2.63703 255 255 255
0.635848 0.121132  2.77131 255 255 255
 0.269656 -0.230207   2.69573 255 255 255
-0.301063 0.0914838   2.74537 255 255 255
  0.29748 0.0796646   2.74912 255 255 255
 0.970949 -0.329721   2.65636 255 255 255
 0.690955 -0.374746   2.64317 255 255 255
-0.161715  -0.25857   2.69276 255 255 255
-0.215319  0.193165   2.76931 255 255 255
-0.196043 -0.287493   2.67418 255 255 255
0.273506 0.115968  2.75645 255 255 255
 0.485462 -0.156799   2.70697 255 255 255
-0.131156  0.150434   2.77428 255 255 255
-0.0295314  0.0617555     2.7619 255 255 255
-0.349433 -0.223728   2.67925 255 255 255
-0.664399 -0.123783    2.6864 255 255 255
 -0.546645 -0.0653891     2.7049 255 255 255
-0.263456 -0.323209   2.66689 255 255 255
 0.771845 -0.241931   2.67098 255 255 255
 0.875689 -0.215016   2.67804 255 255 255
 0.184434 -0.471207   2.62398 255 255 255
0.236695 0.147884  2.76562 255 255 255
0.203929 -0.43897   2.6383 255 255 255
 0.919041 -0.189969   2.69502 255 255 255
  0.110917 -0.0216782    2.73335 255 255 255
 -0.23474 -0.236016   2.67926 255 255 255
-0.540934 -0.542271   2.58798 255 255 255
-0.19519 0.174092  2.77753 255 255 255
  1.07164 -0.306727   2.67964 255 255 255
0.154584 0.145999  2.76453 255 255 255
  0.765056 0.00210386    2.73078 255 255 255
-0.420298 -0.297726   2.64233 255 255 255
 0.277996 0.0823723   2.74707 255 255 255
-0.658838 -0.556559   2.60841 255 255 255
 -0.151362 -0.0924183    2.70942 255 255 255
  0.418755 -0.0885077    2.71924 255 255 255
-0.732177 -0.162286   2.68051 255 255 255
0.538628 0.167834  2.78357 255 255 255
-0.108643  0.157367   2.78003 255 255 255
-0.0591525   0.011063    2.75152 255 255 255
  0.86447 -0.242431   2.67049 255 255 255
 0.117821 -0.350847     2.666 255 255 255
-0.170818 -0.180325   2.69272 255 255 255
 -0.828227 -0.0517116    2.68666 255 255 255
-0.140071  0.141022   2.77363 255 255 255
-0.387863 0.0223678   2.72968 255 255 255
0.0959145 0.0901988   2.75693 255 255 255
   1.1546 -0.649037   2.60789 255 255 255
-0.279684  0.092076   2.74368 255 255 255
0.211944 0.160895  2.76699 255 255 255
-0.407707 -0.474979   2.60686 255 255 255
 0.310572 -0.304646   2.66788 255 255 255
 0.996923 -0.267629   2.66947 255 255 255
0.609295 -0.16686  2.70106 255 255 255
-0.518446 -0.137188   2.70055 255 255 255
 -0.95032 -0.292948   2.64563 255 255 255
  0.671018 -0.0555641    2.71738 255 255 255
 0.302136 -0.367837   2.65302 255 255 255
-0.730694 -0.564076   2.59612 255 255 255
  1.08009 -0.278378   2.68094 255 255 255
-0.427097 -0.284177   2.63993 255 255 255
-0.266515 0.0986665    2.7457 255 255 255
-0.296249 0.0821639   2.74365 255 255 255
 -0.594733 -0.0849459    2.70248 255 255 255
  0.065174 -0.0862039    2.73342 255 255 255
  0.79305 -0.120354    2.7107 255 255 255
-0.000362612     0.218127      2.79367 255 255 255
 0.455042 0.0882899   2.75537 255 255 255
 0.196567 -0.232132   2.68862 255 255 255
 0.217017 -0.542188   2.63668 255 255 255
-0.000248401   -0.0470887      2.73882 255 255 255
 0.408334 -0.507656   2.62033 255 255 255
 -0.86206 -0.242731   2.65522 255 255 255
 0.298539 -0.284361   2.67806 255 255 255
 0.172196 0.0137031   2.73523 255 255 255
0.726972 -0.14886  2.70414 255 255 255
-0.966521 -0.470301    2.6147 255 255 255
    0.4216 -0.0282918    2.72587 255 255 255
 0.304755 -0.510579   2.62446 255 255 255
 0.096031 0.0177057   2.74484 255 255 255
 0.660081 -0.483683   2.62351 255 255 255
0.792386 -0.19285  2.68878 255 255 255
-0.397779 -0.142823   2.69681 255 255 255
 0.106639 -0.258254   2.69157 255 255 255
-0.564094 -0.429631   2.61529 255 255 255
-0.474478  -0.37053   2.62172 255 255 255
 0.179471 0.0416141    2.7402 255 255 255
 0.855175 0.0427273   2.74082 255 255 255
-0.761225  -0.17874   2.67378 255 255 255
-0.613242  -0.12858   2.69971 255 255 255
-0.0551828  -0.564113    2.54419 255 255 255
  1.14003 -0.685872   2.60962 255 255 255
  0.67516 -0.309868   2.64916 255 255 255
-0.524848 -0.535222   2.59046 255 255 255
 0.176471 -0.438968   2.63759 255 255 255
   1.0492 -0.315423   2.67785 255 255 255
   0.236457 -0.00957264     2.73198 255 255 255
-0.248817  0.110001   2.74779 255 255 255
  0.748884 -0.0660703    2.72039 255 255 255
 0.356448 -0.130064   2.70971 255 255 255
  1.03633 0.0509095   2.74852 255 255 255
 0.143452 -0.122023   2.70857 255 255 255
-0.546927 -0.152858   2.68649 255 255 255
-0.342372 0.0560558   2.73784 255 255 255
 0.759046 -0.104218   2.71541 255 255 255
-0.597121 -0.227687   2.66122 255 255 255
 -0.532459 -0.0493197    2.71173 255 255 255
 -0.523939 -0.0446609    2.71224 255 255 255
 0.211437 -0.412722   2.64406 255 255 255
 0.034884 -0.163104   2.71802 255 255 255
-0.275379  0.104998   2.74454 255 255 255
 0.153702 -0.128986   2.71242 255 255 255
  1.04063 0.0419447   2.74501 255 255 255
 0.204765 -0.303922   2.67946 255 255 255
 0.164617 -0.434548   2.63766 255 255 255
0.701777  0.16433   2.7596 255 255 255
-0.699441 -0.465921   2.63855 255 255 255
 0.301112 -0.396652   2.64152 255 255 255
-0.777978 -0.186396   2.67037 255 255 255
-0.203766  0.191768   2.78014 255 255 255
0.0839884 -0.145073     2.718 255 255 255
 0.678397 -0.078046   2.72034 255 255 255
 -0.289003 -0.0381635    2.72357 255 255 255
 0.182177 -0.426653   2.63831 255 255 255
 0.682236 -0.303766   2.66248 255 255 255
 0.344797 -0.255755   2.68529 255 255 255
 0.808402 0.0075467   2.73722 255 255 255
  0.05768 -0.204733   2.70269 255 255 255
-0.453095 -0.305575   2.65836 255 255 255
 0.261699 -0.433403   2.63818 255 255 255
-0.0764671  0.0360683    2.75872 255 255 255
-0.228622  0.112488   2.74588 255 255 255
0.0580035 -0.171978   2.71304 255 255 255
  -0.4892 -0.024853   2.71492 255 255 255
-0.0644475  0.0239034    2.75063 255 255 255
 1.02935 -0.13309  2.71683 255 255 255
0.0263891 -0.148622   2.71907 255 255 255
-0.0477756 0.00954387    2.75258 255 255 255
 0.197184 -0.419143   2.64177 255 255 255
-0.393943  0.038161   2.73273 255 255 255
 0.871953 -0.352366   2.64866 255 255 255
-0.607243 -0.450962   2.61282 255 255 255
-0.972788 -0.306032   2.64641 255 255 255
 0.097297 -0.246444   2.69693 255 255 255
 0.942348 -0.185733   2.69214 255 255 255
 0.205879 -0.364642   2.66692 255 255 255
  0.810904 -0.0363646    2.71964 255 255 255
 -1.00817 -0.306565   2.64077 255 255 255
 0.329722 -0.339395   2.66002 255 255 255
  0.69804 -0.514942    2.6321 255 255 255
 0.287563 -0.406677   2.64477 255 255 255
 0.672461 -0.264622   2.67407 255 255 255
  1.03851 -0.319673   2.66871 255 255 255
-0.0140295  -0.136363    2.71767 255 255 255
 -0.59914 -0.569259   2.61014 255 255 255
-0.608789 -0.439154   2.61136 255 255 255
 -0.45507 -0.382062   2.62413 255 255 255
-0.900147 -0.256417   2.65199 255 255 255
 0.816236 0.0141649   2.73367 255 255 255
 0.841104 -0.576006    2.6142 255 255 255
  0.741455 -0.0967613     2.7154 255 255 255
-0.704125 -0.499671    2.6233 255 255 255
 0.216456 -0.368007   2.66481 255 255 255
  0.769686 -0.0219523    2.72886 255 255 255
-0.541912 -0.055077   2.70847 255 255 255
 0.766138 -0.283416   2.66617 255 255 255
 0.739683 -0.282575   2.66739 255 255 255
-0.825247 -0.212987    2.6638 255 255 255
 0.319758 -0.355223   2.65529 255 255 255
 0.576362 -0.439295   2.65457 255 255 255
 0.877563 0.0378099   2.74314 255 255 255
 0.517067 -0.455066   2.64652 255 255 255
  1.04749 -0.330729   2.67068 255 255 255
-0.408893 -0.250726   2.66184 255 255 255
 0.721263 -0.256753   2.67075 255 255 255
-0.456773 -0.286672   2.64268 255 255 255
  0.820545 -0.0534773    2.72022 255 255 255
  0.685357 -0.0956792    2.71276 255 255 255
 0.656235 -0.504096   2.63487 255 255 255
   0.798565 -0.00543017      2.7295 255 255 255
 0.814381 -0.575831   2.61764 255 255 255
   0.43683 0.00332312    2.73914 255 255 255
-0.899129 -0.428869   2.62449 255 255 255
 0.640161 -0.462879   2.64245 255 255 255
  0.89276 -0.383294   2.66009 255 255 255
 0.607449 -0.227298   2.68876 255 255 255
 0.381429 0.0465891   2.74646 255 255 255
 0.235563 -0.359978   2.66756 255 255 255
  0.529003 -0.0983776    2.71999 255 255 255
 0.984349 -0.214645   2.68039 255 255 255
-0.847409 -0.490304   2.60155 255 255 255
 0.337521 -0.518906   2.62705 255 255 255
 0.413303 -0.319991   2.68029 255 255 255
0.600464 0.126542  2.77402 255 255 255
  -0.23015 -0.0916487    2.71547 255 255 255
 0.572671 -0.422155    2.6553 255 255 255
 -0.33227 -0.210073   2.68351 255 255 255
 0.870583 -0.367771   2.65719 255 255 255
  0.18554 -0.305151   2.68056 255 255 255
 0.306771 -0.715182   2.48656 255 255 255
-0.342811 0.0661713   2.73772 255 255 255
  0.73331 -0.216229   2.68355 255 255 255
 0.611668 -0.504114    2.6375 255 255 255
0.818805 -0.16122  2.69648 255 255 255
 0.631062 -0.247971   2.67919 255 255 255
 0.878894 -0.230711   2.67786 255 255 255
-0.514474 -0.119525    2.6893 255 255 255
 0.217159 -0.443175   2.63863 255 255 255
 0.179146 -0.621791   2.51841 255 255 255
-0.599569   0.19835   2.74078 255 255 255
