ply
format ascii 1.0
element vertex 1182
property float x
property float y
property float z
property uchar red
property uchar green
property uchar blue
end_header
  1.14254 -0.409564   2.71403 255 255 255
  2.35872 -0.178632   3.08932 255 255 255
  1.8453 0.152138  2.96807 255 255 255
 0.246572 -0.295626   2.59377 255 255 255
   1.64656 -0.0091659    2.99687 255 255 255
-0.139384    1.2922   2.72789 255 255 255
 1.03089 -1.30588   2.6687 255 255 255
-0.403965 -0.437006   2.17674 255 255 255
    3.1274 -0.0155062    3.00343 255 255 255
0.628282 -1.20835  2.24682 255 255 255
-1.9104 1.13888 2.68408 255 255 255
 -2.62949 -0.829677   2.58814 255 255 255
 -1.36869 -0.964485   2.18322 255 255 255
  2.80546 -0.187594   3.19691 255 255 255
-2.08846 0.768012  2.68496 255 255 255
 2.01207 -1.72297  3.07063 255 255 255
  2.59499 -0.197115   3.11699 255 255 255
 0.779784 -0.235486   2.65266 255 255 255
0.167206 0.312954  2.54497 255 255 255
  1.23945 -0.291819   2.70975 255 255 255
 0.665316 -0.950335   2.31201 255 255 255
 2.55237 -1.25329  3.08387 255 255 255
-0.750634  0.337452   2.32398 255 255 255
 -2.3888 -1.46283  2.56936 255 255 255
  2.53484 -0.212003   3.13776 255 255 255
  1.7632 0.629048   2.9871 255 255 255
  -1.033 -1.37158  2.46142 255 255 255
  -2.3211 -0.997504   2.44574 255 255 255
0.074424 0.110513   2.5302 255 255 255
0.432232 -0.95563  2.34014 255 255 255
 -1.89143 -0.116467   2.25057 255 255 255
 1.34303 0.877199  2.96464 255 255 255
1.46261 -1.5617 3.01991 255 255 255
0.272206  1.48419  2.42055 255 255 255
0.428538 -1.05279  2.21505 255 255 255
-0.0554141    1.51573    2.42601 255 255 255
  -2.3319 -0.855717   2.43463 255 255 255
 2.79362 0.092606  3.11526 255 255 255
 1.26164 0.551449  2.74531 255 255 255
 2.20211 0.498062  2.34761 255 255 255
0.909489  -1.1319  3.04273 255 255 255
-2.77945  1.37113  2.77008 255 255 255
 -0.625243 -0.0570726    2.13893 255 255 255
-0.0272247    1.46622    2.38448 255 255 255
  3.16683 -0.731576    3.0726 255 255 255
-0.836722 -0.822442   2.18934 255 255 255
 0.342115 -0.672606   2.68733 255 255 255
 0.929715 -0.353748   2.55241 255 255 255
-2.72036 -1.44017  2.60288 255 255 255
  0.34538 0.0760199   2.48426 255 255 255
-1.50582 0.956274  2.67255 255 255 255
 0.353462 -0.935935   2.26629 255 255 255
  3.33091 -0.982614   3.03156 255 255 255
-2.10035 -1.38341  2.75275 255 255 255
-1.46457 -1.04853  2.23801 255 255 255
 1.92339 0.123311   2.9789 255 255 255
1.29952 1.59533 2.92693 255 255 255
 1.63723 0.493058  2.97364 255 255 255
-2.69966 -1.43142  2.49691 255 255 255
 1.69481 0.457309  2.98445 255 255 255
 0.0899815 -0.0276356    2.43689 255 255 255
0.225698  0.48882  2.72344 255 255 255
-2.24934 0.425326  2.53061 255 255 255
0.716159 -0.48821  2.97077 255 255 255
 1.62271 0.607107  2.98682 255 255 255
 1.37915 0.836997  2.98677 255 255 255
-0.0217514   0.769329     2.5667 255 255 255
0.273525 0.317419  2.55193 255 255 255
-0.355573  0.375413   2.32167 255 255 255
    1.04248 -0.00628239     2.71809 255 255 255
 1.79675 -0.10806  3.08835 255 255 255
-0.806873 -0.898252   2.13268 255 255 255
2.64921 1.07125 2.41756 255 255 255
 1.75434 -0.55523  3.08731 255 255 255
 0.178527 -0.341804   2.71696 255 255 255
  0.30019 0.0138299   2.49529 255 255 255
  1.4081 -1.53848  3.05523 255 255 255
-0.0180639   0.714411    2.56357 255 255 255
1.46131  0.2395 2.75433 255 255 255
 0.425925 -0.667579   2.66394 255 255 255
  1.22595 -0.671441   3.05132 255 255 255
-0.599198 -0.529573   2.23911 255 255 255
-1.99298 0.750462  2.65722 255 255 255
 2.65896 0.614878  2.42563 255 255 255
  1.0772 -1.00588  3.03283 255 255 255
-2.08568 -1.15005  2.38846 255 255 255
   2.14595 -0.0684024    3.09107 255 255 255
  0.89957 -0.942254   3.02178 255 255 255
 0.777329 -0.799143    3.0395 255 255 255
 1.91839 0.271294   2.9692 255 255 255
 0.226187 -0.523155    2.4977 255 255 255
-2.01735  1.10052  2.69266 255 255 255
0.168176  1.42306  2.35287 255 255 255
 1.33512 0.786468  2.98406 255 255 255
 0.198322 -0.903623     2.951 255 255 255
  1.94552 -0.624649   3.09386 255 255 255
 1.63289 0.636529  2.98875 255 255 255
0.316419  0.55357  2.72745 255 255 255
 0.675575 -0.100863   2.65749 255 255 255
0.126561  1.42415  2.49672 255 255 255
-0.163391  0.431511   2.55817 255 255 255
 0.128043 -0.536112   2.26203 255 255 255
  3.3871 -0.92063  3.04984 255 255 255
-0.566356  0.729044   2.52717 255 255 255
 1.69629 0.846071  2.98253 255 255 255
 1.95686 0.308318   2.9832 255 255 255
0.281982 0.199553   2.4741 255 255 255
-0.24936 0.275111  2.57243 255 255 255
 0.141937 0.0217716   2.43383 255 255 255
0.467782 0.911312  2.91987 255 255 255
 0.22367 0.192805   2.4935 255 255 255
 0.241532 -0.644781   2.61904 255 255 255
  1.24394 -0.686563   3.04045 255 255 255
 5.29015 -4.38678  3.67991 255 255 255
 1.42927 -4.80029  3.30226 255 255 255
 5.60337 -3.97797  3.73338 255 255 255
 5.00031 -2.34463  2.87403 255 255 255
0.289723  -6.2085  3.18407 255 255 255
 1.25171 -4.32672  2.59232 255 255 255
 4.62165 -2.94079  3.03981 255 255 255
0.506287 -2.80157  2.96105 255 255 255
 1.02806 -4.30739   2.6026 255 255 255
 5.56554 -2.33099  3.01214 255 255 255
0.824572 -4.25161  2.57792 255 255 255
   6.931 -2.88311  3.75734 255 255 255
 4.88663 -3.45459  2.97701 255 255 255
-0.724835  -5.98423   3.27314 255 255 255
 3.10543 -2.63065  1.95728 255 255 255
0.0185352  -3.23987   2.94479 255 255 255
0.974846 -3.80317  2.55683 255 255 255
 3.28889 -2.71455  2.04701 255 255 255
 4.22782 -3.17148  2.96618 255 255 255
 7.37365 -1.37187  3.85657 255 255 255
 5.09957 -5.06278  3.61529 255 255 255
  -1.311 -3.79672  2.90242 255 255 255
 3.42087 -2.56167  2.02333 255 255 255
 3.32173 -2.60548  2.01232 255 255 255
 3.06896 -2.76113  2.07039 255 255 255
 5.90659 -4.08565  3.56122 255 255 255
 3.03081 -3.11494  1.93647 255 255 255
 7.41926 -1.18463  3.89465 255 255 255
 7.14077 -2.47662  3.83303 255 255 255
  2.3352 -3.10553  2.02448 255 255 255
 3.68767 -2.50322  2.03444 255 255 255
 4.91385 -6.18136   3.5658 255 255 255
 5.75934 -4.30244  3.67554 255 255 255
-1.13949  -3.3479  2.90633 255 255 255
 1.06721 -5.79361   3.1178 255 255 255
 3.61058 -6.07693  3.39625 255 255 255
 5.17535 -5.24189  3.48103 255 255 255
 6.14352 -4.01824  3.61497 255 255 255
 3.50707 -2.45922  1.99615 255 255 255
 3.53036 -2.56775  1.97857 255 255 255
0.448398 -2.86132  2.92969 255 255 255
4.27095 -3.0793 3.00893 255 255 255
0.582575 -4.17722  2.69792 255 255 255
-0.618193  -4.93291   3.15126 255 255 255
0.909607 -4.11252  2.59104 255 255 255
 2.28419 -3.75416  1.95454 255 255 255
5.04567 -3.4314 2.96679 255 255 255
 2.32665 -3.39629  2.05689 255 255 255
-1.10407 -3.22905  2.87094 255 255 255
 5.16965 -4.69679  3.62204 255 255 255
-0.257401  -3.29448   2.92253 255 255 255
 5.53093 -3.34998  3.17527 255 255 255
 5.31221 -2.41703  3.02965 255 255 255
 1.71843 -4.31691  2.70811 255 255 255
 2.87741 -2.90955  1.89607 255 255 255
 3.35758 -2.91405  1.91523 255 255 255
 7.06511 -4.03144  3.49182 255 255 255
 1.32852 -5.85542  3.26359 255 255 255
 2.20137 -3.51212  1.99746 255 255 255
 6.17358 -4.07905  3.70633 255 255 255
 3.24299 -3.10303  1.90682 255 255 255
-1.28203 -4.67907  3.06368 255 255 255
 2.86515 -3.08395  1.88158 255 255 255
 3.22859 -5.80024  3.42482 255 255 255
 5.24394 -5.44025  3.47882 255 255 255
-0.398764  -5.67713   3.12854 255 255 255
 1.73753 -4.26884   2.7114 255 255 255
-0.943618  -3.44228   2.91728 255 255 255
 2.95552 -3.98133  2.00045 255 255 255
 2.54219 -2.56997   2.0548 255 255 255
4.12569  -3.521 2.98416 255 255 255
-1.38383 -4.92728  3.09875 255 255 255
 1.53746 -2.90907  2.95168 255 255 255
0.0235167    -3.018   2.93693 255 255 255
 7.52724 -2.37894  3.81699 255 255 255
3.45449 -4.1031 2.01045 255 255 255
 4.73759 -3.53081  3.02657 255 255 255
 3.02162 -3.54976  1.87021 255 255 255
 5.2335 -3.1092 2.99891 255 255 255
 2.30967 -5.58155  3.27755 255 255 255
-0.729476  -6.01717   3.15291 255 255 255
5.35245 -2.3485  3.0288 255 255 255
-0.731344  -5.04823   3.14497 255 255 255
-0.917128  -3.39514   2.92576 255 255 255
 2.64178 -4.21765  1.98267 255 255 255
-0.831424  -4.50067   2.93909 255 255 255
   4.998 -5.25981  3.50922 255 255 255
 6.44137 -5.24696  3.58857 255 255 255
 4.39502 -2.81149  2.77969 255 255 255
 5.29617 -4.62638  3.63579 255 255 255
 6.49878 -3.56006  3.74112 255 255 255
 1.12453 -2.50332  3.01391 255 255 255
 5.3224 -2.4701 2.98614 255 255 255
0.679417 -3.45462   2.9682 255 255 255
1.90414 -3.9854 1.98194 255 255 255
-0.472574  0.296505   2.53654 255 255 255
0.404622 0.112647  2.65499 255 255 255
0.220042 0.155701  2.59909 255 255 255
 1.26512 0.350011   2.8597 255 255 255
 1.28824 0.190299   2.9989 255 255 255
  0.77697 -0.313179   2.61365 255 255 255
 0.490365 -0.258579   2.59222 255 255 255
 0.366662 -0.010106   2.53257 255 255 255
0.159382  0.48221  2.73977 255 255 255
 1.24777 0.416838  2.99193 255 255 255
-0.434446 -0.148978   2.19571 255 255 255
0.196776 0.193566  2.43432 255 255 255
-0.242174  0.252259   2.42514 255 255 255
 0.735432 -0.390829   2.67841 255 255 255
 0.541151 -0.617702   2.70263 255 255 255
0.716652   -0.304  2.67541 255 255 255
 0.362319 -0.683612   2.56483 255 255 255
-1.05942 0.155761  2.26744 255 255 255
-0.264758   0.38905   2.52055 255 255 255
0.944983  0.63688  2.78482 255 255 255
0.953527  0.62711  2.95511 255 255 255
-0.29372 0.544436  2.54737 255 255 255
  0.59289 -0.288571   2.68959 255 255 255
 0.273762 -0.414194   2.45706 255 255 255
-0.537796 -0.160021    2.2285 255 255 255
 1.09454 0.767932  2.95506 255 255 255
-0.741663 -0.213332   2.22848 255 255 255
-0.848555 -0.114881    2.3329 255 255 255
-0.172669  0.625374   2.58094 255 255 255
  0.427709 -0.0860689     2.5672 255 255 255
   1.1037 -0.297324   2.73631 255 255 255
-0.739311  0.361793   2.26644 255 255 255
0.244007 0.747188  2.72137 255 255 255
 0.79871 0.277954  2.75924 255 255 255
 0.882018 -0.372707    2.5546 255 255 255
 0.516703 -0.626118   2.60731 255 255 255
-0.265737  0.213935   2.71381 255 255 255
 -0.414516 -0.0473494    2.40099 255 255 255
 -0.416085 -0.0793369    2.35478 255 255 255
-0.385971  0.416128   2.31871 255 255 255
  0.290865 -0.0775706     2.5177 255 255 255
-0.960943  0.562273   2.26707 255 255 255
 0.408481 -0.163761    2.5693 255 255 255
-1.10567 0.151853  2.24089 255 255 255
  1.03859 -0.212496   2.78013 255 255 255
-1.03925 0.516924  2.25419 255 255 255
 0.728459 -0.582731   2.99842 255 255 255
-0.973009 0.0287777   2.31837 255 255 255
 0.70412 0.668613  2.94262 255 255 255
  1.02962 -0.248881   2.73404 255 255 255
0.966081 0.611075  2.84116 255 255 255
 0.850207 -0.340775   2.54545 255 255 255
 -1.03286 -0.167274   2.31776 255 255 255
-1.03016  0.10732  2.32301 255 255 255
0.606231 0.822069  2.90386 255 255 255
-0.356592  0.415836   2.33081 255 255 255
0.0344684  0.511608   2.61509 255 255 255
 0.163657 -0.377837   2.71153 255 255 255
 -0.28478 -0.142019   2.43384 255 255 255
  0.969681 -0.0370444    2.78103 255 255 255
 0.193723 -0.507816   2.47939 255 255 255
-0.405447 -0.107985   2.43564 255 255 255
 0.86615 0.283153  2.61268 255 255 255
 0.404076 -0.341739   2.46274 255 255 255
-0.15962 0.299347  2.69173 255 255 255
 0.391348 -0.314802   2.52259 255 255 255
-0.954272  0.239294    2.3066 255 255 255
 -1.32737 -0.498452   2.73353 255 255 255
-0.918774 -0.442335   2.12804 255 255 255
 0.117036 0.0406324    2.4107 255 255 255
0.950772 0.830818  2.94279 255 255 255
-0.353699   0.57918   2.52618 255 255 255
  1.19579 -0.946549    3.0192 255 255 255
 0.916119 -0.523316   2.74798 255 255 255
 1.37778 0.832292  2.97736 255 255 255
0.952048  0.65419  2.96083 255 255 255
-0.523112 -0.181675   2.20877 255 255 255
-0.227282  0.522288   2.50072 255 255 255
 0.974178 -0.259123   2.63694 255 255 255
-0.900351 -0.457307   2.10499 255 255 255
  0.323517 -0.0414949    2.50951 255 255 255
-0.389786  0.557821   2.49993 255 255 255
0.331459 0.223511  2.50145 255 255 255
-0.491265 -0.265541   2.17284 255 255 255
-0.572069 -0.169005   2.19738 255 255 255
-0.36479 0.555126   2.5527 255 255 255
-0.420564 -0.194132     2.509 255 255 255
 0.264438 -0.195266   2.74786 255 255 255
 -0.580132 -0.0249132    2.29487 255 255 255
 1.29171 0.659602  2.97359 255 255 255
-0.0397744 -0.0608534    2.70285 255 255 255
0.897403 -0.90261  3.00181 255 255 255
 0.118437 -0.361972   2.53676 255 255 255
 0.101954 -0.491848   2.26726 255 255 255
0.0356483 -0.377258   2.27846 255 255 255
 0.246048 -0.470453   2.46132 255 255 255
-0.321682 -0.186859   2.36333 255 255 255
 -0.367858 -0.0994763    2.39586 255 255 255
 0.11494 0.269131  2.50928 255 255 255
-0.326752 -0.235325   2.39378 255 255 255
  1.18139 -0.316215   2.69033 255 255 255
 1.07686 -0.23044  2.74582 255 255 255
 0.289015 -0.443574   2.46559 255 255 255
0.932386  0.57392  2.96651 255 255 255
   1.06128 0.00421482    2.70283 255 255 255
-0.265816  0.409963    2.5105 255 255 255
-0.0454643   0.465266     2.5804 255 255 255
-0.208636  0.639849   2.56363 255 255 255
 1.36531 0.170468  2.78674 255 255 255
-0.825514  0.641848   2.27107 255 255 255
0.187071 0.139399  2.42693 255 255 255
-0.0299501  -0.190267    2.26889 255 255 255
 0.244057 -0.234178   2.56296 255 255 255
-0.333285  0.575652   2.56034 255 255 255
-0.199934  0.432253   2.47258 255 255 255
-0.588692  -0.13065   2.39233 255 255 255
 1.07537 0.871625  2.93984 255 255 255
  1.01505 0.0700421   2.75941 255 255 255
  0.79384 -0.252708   2.61341 255 255 255
  1.19756 -0.278026   2.68709 255 255 255
-0.333042  0.362519   2.30834 255 255 255
-0.0369076   0.360041    2.72411 255 255 255
  0.0917224 -0.00784775     2.48013 255 255 255
 0.104402 -0.196244   2.69674 255 255 255
  0.146622 -0.0380879    2.43547 255 255 255
0.918734 0.472582  2.95485 255 255 255
 -1.34509 -0.470177   2.73805 255 255 255
 0.214282 -0.281384   2.55709 255 255 255
0.319721 0.171695  2.49036 255 255 255
-0.905716 -0.161951   2.28432 255 255 255
0.199692 -0.38887  2.72623 255 255 255
 0.126115 -0.437101   2.62499 255 255 255
-0.473737 -0.261184   2.21096 255 255 255
 0.16729 0.039776  2.42697 255 255 255
-0.703149  0.373717    2.2602 255 255 255
 0.304112 0.0758733   2.43974 255 255 255
  0.64246 -0.500059   2.96091 255 255 255
-0.172089  0.665182   2.55601 255 255 255
  0.1963 0.318171  2.47675 255 255 255
-0.11789 0.638525  2.54136 255 255 255
-0.928755 -0.175539     2.282 255 255 255
0.233045 0.534356  2.75515 255 255 255
 0.189618 -0.459892   2.68798 255 255 255
0.0738524 0.0420758   2.46293 255 255 255
 0.108573 -0.323295   2.67478 255 255 255
0.109254 0.297095  2.60132 255 255 255
-0.0382435  -0.205213    2.25919 255 255 255
-0.0991091   0.647836     2.5414 255 255 255
 0.378091 -0.362737   2.48072 255 255 255
0.117982 0.171252  2.40152 255 255 255
  0.129227 -0.0742321    2.45018 255 255 255
0.387556 0.737626  2.90461 255 255 255
 0.243567 -0.424756    2.6778 255 255 255
-1.14792  -0.3247  2.27178 255 255 255
0.405472 0.780616  2.90886 255 255 255
0.334043 0.271399  2.54244 255 255 255
0.908049 0.674733  2.94818 255 255 255
0.331204 -0.70235  2.59572 255 255 255
0.653561 0.322066  2.93049 255 255 255
0.134995 0.425425  2.69207 255 255 255
  0.191902 -0.0645781    2.44484 255 255 255
  1.02003 -0.112055   2.79091 255 255 255
0.0899979  -0.37517   2.61431 255 255 255
  0.86268 -0.798343   3.02746 255 255 255
0.421812 0.824447   2.9143 255 255 255
-0.879306 -0.171541    2.6434 255 255 255
0.101277 0.412076  2.73498 255 255 255
0.120709 0.316651  2.58471 255 255 255
0.838514  0.75545  2.94387 255 255 255
0.0298452  0.491913   2.66956 255 255 255
 0.729776 -0.335309   2.64444 255 255 255
 0.277431 0.0133164   2.47358 255 255 255
-0.0996474   0.631808    2.55306 255 255 255
 0.310097 -0.706401   2.66562 255 255 255
 0.703982 -0.217754   2.64832 255 255 255
  1.09793 -0.275526   2.73969 255 255 255
-0.0632335   0.321438    2.73063 255 255 255
0.0166102  0.453421   2.71016 255 255 255
  0.990524 -0.0289273      2.745 255 255 255
  0.512445 -0.0705145    2.62304 255 255 255
 0.859435 -0.326173   2.58237 255 255 255
 0.814019 -0.569554   2.99245 255 255 255
-0.174304  0.409265   2.54386 255 255 255
-0.270645  0.593912   2.57827 255 255 255
  1.55448 -0.696708   3.04792 255 255 255
0.164427 0.146731  2.47929 255 255 255
  0.704549 -0.0557394    2.68002 255 255 255
 0.787842 -0.276566   2.64489 255 255 255
 0.321869 -0.383119   2.64984 255 255 255
0.339993 0.583613  2.71287 255 255 255
  1.09679 -0.235092   2.73934 255 255 255
 0.104363 -0.404402    2.6294 255 255 255
 1.39589 0.228526  2.74568 255 255 255
0.0786271 -0.263298   2.66505 255 255 255
-0.27144 0.474849  2.54258 255 255 255
 0.265567 -0.259919   2.58583 255 255 255
0.228454 0.158969  2.44876 255 255 255
    1.0894 -0.0395913    2.72578 255 255 255
 1.06745 -0.94127  3.03308 255 255 255
1.19212 0.48891 2.99444 255 255 255
  0.240666 -0.0302473    2.49441 255 255 255
  1.12511 -0.790095   3.03656 255 255 255
 0.42978 0.185153  2.56366 255 255 255
 0.122673 0.0828745   2.45439 255 255 255
-0.246664  0.353097    2.4798 255 255 255
 0.285553 -0.187612   2.68217 255 255 255
-1.29614  -0.4223  2.60233 255 255 255
-0.315513  0.585285   2.55646 255 255 255
 1.28717 0.737466   2.9768 255 255 255
0.213385 0.545198  2.74782 255 255 255
0.0916194 -0.291808   2.67355 255 255 255
0.206716 0.358172  2.55394 255 255 255
 0.146008 -0.474013   2.62115 255 255 255
   0.114609 -0.00940792      2.4208 255 255 255
0.918786 0.785026  2.95335 255 255 255
 -1.13689 -0.292477    2.3131 255 255 255
  1.29638 -0.929678   3.01862 255 255 255
0.157549   -0.419  2.67252 255 255 255
 -1.17622 -0.360201   2.27568 255 255 255
 1.29118 0.695342  2.97068 255 255 255
0.364822 0.125063  2.51436 255 255 255
  0.69911 -0.536324   2.97488 255 255 255
0.80451 0.15992 2.95844 255 255 255
-1.09809 -0.31135  2.61309 255 255 255
 0.811905 -0.381954   2.67121 255 255 255
 0.77066 -0.54932  2.99839 255 255 255
0.0597616 -0.268249    2.7123 255 255 255
0.728377 0.248481  2.91939 255 255 255
0.0343333 -0.164407   2.68547 255 255 255
 0.743806 -0.546432   2.98906 255 255 255
-0.362125  0.527087   2.47675 255 255 255
0.0682281 -0.367569   2.65818 255 255 255
-0.229563  0.624349   2.55183 255 255 255
 0.895051 -0.300689   2.61834 255 255 255
  1.27684 -0.590019   3.04693 255 255 255
  1.13245 -0.259548   2.70292 255 255 255
 0.833533 -0.879472   3.02243 255 255 255
 0.140343 -0.385641   2.65787 255 255 255
-0.202488  0.439861   2.41006 255 255 255
  0.67566 -0.500326   2.97227 255 255 255
-0.303888  0.437993   2.53881 255 255 255
-0.435128  0.533054    2.4885 255 255 255
-0.189381   0.41182    2.5257 255 255 255
  0.38618 -0.678761   2.65203 255 255 255
  1.03604 -0.798769   3.03501 255 255 255
 0.670252 -0.702187   3.00884 255 255 255
-0.166688   0.72357   2.48945 255 255 255
-0.424604  0.616253   2.51155 255 255 255
 0.981326 -0.827213    3.0231 255 255 255
0.0823707   -0.2524   2.71269 255 255 255
0.322482 0.150646  2.51007 255 255 255
0.0307942 -0.304948   2.67724 255 255 255
-0.351914  0.341129   2.32031 255 255 255
0.321791 -0.70882  2.64682 255 255 255
 0.310888 -0.716676   2.59606 255 255 255
-0.00259133   -0.172132     2.69677 255 255 255
 1.32792 0.801545  2.95536 255 255 255
0.0105283  0.610222   2.55504 255 255 255
0.364876 0.696676  2.88206 255 255 255
 1.26054 0.570896  2.94576 255 255 255
 1.30572 0.858665  2.95837 255 255 255
0.207563 0.271881   2.5381 255 255 255
0.855192 0.266528  2.61548 255 255 255
0.722954   0.6897  2.92895 255 255 255
   1.408 0.821883  2.96819 255 255 255
-0.0983516   0.357787    2.69715 255 255 255
0.270047  0.29205  2.51097 255 255 255
 0.804924 -0.229736   2.63824 255 255 255
0.995698 0.111368  2.77684 255 255 255
 0.386916 0.0439456   2.53995 255 255 255
 1.35971 0.208111  2.77443 255 255 255
0.195245 0.299175  2.49156 255 255 255
-0.0764162   0.372031    2.70227 255 255 255
1.31305  0.7779 2.94001 255 255 255
0.0701257  0.495034   2.72847 255 255 255
 1.12502 0.822079  2.96075 255 255 255
 0.234666 -0.398954   2.70317 255 255 255
0.963945  0.65878  2.96852 255 255 255
0.0576098 0.0133894   2.50206 255 255 255
-0.130344  0.686141    2.5629 255 255 255
  1.05597 -0.074201   2.79607 255 255 255
 0.732742 -0.135083   2.63222 255 255 255
-0.115688  0.656501   2.53999 255 255 255
-0.115317 -0.226477   2.25646 255 255 255
 0.291445 -0.253534   2.57731 255 255 255
0.0495675 -0.184787   2.70076 255 255 255
0.732821 -0.23991  2.68722 255 255 255
-0.246496  0.547714   2.50852 255 255 255
-1.19433 -0.35263  2.28443 255 255 255
 0.0754965 0.00593684     2.4623 255 255 255
  0.75555 -0.511922   2.97059 255 255 255
0.366792 -0.66234  2.66825 255 255 255
 0.862956 -0.716336   3.03064 255 255 255
 0.356206 -0.643419    2.6648 255 255 255
-0.359283  0.339387   2.28211 255 255 255
0.749806 0.691486  2.92448 255 255 255
  1.13887 -0.807554   3.01777 255 255 255
  1.0622 0.840747   2.9433 255 255 255
  1.61757 -0.751195   3.06669 255 255 255
0.222063 0.559291  2.73747 255 255 255
0.279279 0.239744  2.47142 255 255 255
  0.28271 -0.722057   2.65172 255 255 255
 1.29503 0.885046  2.96361 255 255 255
0.591605 0.542279  2.92488 255 255 255
0.883427 -0.92318   3.0277 255 255 255
0.870308 0.315042  2.59551 255 255 255
-0.0260618 -0.0243274    2.70402 255 255 255
 0.933864 -0.955862   3.03775 255 255 255
0.805018  -0.8062  3.03025 255 255 255
  0.749519 -0.0140443    2.77181 255 255 255
-0.493048   0.60978   2.45308 255 255 255
0.0702779 0.0659727   2.45257 255 255 255
0.0695814 0.0886992   2.48833 255 255 255
 1.09728 0.815244   2.9436 255 255 255
0.421119 0.052432  2.46289 255 255 255
0.0239453 -0.104625   2.70202 255 255 255
-0.33929 0.509186  2.55981 255 255 255
0.918238 0.713307  2.95531 255 255 255
 0.625289 -0.550357   2.96383 255 255 255
 0.242569 0.0583868   2.44974 255 255 255
 0.958488 -0.849537   3.04352 255 255 255
0.870956 0.329147    2.626 255 255 255
0.00463915   0.617169    2.51787 255 255 255
 0.811559 -0.144673    2.6639 255 255 255
   1.05495 -0.0348846    2.73108 255 255 255
0.0114903 -0.162486   2.69174 255 255 255
  1.10855 -0.283326   2.70005 255 255 255
  1.3066 0.838747   2.9581 255 255 255
  1.53013 -0.704646   3.05327 255 255 255
  1.29553 -0.597244   3.03507 255 255 255
0.264543 0.508259   2.7152 255 255 255
 1.32223 0.165602  2.80087 255 255 255
 1.32791 -0.72618  3.03077 255 255 255
 1.37447 0.197201  2.77651 255 255 255
 1.13887 0.845857  2.94583 255 255 255
 0.125381 -0.392128   2.72466 255 255 255
-0.237865  0.299372   2.50758 255 255 255
0.590707  0.35008  2.90127 255 255 255
 0.87878 0.734056  2.95797 255 255 255
 0.14915 0.270512  2.54524 255 255 255
 0.794807 -0.660654   3.02577 255 255 255
  1.68578 -0.829972    3.0833 255 255 255
0.857367 0.746633  2.94947 255 255 255
0.240752  0.32369  2.50704 255 255 255
 6.06653 -4.92933  3.69428 255 255 255
-1.67266 0.469532  2.33082 255 255 255
-1.13843 0.297553  2.28682 255 255 255
  2.33469 0.0802828   3.05627 255 255 255
0.220305 0.149275  2.69158 255 255 255
0.0577645  0.640606   2.56032 255 255 255
-0.604639 -0.291363   2.15845 255 255 255
-1.22605  1.11002  2.62809 255 255 255
 1.78992 0.926114  2.88073 255 255 255
 1.34748 0.232905  2.81247 255 255 255
 0.969952 -0.516859   2.85315 255 255 255
  1.22908 -0.139821   2.89019 255 255 255
 0.266395 -0.230998   2.57508 255 255 255
-0.227263  0.592372   2.53998 255 255 255
 0.510083 -0.603681   2.51798 255 255 255
-0.855003    1.1361   2.38395 255 255 255
 -1.04786 -0.437445    2.0743 255 255 255
-1.01477 -1.04385  2.30364 255 255 255
-0.913962 -0.967649   2.27656 255 255 255
0.0212679  0.909454   2.55128 255 255 255
 2.16918 0.264686  2.57199 255 255 255
-1.67309 0.569247  2.35541 255 255 255
 -1.38125 -0.877864   2.19618 255 255 255
 1.61395 0.465436  3.09682 255 255 255
 0.710702 -0.590932   2.98183 255 255 255
 1.25877 0.521355  2.73897 255 255 255
-0.216431  0.702127   2.53356 255 255 255
0.248001  1.04563  2.48475 255 255 255
-1.32506   1.2693   2.6545 255 255 255
0.172882  1.02153  2.30945 255 255 255
0.187885 0.404347  2.71282 255 255 255
 1.09598 0.922748  2.68405 255 255 255
 2.17187 0.250276    2.763 255 255 255
  1.66224 -0.464572   3.03738 255 255 255
1.37848 0.31504 2.84142 255 255 255
-0.976256 -0.920508   2.31854 255 255 255
  0.79254 -0.419871    2.6291 255 255 255
0.279633  0.05479  2.39688 255 255 255
 -1.38897 0.0732321   2.23727 255 255 255
 2.17456 -1.27045   3.0536 255 255 255
  -1.549 0.403121  2.30147 255 255 255
 0.484334 0.0413404   2.66106 255 255 255
 2.36892 -1.32872   2.9973 255 255 255
 0.524313 -0.621746   2.31797 255 255 255
 0.503223 -0.635485   2.23316 255 255 255
 1.37389 0.531635  2.86502 255 255 255
 1.47172 -1.29859  2.94705 255 255 255
0.766819  0.97729  2.64698 255 255 255
 0.29181 0.321114  2.56664 255 255 255
-1.45225 0.637247  2.31931 255 255 255
1.67752 -1.1399 3.06803 255 255 255
 0.556939 -0.580848   2.19247 255 255 255
  1.88163 -0.776208   3.02803 255 255 255
 -1.25004 -0.409142   2.34933 255 255 255
  1.13132 -0.153513   2.76894 255 255 255
-1.33571 0.719462  2.33973 255 255 255
-0.724335  0.468814   2.28974 255 255 255
1.66429 1.07712 2.97654 255 255 255
-1.60482 0.231444  2.22977 255 255 255
   0.96273 -0.0687439    2.71687 255 255 255
-0.0974233   -1.02994     3.3572 255 255 255
  -1.5514 -0.688114   2.25946 255 255 255
 1.98972 0.787074    2.338 255 255 255
  0.29619 0.0526448   2.47866 255 255 255
 -1.27037 -0.947212   2.23881 255 255 255
 2.00591 0.739186  2.32123 255 255 255
    2.094 0.0790762    3.1009 255 255 255
-0.781722 -0.284302   2.33685 255 255 255
 2.02567 0.484708   2.8465 255 255 255
 1.84641 0.982152  2.34953 255 255 255
-0.642682 -0.851188   2.23209 255 255 255
 0.417318 0.0349459   2.51292 255 255 255
-1.72038 0.869283  2.68199 255 255 255
 1.70478 -0.34227  3.06241 255 255 255
-0.103022 -0.891196   2.20787 255 255 255
2.60987 -1.2928 3.03461 255 255 255
2.38048 -1.3546 3.01746 255 255 255
-0.499304   1.05147   2.68512 255 255 255
-1.93804 -0.62976  2.28464 255 255 255
 -1.60646 -0.146347   2.28649 255 255 255
1.81569 1.02634 2.34324 255 255 255
-0.0506591  -0.980148    2.20122 255 255 255
-0.362643   1.22335   2.68022 255 255 255
-0.253525 -0.978016   2.21313 255 255 255
 0.255385 -0.927091   2.20658 255 255 255
 0.177295 -0.781799   2.18711 255 255 255
 0.281659 -0.977247   2.21344 255 255 255
  0.32879 -0.393707   2.65399 255 255 255
-0.052537 -0.209189   2.60317 255 255 255
 -0.35504 -0.789088   2.20308 255 255 255
 0.311819 -0.900936    2.2118 255 255 255
-0.281179 -0.935734    2.2208 255 255 255
 -1.20754 -0.818116   2.15531 255 255 255
0.832501 0.276056  2.61958 255 255 255
-0.333794  -0.84382    2.2248 255 255 255
-0.0772038  -0.942049    2.22095 255 255 255
 1.73159 0.991691  2.84911 255 255 255
-0.30313 -0.75877  2.20245 255 255 255
0.621762 0.554585  2.79516 255 255 255
  -1.48304 -0.0536267    2.23939 255 255 255
-2.12085  1.05208  2.71486 255 255 255
-1.16824  1.07334  2.07082 255 255 255
 -1.98401 -0.361703   2.26822 255 255 255
 -1.31451 0.0382091   2.22853 255 255 255
  1.62734 -0.316393   3.05247 255 255 255
-0.856079 -0.543168   2.15665 255 255 255
-0.288113  0.892689   2.54644 255 255 255
  1.90593 -0.300468   3.08534 255 255 255
-1.26672 -1.01608  2.16362 255 255 255
-0.247148   1.07969   2.52137 255 255 255
-0.597354 -0.197737   2.15727 255 255 255
1.59828 1.24429 2.87044 255 255 255
0.140204  0.96318  2.44744 255 255 255
1.34847 0.41709 2.98745 255 255 255
0.595525 0.166497   2.6638 255 255 255
 -1.19928 0.0838251   2.30005 255 255 255
0.184646 -0.67575   2.2274 255 255 255
 -1.95444 -0.377211   2.27704 255 255 255
 0.547349 -0.585525   2.29087 255 255 255
  1.08979 -0.293977   2.69636 255 255 255
 0.341896 -0.947831    2.2167 255 255 255
-0.859813 -0.787458   2.33136 255 255 255
-1.21807 0.470692  2.31356 255 255 255
-1.78696 -0.28576  2.29124 255 255 255
-0.641705    1.0484   2.67134 255 255 255
 -1.84523 -0.106508   2.17865 255 255 255
  2.69016 -0.915295   3.09805 255 255 255
 0.366321 -0.982175   2.18403 255 255 255
-0.485397 -0.449974    2.1716 255 255 255
 2.22914 0.106994  3.12684 255 255 255
-0.459492 -0.381251   2.23518 255 255 255
-0.594824   1.15329   2.67124 255 255 255
 -1.5803 0.213758  2.24341 255 255 255
 -2.37348 -0.566136   2.98681 255 255 255
  -1.41259 -0.0924497    2.32331 255 255 255
-0.975974  0.973662   2.38506 255 255 255
-1.02159 -1.03478  2.25144 255 255 255
-0.312775   1.12928   2.68089 255 255 255
 -1.73112 -0.203805   2.22578 255 255 255
  2.68942 -0.238982   3.10064 255 255 255
-1.33425 0.354953  2.25593 255 255 255
 0.556662 -0.107135   2.61893 255 255 255
  1.4481 0.203491  2.75558 255 255 255
-1.27365 0.250495  2.24348 255 255 255
-1.29763  1.13283  2.61657 255 255 255
-1.15117 0.107671  2.28335 255 255 255
-1.22997 0.880311  2.33998 255 255 255
   1.3812 0.0926551   2.79165 255 255 255
  1.65033 -0.283915    3.0545 255 255 255
1.96417  0.4326 2.96325 255 255 255
-1.64253  0.17085  2.20711 255 255 255
-0.829071 -0.697602   2.20032 255 255 255
 -1.89933 0.0323041   2.21096 255 255 255
0.758757 0.990431  2.67442 255 255 255
0.759916 0.998083  2.69499 255 255 255
0.251516 0.180461  2.53815 255 255 255
-0.804573 -0.776222   2.25448 255 255 255
-0.717882  0.977485   2.57426 255 255 255
 -1.75172 -0.260421   2.30106 255 255 255
-0.228754  0.250443   2.69565 255 255 255
 2.02482 0.155952   2.9417 255 255 255
 2.73036 -0.90458   3.0934 255 255 255
-1.29056  0.76535  2.37526 255 255 255
 -1.16154 -0.945085   2.23131 255 255 255
    2.67077 -0.00721476      3.1181 255 255 255
   1.1442 -0.285695   2.68979 255 255 255
 -1.17208 0.0688541   2.31978 255 255 255
0.162934 -0.51688   2.3889 255 255 255
-1.72452 -0.21155  2.27379 255 255 255
-0.956343  -0.47909   2.04754 255 255 255
 -1.21217 -0.225076   2.30432 255 255 255
-1.61993 0.196337  2.23658 255 255 255
  1.88408 -0.696739   3.08201 255 255 255
-1.45063 0.719519  2.33378 255 255 255
-0.779417  0.338519   2.26803 255 255 255
-1.07403 0.916429  2.38701 255 255 255
 -0.59174 -0.943279   2.11606 255 255 255
-0.595125 -0.949631   2.12805 255 255 255
-0.490637   1.20915   2.68591 255 255 255
-0.870035 -0.694893   2.27207 255 255 255
 2.64416 -1.17487  3.07476 255 255 255
-2.03602  1.04156  2.68569 255 255 255
 0.645214 -0.170248   2.69926 255 255 255
0.0372213  0.826249   2.56638 255 255 255
0.973688 0.665524  2.61896 255 255 255
 0.664009 -0.947598   2.30579 255 255 255
-1.24888 0.833168  2.34723 255 255 255
 -1.5491 0.651808  2.35503 255 255 255
-1.39428 0.755375  2.34661 255 255 255
  1.52509 -0.439105     3.057 255 255 255
-1.2236 1.06342 2.06785 255 255 255
-0.638663 -0.886218   2.11633 255 255 255
  1.79586 -0.858545    2.9311 255 255 255
 0.294164 -0.738639   2.23183 255 255 255
 1.97428 0.335316  2.99871 255 255 255
-0.668148 -0.882017   2.10764 255 255 255
-0.637758 -0.778191   2.20006 255 255 255
-0.963021  0.216658   2.28744 255 255 255
-0.51442  1.03266  2.57568 255 255 255
  0.28961 -0.445336   2.46921 255 255 255
 0.296178 -0.815655    2.2044 255 255 255
  0.35129 -0.925699   2.23921 255 255 255
  1.9964 0.160095  2.95617 255 255 255
0.889362  -1.0563  3.03007 255 255 255
 1.69322 0.561899  2.99868 255 255 255
0.410001 0.145068  2.49529 255 255 255
 2.52284 -0.20844  3.11126 255 255 255
 -1.7838 0.517918  2.33282 255 255 255
-0.549691 -0.957067    2.1504 255 255 255
-1.08251 0.925037  2.34508 255 255 255
 1.66453 0.508778  2.98298 255 255 255
-0.398017  0.959185   2.69636 255 255 255
-2.32375 -1.24635  2.68823 255 255 255
-0.609672   1.02618   2.67639 255 255 255
  2.41917 -0.146494   3.09151 255 255 255
-0.0635155    1.30671    2.66174 255 255 255
-0.249173  0.821835   2.51896 255 255 255
  0.18917 -0.650197   2.27186 255 255 255
    1.1557 -0.0188332    2.75437 255 255 255
-0.419568  0.885532   2.58387 255 255 255
 0.660254 -0.749409   2.22075 255 255 255
-0.323512  -1.05831   2.21862 255 255 255
 0.312765 -0.850757   2.22521 255 255 255
 1.87057 0.854032  2.33302 255 255 255
 0.301788 -0.178705    2.5811 255 255 255
  1.24119 -0.319392   2.67089 255 255 255
0.0959287 -0.369187   1.94022 255 255 255
 1.79708 -0.10847  3.08886 255 255 255
-2.09074 -1.06118  2.61824 255 255 255
 -1.1651 -0.73231  2.13846 255 255 255
 1.04553 0.112533  2.76477 255 255 255
0.413821 -1.03076  2.22873 255 255 255
-0.873734 -0.458761   2.15811 255 255 255
 0.25108 -0.75367  2.25928 255 255 255
-1.14962 0.884421  2.32711 255 255 255
 0.247444 -0.475207   2.47261 255 255 255
-1.72419 0.131049   2.2099 255 255 255
-0.548979 -0.919929   2.15894 255 255 255
-0.970885 -0.442802   2.08143 255 255 255
-0.916181 -0.622127   2.14533 255 255 255
-0.455488   1.31524   2.71957 255 255 255
-0.892444 -0.813282   2.34704 255 255 255
0.182238 0.190908  2.57062 255 255 255
-2.12419 0.562066  2.59011 255 255 255
-0.930662 -0.499696   2.11213 255 255 255
   2.58618 -0.0157034    3.07578 255 255 255
 0.825428 -0.713178   2.99739 255 255 255
-0.40165  1.03556  2.58667 255 255 255
-0.632042 -0.852938   2.12607 255 255 255
  1.57427 -0.458956   3.05981 255 255 255
-0.10849  1.19466  2.65298 255 255 255
 0.981342 -0.257711   2.64909 255 255 255
  0.271781 -0.0616539    2.49377 255 255 255
-0.518278 -0.847136   2.20853 255 255 255
  1.62759 -0.531545   3.04921 255 255 255
 0.727653 -0.817015   3.02128 255 255 255
0.00108797  -0.143101     2.7004 255 255 255
 0.207957 -0.681837   2.27069 255 255 255
  -1.1008 -0.704569   2.13189 255 255 255
 1.81986 0.172374  2.98686 255 255 255
-0.565851 -0.838427   2.19352 255 255 255
0.935035 -1.02579  3.02103 255 255 255
 0.466203 -0.993589   2.31818 255 255 255
  2.27194 -0.375443   3.13598 255 255 255
 -1.10353 -0.549279   2.09354 255 255 255
 1.34803 -1.23932  3.04805 255 255 255
0.458537 -1.00621    2.279 255 255 255
-1.00921 -0.25745  2.60562 255 255 255
-0.535982   1.20596   2.70179 255 255 255
-0.900195 -0.644734   2.17092 255 255 255
-0.894786 -0.637152   2.15509 255 255 255
-0.623634 -0.899164    2.1424 255 255 255
 1.04447 0.881475  2.95745 255 255 255
 1.70432 0.962976  2.97721 255 255 255
-0.731527 -0.795415   2.14076 255 255 255
  0.72145 -0.319127   2.65646 255 255 255
-2.21724 0.751426  2.65167 255 255 255
 1.10464 0.938579  2.64493 255 255 255
-0.0598353  -0.203026    2.84713 255 255 255
 2.13583 -1.47139  3.03811 255 255 255
-1.27179  1.17758  2.65204 255 255 255
-0.606183 -0.816407   2.19359 255 255 255
0.168336 0.993311  2.29967 255 255 255
 0.718926 -0.571584   3.00507 255 255 255
 1.38687 0.170304  2.82653 255 255 255
  0.56597 -0.607212   2.92473 255 255 255
0.913196 0.271209  2.68244 255 255 255
 1.07187 0.930173  2.95877 255 255 255
 0.929674 -0.387777   2.57733 255 255 255
  1.84384 -0.702112   3.09406 255 255 255
 0.68739 0.981655  2.65664 255 255 255
-0.484464 -0.330641   2.14982 255 255 255
-2.07913 -1.01061  2.60661 255 255 255
-1.18719   1.0352  2.59055 255 255 255
-0.611306 -0.429782   2.20582 255 255 255
 1.72853 0.915026    2.986 255 255 255
0.114662  0.88042  2.71299 255 255 255
 -1.59564 -0.630983   2.10296 255 255 255
 -1.25515 -0.669563   2.09142 255 255 255
2.69247 0.11772 3.12233 255 255 255
-1.21054  -1.0003  2.27077 255 255 255
 2.60886 -1.22033   3.0386 255 255 255
 0.217193 -0.400807   2.66188 255 255 255
0.629444 0.911432   2.7337 255 255 255
-0.639687  -0.45866   2.23552 255 255 255
-1.2942 1.09818 2.68172 255 255 255
  2.11374 -0.368079   3.12699 255 255 255
1.09211 0.75969 2.96394 255 255 255
0.10608 0.18329 2.48361 255 255 255
  1.92145 -0.465947   3.07398 255 255 255
-0.266622  0.410968    2.5161 255 255 255
 2.32516 0.968117  3.50446 255 255 255
  1.6598 0.462436  2.97729 255 255 255
 1.73273 0.959159   2.9628 255 255 255
 1.51987 0.181949  2.77605 255 255 255
 0.787659 -0.276439   2.64435 255 255 255
 -1.09599 -0.505187   2.79389 255 255 255
-0.0458252   0.755559    2.54912 255 255 255
0.845414 -0.15418  2.72062 255 255 255
 1.75206 0.285419   2.9838 255 255 255
 1.76209 0.523582  2.98708 255 255 255
 1.56622 0.631064  2.92827 255 255 255
 1.62375 0.679493  2.99156 255 255 255
 1.61818 0.575599  2.98691 255 255 255
-0.623166 -0.990967   2.12522 255 255 255
 1.12655 0.047625  2.75505 255 255 255
 1.73215 0.489186  2.98403 255 255 255
 -1.52263 -0.544013   2.43795 255 255 255
 2.30766 -1.37393  3.03579 255 255 255
0.838226 0.755437  2.94347 255 255 255
-0.640172  0.913215   2.58102 255 255 255
  1.42588 -0.980597   3.03375 255 255 255
 1.28896 0.738046  2.97904 255 255 255
 1.70884 0.481524  2.98307 255 255 255
3.21071 1.31272 4.75676 255 255 255
-0.970228 -0.675385   2.22456 255 255 255
 0.16727 0.678396  2.58908 255 255 255
1.07189 -1.1571 3.03868 255 255 255
  0.498871 -0.0564185    2.69214 255 255 255
 1.90723 0.213126  2.97331 255 255 255
-0.653742  0.896153   2.59251 255 255 255
 0.292224 -0.402001   2.52359 255 255 255
1.00632 -1.0661 3.04564 255 255 255
 -0.02995 -0.189222   2.26533 255 255 255
0.216908  0.23268  2.39436 255 255 255
 0.216239 -0.444499   2.69432 255 255 255
 -1.2327 -0.64647  2.09956 255 255 255
  2.11043 -0.458424   3.09431 255 255 255
0.0251111 -0.374733   2.21833 255 255 255
-0.665642   0.92596   2.58635 255 255 255
0.0707921  0.817059   2.55424 255 255 255
 0.710623 -0.341171   2.66612 255 255 255
0.222501 0.734242  2.76809 255 255 255
0.0259673  0.633121   2.55127 255 255 255
 0.145771 -0.469829   2.60965 255 255 255
0.229934 0.334837  2.61125 255 255 255
0.955364 -1.11346  3.03279 255 255 255
 -1.04366 -0.645743    2.8404 255 255 255
  1.79831 -0.739192   3.07671 255 255 255
0.916411 0.783914  2.94815 255 255 255
  1.68455 -0.251979    3.0552 255 255 255
 -1.4185 0.727256   2.3613 255 255 255
0.907333 0.138191  2.97841 255 255 255
 0.331107 -0.701815   2.59491 255 255 255
-1.92688 0.773624  2.63816 255 255 255
-0.208498  0.640533    2.5659 255 255 255
-1.31708 -0.69397  2.10953 255 255 255
-0.701947  0.963059   2.59078 255 255 255
 1.21686 -1.00566    3.035 255 255 255
  1.19903 -0.658166   3.05695 255 255 255
 1.96465 0.277344  2.97214 255 255 255
  1.5642 0.622837  2.98235 255 255 255
 1.76566 -1.02444  2.85183 255 255 255
 -1.10706 -0.529677   2.09305 255 255 255
0.0682658 -0.219227   2.70029 255 255 255
0.848859 0.714507  2.96266 255 255 255
 1.59237 0.611395  2.98959 255 255 255
 1.78421 0.559914  2.98881 255 255 255
  1.94444 -0.473799   3.07332 255 255 255
0.246119 0.310686  2.51881 255 255 255
  1.70141 -0.159069    3.0764 255 255 255
1.64861 1.01232 2.92692 255 255 255
0.223957 0.159379  2.39304 255 255 255
-1.42359 0.727923  2.32397 255 255 255
0.0953475 0.0449248   2.46082 255 255 255
 0.331247 0.0119345   2.52879 255 255 255
-0.799748 -0.593275    2.1712 255 255 255
-0.74068  1.20413  2.75247 255 255 255
0.328426 0.294997  2.52591 255 255 255
-0.533164  0.663845   2.54234 255 255 255
 -0.88447 -0.573957   2.15316 255 255 255
1.87339 -4.2698 2.62149 255 255 255
 2.91751 -3.54852  1.94768 255 255 255
2.69925 -3.5019 1.94045 255 255 255
 4.81528 -3.24791  2.94832 255 255 255
  3.2035 -2.88217  2.04857 255 255 255
-2.04561  -4.8612   3.0873 255 255 255
 1.45456 -3.45216  2.83255 255 255 255
-0.912609  -4.26795   2.98376 255 255 255
-1.07924 -6.09881  2.89461 255 255 255
 2.34872 -3.61091  1.93765 255 255 255
-1.93172 -6.21704  3.00797 255 255 255
 1.5443 -3.5202 2.88054 255 255 255
 4.65653 -3.77145  3.18253 255 255 255
-1.85994 -6.30373  3.07249 255 255 255
0.756667 -4.14302  2.62341 255 255 255
-0.220118  -4.00076   2.78628 255 255 255
 2.41532 -3.87178  1.93311 255 255 255
0.974121  -4.1858  2.68789 255 255 255
-0.715781  -4.06014    2.7555 255 255 255
-1.51968  -3.6593  2.89119 255 255 255
 4.33191 -3.41592  2.97497 255 255 255
 4.97597 -5.25609  3.59105 255 255 255
-0.745829  -5.44256   3.12243 255 255 255
 4.94576 -3.81698  3.10596 255 255 255
0.975475 -3.15159  2.97382 255 255 255
   3.094 -3.77122  1.95874 255 255 255
2.60756 -3.3493 1.91969 255 255 255
 2.30985 -5.18818  3.44265 255 255 255
0.996476 -3.22381  2.95882 255 255 255
  4.2394 -3.17103  2.97732 255 255 255
-1.63999 -3.74113  2.87384 255 255 255
-2.06218 -4.65498  2.94667 255 255 255
-1.72359 -4.23453  2.86284 255 255 255
 2.99947 -5.75373  3.42856 255 255 255
 2.53964 -2.88237  1.98292 255 255 255
 1.58427 -3.45995  2.90441 255 255 255
 4.91299 -2.62383  2.99721 255 255 255
-2.06163 -6.53307  3.06384 255 255 255
 5.86399 -5.01179  3.70698 255 255 255
 5.02061 -5.71328  3.60924 255 255 255
-0.713809  -5.57878   3.05427 255 255 255
 4.48907 -4.55726  3.63468 255 255 255
 5.50716 -4.88645  3.60555 255 255 255
 5.69636 -4.74211  3.67862 255 255 255
-1.53783 -4.16283  2.89255 255 255 255
5.45343 -5.0427 3.65117 255 255 255
 5.41946 -5.36063  3.59746 255 255 255
 4.99621 -5.20651  3.66835 255 255 255
 2.63447 -3.77636  2.02745 255 255 255
-1.78248 -5.01097  3.11206 255 255 255
 5.72538 -5.52812  3.65412 255 255 255
 3.56533 -4.51231  2.90855 255 255 255
 -2.5168 -3.87299  2.81933 255 255 255
 3.02028 -3.96668  2.00707 255 255 255
0.721167 -3.35768  2.96269 255 255 255
 1.48048 -3.27481  2.87628 255 255 255
-0.850642  -4.13807    2.8817 255 255 255
 1.05062 -3.16721  2.98805 255 255 255
-2.06893  -4.2143   2.8356 255 255 255
 1.70239 -3.67257  2.87932 255 255 255
 2.69343 -4.02511  1.98609 255 255 255
 1.54533 -1.39875  2.94111 255 255 255
  4.79134 -0.974457   3.29475 255 255 255
 6.06161 -1.75422  3.29088 255 255 255
 3.12334 -1.62758   2.0304 255 255 255
  6.57643 -0.544197   3.26488 255 255 255
 5.70278 -1.33786   3.4708 255 255 255
 5.11646 -1.83307   2.6547 255 255 255
  3.36243 -0.974526   2.14934 255 255 255
 3.56338 -3.27472   2.2257 255 255 255
  4.01282 0.0229925   3.24172 255 255 255
0.721255 -3.53418    2.945 255 255 255
 7.54917 -1.79889  3.78948 255 255 255
 6.54352 -2.48878  3.27311 255 255 255
  5.62016 -0.803966   3.33116 255 255 255
  4.09227 -0.164536    3.2999 255 255 255
  6.26955 -0.355132   2.99126 255 255 255
  4.74969 -0.780755   3.41448 255 255 255
0.293087  -2.8999  2.80166 255 255 255
 3.61967 -2.35109  1.96633 255 255 255
 3.86208 -1.79837   1.9482 255 255 255
 4.69106 -3.94803  3.31636 255 255 255
 1.94182 -1.78627  3.01084 255 255 255
  4.92155 -0.456261   3.44057 255 255 255
 7.34868 -1.32454  3.84046 255 255 255
 4.46579 -3.43254   2.9376 255 255 255
 3.56237 -2.00995   2.0433 255 255 255
 7.37423 -1.32989  3.88449 255 255 255
  5.9234 -3.32131  3.18591 255 255 255
 1.95566 -1.17351  3.05724 255 255 255
  4.18596 -0.370123     3.304 255 255 255
  1.17043 -0.115977   2.83573 255 255 255
 5.23641 -2.41607  3.11726 255 255 255
  4.0684 -1.51998  2.07295 255 255 255
 8.57903 -2.26215  3.77205 255 255 255
 6.21645 -2.28381  3.20782 255 255 255
  2.09329 0.0968831   3.07822 255 255 255
  4.6607 -2.96348  2.88616 255 255 255
 6.06206 -3.09942  3.22155 255 255 255
  3.9914 -1.63537  1.93366 255 255 255
0.863052 -1.20757  2.88924 255 255 255
  3.5676 -3.06552  2.22654 255 255 255
 5.48911 -2.84347  3.01471 255 255 255
3.67797 -2.7087 1.95566 255 255 255
 3.15507 -2.68856  2.06598 255 255 255
 4.19325 -1.58663  2.11785 255 255 255
 5.65663 -1.93091  2.99842 255 255 255
  4.71897 -0.345643    3.4032 255 255 255
     7.35 -0.195516   3.14201 255 255 255
  3.50457 -0.125487   3.19357 255 255 255
  3.62585 -0.189435   3.21861 255 255 255
  6.98753 -0.579058   3.17108 255 255 255
 5.53907 -4.61365  3.73383 255 255 255
  2.8184 -2.38206  1.98641 255 255 255
 4.46631 -0.53686  3.33987 255 255 255
 6.16367 -4.12566  3.68597 255 255 255
 7.75788 -4.06588  3.92079 255 255 255
 3.54546 -2.22819  2.07056 255 255 255
 6.18646 -2.91985  3.25117 255 255 255
 3.73188 -1.45713  1.92387 255 255 255
  5.07852 -0.543925   3.48373 255 255 255
 3.00896 -2.03883  2.02039 255 255 255
4.85685 -2.7895 3.01052 255 255 255
 3.78451 -1.71695  1.96116 255 255 255
0.640093 -3.79419  2.55561 255 255 255
  4.58871 -0.603338    3.3559 255 255 255
 2.69282 -2.96959  1.94287 255 255 255
0.560999 -2.39019  2.97544 255 255 255
0.656689 -3.54606  2.90944 255 255 255
 3.64537 -2.64722  2.03636 255 255 255
 6.84112 -4.46071  3.48152 255 255 255
 0.52251 -2.32578  2.87028 255 255 255
0.727332 -3.21283  2.97254 255 255 255
 8.54823 -4.56463  3.94123 255 255 255
3.10235 -3.9599 2.00098 255 255 255
6.83372 0.18183 3.15459 255 255 255
  4.7406 -1.41216    2.817 255 255 255
   7.46147 -0.0304722    3.14679 255 255 255
  5.48994 -0.167698   3.50051 255 255 255
 3.25154 -1.31511  2.10129 255 255 255
 0.590349 0.0292847   2.80273 255 255 255
 4.21143 -1.09997  2.00635 255 255 255
  4.58912 -0.277122   3.35425 255 255 255
 5.91462 -1.48457  3.58035 255 255 255
 7.47826 -1.36537  3.86732 255 255 255
  7.09761 -0.968111   3.80146 255 255 255
 7.57855 0.162014  3.17335 255 255 255
 7.98187 -3.10777  3.40531 255 255 255
 7.57632 -3.81219  3.55591 255 255 255
0.736344 -1.47579  2.40609 255 255 255
  6.77222 -0.399978   3.18643 255 255 255
  7.13712 -0.469586   3.13306 255 255 255
 3.31418 -3.86801  1.99532 255 255 255
  7.06825 -0.991079   3.77962 255 255 255
 2.24963 -1.67811  3.05534 255 255 255
  7.7258 -3.72777  3.40433 255 255 255
  0.5959 -2.47832  2.96129 255 255 255
 8.21174 -3.49019  3.34244 255 255 255
  3.25955 0.0901981   3.06418 255 255 255
3.75356 -4.3189 2.93026 255 255 255
 3.40995 -1.13185  2.15039 255 255 255
 5.91607 -1.93468  3.05742 255 255 255
  4.35408 -0.132795   3.30761 255 255 255
 3.98043 -3.84779  2.90225 255 255 255
  7.8648 -3.13338  3.57174 255 255 255
   2.363 -1.41159  3.05304 255 255 255
 3.35392 -2.08588  2.05436 255 255 255
 7.83141 -3.14123   3.6467 255 255 255
0.594559 -1.33031  2.23811 255 255 255
 2.14264 -3.37378  1.93314 255 255 255
  7.48155 0.0998057   3.14397 255 255 255
 7.48723 -3.27329  3.14167 255 255 255
0.584739 -1.31221  2.58854 255 255 255
 3.19913 -2.54476  2.04251 255 255 255
  5.64979 -0.984161   3.51444 255 255 255
 7.70179 -3.43222  3.77615 255 255 255
 7.02701 -4.10556  3.40087 255 255 255
 7.04083 -3.38125  3.70748 255 255 255
   7.36526 -0.0814188    3.11763 255 255 255
  6.09469 -0.905161    3.5977 255 255 255
 3.28188 -2.77658   2.0518 255 255 255
 2.98506 -2.31216  1.97192 255 255 255
 3.06486 -1.91787  1.99263 255 255 255
 8.16946 -2.36738  3.73281 255 255 255
 0.58313 -4.29093  2.60663 255 255 255
 4.44147 -3.08615  2.79031 255 255 255
 4.65052 -2.77075  2.90162 255 255 255
 3.47032 -0.84377  2.04643 255 255 255
 6.96373 -3.99467   3.7379 255 255 255
 3.17802 -1.54896  2.01346 255 255 255
 4.20253 -1.50576  2.13863 255 255 255
 1.50269 -1.28773  2.78413 255 255 255
   7.23254 -0.0341623    3.16176 255 255 255
  5.3264 -2.79472  2.97202 255 255 255
5.04637 -3.4456 2.99569 255 255 255
  3.76938 0.0270184   3.21707 255 255 255
  5.08486 -0.218104   3.50007 255 255 255
   5.8411 -0.808163   3.51435 255 255 255
  2.88753 -0.569831    3.1105 255 255 255
0.856379 -1.13093   2.8343 255 255 255
   4.31968 -0.0149933    3.35122 255 255 255
 4.22467 -1.55499  2.14862 255 255 255
  3.9044 0.076136  3.23915 255 255 255
  3.0803 -1.78725  2.02918 255 255 255
  1.6627 -2.18361   3.0162 255 255 255
  5.28959 -0.649173   3.50706 255 255 255
 6.39298 -3.51419  3.72639 255 255 255
1.13902 -4.2782 2.54909 255 255 255
 2.54189 -1.08448  3.03999 255 255 255
 0.569806 -0.629474   2.68543 255 255 255
 5.99152 -2.40354  3.25441 255 255 255
0.801901 -3.58099  2.96003 255 255 255
  7.05603 -0.454371   3.14638 255 255 255
 6.53906 -4.37262  3.72765 255 255 255
 7.02855 -3.91381   3.7312 255 255 255
  5.77561 -0.507497    3.5295 255 255 255
3.18947 -1.4676 2.11295 255 255 255
  5.3858 -2.31022  3.03393 255 255 255
    3.448 -0.994079   2.13101 255 255 255
  3.42194 -0.922336   2.11013 255 255 255
 2.32119 -1.10631  3.02831 255 255 255
3.05986 -1.8245 2.01715 255 255 255
  6.85436 -0.160479   3.17005 255 255 255
 3.25318 -2.39167  1.94244 255 255 255
 4.12909 -3.16771  3.01486 255 255 255
 6.72923 0.312957  3.09505 255 255 255
  7.10863 -0.613931   3.07242 255 255 255
  7.09938 0.0847182    3.1805 255 255 255
0.583227 -1.31902  2.75692 255 255 255
 3.79758 -1.35611  2.01163 255 255 255
0.382234 -1.79199  2.74981 255 255 255
0.751721 -0.94987  3.03123 255 255 255
 3.33546 -2.14936   1.9549 255 255 255
 5.74848 -2.79542  3.23807 255 255 255
 8.37776 -3.32153   3.3494 255 255 255
 3.81394 0.102791  3.23226 255 255 255
  3.68582 -0.131023   3.20259 255 255 255
0.871277 -1.10338  2.62429 255 255 255
  5.21229 -0.792533   3.49383 255 255 255
