ply
format ascii 1.0
element vertex 1233
property float x
property float y
property float z
property uchar red
property uchar green
property uchar blue
end_header
7.88383 -7.3346 3.55972 255 255 255
 9.26034 -6.60825  4.24532 255 255 255
6.60535 -9.0095 3.63771 255 255 255
 9.48462 -6.20252  4.34896 255 255 255
 3.76096 -4.36534  3.12355 255 255 255
 3.10938 -9.42103  2.94918 255 255 255
  5.8894 -8.41419    3.631 255 255 255
 6.37627 -8.75982  3.65986 255 255 255
 3.40333 -7.94549  2.84394 255 255 255
 3.22024 -7.60077  2.93567 255 255 255
 3.07145 -9.23271  2.96372 255 255 255
 4.98766 -6.30511  3.64154 255 255 255
 9.39416 -4.47798  3.82059 255 255 255
 5.15169 -4.85887  3.64657 255 255 255
 2.64126 -5.02329  3.54074 255 255 255
 3.17831 -9.49136  3.11516 255 255 255
 5.11932 -4.01301  3.73005 255 255 255
 5.94331 -3.76769  3.80988 255 255 255
 7.71518 -4.55758   4.1688 255 255 255
 5.83684 -3.77823  3.81665 255 255 255
 1.66568 -6.73493  2.57635 255 255 255
 8.02158 -8.18733  3.86982 255 255 255
  4.5958 -8.07799  3.42244 255 255 255
 9.66931 -7.20394  4.31708 255 255 255
  10.017 -8.83135  4.03836 255 255 255
 4.37964 -8.85949  2.88786 255 255 255
 7.26262 -6.54282    4.122 255 255 255
 4.87313 -8.20668  3.55025 255 255 255
 2.02209 -6.90588  2.67738 255 255 255
 7.33315 -6.20091  4.20584 255 255 255
 10.354 -7.1651 4.29296 255 255 255
 6.55266 -7.98891  3.74239 255 255 255
 9.44425 -7.29659  4.30271 255 255 255
5.87833 -6.0876 3.71761 255 255 255
 5.73972 -8.46902  3.61939 255 255 255
0.908836 -6.61262  3.26222 255 255 255
 6.90691 -4.33769    3.617 255 255 255
  3.5785 -4.57099  3.08307 255 255 255
 8.43541 -4.44083  4.08021 255 255 255
 2.47216 -8.88504  2.84307 255 255 255
1.99137 -7.8519 3.01753 255 255 255
 7.15255 -4.51306  4.35885 255 255 255
 5.24398 -4.18817  3.74298 255 255 255
 5.06269 -8.22638  3.40279 255 255 255
7.96389 -4.0902 4.01452 255 255 255
 9.39194 -8.59803   3.9981 255 255 255
  2.2721 -9.10094   2.9846 255 255 255
 4.37521 -5.76107   3.6714 255 255 255
 6.54376 -7.03832   3.7563 255 255 255
 6.83122 -4.39174  3.62043 255 255 255
 9.08265 -4.32921  4.21524 255 255 255
 7.41519 -4.00809   4.1061 255 255 255
 1.77869 -6.01027  3.23904 255 255 255
 7.60549 -3.46102  3.82827 255 255 255
 2.15758 -5.36565  3.55245 255 255 255
 4.51399 -8.82763  2.93167 255 255 255
 10.1393 -8.87574  4.09064 255 255 255
 3.96283 -8.14526  3.35503 255 255 255
 6.92171 -8.65051  3.69508 255 255 255
 7.56648 -4.38222  4.09584 255 255 255
 2.82504 -7.99311   3.1417 255 255 255
 4.64714 -8.58121  3.09113 255 255 255
   7.418 -4.26949   3.8508 255 255 255
  2.5379 -8.17258  3.07671 255 255 255
 2.66785 -7.77999  2.81684 255 255 255
 10.8049 -6.29838  4.38319 255 255 255
 5.53705 -9.23282  3.51481 255 255 255
 5.46849 -5.60249   3.5532 255 255 255
 2.85846 -8.99265  3.21924 255 255 255
 9.68732 -7.25007  4.29506 255 255 255
 2.60402 -8.61886  2.70653 255 255 255
 0.70298 -7.80766  4.90934 255 255 255
 9.50469 -7.12005  4.30483 255 255 255
 1.45418 -4.75214  3.34591 255 255 255
 10.0873 -7.13945  4.29688 255 255 255
 6.87861 -7.11091  3.68753 255 255 255
 7.67451 -3.67194  4.09325 255 255 255
 9.64163 -7.46102  4.27725 255 255 255
4.38726 -5.5943 3.67137 255 255 255
 7.17705 -9.21382  3.70061 255 255 255
8.51486 -6.6726 4.20641 255 255 255
 9.37617 -5.68119  4.36315 255 255 255
 5.49187 -5.19306  3.70673 255 255 255
9.77509  -5.688 4.35481 255 255 255
 10.1585 -4.80442  3.72263 255 255 255
 3.20719 -7.61128  3.20745 255 255 255
 1.53531 -5.05447  3.35371 255 255 255
 7.34577 -4.34945  3.92235 255 255 255
 10.3329 -6.82121  4.05863 255 255 255
 7.06586 -7.26961  3.62942 255 255 255
 3.64665 -6.08787  3.50688 255 255 255
 2.48029 -6.87869  3.38388 255 255 255
 8.25012 -3.54207  3.55821 255 255 255
 5.99346 -9.19463   3.5816 255 255 255
 6.59009 -8.88385  3.62694 255 255 255
 4.18708 -6.47385  3.56042 255 255 255
 3.68102 -9.51812  3.47291 255 255 255
 3.73256 -7.68633  3.47261 255 255 255
 7.32374 -8.29569  3.79588 255 255 255
 5.92641 -5.96219   3.6675 255 255 255
 4.56441 -6.81248  3.61562 255 255 255
 4.17398 -4.89548  3.66273 255 255 255
 7.07285 -6.12176  4.18524 255 255 255
 4.71683 -4.37731  3.72346 255 255 255
  11.021 -6.62165  4.40239 255 255 255
0.666606 -5.83631  3.33224 255 255 255
  5.6216 -7.63053  3.68712 255 255 255
8.86109 -7.1223 4.18983 255 255 255
  10.223 -5.23906   4.3043 255 255 255
 2.69778 -6.34148  3.32194 255 255 255
 7.62351 -4.36887  4.12946 255 255 255
 5.13585 -7.90105  3.49388 255 255 255
  5.3454 -8.10224   3.6574 255 255 255
 5.08818 -8.50084  3.42954 255 255 255
 8.17697 -7.21057  4.01649 255 255 255
 5.39441 -8.79977  3.56035 255 255 255
 5.38065 -8.14085  3.60868 255 255 255
 4.86366 -8.91357  2.97162 255 255 255
1.56423  -7.916 2.92887 255 255 255
 1.58683 -6.74062  2.49663 255 255 255
  3.4231 -4.65686  3.03984 255 255 255
 4.23003 -9.44253  3.31662 255 255 255
 9.98236 -4.25008  3.53743 255 255 255
 7.02682 -4.81551  4.41312 255 255 255
0.770974 -5.26823   3.2623 255 255 255
 3.57493 -5.90197  3.56319 255 255 255
6.18394 -6.6994 3.75268 255 255 255
 5.04538 -5.09943   3.5334 255 255 255
 4.05184 -8.70094  3.13919 255 255 255
 2.26293 -7.14693  2.80223 255 255 255
 3.34584 -4.73292  3.18766 255 255 255
 8.81616 -8.48668  3.93183 255 255 255
 1.84522 -6.93661  2.72601 255 255 255
  9.8158 -6.93641  4.30455 255 255 255
 5.14401 -4.50076  3.72353 255 255 255
 2.10781 -6.96419  2.67911 255 255 255
 5.25667 -5.51398  3.55023 255 255 255
 8.76525 -6.32669  4.24004 255 255 255
10.2268 -6.4746 4.39708 255 255 255
 2.99385 -8.86345  3.11053 255 255 255
 8.59863 -4.86268  4.22588 255 255 255
 5.93193 -8.95538  3.58179 255 255 255
7.84694 -3.5446 3.56073 255 255 255
   5.352 -5.05579  3.69039 255 255 255
 2.51019 -8.99322  3.00098 255 255 255
5.51407 -6.3168 3.71068 255 255 255
7.81596 -7.1086 3.99837 255 255 255
 4.82276 -8.59575  3.10501 255 255 255
 9.75236 -8.94937  4.01233 255 255 255
 9.02272 -5.14184  4.34852 255 255 255
 7.38483 -7.02927  3.79919 255 255 255
 8.64376 -7.03723  4.20019 255 255 255
 1.06382 -6.44697  3.34875 255 255 255
 7.01566 -2.78639  3.69167 255 255 255
7.24461 -5.7235 4.23526 255 255 255
 5.01367 -2.99762   2.9783 255 255 255
 5.70253 -2.72861  3.30057 255 255 255
3.19083 -2.7595 2.03272 255 255 255
 4.11697 -4.81314  3.60904 255 255 255
8.90413 -2.0137 3.56855 255 255 255
6.42923 -2.5951 3.62612 255 255 255
 4.80405 -6.63584  3.52281 255 255 255
 9.37642 -6.97609  4.36338 255 255 255
 9.58001 -2.74294  4.10288 255 255 255
6.37362 -6.1586 3.70508 255 255 255
 4.70023 -5.68713  3.61253 255 255 255
 10.1693 -4.66746  3.75969 255 255 255
 9.92224 -2.14833  3.98604 255 255 255
 8.70444 -2.30443  3.68695 255 255 255
10.2883 -6.6301 4.33077 255 255 255
 10.3006 -2.54062  4.31809 255 255 255
 7.41587 -2.62058  3.94663 255 255 255
 10.4098 -4.24411  3.80357 255 255 255
 3.67036 -6.37948  3.50852 255 255 255
 9.91712 -5.51113   4.2796 255 255 255
 4.86483 -4.73192  3.69129 255 255 255
 4.13469 -5.66764  3.62138 255 255 255
 3.47382 -4.11782   2.2621 255 255 255
 10.7017 -6.82932  4.39857 255 255 255
 8.30957 -2.50001  3.68173 255 255 255
 10.5867 -2.74882  4.28003 255 255 255
 10.3448 -2.22664  3.78517 255 255 255
 10.8447 -2.65961  4.30362 255 255 255
 6.88231 -5.06968  3.97647 255 255 255
 10.6193 -4.45449  3.91893 255 255 255
 2.43143 -6.77895  3.46755 255 255 255
 10.6457 -3.54076  4.46581 255 255 255
 4.61884 -5.00451  3.70033 255 255 255
 6.22515 -5.36408   3.7619 255 255 255
 10.0056 -2.63727  4.37725 255 255 255
5.80594  -2.238 3.25991 255 255 255
 11.1261 -3.71366  4.37785 255 255 255
 3.06242 -4.37631   2.6634 255 255 255
 10.1345 -3.20473  4.26016 255 255 255
 7.23396 -6.25718  4.22742 255 255 255
 3.94414 -2.29805   2.2768 255 255 255
 10.0896 -3.20952  4.18281 255 255 255
 2.93024 -4.00377  1.91688 255 255 255
 10.1589 -2.67836  4.21384 255 255 255
4.06284 -3.3836 3.09308 255 255 255
  5.5618 -2.90989  3.26001 255 255 255
 6.14688 -2.27036   3.2061 255 255 255
 10.4189 -2.41084  4.34909 255 255 255
 2.65728 -2.77097  1.98459 255 255 255
 6.81352 -1.93705  3.82868 255 255 255
 10.9957 -5.27895  4.14839 255 255 255
 3.18524 -3.04681  2.00661 255 255 255
 4.97546 -2.59881   2.9782 255 255 255
 8.71621 -2.12783  3.76586 255 255 255
 2.61996 -2.41039  1.99255 255 255 255
  5.1811 -3.38505  3.20292 255 255 255
 5.18126 -3.39064  3.22935 255 255 255
4.60725 -2.9388 2.99124 255 255 255
 7.88401 -2.30797  3.83774 255 255 255
 9.82651 -3.80888  3.58488 255 255 255
 5.77783 -3.47395  3.69069 255 255 255
 8.94874 -2.96446  3.50356 255 255 255
  4.2405 -3.36163  2.98378 255 255 255
 5.43909 -2.99129  3.29548 255 255 255
5.74518   -4.81 3.72075 255 255 255
 5.53708 -2.49114  3.03862 255 255 255
 5.25561 -1.84403  3.06308 255 255 255
 10.8225 -3.74841  4.29965 255 255 255
 1.50653 -6.53661  3.38417 255 255 255
   10.91 -7.03857  4.24957 255 255 255
 7.82566 -3.80605  3.52312 255 255 255
 5.74616 -2.86879  3.04222 255 255 255
 5.73062 -2.84152  3.22061 255 255 255
 5.46426 -2.81373   3.0936 255 255 255
 5.26502 -3.29677  3.27578 255 255 255
 4.02674 -2.99162  3.00801 255 255 255
 11.3589 -3.79142  4.42957 255 255 255
 5.56092 -2.07467  3.01335 255 255 255
 4.85072 -6.96809  3.62055 255 255 255
 6.65811 -2.37846  3.84958 255 255 255
  3.2978 -4.31758  2.95731 255 255 255
 3.17699 -3.78704   2.1638 255 255 255
   8.075 -4.06291  3.48642 255 255 255
  11.121 -2.96076  4.38867 255 255 255
  5.0571 -4.38323  3.72526 255 255 255
 8.95226 -2.07058   3.4107 255 255 255
 8.11952 -6.59295  4.24651 255 255 255
 3.32861 -3.99235   2.0663 255 255 255
 6.41112 -2.35744  3.35558 255 255 255
 11.2839 -5.33988  4.00428 255 255 255
 6.24941 -2.68853   3.3547 255 255 255
 3.39768 -5.05504  3.39456 255 255 255
 4.04114 -5.10748  3.68225 255 255 255
 9.28937 -1.62546  3.41658 255 255 255
8.90196 -1.7345 3.75298 255 255 255
 4.17676 -2.31002  2.78113 255 255 255
 3.23134 -6.46866  3.52196 255 255 255
  7.7911 -3.29335  3.39651 255 255 255
  4.8509 -2.79412  3.05768 255 255 255
 11.1228 -5.39737  4.00928 255 255 255
 4.01756 -3.82423  3.07045 255 255 255
    3.17 -2.59981  2.07182 255 255 255
9.84422  -4.749 3.76507 255 255 255
  10.142 -3.70315  4.17333 255 255 255
 2.63027 -4.31615  1.98246 255 255 255
 5.74281 -2.74969  3.11117 255 255 255
  2.8246 -3.45458  2.04344 255 255 255
8.41112 -1.9641 3.92681 255 255 255
 11.0892 -5.07444  4.08768 255 255 255
 9.25545 -2.55191   3.6389 255 255 255
  6.6905 -4.40912  3.82206 255 255 255
  6.5413 -2.39678  3.81713 255 255 255
  6.1892 -3.08877  3.79032 255 255 255
 2.89291 -6.45711   3.4406 255 255 255
 3.63611 -3.30267  2.92332 255 255 255
10.3207 -2.2506 3.95182 255 255 255
 5.85285 -4.66437  3.73282 255 255 255
 11.0301 -3.09801  4.41106 255 255 255
 2.79997 -5.49407  3.59146 255 255 255
 5.84728 -2.48996  3.33273 255 255 255
 10.8187 -2.81872  4.24011 255 255 255
 3.03247 -2.99096  2.01714 255 255 255
  3.0497 -2.99485  1.99295 255 255 255
  11.011 -6.23805  4.33766 255 255 255
 10.4198 -5.97697   4.3293 255 255 255
3.60602 -2.9437 2.54863 255 255 255
 3.69333 -2.75447  2.47264 255 255 255
 10.6573 -4.37146  4.00543 255 255 255
 2.89276 -2.19729  2.01578 255 255 255
 2.89265 -2.19611  2.01235 255 255 255
 3.62185 -3.16426  2.99074 255 255 255
 5.62103 -5.16746  3.71536 255 255 255
 7.05721 -3.35766  3.83446 255 255 255
 2.67837 -2.30513  1.98132 255 255 255
 3.08566 -2.86745  2.05677 255 255 255
  5.7652 -5.01751  3.71988 255 255 255
 7.90322 -6.49893  4.20014 255 255 255
 4.23607 -4.15261  3.69143 255 255 255
 2.71525 -2.22441  1.99941 255 255 255
 9.08285 -2.90533  3.65775 255 255 255
9.33863 -1.9938 3.48605 255 255 255
 2.35229 -4.82132  3.29339 255 255 255
 6.82033 -2.40945  3.91702 255 255 255
 2.59923 -5.22333  3.57261 255 255 255
 10.1735 -5.38969  4.22272 255 255 255
 10.8262 -5.72809  4.14288 255 255 255
10.3732 -2.3771 4.30109 255 255 255
 5.23048 -3.23012  3.13828 255 255 255
2.86615 -3.2926 1.99996 255 255 255
 3.92112 -2.76042  2.68946 255 255 255
 9.56112 -4.62487  4.01435 255 255 255
 5.23398 -3.21797  3.14981 255 255 255
 5.68984 -2.38924  3.03609 255 255 255
8.04764 -4.1497 4.01699 255 255 255
5.52949 -2.7665 3.14519 255 255 255
 7.11391 -4.09572  3.48239 255 255 255
 6.84135 -4.89853  3.93674 255 255 255
 2.91276 -3.51117  1.96203 255 255 255
 8.62851 -4.39143  4.00496 255 255 255
 7.6957 -2.8883 3.84921 255 255 255
 9.91608 -6.60768  4.36217 255 255 255
 10.9472 -5.39485  4.23813 255 255 255
 2.25245 -4.76618  3.27906 255 255 255
  10.763 -3.96187  4.32919 255 255 255
 8.07187 -6.76481    4.215 255 255 255
   5.291 -5.70464   3.5716 255 255 255
 1.99062 -4.92367  3.37141 255 255 255
  8.3742 -4.35469  4.07734 255 255 255
 7.89934 -2.48739    3.832 255 255 255
 5.66877 -3.29213   3.2879 255 255 255
8.85094 -4.4599 4.10006 255 255 255
 7.72329 -3.04574   3.6601 255 255 255
 6.03287 -2.42971  3.28405 255 255 255
 9.27538 -2.91416  3.92239 255 255 255
 4.48273 -3.63493  3.17648 255 255 255
 11.2637 -4.68513  4.11318 255 255 255
 9.23553 -1.90511  3.53771 255 255 255
 6.74663 -5.79153  4.15232 255 255 255
 5.83746 -2.01914  3.29636 255 255 255
5.24751 -2.0811 3.11124 255 255 255
 6.77663 -3.47334  3.80787 255 255 255
 2.81091 -3.20663  1.87844 255 255 255
 2.91207 -3.79487  2.04639 255 255 255
2.90395  -3.799 2.05829 255 255 255
 6.69288 -4.48085  3.78326 255 255 255
 6.63535 -5.72426  3.78057 255 255 255
 3.83204 -2.04837  2.12954 255 255 255
 10.1129 -2.52566  4.21664 255 255 255
 6.3646 -5.0841 3.51086 255 255 255
  4.0097 -2.08573    2.208 255 255 255
 2.82578 -4.39254  2.41604 255 255 255
 2.81289 -3.72382   1.9463 255 255 255
 11.1815 -3.09435  4.36781 255 255 255
 6.68589 -4.93285  3.79427 255 255 255
 3.34486 -5.67419  3.61406 255 255 255
 4.76736 -2.41755  2.86465 255 255 255
 3.27598 -2.21161  2.02344 255 255 255
 2.84219 -2.76435  2.02975 255 255 255
 2.00687 -5.10436  3.38041 255 255 255
 2.73639 -3.50342  1.91332 255 255 255
 10.6452 -2.57519  4.31736 255 255 255
 7.51735 -2.82404  3.87358 255 255 255
  10.648 -2.64572   4.3284 255 255 255
 10.1016 -4.81547  3.83544 255 255 255
 3.68831 -2.46045  2.06951 255 255 255
10.1061 -5.0341 4.01255 255 255 255
 7.74691 -2.96566  3.65832 255 255 255
 3.04447 -2.19769  2.01607 255 255 255
 9.23841 -2.34842  3.60264 255 255 255
 2.77561 -3.51307  1.93523 255 255 255
 2.49459 -3.74429  2.04662 255 255 255
  3.5091 -2.14283  2.12247 255 255 255
3.63868 -2.8395 2.71275 255 255 255
 3.70295 -2.79721  2.85643 255 255 255
 5.24467 -3.38735  3.29408 255 255 255
 6.71334 -1.45712  3.81015 255 255 255
 2.79049 -3.79911  1.92312 255 255 255
 10.2857 -2.26796  4.15549 255 255 255
 6.10085 -2.27368  3.34392 255 255 255
 11.1537 -3.19921  4.40788 255 255 255
 3.0226 -3.0929 1.96135 255 255 255
 2.95935 -3.31983  2.06061 255 255 255
 6.50842 -4.36372  3.71443 255 255 255
 4.81534 -3.93358  3.77622 255 255 255
 6.83482 -6.75213  3.45108 255 255 255
 6.09171 -3.35125  3.82101 255 255 255
  5.8741 -4.86397  3.74271 255 255 255
  5.5654 -3.47235  3.73603 255 255 255
 2.85113 -3.65527  1.94829 255 255 255
 10.3474 -5.14325  4.17672 255 255 255
 3.59453 -3.56991  2.28772 255 255 255
 2.61866 -4.37303  1.98052 255 255 255
 2.65211 -5.01973  3.61329 255 255 255
 8.29359 -4.21937  4.05372 255 255 255
 2.88678 -3.77066  1.94789 255 255 255
 10.9806 -2.51641  3.83399 255 255 255
 4.10015 -2.83165  2.78791 255 255 255
2.43727 -3.7188 1.99711 255 255 255
8.05745 -2.1001 3.97077 255 255 255
 7.09689 -2.60376  3.89293 255 255 255
 2.80598 -4.38666  2.70605 255 255 255
 2.84515 -3.31637  1.89933 255 255 255
  4.0294 -4.31261   3.1967 255 255 255
 2.55502 -2.57443  2.07279 255 255 255
6.69311 -2.2475 3.84352 255 255 255
 2.79581 -3.12184   1.9082 255 255 255
 5.32463 -3.70049  3.76781 255 255 255
 5.69147 -3.00719  3.12638 255 255 255
 2.81685 -4.53115  2.96507 255 255 255
 7.48423 -7.01146  3.95621 255 255 255
 3.65633 -2.76088  2.32395 255 255 255
 8.41349 -4.43999  4.00679 255 255 255
8.79721 -1.9767 4.24242 255 255 255
 2.41608 -2.79806  2.08231 255 255 255
 3.69165 -3.89061  1.81399 255 255 255
 5.15881 -4.45096    3.735 255 255 255
  6.8592 -1.53469  3.80134 255 255 255
 3.12056 -2.36983   1.9505 255 255 255
 8.28873 -1.75075   3.8852 255 255 255
 4.64218 -2.77884  3.06237 255 255 255
 8.97523 -3.05728  3.55986 255 255 255
 9.43645 -6.67119  4.25005 255 255 255
11.1363 -2.9714 4.34752 255 255 255
4.12781 -3.7574 3.25019 255 255 255
 6.77103 -6.30754  4.02247 255 255 255
 8.41517 -2.95658  3.45735 255 255 255
 2.67813 -6.36132  3.37061 255 255 255
 5.00824 -4.20393  3.74303 255 255 255
 4.89481 -5.27433  3.67434 255 255 255
 11.0187 -3.85069  4.42455 255 255 255
7.08973 -3.8237 3.57686 255 255 255
 3.51078 -6.13708  3.45607 255 255 255
 3.21804 -3.01514  1.94875 255 255 255
 4.63962 -3.17433  2.82108 255 255 255
 2.52524 -3.22153  2.00726 255 255 255
 2.80538 -4.36881  2.11389 255 255 255
 2.61381 -4.95025  3.72889 255 255 255
 10.7307 -6.61036  4.36558 255 255 255
 2.44259 -3.81378   2.0123 255 255 255
 5.28445 -1.77652  3.10504 255 255 255
 2.3893 -2.8511 2.08185 255 255 255
 4.96973 -3.35839  3.03643 255 255 255
  3.5795 -4.00336  2.04977 255 255 255
 2.82771 -6.09915  3.49911 255 255 255
 2.86741 -4.31406  2.41938 255 255 255
 6.73644 -1.92424  3.86997 255 255 255
 7.59222 -2.68028  3.87174 255 255 255
 2.84545 -3.75437  1.95021 255 255 255
  2.4703 -2.70939  2.08214 255 255 255
 3.69126 -4.79644  3.14887 255 255 255
 11.0502 -5.05687   4.1134 255 255 255
  3.6514 -2.87305  2.37179 255 255 255
 8.76227 -2.90079  3.48994 255 255 255
 1.51403 -6.16443  3.40698 255 255 255
 2.81427 -4.36959  2.19381 255 255 255
  6.3583 -2.54815  3.35764 255 255 255
 2.85102 -3.69379  1.99223 255 255 255
 10.1658 -2.20636  4.10951 255 255 255
 5.34188 -3.64068  3.74723 255 255 255
 7.38165 -6.93283  3.97023 255 255 255
 2.80399 -3.43582  1.94507 255 255 255
 6.37076 -5.21902  3.62708 255 255 255
2.62463 -4.8731 3.33068 255 255 255
   7.293 -4.08787   3.7384 255 255 255
2.82249 -4.4025 2.14974 255 255 255
 6.04414 -6.72144  3.70945 255 255 255
 5.03823 -3.43415   3.0344 255 255 255
 3.36931 -2.10774  1.97273 255 255 255
 7.22607 -5.68158  4.21551 255 255 255
 4.31688 -3.53306   2.7455 255 255 255
 3.40996 -6.92554  3.53862 255 255 255
  6.8622 -2.21168  3.90107 255 255 255
 10.0138 -2.54996  4.18825 255 255 255
 7.04241 -4.01934  3.53879 255 255 255
 4.89118 -2.83304  3.07136 255 255 255
 3.64523 -2.89771  2.60501 255 255 255
6.72482 -3.3284 3.79017 255 255 255
 4.22767 -3.58011  2.95143 255 255 255
 5.08229 -2.96615  3.06972 255 255 255
 4.39241 -1.94828  2.79238 255 255 255
 3.15621 -2.80232  2.04404 255 255 255
 11.0337 -5.63132  4.33458 255 255 255
 3.28762 -2.88127  1.94973 255 255 255
  8.8938 -1.80002  4.25886 255 255 255
 11.2423 -3.14588  4.36403 255 255 255
 7.86757 -3.95788  3.51698 255 255 255
3.90365 -6.4162  3.6001 255 255 255
 10.9502 -3.21218  4.37041 255 255 255
 10.8831 -6.86935  4.23817 255 255 255
 8.69828 -5.45279  4.28329 255 255 255
 11.5632 -3.83024  4.43067 255 255 255
  3.6802 -4.90735  3.64778 255 255 255
 2.92522 -2.93237  1.93754 255 255 255
  4.4491 -1.83442  2.74192 255 255 255
 3.10842 -3.00783  2.03867 255 255 255
 6.72621 -6.55916  3.83071 255 255 255
 10.2914 -3.23581   4.3655 255 255 255
 4.82912 -1.95837  2.87422 255 255 255
 5.21739 -1.90397  3.12971 255 255 255
 2.60227 -4.85067  3.59313 255 255 255
4.43493  -3.603 2.75366 255 255 255
  7.0357 -2.73693  3.86518 255 255 255
 8.00354 -2.89472  3.70938 255 255 255
 10.0899 -2.16215  4.12528 255 255 255
 3.05816 -2.92072  2.06187 255 255 255
 3.37086 -5.00938  3.21117 255 255 255
 6.45752 -6.49195  3.57544 255 255 255
3.68001 -2.7476 2.61307 255 255 255
 11.0007 -4.92019  4.18026 255 255 255
 10.0044 -2.16477  4.23639 255 255 255
 7.68544 -2.02826  3.92577 255 255 255
 11.4212 -3.71856  4.42301 255 255 255
 2.09908 -4.55493  2.50308 255 255 255
 3.18891 -3.55486  1.94315 255 255 255
 9.95582 -2.07304  3.76475 255 255 255
 6.64608 -6.25651  3.82705 255 255 255
5.55777 -2.8205  3.3063 255 255 255
 6.15582 -2.16586  3.34099 255 255 255
11.0274 -5.1952 4.01318 255 255 255
 3.61692 -3.78028  3.00422 255 255 255
 10.9678 -2.57949   3.8084 255 255 255
9.14442 -6.2916 4.31464 255 255 255
 7.29075 -4.31927  3.88738 255 255 255
 3.29082 -3.12546  1.94635 255 255 255
 10.8467 -5.59856  4.16065 255 255 255
 6.80398 -2.85045  3.86539 255 255 255
 7.28633 -3.83976  3.65173 255 255 255
 4.69718 -2.86148  2.86777 255 255 255
  4.3825 -3.65917  2.96249 255 255 255
 2.86723 -2.82947  1.92008 255 255 255
 11.1038 -3.92245  4.36216 255 255 255
 3.69719 -2.70383  2.31082 255 255 255
 8.19411 -4.03665  3.51998 255 255 255
2.86901  -2.847 2.00473 255 255 255
 5.38445 -1.79044  3.10447 255 255 255
 5.38586 -1.79453  3.09202 255 255 255
 5.80713 -5.94787  3.69472 255 255 255
6.59246 -2.1492 3.55514 255 255 255
 5.00375 -3.42014  2.99983 255 255 255
 8.05234 -4.07878  3.88615 255 255 255
 2.94483 -2.87881  1.95987 255 255 255
2.83364 -4.3348 2.59093 255 255 255
 4.78528 -3.90597  3.30635 255 255 255
 7.26457 -6.54364  4.12114 255 255 255
  9.5806 -1.55905  3.52155 255 255 255
 7.08188 -2.05957  3.89431 255 255 255
 2.90021 -3.99467  2.04313 255 255 255
 9.73298 -4.93863  4.20101 255 255 255
  2.4967 -2.82006  2.06478 255 255 255
2.74698 -2.5228 2.08873 255 255 255
 3.02382 -3.96151  2.10814 255 255 255
 2.74175 -3.90957  1.98202 255 255 255
4.47544 -3.0901 3.02911 255 255 255
 8.93867 -4.55848  4.16561 255 255 255
7.00683  -4.106 3.49129 255 255 255
 6.73557 -2.16061  3.83966 255 255 255
 3.13672 -3.86829  2.02901 255 255 255
 3.12265 -3.86364  2.05919 255 255 255
 10.8078 -3.47036  4.37466 255 255 255
 5.72223 -5.44488  3.72807 255 255 255
 3.61694 -2.71579  2.00351 255 255 255
 11.0654 -6.52102  4.38817 255 255 255
   2.811 -2.17438  2.00134 255 255 255
 5.55578 -4.36031  3.71806 255 255 255
 8.87104 -1.83146  3.53963 255 255 255
 7.84211 -6.33007  4.20644 255 255 255
 3.86744 -2.37556  2.10012 255 255 255
 5.74912 -4.85853  3.65343 255 255 255
 2.87074 -4.01138  2.02394 255 255 255
 4.46567 -2.99306  3.10587 255 255 255
   6.338 -4.50126  3.74042 255 255 255
 6.33498 -4.50491  3.76042 255 255 255
 6.29568 -3.19183  3.81622 255 255 255
 4.42955 -2.15537  2.84695 255 255 255
 8.24371 -3.38476  3.47701 255 255 255
 3.74888 -5.55223  3.66864 255 255 255
 5.27644 -3.22744  3.26648 255 255 255
 3.49961 -5.15188  3.66095 255 255 255
 3.32011 -2.29643  2.02335 255 255 255
 8.61509 -1.49407  3.67276 255 255 255
 3.66031 -2.80029   2.0617 255 255 255
  7.2033 -3.09136  3.86531 255 255 255
6.20488 -2.1577 3.29868 255 255 255
 3.67339 -2.02767  2.04283 255 255 255
  6.6463 -4.57913  3.79948 255 255 255
  5.8683 -6.26179  3.74938 255 255 255
   3.788 -2.21887  2.14463 255 255 255
 10.4929 -2.72729  4.35215 255 255 255
 8.09858 -4.27174  4.00089 255 255 255
 3.15431 -4.10308   2.0393 255 255 255
  2.9148 -4.21617  2.00322 255 255 255
 2.36397 -4.97144  3.57652 255 255 255
 8.01798 -2.23833  3.84725 255 255 255
 9.35554 -4.67791  4.21325 255 255 255
 2.55381 -4.92448   3.6864 255 255 255
 3.79463 -4.92819  3.67228 255 255 255
 3.71868 -2.66681  2.08485 255 255 255
 8.60453 -2.65663  3.45979 255 255 255
 8.05353 -3.60292   3.5257 255 255 255
 7.33111 -1.68386  3.92896 255 255 255
   8.402 -3.32429  3.49414 255 255 255
 10.9329 -5.38653  4.32872 255 255 255
 11.2625 -3.75363  4.41362 255 255 255
 2.82734 -3.98073   1.8427 255 255 255
 4.45732 -6.55353  3.60406 255 255 255
 2.69532 -5.06074   3.6874 255 255 255
 10.5352 -2.92978  4.32352 255 255 255
 6.15714 -6.77601   3.7404 255 255 255
10.8078 -6.8578 4.34568 255 255 255
 3.61447 -2.13141   2.1334 255 255 255
 3.53763 -2.26529   2.1286 255 255 255
 5.13887 -2.89207  3.07603 255 255 255
7.26164 -2.6903 3.86229 255 255 255
 4.81028 -2.51469  3.10368 255 255 255
 5.85104 -3.30522  3.31636 255 255 255
 4.54017 -3.44801   3.0092 255 255 255
 5.52847 -2.11007  2.96944 255 255 255
 9.51352 -1.83095  3.54657 255 255 255
 3.09494 -2.43663   2.0945 255 255 255
 2.36502 -3.84686  2.01112 255 255 255
 4.08024 -3.34379  3.03549 255 255 255
10.5307 -2.5797 4.31517 255 255 255
6.16417 -2.2479 3.33091 255 255 255
 4.83102 -3.34692   3.0555 255 255 255
 2.16786 -5.42335  3.44659 255 255 255
 2.18336 -5.41221  3.42994 255 255 255
 9.95971 -2.49048  4.30408 255 255 255
 11.1348 -6.44906  4.37405 255 255 255
8.34991 -3.1904 3.50253 255 255 255
  7.7546 -1.50461  3.98457 255 255 255
 10.2878 -6.62876  4.32344 255 255 255
 10.6263 -3.51797  4.34556 255 255 255
  10.184 -4.80072  3.65762 255 255 255
3.09034 -2.7963 2.08171 255 255 255
 4.98485 -3.74253  3.29313 255 255 255
  4.6142 -2.78222  2.94533 255 255 255
 2.63549 -2.41636  2.07451 255 255 255
 10.9781 -5.67707  4.28255 255 255 255
 9.39149 -2.00482   3.5746 255 255 255
4.13829 -2.3746 2.79079 255 255 255
 7.96856 -6.31909    4.234 255 255 255
 6.61612 -4.11198  3.79479 255 255 255
4.44185 -3.6065 3.16943 255 255 255
   2.992 -2.77091  2.09531 255 255 255
 8.65118 -4.42665  4.07085 255 255 255
8.47589 -2.4832 3.60462 255 255 255
 2.81365 -3.41862  2.02513 255 255 255
 4.65248 -3.25299  3.03823 255 255 255
  5.2785 -3.16518  3.08742 255 255 255
 2.54204 -4.63484  3.20438 255 255 255
 5.54498 -2.22789  3.10531 255 255 255
 8.90652 -6.48388  4.22589 255 255 255
 5.19692 -4.50635  3.71384 255 255 255
6.79215 -4.5904 3.55665 255 255 255
 1.25675 -4.78169  3.36664 255 255 255
 3.05404 -4.00107  1.97091 255 255 255
 3.92439 -2.84467  2.72341 255 255 255
 1.72556 -6.12241  3.33474 255 255 255
 3.88824 -4.11016  3.01111 255 255 255
 2.84756 -4.24634  1.87556 255 255 255
  3.4813 -3.03466  1.93734 255 255 255
 8.90776 -4.60573  4.07595 255 255 255
 7.01727 -1.47502  3.88318 255 255 255
 5.43601 -2.25404   3.0627 255 255 255
 3.91315 -6.19948  3.59529 255 255 255
 2.72886 -5.64463  3.48433 255 255 255
 3.48498 -5.77676  3.57278 255 255 255
 9.55985 -1.72258  3.52163 255 255 255
 9.26861 -5.42096  4.36814 255 255 255
 8.05325 -5.90279  4.25895 255 255 255
 5.81917 -2.09671  3.34487 255 255 255
 8.93778 -3.18211  3.60154 255 255 255
6.62081 -4.0647 3.80988 255 255 255
 8.63697 -3.21822  3.44251 255 255 255
 8.87288 -4.29655  4.15457 255 255 255
 11.0959 -3.41655  4.40584 255 255 255
 7.29467 -1.94164  3.92874 255 255 255
 2.21104 -4.57186   2.4411 255 255 255
 8.79377 -1.91383  4.06667 255 255 255
 7.52054 -2.48124   3.9028 255 255 255
 10.3214 -2.27927  3.74458 255 255 255
 3.76002 -2.96504  2.99205 255 255 255
 10.9715 -3.28543  4.39156 255 255 255
  9.9163 -2.04195  3.79208 255 255 255
 8.86675 -1.61912  3.60603 255 255 255
11.4442 -3.3858 4.44923 255 255 255
 8.96712 -2.59729  3.61372 255 255 255
 7.64168 -2.00116  3.93651 255 255 255
  6.8475 -3.43007  3.82758 255 255 255
 10.4983 -5.31703  4.26252 255 255 255
 2.58271 -4.96969  3.57595 255 255 255
   2.706 -5.05711  3.58108 255 255 255
  11.048 -6.42023  4.38991 255 255 255
10.9371 -5.2581 4.05996 255 255 255
 2.76831 -2.10579  2.05363 255 255 255
  2.3474 -5.86646  3.46957 255 255 255
 2.98607 -3.00997  1.94196 255 255 255
 2.45992 -3.65187  2.01467 255 255 255
 3.65097 -2.06117  2.10101 255 255 255
 7.23902 -1.97507  3.89875 255 255 255
 3.59694 -3.16095  2.78184 255 255 255
8.54181 -3.2783 3.51058 255 255 255
 10.2762 -5.22874  4.25597 255 255 255
 3.41878 -5.76431  3.60238 255 255 255
 5.99632 -6.14456  3.75424 255 255 255
 8.64706 -1.42454  3.75839 255 255 255
 8.98482 -5.06345  4.29349 255 255 255
 5.26152 -5.37005  3.61124 255 255 255
 1.97036 -5.65269  3.41522 255 255 255
 9.97502 -4.74642  3.71383 255 255 255
3.94818 -4.1907 3.21036 255 255 255
 10.3864 -3.53215  4.24498 255 255 255
  5.6161 -4.77655   3.7234 255 255 255
 3.90032 -5.72568  3.64728 255 255 255
 4.14908 -5.99644  3.62672 255 255 255
5.32611 -5.3582 3.64838 255 255 255
 3.11071 -2.17744  2.05339 255 255 255
  7.6762 -6.92036  4.03398 255 255 255
2.96241  -5.859  3.5025 255 255 255
 4.49112 -2.65446  2.83181 255 255 255
 2.86479 -5.74448  3.42355 255 255 255
 3.00909 -2.98102  1.93122 255 255 255
 5.68503 -4.76313  3.73705 255 255 255
 9.30105 -2.54726  3.57575 255 255 255
 11.1683 -3.33292  4.40295 255 255 255
 10.1332 -2.86814  4.24683 255 255 255
  5.4023 -2.80599  3.07839 255 255 255
 8.82463 -5.62429  4.32517 255 255 255
 5.79709 -3.33656  3.26728 255 255 255
 8.52306 -3.23219  3.36089 255 255 255
 10.2634 -2.20873  3.82743 255 255 255
 7.12036 -2.96261  3.84687 255 255 255
 5.90304 -4.15156  3.75913 255 255 255
 7.29183 -3.54033  3.82195 255 255 255
9.91346 -2.8341 4.30391 255 255 255
 6.20002 -5.61714  3.76783 255 255 255
4.57694 -5.6669 3.66289 255 255 255
 3.23234 -5.66363  3.60569 255 255 255
 10.0865 -3.39402  4.37565 255 255 255
 3.69302 -3.14103   3.0178 255 255 255
 5.64561 -2.13417  3.09823 255 255 255
  8.2654 -1.94526  3.96131 255 255 255
 5.17641 -4.07096  3.75406 255 255 255
 3.03555 -2.39926   2.0166 255 255 255
 5.70164 -4.85142  3.66028 255 255 255
 10.4372 -2.66969  4.29074 255 255 255
 8.42878 -2.59135  3.55816 255 255 255
2.85468 -3.4641 2.06431 255 255 255
4.04456 -3.4295 3.04122 255 255 255
3.60388 -4.8578 3.15576 255 255 255
 10.2171 -5.23844  4.29875 255 255 255
 5.50522 -2.24998  3.09093 255 255 255
7.63562  -4.186 4.00269 255 255 255
  1.8143 -6.57045  3.48711 255 255 255
 6.63768 -2.62268  3.86096 255 255 255
 4.03268 -3.06231  3.06149 255 255 255
  9.9368 -8.47265  4.03067 255 255 255
 8.44743 -3.87761  3.65196 255 255 255
2.36546 -7.3476 2.72953 255 255 255
 5.97852 -5.04374  3.77188 255 255 255
   5.016 -7.67849  3.47951 255 255 255
7.43199 -9.0811 3.81242 255 255 255
 2.25148 -7.00792  3.39354 255 255 255
 3.05717 -7.73349  3.09097 255 255 255
3.56595   -4.68 3.16199 255 255 255
10.4415 -6.6538 4.28495 255 255 255
 3.52512 -8.34041  3.34613 255 255 255
 8.11226 -9.20431   3.9288 255 255 255
 8.34458 -7.30475  3.84649 255 255 255
 2.64839 -7.48232  3.47463 255 255 255
 10.4937 -8.15921  4.08619 255 255 255
 7.52301 -8.87764  3.82014 255 255 255
 5.56033 -7.85971  3.65386 255 255 255
 7.93637 -6.18013  4.23188 255 255 255
 2.01691 -8.37305  2.59519 255 255 255
 2.85661 -7.39601  2.68967 255 255 255
 2.42073 -8.95565  2.93486 255 255 255
 2.83375 -7.29792  3.46009 255 255 255
  8.9853 -6.37496  4.25699 255 255 255
 6.10876 -8.26366  3.67076 255 255 255
9.32772 -5.5718 4.34993 255 255 255
2.35026 -9.4466 3.16847 255 255 255
 4.72931 -8.32807  3.06101 255 255 255
 9.73834 -7.75834  3.72404 255 255 255
  4.6278 -9.17573  2.88902 255 255 255
 6.59863 -6.46677  3.67727 255 255 255
 6.60183 -6.46798  3.70303 255 255 255
 1.52068 -7.70848  3.01064 255 255 255
4.48629 -8.1089 2.97707 255 255 255
 5.85971 -8.27511  3.49899 255 255 255
 9.12029 -5.67783  4.35638 255 255 255
 4.01597 -9.55055  3.38308 255 255 255
 7.93473 -8.12417  3.86535 255 255 255
 5.23688 -4.44273  3.73701 255 255 255
 6.27778 -5.11839  3.75562 255 255 255
 1.50798 -8.15894  2.70033 255 255 255
 1.67219 -7.44003  2.68145 255 255 255
 3.54972 -8.00879  3.15028 255 255 255
 8.55154 -8.35378  3.89677 255 255 255
 5.82663 -8.66989   3.5972 255 255 255
 8.93806 -8.50527  3.94724 255 255 255
 3.08444 -8.13633  3.16383 255 255 255
 4.52216 -8.07597  3.25862 255 255 255
 9.23825 -4.53004  4.06924 255 255 255
  5.1542 -8.35223  3.50637 255 255 255
 2.96907 -7.50535  2.80713 255 255 255
  7.5541 -7.27406  3.69485 255 255 255
 3.11768 -8.21449  3.35618 255 255 255
 2.19624 -4.77211  3.38363 255 255 255
 9.34294 -8.64887  3.95387 255 255 255
 3.63987 -8.12079  3.13023 255 255 255
 3.07303 -7.45801  3.49708 255 255 255
 6.61332 -5.73826  3.65755 255 255 255
 9.74154 -6.71775  4.33135 255 255 255
 7.48627 -9.27333  3.90027 255 255 255
 9.84218 -4.75509  3.78029 255 255 255
 9.06367 -5.41847  4.36891 255 255 255
 1.53787 -8.47164  2.74605 255 255 255
 7.09031 -9.10662  3.69577 255 255 255
 3.33466 -9.69172  3.34382 255 255 255
 4.44475 -7.22887   3.5688 255 255 255
 4.89764 -8.14866  3.47877 255 255 255
 2.95798 -7.42002   2.7636 255 255 255
 3.05784 -8.45122      3.3 255 255 255
 9.82524 -4.95412  4.22089 255 255 255
1.68761  -8.021 2.62758 255 255 255
8.94173 -7.5026 3.82191 255 255 255
 2.33311 -4.76936  3.51486 255 255 255
 6.75373 -8.63503  3.70693 255 255 255
3.53257 -9.6596 3.30665 255 255 255
 5.88981 -8.61754   3.6409 255 255 255
 2.42829 -8.08106  2.87688 255 255 255
 3.42242 -7.51591  3.50504 255 255 255
 9.82014 -7.34338  4.30281 255 255 255
 6.01043 -9.30941  3.57051 255 255 255
 7.33384 -4.62636  4.28718 255 255 255
  10.829 -6.51118  4.39262 255 255 255
  5.9636 -8.28534  3.65967 255 255 255
  10.995 -7.31487  4.39828 255 255 255
 4.41954 -9.09852  2.97384 255 255 255
 1.83078 -6.87527  2.80987 255 255 255
 6.04861 -8.98443  3.59988 255 255 255
 1.33155 -9.11967  3.24365 255 255 255
   3.137 -8.65558  3.40132 255 255 255
 1.60226 -6.82333  2.45985 255 255 255
 6.84742 -9.08363  3.67989 255 255 255
 9.80659 -6.80722  4.35224 255 255 255
 5.04566 -6.32867  3.66151 255 255 255
 7.12301 -7.14535  3.52036 255 255 255
 2.98682 -8.65324  3.29386 255 255 255
  8.4597 -9.17283  3.95993 255 255 255
 4.26294 -8.72923  2.96072 255 255 255
 4.88316 -9.08238  3.02914 255 255 255
 8.26626 -4.30222  4.12141 255 255 255
6.76525 -6.3195 3.95128 255 255 255
7.27343 -7.0309 3.88983 255 255 255
  3.9942 -8.85969  2.87548 255 255 255
 10.9674 -6.38263  4.44154 255 255 255
 4.26333 -8.74961  3.34731 255 255 255
 2.84726 -7.47516  2.59175 255 255 255
 8.81088 -3.55529  3.52993 255 255 255
2.10674 -6.9807 2.77195 255 255 255
 5.44715 -9.01341  3.52823 255 255 255
 10.2095 -3.06616  4.33534 255 255 255
 3.33019 -7.00815  3.52047 255 255 255
4.24592 -8.9599 2.89844 255 255 255
 1.40695 -6.68793  2.73872 255 255 255
 4.35466 -8.88872   2.8671 255 255 255
 1.51329 -9.69939  3.23313 255 255 255
 6.42009 -9.35055   3.5865 255 255 255
 10.1444 -7.86811  3.94491 255 255 255
 5.18823 -5.89901  3.67102 255 255 255
 5.18969 -5.89977  3.66651 255 255 255
 4.49963 -8.88008  2.93876 255 255 255
 8.86551 -8.10551   3.7156 255 255 255
 9.12565 -4.19015  3.60524 255 255 255
 4.14515 -8.53773   3.2222 255 255 255
  7.0999 -6.53102  4.07795 255 255 255
 7.13346 -6.88728  3.95119 255 255 255
 6.08907 -6.85687  3.69432 255 255 255
  8.2045 -4.25601  4.13334 255 255 255
  2.6404 -8.25051  2.88266 255 255 255
 10.3073 -5.11221  3.99908 255 255 255
 6.45204 -8.92384  3.61755 255 255 255
 3.64424 -8.11482  3.18099 255 255 255
 10.3661 -7.66661  4.31689 255 255 255
 11.1453 -7.46165  4.34477 255 255 255
 7.35397 -8.56758  3.76183 255 255 255
 4.39991 -7.97144  3.50815 255 255 255
 7.49332 -6.88355  3.99254 255 255 255
 7.49304 -6.88379  3.99362 255 255 255
 5.24921 -4.30987  3.74217 255 255 255
 5.41311 -7.82229  3.67853 255 255 255
 1.43321 -9.65275  2.98802 255 255 255
 2.98235 -7.41735  2.80177 255 255 255
 2.46045 -7.20578  2.79009 255 255 255
 2.48365 -4.80329  3.54763 255 255 255
10.5321 -7.3914 4.36364 255 255 255
 10.5859 -6.65011   4.3795 255 255 255
  4.7813 -7.71389  3.57155 255 255 255
 3.11521 -6.47638  3.51586 255 255 255
 1.82245 -6.90042  2.80255 255 255 255
 6.51708 -6.80008  3.55963 255 255 255
 3.55828 -9.62665  3.35693 255 255 255
 7.05509 -9.20207  3.67749 255 255 255
0.888779  -4.5635  3.40439 255 255 255
 1.29651 -9.07081  3.27204 255 255 255
 4.35684 -5.85894  3.65238 255 255 255
 7.26565 -4.15259  3.68745 255 255 255
 6.70372 -6.75879   3.4047 255 255 255
  5.7746 -6.03323  3.74123 255 255 255
 8.17562 -9.23705  3.94994 255 255 255
  8.1842 -3.50174  3.53762 255 255 255
 3.49117 -7.27472  3.50104 255 255 255
 8.28469 -4.66653  4.19831 255 255 255
 3.74603 -7.97109  3.25683 255 255 255
 10.9524 -7.36962  4.35822 255 255 255
 7.84436 -8.11436   3.8342 255 255 255
 1.48502 -8.13198  2.72306 255 255 255
 2.47883 -7.33979  3.40279 255 255 255
 7.83605 -4.72666  4.26673 255 255 255
 1.47141 -7.77737  2.78232 255 255 255
 6.01147 -8.52384  3.64387 255 255 255
 4.44399 -9.01177  2.94015 255 255 255
 9.76173 -7.36561  4.25814 255 255 255
0.660725 -4.65386  3.40135 255 255 255
 4.72234 -8.34079  2.81005 255 255 255
 1.33549 -4.65669  3.37986 255 255 255
 6.22011 -5.93246  3.74089 255 255 255
 5.10985 -5.41401  3.58806 255 255 255
 5.96324 -9.08385  3.60468 255 255 255
  1.8434 -5.93832  3.42299 255 255 255
7.70851 -4.7033   4.284 255 255 255
7.65547 -7.9866 3.84678 255 255 255
 3.92298 -8.09234  3.26856 255 255 255
 2.20928 -9.03486  2.95283 255 255 255
  3.8684 -4.66213   3.6504 255 255 255
  6.5853 -9.38638  3.68974 255 255 255
 8.59638 -7.02647  4.19404 255 255 255
 2.63689 -5.54422  3.56354 255 255 255
 5.39117 -5.39006  3.70713 255 255 255
 7.94917 -5.51124  4.28039 255 255 255
 6.60092 -4.98926  3.73882 255 255 255
 7.46776 -7.22599  3.62729 255 255 255
3.86614 -8.7873 2.79068 255 255 255
 9.93095 -6.90687  4.26835 255 255 255
 9.04484 -7.83764  3.54777 255 255 255
 1.63739 -7.91938  2.82667 255 255 255
 5.51543 -4.82708  3.70482 255 255 255
 5.65063 -4.03632  3.77147 255 255 255
 8.88127 -4.16806  3.66093 255 255 255
 3.78677 -9.65039  3.37931 255 255 255
 1.47624 -7.97941  2.62595 255 255 255
6.60057 -8.5222 3.58544 255 255 255
  5.3277 -7.30589   3.6381 255 255 255
5.86006 -5.8912 3.71901 255 255 255
10.2712 -5.3804 4.25348 255 255 255
 9.66954 -6.26776  4.36849 255 255 255
 6.73143 -3.97455  3.81656 255 255 255
0.714328 -5.74665  3.32429 255 255 255
 2.70995 -8.29402  2.80345 255 255 255
 9.60283 -4.52664  3.69967 255 255 255
0.796405 -6.18031  3.34159 255 255 255
 4.17097 -4.94596  3.68359 255 255 255
 2.87878 -7.50584  2.76124 255 255 255
3.43786 -8.7483 2.91316 255 255 255
9.03536  -5.644 4.34627 255 255 255
 8.28729 -7.25239   3.9377 255 255 255
 6.62221 -4.31855  3.65792 255 255 255
 5.43839 -5.49898  3.64186 255 255 255
 4.66597 -6.65208  3.62491 255 255 255
 2.82613 -7.36773  3.46987 255 255 255
 4.95707 -4.59488  3.72025 255 255 255
 9.21081 -5.22631  4.28884 255 255 255
7.76459 -7.4864 3.87245 255 255 255
 9.99591 -6.92955  4.18914 255 255 255
10.4394 -5.6756  4.2909 255 255 255
-1.64211 -5.22929  2.58438 255 255 255
 1.70095 -4.90179  3.24903 255 255 255
-0.985022  -4.25986   3.00457 255 255 255
-0.426783  -6.14487   3.14406 255 255 255
0.965721 -4.82994   3.7624 255 255 255
0.0842412   -4.4562   3.14246 255 255 255
-5.24063 -3.04983  2.93071 255 255 255
0.110026 -3.92578  2.84284 255 255 255
-0.814514  -5.80788   3.24567 255 255 255
-3.83315 -3.36283  2.33498 255 255 255
-1.71827 -4.00222   2.9857 255 255 255
-4.07892 -4.77202  2.85024 255 255 255
-2.92042 -5.60393  3.06843 255 255 255
-0.526287  -4.83706   3.08007 255 255 255
-2.80673 -4.50661  2.94155 255 255 255
-2.80283  -4.4976  2.89807 255 255 255
 2.10585 -3.66132  2.89239 255 255 255
-1.58614  -1.7842  2.90265 255 255 255
-2.17256 -4.84325  3.13754 255 255 255
-0.451638  -2.82975   3.03113 255 255 255
-2.32644 -4.64447  2.99498 255 255 255
-1.58189 -6.08097  3.10172 255 255 255
 1.76616 -3.41092    2.942 255 255 255
 1.64867 -4.39175  2.62945 255 255 255
-4.10006 -5.06198  2.99253 255 255 255
-1.46455 -6.50959  3.21171 255 255 255
-2.96618 -4.95058  3.06374 255 255 255
 2.68962 -2.02287  3.03554 255 255 255
-1.65783 -2.47999  2.25743 255 255 255
-0.172489  -2.69342   2.98005 255 255 255
-0.0993018   -4.14868    2.93432 255 255 255
-2.44468 -4.51744  2.74772 255 255 255
1.49252  -4.257 2.64302 255 255 255
 2.18739 -4.20729  2.84194 255 255 255
 2.02275 -2.81775  2.33243 255 255 255
1.73763 -3.9449 2.99775 255 255 255
0.286584 -4.32649  2.89973 255 255 255
-0.843436   -3.7986   2.95237 255 255 255
-1.48033 -6.33081  3.20985 255 255 255
-2.36855 -6.54946  3.16637 255 255 255
-2.75348 -4.92255  3.05706 255 255 255
0.262466 -4.15043  2.68054 255 255 255
-4.31898 -2.46895   2.2855 255 255 255
 -3.6911 -2.09233  2.33434 255 255 255
-1.94676 -2.05121  2.41851 255 255 255
 -4.5693 -4.35024  2.61095 255 255 255
-4.14344 -4.16468  2.76158 255 255 255
-4.11322 -4.16065   2.7047 255 255 255
 2.32635 -3.29853  2.01313 255 255 255
-4.00722 -4.01623  2.82916 255 255 255
  1.4409 -4.37515  2.64553 255 255 255
-4.27907 -4.56878  2.73488 255 255 255
-2.59463 -3.59568  2.80114 255 255 255
-0.488107  -4.90922   3.19622 255 255 255
 1.98338 -3.38275  2.49872 255 255 255
-0.0239651   -3.75507    2.79892 255 255 255
-2.11053 -6.23312  3.16365 255 255 255
0.238526 -1.98629  3.00848 255 255 255
 2.14127 -3.51836   2.0003 255 255 255
-2.20716 -6.05584  3.13914 255 255 255
-2.47908 -2.16329  2.16889 255 255 255
 1.37915 -3.53309  2.95557 255 255 255
-1.09617 -6.27727  3.10107 255 255 255
0.391052 -1.88441  2.97929 255 255 255
-1.05925   -3.512  2.95276 255 255 255
 2.41595 -2.11961  3.13355 255 255 255
0.646582 -4.24173  2.69161 255 255 255
 2.02043 -4.04779  2.71046 255 255 255
-3.89151 -2.20047  2.33121 255 255 255
 2.01124 -2.91161  2.99772 255 255 255
 1.94795 -3.64288  2.88622 255 255 255
-1.06887 -6.48309   3.0122 255 255 255
-0.831781  -4.47145   3.00749 255 255 255
 1.96413 -3.45204  2.94928 255 255 255
0.0324288   -4.8238   3.35283 255 255 255
-4.46378 -4.02491  2.65009 255 255 255
-1.69522 -3.03153  2.17777 255 255 255
 -1.4709 -6.32245  3.18056 255 255 255
-5.55313 -2.56362  2.71768 255 255 255
-2.66635 -3.24504  2.81261 255 255 255
-2.60826 -3.76545  2.86562 255 255 255
-2.53415 -4.15228   2.5133 255 255 255
0.076945 -2.77556  3.01172 255 255 255
  1.4579 -4.55985  3.37851 255 255 255
-1.10484 -1.61276  2.97295 255 255 255
 2.08602 -4.34025  2.74078 255 255 255
  2.4683 -3.25358  2.02102 255 255 255
0.578329  -2.3936  3.04664 255 255 255
 1.76019 -4.19029  2.65733 255 255 255
0.891912 -3.80942  2.66911 255 255 255
 2.55837 -2.59163  2.32227 255 255 255
0.624725 -2.47617  2.97577 255 255 255
0.526291 -2.32557   2.9385 255 255 255
  1.4588 -1.16496  3.09893 255 255 255
-4.22418 -4.30097  2.60826 255 255 255
-0.816393  -1.45047   2.89407 255 255 255
-0.530782   -2.1281   3.04408 255 255 255
-4.41098 -4.77969  2.81527 255 255 255
 2.87353 -5.13392  3.65895 255 255 255
 -1.8725 -3.73002  2.94853 255 255 255
 2.43994 -1.85535  3.05189 255 255 255
-0.144339  -5.53799   3.27116 255 255 255
-3.53055 -4.33395    2.861 255 255 255
 1.33559 -3.51344  2.91702 255 255 255
0.350382 -5.15357  3.34055 255 255 255
-0.222351  -4.45713   2.95723 255 255 255
 2.05925 -3.41531  2.17338 255 255 255
-2.33849 -4.62968  2.99389 255 255 255
-0.940546  -3.36106   2.97523 255 255 255
-0.0346797   -3.85287    2.90605 255 255 255
 2.04297 -3.46579  1.95411 255 255 255
0.00755014   -2.46669    3.04231 255 255 255
  2.5153 -3.42673  2.02895 255 255 255
-5.28391 -3.96048  2.55297 255 255 255
-0.472518  -3.00508   3.03557 255 255 255
-3.77109 -5.73464  3.07311 255 255 255
 3.08036 -5.80962  3.50007 255 255 255
 1.42765 -4.10917  2.65235 255 255 255
-0.561979  -5.72923   3.26378 255 255 255
-1.98632 -4.24775  2.85254 255 255 255
 2.19319 -3.68095  1.93518 255 255 255
-2.91459 -4.36295  2.89784 255 255 255
  2.1955 -4.39747  2.50862 255 255 255
 2.27508 -3.31653  2.00561 255 255 255
-4.43928 -2.51016  2.52854 255 255 255
-2.84467 -2.60582  2.08328 255 255 255
-0.237579  -4.70559    3.3394 255 255 255
 2.44725 -5.03548  3.57602 255 255 255
-3.44187  -2.0972  2.80728 255 255 255
-2.37001 -5.46093   3.0982 255 255 255
 2.03095 -5.62365  3.39297 255 255 255
 1.86998 -4.33102  2.75139 255 255 255
0.616723  -2.4666  3.10627 255 255 255
-1.80629 -3.67553   2.9015 255 255 255
-2.02205 -1.83224  2.52039 255 255 255
0.206249 -1.97213  3.03609 255 255 255
-0.119588  -5.68419   3.21986 255 255 255
-1.09213 -3.91205  2.99221 255 255 255
-1.83583 -3.80977  2.95484 255 255 255
-4.61208 -5.30265  3.03139 255 255 255
0.324024 -3.00123  2.99599 255 255 255
 3.41903 -5.63246  3.64362 255 255 255
-1.26393 -2.85944  2.94754 255 255 255
-1.71501 -6.59803  3.15965 255 255 255
-4.47367 -4.11187  2.50686 255 255 255
-4.61045 -4.19133  2.65094 255 255 255
0.673326 -3.80837  2.62684 255 255 255
0.489095 -2.36987  3.03357 255 255 255
-1.81311 -5.97586  3.15647 255 255 255
-3.77686 -4.73121   2.9469 255 255 255
-3.67966 -5.16755  3.04057 255 255 255
-2.66452 -3.76584  2.94682 255 255 255
 2.28371 -5.48136  3.41758 255 255 255
 2.29052 -3.37892  2.01258 255 255 255
-2.09205 -5.44663  3.14773 255 255 255
0.255428 -3.08633  3.04561 255 255 255
-4.41998 -4.32747  2.53833 255 255 255
-5.13288 -3.70476  2.61339 255 255 255
-2.36233  -6.5192  3.15815 255 255 255
-1.56834 -2.58309  2.25086 255 255 255
 -1.6341 -3.89797  2.95802 255 255 255
 -2.5623 -4.77658  3.08696 255 255 255
-3.48425 -4.42972  2.89361 255 255 255
 1.20189 -4.70029  3.34935 255 255 255
-2.05346 -6.05046  3.13148 255 255 255
-5.05439 -5.37138  2.92588 255 255 255
-2.01069 -2.37552  2.16267 255 255 255
-2.53598 -6.06777  3.11976 255 255 255
-3.03141 -5.56263  3.10629 255 255 255
 2.97694 -5.44999  3.63071 255 255 255
 2.30651 -1.36536  3.07038 255 255 255
-3.31583 -3.44368  2.55746 255 255 255
-2.86172 -6.14163  3.09752 255 255 255
-3.21149 -3.62086    2.838 255 255 255
-2.64462 -3.68946  2.87203 255 255 255
 1.61803 -4.18847  2.76641 255 255 255
-3.09727 -6.20235   3.0716 255 255 255
-1.89807 -4.79652  3.17539 255 255 255
 2.38806 -1.78107  3.10162 255 255 255
-5.48279 -4.35468  2.70783 255 255 255
-2.44436 -1.93763  2.21578 255 255 255
-3.32253 -4.32721   2.7788 255 255 255
-1.76421 -5.57615  3.12795 255 255 255
-0.610888  -5.65721   3.23943 255 255 255
-2.51623 -5.47958  3.11887 255 255 255
 1.39708 -2.21524  3.02056 255 255 255
-2.54976 -2.30083  2.16248 255 255 255
-4.70326 -6.03999  2.91808 255 255 255
0.270475 -4.07506  2.77885 255 255 255
-2.43942 -5.52737  3.10869 255 255 255
0.116187 -3.99858  2.98434 255 255 255
  1.3034 -4.61509  3.37466 255 255 255
  2.70703 -0.870671   3.17388 255 255 255
-1.82346  -4.5449  3.01494 255 255 255
-3.33168 -2.57529  2.03831 255 255 255
-2.72503 -4.75146  3.02506 255 255 255
-0.256597  -5.74479   3.27219 255 255 255
 2.31287 -5.50221  3.29154 255 255 255
-2.28631 -5.46256  3.15028 255 255 255
-0.491724  -4.04044    2.9047 255 255 255
-4.75592 -6.01375    3.031 255 255 255
 1.61417 -4.32748  2.66602 255 255 255
-2.07071 -3.23197  2.13962 255 255 255
0.128974 -3.95241  2.96315 255 255 255
0.131343 -3.94279  2.96285 255 255 255
-2.19833 -3.77811   2.9516 255 255 255
-2.19972 -3.77893  2.95283 255 255 255
 -5.5678 -6.44558  2.97396 255 255 255
-1.75734 -1.90734  2.81103 255 255 255
 -2.9349 -4.79676  3.05755 255 255 255
-2.76348 -3.02986  2.12517 255 255 255
 1.08383 -4.20534  2.64476 255 255 255
 2.29472 -3.73304  1.94392 255 255 255
 1.61395 -3.67538   2.9443 255 255 255
-1.65753 -5.61522  3.17771 255 255 255
 2.10903 -4.41301  2.64219 255 255 255
-2.35804 -5.63406  3.09556 255 255 255
 3.56151 -5.88987  3.56178 255 255 255
-5.02698 -4.24341  2.54744 255 255 255
-3.07707 -6.19879  3.08023 255 255 255
 2.53696 -3.76922  2.00327 255 255 255
-5.04258 -3.76107  2.58632 255 255 255
-5.16972 -6.14628  2.96201 255 255 255
-0.744405  -4.80727    3.2001 255 255 255
-0.906667  -2.04041   2.94605 255 255 255
0.625649 -3.54766  3.01456 255 255 255
-5.36807  -5.6098  3.00506 255 255 255
 1.95215 -1.86581  3.07719 255 255 255
-1.16354 -2.21439  2.97021 255 255 255
-2.49088 -5.67345  3.15621 255 255 255
 2.12968 -3.83018  1.97175 255 255 255
 2.41491 -3.46807   2.0575 255 255 255
-2.94847 -2.54931  2.06358 255 255 255
-2.96574 -6.16599   3.0926 255 255 255
  2.0776 -1.18701  3.13751 255 255 255
-1.45747 -4.14983  2.96127 255 255 255
0.076975 -1.91789  2.94784 255 255 255
 -3.4285 -5.66034  3.13687 255 255 255
0.854335 -2.07543  3.06437 255 255 255
-2.55067 -6.07687   3.1097 255 255 255
-4.78035 -5.46121  3.02048 255 255 255
0.364021 -4.68462  3.38189 255 255 255
-0.631326  -4.51025   3.18165 255 255 255
 1.46045 -6.14789  3.40215 255 255 255
-0.13893 -1.54118   2.9412 255 255 255
-3.68837 -4.95727  3.03952 255 255 255
 1.24675 -3.98694   2.6882 255 255 255
  3.2156 -5.70259   3.5703 255 255 255
0.950101   -3.838  2.67304 255 255 255
0.521699 -6.17195  3.32405 255 255 255
0.407416 -5.11192  3.37163 255 255 255
 2.07992 -5.53244  3.30515 255 255 255
-2.29815  -5.5036  3.11865 255 255 255
-2.19849  -3.8253  2.87952 255 255 255
-2.30392 -4.69518  3.03695 255 255 255
-1.04121 -5.54487  3.09663 255 255 255
-4.95046 -6.05185  2.97996 255 255 255
-2.8989 -2.9171 2.09466 255 255 255
 2.10642 -3.88358  1.96727 255 255 255
-5.43878 -3.34681  2.57695 255 255 255
-5.25491 -5.62864  2.98453 255 255 255
