ply
format ascii 1.0
element vertex 1186
property float x
property float y
property float z
property uchar red
property uchar green
property uchar blue
end_header
 2.52611 0.267927  3.13385 255 255 255
0.00321391   -3.72248    2.75766 255 255 255
-2.50703 -1.15167  2.43361 255 255 255
-1.19363 -2.47954  2.92652 255 255 255
-0.67892 -1.92321  2.91598 255 255 255
 1.36275 -2.26726  2.94781 255 255 255
-0.383492  -4.37252   2.79024 255 255 255
 -2.3151 -2.29401  2.11827 255 255 255
 -2.94233 -0.732323   2.46878 255 255 255
 2.58519 -3.00536  1.96389 255 255 255
 1.08983 -3.32973  2.90399 255 255 255
-2.42599 -1.19678  2.53808 255 255 255
-2.16002 -2.58223  2.11908 255 255 255
-2.20636 -3.30988  2.09836 255 255 255
-2.40151 -2.45738  2.10761 255 255 255
-1.77384 -3.02488  2.08874 255 255 255
0.305798 -2.07509    2.985 255 255 255
-2.36322 -3.10528  2.11394 255 255 255
-0.186759  -4.87804   3.15894 255 255 255
  1.94167 -0.634424   3.09195 255 255 255
0.679053 -3.50954  2.96132 255 255 255
-2.35025 -1.07521  2.43591 255 255 255
 0.18168 -1.53369   2.2139 255 255 255
-0.853533  -2.59184   2.93511 255 255 255
-2.28518  -2.2098  2.10884 255 255 255
 1.96204 -1.86453  3.03766 255 255 255
  2.24512 -0.570577   3.07213 255 255 255
-1.09185 -2.39183  2.90404 255 255 255
 2.72598 -1.20233   3.0372 255 255 255
-0.27675 -4.32951   2.8488 255 255 255
-0.308417  -4.27609   2.76948 255 255 255
 2.55829 -1.96603  2.95592 255 255 255
   2.2955 -0.474993   3.10181 255 255 255
  2.02703 -0.259741   3.08996 255 255 255
-2.17847  -2.3952  2.09975 255 255 255
 2.82097 0.314616  3.14143 255 255 255
-0.68972 -2.83832   2.9513 255 255 255
 -2.37071 -0.839204   2.46811 255 255 255
  1.2033 -3.12364  2.98305 255 255 255
  1.39711 -0.999002   3.06003 255 255 255
 1.85778 0.167078  2.94187 255 255 255
-0.594528  -3.86315   2.91216 255 255 255
-1.00289 -3.31405  2.92989 255 255 255
  0.913601 -0.0986544    2.79367 255 255 255
0.342435 -1.50649   2.2132 255 255 255
-1.39149 -1.24238  2.29629 255 255 255
0.230723 -1.32032  2.22128 255 255 255
 -2.68737 -0.833821   2.46432 255 255 255
0.212819 -2.83392  2.94556 255 255 255
0.153064 -3.44547   2.9772 255 255 255
 1.03946 -4.31283  2.58319 255 255 255
-0.590233  -2.60343   2.87512 255 255 255
 1.11407 -2.78899  3.00579 255 255 255
-0.530965  -4.89723   3.15504 255 255 255
-0.0625869  -0.567045    2.22908 255 255 255
 -2.37924 -0.947665   2.45297 255 255 255
 1.45151 0.439295  2.98831 255 255 255
 0.819306 -0.364138   2.61697 255 255 255
0.122262 0.707919  2.57684 255 255 255
 1.71065 0.514641  2.97909 255 255 255
0.642942 0.414433  2.93897 255 255 255
 1.57074 0.591072  2.98591 255 255 255
 -1.54806 -0.922462   2.24041 255 255 255
-0.466944 -0.707669   2.24942 255 255 255
0.950944 0.521441  2.97613 255 255 255
 1.23799 0.217041  3.00907 255 255 255
-2.33109   0.1184  2.31568 255 255 255
 1.67249 0.500291  2.97809 255 255 255
  1.71468 -0.352003   3.06797 255 255 255
 -2.93514 -0.321935    2.5574 255 255 255
 -2.36727 -0.239517   2.30331 255 255 255
  4.2194 -4.70375  3.72983 255 255 255
 5.06472 -4.42275  3.67596 255 255 255
 2.82397 -2.32722  2.00356 255 255 255
1.10052 -4.9965 3.34972 255 255 255
 5.25878 -4.19953  3.65547 255 255 255
 5.28306 -3.32339  3.25386 255 255 255
 5.57487 -2.08355  2.97609 255 255 255
 5.05239 -4.41299  3.65194 255 255 255
 5.78744 -5.04022  3.64856 255 255 255
 7.52274 -2.81845  3.75663 255 255 255
  2.5275 -3.23017  1.96733 255 255 255
 7.03743 -2.73382  3.74608 255 255 255
 7.68275 -2.02412  3.78508 255 255 255
 8.19152 -4.02748  3.39948 255 255 255
 2.85342 -2.83166  1.90067 255 255 255
 2.81559 -2.18065  1.95944 255 255 255
 3.80203 -4.93879  3.56844 255 255 255
5.14825 -2.8942  3.0044 255 255 255
 5.86865 -3.31101   3.2438 255 255 255
 3.10487 -2.44584  2.05814 255 255 255
 7.29666 -1.94012  3.80122 255 255 255
 4.50117 -2.65781  2.77088 255 255 255
 4.05727 -3.44517  2.98704 255 255 255
 5.22597 -4.29276  3.58398 255 255 255
 8.27977 -4.65598  4.04916 255 255 255
 6.63065 -4.31716   3.5404 255 255 255
0.574666 -2.39331  2.95595 255 255 255
0.605335 -2.48716  2.91738 255 255 255
-1.86833 -3.72243  2.81556 255 255 255
 -0.9647 -3.38998  2.91329 255 255 255
 1.41133 -4.12615  2.59548 255 255 255
 1.39142 -2.22459  2.95557 255 255 255
  2.70706 -0.868433   3.09902 255 255 255
  2.0753 -1.18562  3.08112 255 255 255
0.760269 -2.04784  2.99063 255 255 255
-0.604325  -1.58728   4.30723 255 255 255
-0.130528  -3.77757   2.78159 255 255 255
-0.275796  -1.24484   2.71185 255 255 255
 1.82979 -2.80606  2.88904 255 255 255
0.768651 -2.70576  2.97742 255 255 255
   2.60057 -0.0278155    3.24772 255 255 255
  1.39966 -0.808628   3.02387 255 255 255
  1.1431 0.633227  3.08315 255 255 255
-1.86915  1.01827  2.63212 255 255 255
 2.28873 0.367761  2.50211 255 255 255
 2.17805 0.608022  2.31758 255 255 255
-2.42321 -1.30917  2.58662 255 255 255
-2.36257 0.833171  2.53113 255 255 255
  -0.49602 -0.0473109    2.26041 255 255 255
-0.534022  0.794568    2.4808 255 255 255
-2.13922 0.731083  2.67799 255 255 255
-0.62427 0.944747  2.62181 255 255 255
0.643307  -1.0873  2.29158 255 255 255
   1.79848 -0.0860567    3.07177 255 255 255
0.346551  1.22926  2.38514 255 255 255
 2.66885 0.122706  3.25079 255 255 255
 0.481407 -0.123923   2.68515 255 255 255
  1.23538 -0.121547   2.86901 255 255 255
-2.21732 0.959271  2.61991 255 255 255
-0.213887   1.40225   2.61295 255 255 255
-2.25773  1.01297  2.17255 255 255 255
-0.552796 -0.283742   2.04511 255 255 255
 -2.04937 -0.891475   2.48176 255 255 255
 3.14464 -1.04286  2.96732 255 255 255
0.914714  1.34588  2.44073 255 255 255
1.06785 1.33985  2.5197 255 255 255
-0.754239  -1.02543   2.11796 255 255 255
-2.51433 -1.51069  2.65057 255 255 255
-0.330104    1.0921   2.59521 255 255 255
0.214475  1.01499  2.62741 255 255 255
 -1.60475 -0.744888   2.20406 255 255 255
1.57565 -1.7299  3.0397 255 255 255
1.79524 -0.2619 3.06414 255 255 255
1.24617 0.35362 2.72171 255 255 255
 -1.60691 -0.637385   2.26139 255 255 255
-0.554988   1.32274   2.67045 255 255 255
 -1.94614 -0.277791   2.23833 255 255 255
 1.3575 1.50163 2.89081 255 255 255
 0.651964 -0.114938   2.76614 255 255 255
-1.19911 -1.39097  2.30861 255 255 255
 -1.55626 -0.595565    2.4678 255 255 255
0.114983 0.360582  2.59903 255 255 255
 -0.84545 -0.771922   2.34733 255 255 255
-2.39386 -1.22447  2.61787 255 255 255
 -1.25119 -0.788462   2.08235 255 255 255
0.624163   1.4025  2.66377 255 255 255
-0.526619   1.50958   2.55536 255 255 255
 1.01673 0.656026  2.81759 255 255 255
  1.44941 -0.213003   2.87553 255 255 255
-1.94451 0.828807  2.65417 255 255 255
-0.231975  0.945481   2.51887 255 255 255
 -1.43379 -0.823101   2.12576 255 255 255
0.186778 0.755588  2.71584 255 255 255
  2.05346 -0.787438   3.05188 255 255 255
2.68235 -1.1952 3.03473 255 255 255
 -1.23542 -0.949165   2.22607 255 255 255
 2.78087 -1.45608  3.02097 255 255 255
  1.07227 -0.339737    2.6643 255 255 255
  -1.0201 -0.428343   2.24633 255 255 255
-0.921019 -0.978309   2.29009 255 255 255
-1.25785  1.32127  2.68265 255 255 255
 -2.03259 -0.251329   2.19223 255 255 255
1.19934 1.33121 2.83489 255 255 255
-1.02409   1.0659  2.47068 255 255 255
 1.29526 0.186481  2.99132 255 255 255
-1.98947 -1.41114  2.76392 255 255 255
-0.694014 -0.192241   2.05732 255 255 255
 -1.09679 -0.258107   2.32003 255 255 255
 -1.29078 -0.366423   2.35939 255 255 255
 -2.71532 -0.532422   2.61571 255 255 255
 -1.4135 -1.42104   2.3413 255 255 255
-1.75416 0.403919  2.33003 255 255 255
  -2.6189 -0.651385   2.54867 255 255 255
-2.08152 -1.36721  2.77805 255 255 255
 2.16884 0.261001   3.0246 255 255 255
 -2.51279 -0.392106   2.37081 255 255 255
  -2.09377 -0.0296656    2.19262 255 255 255
 -1.36227 -0.864428   2.15389 255 255 255
 1.25029 0.415917  2.98742 255 255 255
-2.11922 -1.53478  2.75183 255 255 255
 0.623865 -0.322628   2.79913 255 255 255
 -0.82684 -0.709036   2.45507 255 255 255
  1.06993 -0.861101   3.03645 255 255 255
-1.57849 0.527906   2.3435 255 255 255
2.55061 0.68559 2.31022 255 255 255
-1.24871  1.22801  2.46893 255 255 255
-1.11046 -1.15979  2.26007 255 255 255
-2.15167 0.664517  2.64277 255 255 255
-2.50197 -1.28596  2.61826 255 255 255
-1.94379 -0.10049  2.21438 255 255 255
-0.322407  0.942751   2.59308 255 255 255
0.190329  1.43107  2.42034 255 255 255
  1.19036 -0.559617   3.01292 255 255 255
-1.9596 -1.4834 2.61546 255 255 255
-1.05799 -1.08557  2.26104 255 255 255
-1.98861  1.08853  2.67192 255 255 255
 -1.36922 -0.965423   2.18053 255 255 255
0.760811  1.27748  2.20708 255 255 255
  1.0566 -0.74413  3.02961 255 255 255
-0.722254   1.21569   2.70161 255 255 255
0.590173 -1.03963  2.27473 255 255 255
-1.26616 -1.14269  2.25205 255 255 255
0.172796  1.02106  2.30366 255 255 255
-2.15556 0.763837  2.57496 255 255 255
0.208391 0.934669  2.81229 255 255 255
 2.95913 0.249313  3.12001 255 255 255
-2.50339 0.834356  2.59924 255 255 255
0.798262  1.46342  2.69601 255 255 255
  -2.0706 -0.378462   2.24928 255 255 255
1.89648 1.42816 2.35293 255 255 255
1.30001 1.59887 3.11575 255 255 255
2.45383 1.47581 2.33698 255 255 255
  1.46578 -0.411716   3.05186 255 255 255
-1.76658 -1.32423  2.46153 255 255 255
  3.23919 -0.938497   3.02744 255 255 255
 -1.97223 0.0419489   2.25034 255 255 255
 -2.53971 -0.534433   2.50354 255 255 255
 0.592936 -0.209506   2.62639 255 255 255
0.310528  1.44958  2.62344 255 255 255
0.224551  1.22221  2.43159 255 255 255
-2.09426  0.87695  2.62968 255 255 255
2.51832 1.13635 2.37396 255 255 255
2.58079  1.0132 2.36143 255 255 255
 -2.0777 0.605642  2.57916 255 255 255
-0.920177  -1.56435   2.66528 255 255 255
-1.09488  1.35641   2.0708 255 255 255
-2.16273 -1.01614  2.44824 255 255 255
-2.18762  1.07473  2.67225 255 255 255
  1.02074 -0.104119   2.73842 255 255 255
-0.430628   1.24824   2.64995 255 255 255
-2.30866  1.03557  2.60095 255 255 255
1.38841 1.60636 2.76788 255 255 255
-1.68014 -1.41856  2.46405 255 255 255
-2.2211 1.08295  2.6298 255 255 255
-1.99684 0.650584  2.61803 255 255 255
0.458115 0.146502  2.60007 255 255 255
-0.747473   1.49113   2.62701 255 255 255
-0.710118 -0.817845   2.10284 255 255 255
  0.897555 -0.0752287    2.74382 255 255 255
2.53787 1.06698 2.34661 255 255 255
-2.07256 0.895264  2.69142 255 255 255
 -1.26955 -0.517152   2.17856 255 255 255
-2.32487 0.953205  2.43029 255 255 255
-0.302873  0.831302   2.49134 255 255 255
  1.83473 -0.817729   2.92777 255 255 255
 -2.3324 0.786492  2.64671 255 255 255
0.762583  1.04334  2.70503 255 255 255
0.00644006  -0.241224    2.68387 255 255 255
-0.435095 -0.150916   2.19043 255 255 255
0.723687 -1.08747   2.2707 255 255 255
-2.20422 -1.56769  2.71055 255 255 255
  1.59225 0.0543273   2.81447 255 255 255
-2.01167 -1.14935  2.60349 255 255 255
 0.681399 -0.460647   3.02634 255 255 255
0.636733  1.01031  2.78947 255 255 255
 1.40918 -1.50741  3.01404 255 255 255
-0.172423   1.46656    2.4725 255 255 255
0.422677 -0.40389  2.50532 255 255 255
 0.421289 -0.393925   2.45755 255 255 255
 -1.3057 -1.39139  2.35249 255 255 255
-0.0890024    1.25076     2.7191 255 255 255
  2.5179 0.757971  2.31699 255 255 255
 3.20333 -1.16552  3.01213 255 255 255
  3.3306 -0.88906  3.00733 255 255 255
-2.13522  0.73889   2.6468 255 255 255
-0.674679 -0.458173   2.29112 255 255 255
-0.977943 -0.392972   2.15263 255 255 255
-0.874068  -0.60704   2.16573 255 255 255
-2.50119 0.898158  2.59775 255 255 255
0.920479 -0.11559  2.69809 255 255 255
2.25657 1.21387 2.33318 255 255 255
0.0273136   1.31929   2.50382 255 255 255
2.32671 1.45311 2.34213 255 255 255
-2.37455 -1.63321  2.64074 255 255 255
-0.462875 -0.705206   2.23575 255 255 255
-2.63599 -1.34549  2.55337 255 255 255
-0.422792   1.13891   2.59049 255 255 255
 3.29604 -1.00721  2.98269 255 255 255
-2.35338 0.262556  2.32423 255 255 255
 -2.31897 -0.695602   2.44271 255 255 255
1.49188 1.41848 2.76211 255 255 255
  0.960212 -0.0732647    2.70856 255 255 255
1.65769 1.12818 2.75517 255 255 255
 -1.10853 -0.489519   2.78457 255 255 255
-0.986518 -0.620359   2.13926 255 255 255
-1.80721  1.17682  2.53759 255 255 255
 2.53566 -1.15147   3.0761 255 255 255
 2.18059 -1.28717  3.06115 255 255 255
 2.46439 0.836121  2.31073 255 255 255
-2.26836 -1.15272  2.64826 255 255 255
 1.75159 0.959587  2.74905 255 255 255
-0.161834  0.358791   2.70444 255 255 255
-0.777277   1.41546   2.68431 255 255 255
  2.1687 0.508778  2.35164 255 255 255
1.66015 1.07566 2.96144 255 255 255
 1.03851 -1.56266  3.02646 255 255 255
-2.30871 0.121603  2.28337 255 255 255
 -2.18526 -0.991672   2.52488 255 255 255
-0.258436   1.41134   2.63405 255 255 255
-1.88744 0.728909  2.65815 255 255 255
  1.37398 -0.473514   2.90943 255 255 255
-0.619429 -0.860979   2.12297 255 255 255
2.29807 1.12207 2.31548 255 255 255
-0.870181 -0.471614    2.3111 255 255 255
1.59034  1.2557 2.66984 255 255 255
-0.986338  -1.06334   2.25675 255 255 255
-1.86828   1.1536  2.57989 255 255 255
 2.33329 0.983352  2.31384 255 255 255
  1.29836 -0.386941   2.72456 255 255 255
-2.55547 -1.03116  2.43152 255 255 255
0.691967  1.06466  2.79725 255 255 255
-0.434221 -0.333601   2.18112 255 255 255
2.14798 1.06049 2.32792 255 255 255
2.23465 -0.9418 3.08023 255 255 255
 2.37973 0.891434   2.3001 255 255 255
2.39323 1.20067 2.32834 255 255 255
-1.20163 -1.14768  2.24608 255 255 255
  -2.09384 -0.0870787    2.17939 255 255 255
2.19858 1.20699 2.31209 255 255 255
 -2.2667 -1.01898  2.43066 255 255 255
1.82467 1.42517 2.32662 255 255 255
  2.3003 0.458864  2.32997 255 255 255
2.30889 1.33399 2.31994 255 255 255
  2.39659 -0.703858   3.09786 255 255 255
-1.63595 0.930168   2.6615 255 255 255
-1.52222 0.996601  2.68157 255 255 255
  1.13975 -0.217714   2.79303 255 255 255
0.308515 -1.20167  2.17158 255 255 255
 -0.88001 -0.530208   2.43819 255 255 255
2.06162 1.01105 2.32144 255 255 255
 -1.37744 -0.534941     2.631 255 255 255
-1.32202  1.24138  2.06658 255 255 255
2.09059 1.38884 2.30738 255 255 255
 1.94697 -1.79404  3.03909 255 255 255
 -2.31056 -0.369759   2.24996 255 255 255
2.44183 1.10666 2.31864 255 255 255
2.07008 1.44134 2.32442 255 255 255
2.49457  1.0152 2.31634 255 255 255
2.41667 1.15322 2.32179 255 255 255
-1.21656 0.853678  2.33634 255 255 255
 2.25206 0.689925  2.32372 255 255 255
-0.662775  0.982019   2.65901 255 255 255
  -2.01731 -0.0426268    2.19326 255 255 255
 2.43628 0.671407  2.29852 255 255 255
0.360811 -1.29809  2.18162 255 255 255
0.333247  -1.2537  2.19056 255 255 255
1.62631 1.43296  2.3499 255 255 255
1.59514 1.23669 2.75902 255 255 255
2.28679 1.38254 2.32663 255 255 255
-0.131754   1.41349   2.51447 255 255 255
 0.941286 -0.305086   2.58371 255 255 255
2.46873 1.06105 2.31766 255 255 255
-1.35593 -0.98154  2.25522 255 255 255
 1.6467 1.51326  2.3417 255 255 255
  2.6501 -1.31548  3.01468 255 255 255
0.281731 -1.16261  2.19315 255 255 255
 3.15843 -1.27025  3.01164 255 255 255
0.0470319 -0.752905   2.21257 255 255 255
 0.742664 -0.403368   2.71952 255 255 255
 2.16643 0.827317  2.31656 255 255 255
-0.930463  0.991476   2.36459 255 255 255
 0.25165 0.287435  2.52642 255 255 255
 1.86882 0.934183  2.33908 255 255 255
 -2.68995 -0.782043   2.57258 255 255 255
-1.16135  1.31211  2.69621 255 255 255
-2.58764 -1.17239  2.46103 255 255 255
0.146165  1.40592  2.76339 255 255 255
  1.95294 -0.775847   3.04948 255 255 255
 2.07236 -1.18046  3.05195 255 255 255
1.74086 1.16411 2.34339 255 255 255
  2.73648 -0.821937   3.06496 255 255 255
 1.72245 -1.46457  2.85545 255 255 255
0.225056   1.4597  2.43434 255 255 255
 2.85229 0.148324  3.13793 255 255 255
2.66931 1.02717 2.39009 255 255 255
-1.83737 -1.46704  2.46077 255 255 255
1.53891 1.35243 2.78388 255 255 255
-0.77909  1.39314  2.12577 255 255 255
 2.52419 0.969925  2.32063 255 255 255
 1.06853 0.856504  2.92767 255 255 255
-1.64306   1.3071  2.07071 255 255 255
 2.19573 0.781165  2.32058 255 255 255
 -2.25583 -0.510428   2.23937 255 255 255
-0.402506   1.21883   2.59534 255 255 255
2.29411  1.2062 2.30952 255 255 255
 2.14034 0.873433  2.31668 255 255 255
-2.40551 -1.27733  2.62583 255 255 255
0.469397   1.1006  2.90581 255 255 255
  1.48695 0.0324455   2.78792 255 255 255
 1.87271 0.758889  2.65487 255 255 255
0.460649 0.549153  2.90243 255 255 255
 1.94394 0.126408  2.99087 255 255 255
 -2.66392 -0.592616   2.54681 255 255 255
-1.96246 0.594743  2.60142 255 255 255
  2.4629 0.934183   2.3248 255 255 255
 2.48984 0.888467  2.32518 255 255 255
0.894453  1.43073  2.47484 255 255 255
-2.26217 0.853019  2.61416 255 255 255
0.00551938    1.39686    2.37331 255 255 255
-0.238407   1.51502   2.71119 255 255 255
-2.65308 -1.03373  2.43684 255 255 255
-0.235283  0.649959   2.57724 255 255 255
 3.09126 -1.03981  3.01008 255 255 255
0.724459 -1.18889  2.19721 255 255 255
2.31823 1.15974 2.30526 255 255 255
 -1.14152 -0.879412   2.12267 255 255 255
0.261741 0.716689  2.71756 255 255 255
2.38327 1.07324 2.32651 255 255 255
2.40968 1.02619   2.324 255 255 255
-0.0288978   0.375326    2.71085 255 255 255
2.14716 1.48534 2.33226 255 255 255
-2.62189  -1.2582  2.46408 255 255 255
-0.945354 -0.434152   2.18257 255 255 255
 -1.96529 -0.642984   2.31688 255 255 255
-0.158509 -0.808432   2.22556 255 255 255
2.35589 1.11807 2.32458 255 255 255
-1.28443  1.03719  2.64212 255 255 255
 0.284262 -0.713264   2.61864 255 255 255
 -2.6583 -1.43025  2.60134 255 255 255
1.71705 1.21542 2.35123 255 255 255
 2.51576 0.842679  2.32429 255 255 255
 0.513187 -0.234701   2.73536 255 255 255
-2.59244  -1.0188  2.42005 255 255 255
  1.55521 -0.260148    2.9866 255 255 255
 2.53085 0.919116  2.28749 255 255 255
 -2.68345 -0.834201   2.46117 255 255 255
0.673754 0.978004  2.67949 255 255 255
1.55661 1.28449 2.72738 255 255 255
  -2.135 -0.91027  2.58589 255 255 255
-1.48315 0.700803   2.3053 255 255 255
 2.43664 0.980899  2.32603 255 255 255
-0.894217 -0.828804   2.29522 255 255 255
1.22222  1.2289 2.71463 255 255 255
-0.213334   1.32919   2.57065 255 255 255
 -2.15287 -0.146391   2.24049 255 255 255
-2.57973 0.866203  2.60765 255 255 255
-2.21297  1.03666  2.65593 255 255 255
-0.993003  -1.12048   2.46405 255 255 255
-2.22713 0.944909  2.64036 255 255 255
0.465928  -1.3064  2.20809 255 255 255
-0.771445 -0.858658   2.14505 255 255 255
0.131867 0.918155  2.77544 255 255 255
0.131292 -1.31145  2.20204 255 255 255
 2.56123 0.873613  2.29446 255 255 255
 -1.44472 -0.780949   2.22313 255 255 255
-2.43519 -1.23192  2.55434 255 255 255
-0.486936   1.29771   2.71931 255 255 255
-1.10961  1.30432  2.69176 255 255 255
 2.1236  1.2296 2.31799 255 255 255
 0.207949 -0.720075   2.21044 255 255 255
 -1.5791 0.993533  2.57552 255 255 255
 -2.23539 -0.925301   2.40484 255 255 255
-0.502842   1.47116   2.65328 255 255 255
 -1.08202 -0.289508   2.56348 255 255 255
-2.18234  1.10075  2.64693 255 255 255
-1.85913  1.10968  2.66247 255 255 255
-0.192931    1.5196   2.42192 255 255 255
1.03812 1.18086 2.91197 255 255 255
 -1.8406 0.497879  2.28055 255 255 255
-1.23906 -1.06873  2.27017 255 255 255
2.25687 1.42792 2.32437 255 255 255
-0.0759303    -1.3196    2.23167 255 255 255
0.234535 -0.76452  2.20492 255 255 255
-1.29254 0.374715  2.24725 255 255 255
-1.43791 -1.13336  2.29104 255 255 255
-2.12874 -1.53134   2.7252 255 255 255
-0.038497    1.0653   2.65648 255 255 255
0.204092 -1.28083  2.23382 255 255 255
-2.07241  1.10816  2.70805 255 255 255
-0.360052 -0.679526   2.22538 255 255 255
  1.10254 -0.370575   2.74891 255 255 255
-2.24554 0.257347  2.25218 255 255 255
0.100984  1.35443  2.64733 255 255 255
2.22664 1.47098 2.31733 255 255 255
 0.52271 -1.27574  2.20402 255 255 255
0.297555 0.612627  2.72917 255 255 255
-1.77556  1.23396   2.1589 255 255 255
0.595504  1.03498  2.89954 255 255 255
  0.88496 -0.380102   2.55899 255 255 255
  1.02944 -0.251126   2.72386 255 255 255
1.10359 -1.3858 2.80943 255 255 255
 3.29151 0.976093  3.11762 255 255 255
-1.97938 0.681559   2.6528 255 255 255
 -1.33572 -0.993101   2.17828 255 255 255
-0.732697   1.45971    2.6948 255 255 255
-0.442447 -0.223999   2.18579 255 255 255
-1.54131 0.658879  2.28113 255 255 255
-2.43043 -1.41991  2.57868 255 255 255
 2.23192 -1.57824   3.0659 255 255 255
 1.13909 0.894978  2.76755 255 255 255
-0.588696 -0.884658   2.18557 255 255 255
1.21183 1.49373 2.96337 255 255 255
-2.62528 -1.19027   2.4431 255 255 255
1.63121 1.40343 2.39421 255 255 255
0.486669  1.13353  2.89297 255 255 255
-2.23961 0.939738  2.13297 255 255 255
2.67885 1.51307 2.38359 255 255 255
 0.758737 -0.446816   2.66172 255 255 255
-2.58334 -1.12042  2.43344 255 255 255
-2.26911  1.08269  2.60786 255 255 255
 2.15038 -1.65783  3.04629 255 255 255
 -1.13353 -0.500213   2.17784 255 255 255
 2.18095 0.226641  2.93968 255 255 255
-0.488177 -0.425689   2.19254 255 255 255
 -2.15945 -0.989595   2.59417 255 255 255
-0.970106 -0.482676   2.13515 255 255 255
1.69494 1.03847 2.72154 255 255 255
-1.55647  -1.4373  2.40857 255 255 255
-2.52813 0.787862  2.64659 255 255 255
 1.23477 -1.00227  3.02753 255 255 255
-2.51883  1.33054  2.73218 255 255 255
 2.72598 -1.20233   3.0372 255 255 255
 -1.121 1.34453 2.03078 255 255 255
-0.853234   1.04314   2.38477 255 255 255
   1.12029 -0.0465891    2.71067 255 255 255
-0.729779 -0.770928   2.17794 255 255 255
0.853671  1.53622  2.43382 255 255 255
-2.07799 0.814065  2.62616 255 255 255
-1.01221  0.19282  2.33871 255 255 255
-2.75878  1.47859  2.72612 255 255 255
 2.63224 0.587222  2.34586 255 255 255
 -1.65804 -0.905467   2.26242 255 255 255
-0.651291 -0.990228   2.11091 255 255 255
-1.05402 0.938034  2.33778 255 255 255
 -1.2175 -1.09993  2.24443 255 255 255
-1.15673 -1.42184  2.34093 255 255 255
 2.57748 -1.27755  2.97005 255 255 255
2.36867   -1.31 3.07492 255 255 255
 -1.56649 -0.679794   2.20845 255 255 255
  1.14294 -0.328229   2.70175 255 255 255
  1.06539 -0.229081   2.72132 255 255 255
0.102955 0.965952  2.41235 255 255 255
  -1.3248 0.0153352   2.29316 255 255 255
-1.98083  0.73244  2.66298 255 255 255
 1.03276 -1.31619  2.76273 255 255 255
-1.08679 -1.44757  2.40302 255 255 255
-1.49536 -1.14205  2.31441 255 255 255
-2.11581 0.324477  2.31508 255 255 255
 -1.46259 -0.975075   2.18304 255 255 255
 1.71516 0.996565  2.96298 255 255 255
-0.441123   1.18217   2.61339 255 255 255
-1.22647 -1.57782   2.5045 255 255 255
-1.15036  0.13083  2.23625 255 255 255
-0.997036  0.581876   2.28802 255 255 255
0.0179578  0.739543   2.57232 255 255 255
 0.250064 -0.412764   2.68004 255 255 255
0.910911 0.668307  2.94107 255 255 255
0.350977  1.52584  2.38525 255 255 255
 -2.3377 0.962219  2.66129 255 255 255
-1.29179 0.420838  2.28686 255 255 255
-2.18937 0.313489  2.33447 255 255 255
 -2.37452 -0.813232   2.43735 255 255 255
1.08717 1.28863 2.91877 255 255 255
  1.05949 -0.762016   3.02625 255 255 255
  1.04286 -0.323538   2.70677 255 255 255
-0.683903  0.242635   2.35545 255 255 255
  -1.36642 -0.0108412     2.2933 255 255 255
 2.77348 -1.32989  2.96076 255 255 255
 1.73858 -1.35067  2.87441 255 255 255
0.13845 0.83494 2.73343 255 255 255
0.28631 1.25733 2.24072 255 255 255
2.25039 0.52349 2.33044 255 255 255
  3.08578 -0.970862   3.02023 255 255 255
 -1.44418 -0.111311   2.28972 255 255 255
-2.16489 0.861058  2.68509 255 255 255
-2.50038  1.27443  2.59995 255 255 255
0.250992 0.180073  2.50799 255 255 255
1.67918 1.08898 2.91995 255 255 255
-2.07332 0.973905  2.67509 255 255 255
-0.62097 0.841721  2.44176 255 255 255
-0.479604   1.00279   2.64783 255 255 255
 3.29044 -1.05492  3.01466 255 255 255
-2.31714  -1.0705  2.43671 255 255 255
-1.04213 0.557179  2.28937 255 255 255
-0.917461  0.582046   2.25212 255 255 255
-2.42814 -1.22568  2.61241 255 255 255
 2.3292 0.38297 2.31339 255 255 255
 -1.88879 -0.309864   2.24949 255 255 255
-0.916488   1.38327   2.12754 255 255 255
-0.522945  -1.00989   2.28796 255 255 255
-2.21128 -1.03005  2.40145 255 255 255
-0.870372  -1.00763   2.20617 255 255 255
 0.724883 -0.952883   2.26305 255 255 255
 -2.63614 -0.765476    2.5925 255 255 255
 -2.26334 -0.191279   2.21584 255 255 255
2.60826 1.12715 2.39234 255 255 255
  -1.2892 -0.943352     2.193 255 255 255
-0.547407 -0.863269   2.20942 255 255 255
 -2.30213 -0.156341   2.24234 255 255 255
-1.88091 0.777617  2.67597 255 255 255
 -1.94349 -0.339272    2.2643 255 255 255
 -1.24765 -0.275449   2.30874 255 255 255
 2.66343 0.711521  2.34952 255 255 255
-1.55666 -1.19264  2.29042 255 255 255
-1.60887 -1.12664    2.301 255 255 255
 -2.35381 -0.184482   2.25483 255 255 255
 2.27766 -1.60757  3.07408 255 255 255
 1.34855 0.138438  2.81096 255 255 255
 -1.85992 -0.325135   2.26235 255 255 255
 -2.38671 -0.294358   2.25448 255 255 255
-2.02548 -1.31496  2.75385 255 255 255
0.0403967   1.01177   2.51583 255 255 255
0.223083  1.46632  2.67698 255 255 255
-2.27738  0.78629  2.58227 255 255 255
  1.52689 -0.443928   3.05151 255 255 255
0.617387 -1.25738  2.20937 255 255 255
  1.0423 -1.28068  2.76806 255 255 255
 2.97912 -1.17421   3.0063 255 255 255
0.140901 0.334904  2.60382 255 255 255
 0.318127 -0.734535    2.4977 255 255 255
 -1.07524 -0.201328   2.31783 255 255 255
 -2.36554 -0.332586   2.25129 255 255 255
 -2.09392 -0.035381   2.25889 255 255 255
  2.37813 -0.122127   3.08034 255 255 255
-2.68035 -1.35788   2.5285 255 255 255
0.779833  -1.1364  2.28497 255 255 255
 1.08199 -0.86898  3.02751 255 255 255
 -0.51995 -0.893484   2.18182 255 255 255
2.72158 0.65549 2.34761 255 255 255
 -2.68695 -0.958654   2.61327 255 255 255
-1.43094 0.306599  2.26839 255 255 255
   0.984734 -0.00177861     2.72594 255 255 255
-0.13136  1.32271  2.70596 255 255 255
  3.13163 -0.754413   3.06382 255 255 255
0.400637  0.29183  2.55594 255 255 255
-2.55779  1.32824   2.6981 255 255 255
 1.91273 0.897093  2.36061 255 255 255
0.167485 0.514646   2.7306 255 255 255
 2.88887 -1.01166  3.04973 255 255 255
-2.40224 -1.02019  2.42413 255 255 255
  1.54571 -0.814577   3.05352 255 255 255
0.813131 0.319759  2.69088 255 255 255
 0.370551 -0.354271   2.49995 255 255 255
-1.31588 -1.47768  2.40833 255 255 255
-0.526603 -0.925214   2.18047 255 255 255
 1.58872 0.216254  2.77491 255 255 255
 1.14052 -1.53058  2.96788 255 255 255
 0.830826 -0.927942   3.01239 255 255 255
 -1.03916 -0.760724    2.1221 255 255 255
0.225716 0.587529  2.72415 255 255 255
-2.52787 -0.99332  2.43435 255 255 255
  2.80783 -0.621297    3.1091 255 255 255
-0.687589  0.982664   2.56919 255 255 255
0.0307253  0.797412   2.57844 255 255 255
 -2.13612 -0.130736   2.15535 255 255 255
-0.120534  0.299942   2.74454 255 255 255
 1.04141 -1.45133   2.8583 255 255 255
 2.21464 -1.54352  3.07468 255 255 255
0.70049 1.00146 2.63043 255 255 255
-2.50371 -1.50228  2.62079 255 255 255
-2.12673    0.496  2.01843 255 255 255
 -2.65288 -0.948412    2.4781 255 255 255
 -2.32834 -0.945804   2.42589 255 255 255
  1.14379 -0.413203   2.70896 255 255 255
  2.36101 -0.182468   3.08147 255 255 255
 1.84722 0.149028  2.96076 255 255 255
 0.246473 -0.299109    2.5904 255 255 255
   1.64906 -0.0127231    2.99208 255 255 255
-0.139966   1.29196   2.72166 255 255 255
 1.03221 -1.31216  2.66667 255 255 255
-0.405153 -0.439596   2.17249 255 255 255
   3.13063 -0.0191667     2.9952 255 255 255
0.628739  -1.2135  2.24499 255 255 255
-1.91196  1.13784  2.67292 255 255 255
 -2.63468 -0.833493    2.5816 255 255 255
 -1.37162 -0.968084   2.17894 255 255 255
   2.8089 -0.191875   3.18975 255 255 255
-2.09043 0.766687  2.67431 255 255 255
 2.01345 -1.72874  3.06314 255 255 255
  2.59725 -0.200983   3.10841 255 255 255
 0.780581 -0.238775   2.64814 255 255 255
0.166993 0.311067  2.54028 255 255 255
  1.24098 -0.295369   2.70499 255 255 255
 0.665865 -0.954883   2.30951 255 255 255
 2.55577 -1.25939  3.07871 255 255 255
-0.752684  0.335983   2.31979 255 255 255
  -2.395 -1.46878   2.5655 255 255 255
  2.53835 -0.216305   3.13181 255 255 255
 1.76476 0.626556  2.97859 255 255 255
-1.03586 -1.37685   2.4581 255 255 255
 -2.3263 -1.00169  2.44041 255 255 255
0.0739863  0.108243   2.52531 255 255 255
 0.432033 -0.958171   2.33249 255 255 255
 -1.89401 -0.117978   2.24284 255 255 255
 1.34449 0.875312  2.95701 255 255 255
 1.46471 -1.56908  3.01724 255 255 255
0.272454  1.48484   2.4158 255 255 255
0.428611 -1.05748  2.21302 255 255 255
-0.0557831    1.51642    2.42087 255 255 255
 -2.33592 -0.859097   2.42785 255 255 255
  2.79714 0.0889194   3.10812 255 255 255
 1.26379 0.549528  2.74143 255 255 255
 2.2049 0.49632 2.34217 255 255 255
0.910508 -1.13804  3.03913 255 255 255
-2.78233  1.37065  2.75762 255 255 255
 -0.626845 -0.0590138    2.13458 255 255 255
-0.0275607    1.46692    2.37965 255 255 255
  3.17089 -0.736693    3.0662 255 255 255
 -0.83898 -0.826085   2.18596 255 255 255
0.342055 -0.67704   2.6837 255 255 255
0.931007 -0.35743   2.5494 255 255 255
-2.73017 -1.44782  2.60263 255 255 255
 0.345489 0.0736588      2.48 255 255 255
-1.50802 0.955287  2.66418 255 255 255
 0.353098 -0.939358   2.26125 255 255 255
   3.3368 -0.988869   3.02784 255 255 255
-2.10455 -1.38851  2.74662 255 255 255
-1.46742 -1.05214  2.23301 255 255 255
 1.92508 0.120157  2.97101 255 255 255
1.30143 1.59487 2.91996 255 255 255
 1.63887 0.490464  2.96599 255 255 255
-2.71064 -1.43965  2.49852 255 255 255
1.69644 0.45463 2.97661 255 255 255
 0.0895489 -0.0301631    2.43329 255 255 255
0.225653 0.487096  2.71892 255 255 255
-2.25113 0.423894  2.51995 255 255 255
 0.716974 -0.492583    2.9664 255 255 255
1.62431 0.60465 2.97891 255 255 255
1.38074 0.83501 2.97928 255 255 255
-0.0222853   0.768446    2.56202 255 255 255
0.273521  0.31551  2.54773 255 255 255
-0.356921  0.374026   2.31779 255 255 255
    1.04386 -0.00928632     2.71348 255 255 255
  1.79846 -0.111698    3.0809 255 255 255
-0.809039 -0.901918   2.12936 255 255 255
2.65133 1.06979 2.40857 255 255 255
  1.75594 -0.559514   3.08031 255 255 255
 0.178271 -0.345553   2.71338 255 255 255
 0.300184 0.0113403   2.49092 255 255 255
1.40891 -1.5439 3.04772 255 255 255
-0.0186303   0.713482    2.55936 255 255 255
  1.4635 0.236872   2.7497 255 255 255
 0.426026 -0.671816   2.65993 255 255 255
  1.22729 -0.676104   3.04579 255 255 255
-0.601065 -0.532789   2.23572 255 255 255
-1.99603 0.749168  2.64852 255 255 255
 2.66135 0.612971  2.41781 255 255 255
 1.07789 -1.01069  3.02649 255 255 255
-2.08955   -1.154  2.38252 255 255 255
   2.14825 -0.0722821    3.08381 255 255 255
 0.900257 -0.947239   3.01626 255 255 255
 0.777994 -0.804051   3.03438 255 255 255
 1.91998 0.268347  2.96099 255 255 255
 0.225925 -0.526949   2.49426 255 255 255
-2.01911  1.09946   2.6815 255 255 255
0.168215  1.42357  2.34775 255 255 255
1.33672 0.78445  2.9769 255 255 255
  0.19794 -0.908774   2.94654 255 255 255
  1.94722 -0.629009    3.0866 255 255 255
 1.63446 0.634099   2.9807 255 255 255
0.316593 0.551977    2.723 255 255 255
 0.676502 -0.104034   2.65412 255 255 255
0.126497  1.42462  2.49184 255 255 255
-0.164323  0.429931   2.55386 255 255 255
 0.127534 -0.539243   2.25811 255 255 255
  3.39321 -0.926821   3.04615 255 255 255
-0.568031  0.728152   2.52245 255 255 255
 1.69766 0.843812  2.97349 255 255 255
  1.9585 0.305395  2.97487 255 255 255
0.282052 0.197453   2.4709 255 255 255
-0.250425  0.273159   2.56754 255 255 255
 0.141649 0.0193077   2.43061 255 255 255
0.468278 0.910101  2.91417 255 255 255
0.223535 0.190699  2.48961 255 255 255
 0.241282 -0.648914   2.61514 255 255 255
   1.2453 -0.691208   3.03494 255 255 255
 5.50005 -3.89494  3.50681 255 255 255
 4.94308 -2.34145  2.77356 255 255 255
0.507375 -2.80677  2.95156 255 255 255
 1.03597 -4.31264  2.59231 255 255 255
0.972036 -3.81505  2.55578 255 255 255
 4.23065 -3.17547  2.95453 255 255 255
 7.36734 -1.37711  3.82968 255 255 255
-1.32022 -3.81116  2.90604 255 255 255
 3.08163 -2.78298  2.10688 255 255 255
2.33237  -3.102 2.01135 255 255 255
 3.70366 -2.51752  1.98838 255 255 255
 5.76465 -4.30919  3.66619 255 255 255
 -1.1421 -3.35746  2.90178 255 255 255
0.440262 -2.86463  2.94474 255 255 255
0.584939 -4.18151  2.68848 255 255 255
-1.10674 -3.23845  2.86702 255 255 255
5.17218 -4.6986 3.60515 255 255 255
-0.266861  -3.30946   2.93769 255 255 255
 5.29718 -2.40508  2.98353 255 255 255
 3.36189 -2.91905  1.91164 255 255 255
  7.0489 -4.02418  3.44769 255 255 255
-0.94443 -3.45153  2.91209 255 255 255
 2.94984 -3.99689  2.02615 255 255 255
 2.54564 -2.57449  2.05097 255 255 255
 1.53957 -2.91578  2.94455 255 255 255
0.0108437  -3.03406   2.95733 255 255 255
 7.53076 -2.38213  3.80631 255 255 255
 5.35113 -2.34879  3.00858 255 255 255
-0.924067  -3.40672   2.93047 255 255 255
 2.64262 -4.22589   1.9888 255 255 255
-0.837621  -4.51573   2.94343 255 255 255
 5.32603 -2.47379  2.97978 255 255 255
 0.67625 -3.46635  2.97427 255 255 255
-0.474249  0.294657    2.5325 255 255 255
0.405037 0.110072  2.65146 255 255 255
0.219881 0.153393  2.59447 255 255 255
 1.26663 0.347474  2.85368 255 255 255
 1.28998 0.187267  2.99314 255 255 255
 0.778061 -0.316851   2.61033 255 255 255
 0.490778 -0.261969   2.58869 255 255 255
  0.366668 -0.0127227    2.52821 255 255 255
0.159172 0.480446    2.735 255 255 255
 1.24941 0.414256  2.98585 255 255 255
-0.435791   -0.1513   2.19191 255 255 255
0.196519 0.191532   2.4301 255 255 255
-0.243283   0.25045     2.421 255 255 255
 0.736321 -0.394675   2.67473 255 255 255
 0.541459 -0.621867   2.69839 255 255 255
 0.717448 -0.307582   2.67154 255 255 255
 0.362212 -0.687559   2.56053 255 255 255
-1.06159    0.154  2.26237 255 255 255
-0.265688  0.387296   2.51473 255 255 255
0.946265 0.635124  2.77944 255 255 255
0.954912 0.625129  2.94962 255 255 255
-0.294826  0.542984   2.54244 255 255 255
 0.593641 -0.292269   2.68622 255 255 255
 0.273678 -0.417761   2.45389 255 255 255
-0.539408 -0.162467   2.22488 255 255 255
 1.09596 0.766089  2.94865 255 255 255
-0.743649 -0.215875   2.22479 255 255 255
-0.851138 -0.117461   2.32963 255 255 255
-0.173597   0.62418   2.57651 255 255 255
  0.428129 -0.0890548    2.56393 255 255 255
  1.10534 -0.301048   2.73229 255 255 255
-0.741375  0.360429    2.2624 255 255 255
0.243955  0.74582  2.71596 255 255 255
0.800636 0.275726   2.7571 255 255 255
 0.883056 -0.376307   2.55081 255 255 255
 0.516893 -0.630075   2.60304 255 255 255
-0.267125  0.211755   2.71115 255 255 255
 -0.416273 -0.0499701     2.3984 255 255 255
-0.418006 -0.082108   2.35282 255 255 255
-0.387379  0.414834   2.31486 255 255 255
  0.291059 -0.0805521    2.51524 255 255 255
-0.962925  0.561222   2.26164 255 255 255
 0.408925 -0.167036   2.56657 255 255 255
 -1.1079 0.150138   2.2358 255 255 255
  1.04042 -0.216185   2.77666 255 255 255
-1.04125 0.515787  2.24858 255 255 255
 0.729376 -0.587515   2.99434 255 255 255
-0.975707 0.0266483   2.31466 255 255 255
0.705321 0.666986  2.93816 255 255 255
  1.03105 -0.252454   2.72994 255 255 255
0.967458 0.609205  2.83582 255 255 255
 0.851247 -0.344322   2.54182 255 255 255
-1.03555 -0.16981  2.31378 255 255 255
-1.03246 0.105384  2.31817 255 255 255
0.607163 0.820846  2.89911 255 255 255
-0.35807 0.414601  2.32746 255 255 255
0.0339829  0.510004   2.61013 255 255 255
 0.163455 -0.381958   2.70892 255 255 255
-0.286102 -0.144815   2.43033 255 255 255
  0.971169 -0.0402503    2.77693 255 255 255
  0.19338 -0.511375   2.47542 255 255 255
 -0.40719 -0.110809   2.43292 255 255 255
0.867675 0.281031  2.60936 255 255 255
 0.404224 -0.345082   2.45919 255 255 255
-0.160601  0.297305   2.68769 255 255 255
0.391537 -0.31822  2.51915 255 255 255
-0.956464  0.237608   2.30184 255 255 255
 -1.33046 -0.501979   2.72808 255 255 255
-0.920766  -0.44494   2.12388 255 255 255
 0.116669 0.0382945   2.40709 255 255 255
0.952085 0.829227  2.93676 255 255 255
-0.35515 0.578106  2.52248 255 255 255
  1.19716 -0.951805   3.01419 255 255 255
 0.917228 -0.527466   2.74386 255 255 255
 1.37924 0.830298  2.96969 255 255 255
0.953518 0.652294  2.95549 255 255 255
-0.524768 -0.184187   2.20536 255 255 255
-0.228421  0.521097   2.49707 255 255 255
 0.975638 -0.262678   2.63335 255 255 255
-0.902685 -0.460086   2.10148 255 255 255
  0.323753 -0.0443255    2.50679 255 255 255
-0.391326  0.556722   2.49625 255 255 255
0.33165 0.22143 2.49822 255 255 255
-0.493059 -0.268261   2.16996 255 255 255
-0.573769 -0.171524   2.19401 255 255 255
-0.365619  0.553275   2.54556 255 255 255
-0.422847 -0.197763   2.50816 255 255 255
   0.2648 -0.199234   2.74696 255 255 255
  -0.58216 -0.0272344     2.2917 255 255 255
 1.29339 0.657489  2.96695 255 255 255
-0.0405743  -0.064162    2.70184 255 255 255
 0.898302 -0.907776   2.99703 255 255 255
 0.117999 -0.365402   2.53302 255 255 255
 0.101472 -0.495389   2.26467 255 255 255
0.0350214 -0.380096    2.2744 255 255 255
  0.24592 -0.474226   2.45835 255 255 255
-0.323081 -0.189696   2.36012 255 255 255
-0.369751 -0.102463   2.39434 255 255 255
0.114609 0.267214  2.50525 255 255 255
-0.328226 -0.238355   2.39066 255 255 255
  1.18277 -0.319746   2.68557 255 255 255
  1.07859 -0.234065   2.74203 255 255 255
 0.288873 -0.447033   2.46177 255 255 255
0.933849 0.571866   2.9614 255 255 255
   1.06296 0.00124548    2.69892 255 255 255
-0.267004  0.408421   2.50644 255 255 255
-0.0461343   0.463754    2.57629 255 255 255
-0.209675  0.638808   2.55959 255 255 255
 1.36688 0.167708  2.78087 255 255 255
-0.827318  0.640903   2.26577 255 255 255
0.186904 0.137269   2.4234 255 255 255
-0.0306526  -0.192799    2.26497 255 255 255
 0.244079 -0.237645   2.56032 255 255 255
-0.334632  0.574464   2.55631 255 255 255
-0.200966   0.43081   2.46858 255 255 255
-0.590675 -0.133357   2.38903 255 255 255
 1.07654 0.869853  2.93277 255 255 255
  1.01676 0.0671645   2.75564 255 255 255
 0.795076 -0.256288    2.6103 255 255 255
  1.19925 -0.281589   2.68283 255 255 255
-0.334353  0.361124   2.30452 255 255 255
-0.0375651   0.358074    2.71968 255 255 255
 0.0913817 -0.0105624    2.47792 255 255 255
0.104054 -0.19981  2.69431 255 255 255
 0.146334 -0.040685   2.43208 255 255 255
0.920298 0.470357  2.95022 255 255 255
 -1.34819 -0.473634   2.73254 255 255 255
  0.21405 -0.284653    2.5532 255 255 255
0.319914 0.169495  2.48735 255 255 255
-0.908225 -0.164506   2.28071 255 255 255
 0.199479 -0.392763    2.7225 255 255 255
 0.125702 -0.440883   2.62127 255 255 255
-0.475179 -0.263737   2.20714 255 255 255
 0.167063 0.0373924   2.42352 255 255 255
-0.705226  0.372404   2.25636 255 255 255
 0.304228 0.0734869   2.43668 255 255 255
0.643309 -0.50461  2.95714 255 255 255
-0.173068  0.664288   2.55227 255 255 255
0.196166 0.316405  2.47292 255 255 255
-0.118712    0.6375   2.53736 255 255 255
-0.931264 -0.178097   2.27829 255 255 255
0.233061 0.532746  2.75091 255 255 255
 0.189381 -0.463919   2.68447 255 255 255
0.0734178 0.0396353   2.45979 255 255 255
 0.108182 -0.327064   2.67173 255 255 255
0.108939 0.295139  2.59744 255 255 255
-0.038959 -0.207728   2.25518 255 255 255
-0.0998849   0.646833    2.53741 255 255 255
 0.378181 -0.366136   2.47711 255 255 255
0.117655 0.169207   2.3982 255 255 255
  0.128929 -0.0770081    2.44727 255 255 255
0.387986 0.736284  2.90009 255 255 255
 0.243473 -0.428709   2.67438 255 255 255
 -1.15066 -0.327394   2.26748 255 255 255
0.405945 0.779359  2.90427 255 255 255
 0.33437 0.269419  2.53979 255 255 255
0.909473 0.672931  2.94297 255 255 255
 0.331003 -0.706256   2.59112 255 255 255
0.654528 0.319585  2.92611 255 255 255
 0.13475 0.423638  2.68778 255 255 255
  0.191694 -0.0672356    2.44126 255 255 255
    1.022 -0.115532   2.78773 255 255 255
0.0895258 -0.378862   2.61085 255 255 255
 0.863441 -0.803174   3.02221 255 255 255
0.422321 0.823272   2.9096 255 255 255
-0.883031 -0.175048   2.64176 255 255 255
0.100952 0.410203   2.7306 255 255 255
0.120404 0.314744  2.58055 255 255 255
0.839784 0.753837  2.93854 255 255 255
0.0293675  0.490403   2.66575 255 255 255
  0.73068 -0.338998   2.64087 255 255 255
  0.27748 0.0107669   2.47024 255 255 255
-0.100446   0.63083   2.54937 255 255 255
 0.309816 -0.710255   2.66057 255 255 255
 0.704983 -0.221221   2.64495 255 255 255
  1.09931 -0.279104   2.73512 255 255 255
-0.0639553   0.319369    2.72613 255 255 255
0.0160908  0.451698   2.70583 255 255 255
  0.991996 -0.0320529    2.74082 255 255 255
  0.513085 -0.0735595    2.61974 255 255 255
  0.86056 -0.329771   2.57879 255 255 255
 0.815191 -0.574307    2.9885 255 255 255
-0.175279  0.407671   2.53974 255 255 255
-0.27189 0.592815  2.57453 255 255 255
  1.55651 -0.701464   3.04246 255 255 255
0.164221 0.144535    2.476 255 255 255
  0.705971 -0.0589747    2.67772 255 255 255
0.788916 -0.28015   2.6414 255 255 255
 0.321967 -0.386944   2.64649 255 255 255
0.340344  0.58224  2.70916 255 255 255
  1.09855 -0.238718   2.73552 255 255 255
 0.103915 -0.408154   2.62582 255 255 255
 1.39751 0.225923  2.73981 255 255 255
0.0781797 -0.266978    2.6624 255 255 255
-0.272697  0.473482   2.53888 255 255 255
 0.265594 -0.263403   2.58283 255 255 255
0.228374  0.15682  2.44539 255 255 255
   1.09131 -0.0427312    2.72215 255 255 255
  1.06825 -0.946119   3.02718 255 255 255
 1.19375 0.486485  2.98845 255 255 255
  0.240687 -0.0330058    2.49167 255 255 255
  1.12619 -0.794843   3.03096 255 255 255
0.430528 0.182868  2.56172 255 255 255
 0.122346 0.0805604     2.451 255 255 255
-0.247852  0.351483   2.47605 255 255 255
 0.285846 -0.191277   2.68033 255 255 255
 -1.29911 -0.425506   2.59711 255 255 255
-0.316871  0.584192   2.55274 255 255 255
 1.28864 0.735392  2.96966 255 255 255
0.213356  0.54363  2.74358 255 255 255
0.0912593 -0.295813   2.67173 255 255 255
 0.20666 0.356431  2.55034 255 255 255
 0.145616 -0.477801   2.61723 255 255 255
   0.11425 -0.0119148     2.4175 255 255 255
  0.9201 0.783365  2.94757 255 255 255
-1.13966 -0.29519  2.30882 255 255 255
 1.29805 -0.93502  3.01381 255 255 255
  0.15728 -0.423045   2.66947 255 255 255
 -1.17945 -0.363201   2.27204 255 255 255
 1.29256 0.693176  2.96348 255 255 255
0.365263  0.12267  2.51199 255 255 255
 0.699916 -0.540835    2.9706 255 255 255
0.806648 0.157058  2.95672 255 255 255
  -1.1012 -0.314644   2.60895 255 255 255
  0.81302 -0.385836   2.66768 255 255 255
 0.771817 -0.554092   2.99464 255 255 255
 0.059322 -0.272397    2.7112 255 255 255
0.730144    0.246  2.91729 255 255 255
0.0338332 -0.168302   2.68535 255 255 255
 0.744691 -0.550978   2.98472 255 255 255
-0.363532  0.525881    2.4728 255 255 255
0.0677542 -0.371648   2.65581 255 255 255
-0.230697  0.623362   2.54812 255 255 255
  0.89618 -0.304191   2.61443 255 255 255
  1.27826 -0.594533   3.04136 255 255 255
  1.13413 -0.263133   2.69887 255 255 255
 0.834138 -0.884332   3.01694 255 255 255
 0.140044 -0.389615   2.65497 255 255 255
-0.203562  0.438563   2.40646 255 255 255
 0.676484 -0.504806   2.96819 255 255 255
-0.305232  0.436536   2.53512 255 255 255
-0.436708   0.53185   2.48454 255 255 255
-0.190429  0.410299   2.52194 255 255 255
 0.386024 -0.682595    2.6471 255 255 255
   1.0372 -0.803783   3.03005 255 255 255
 0.670978 -0.707205   3.00467 255 255 255
-0.167636  0.722886   2.48569 255 255 255
-0.426208  0.615276   2.50775 255 255 255
 0.981951 -0.831725   3.01694 255 255 255
0.0820247 -0.256519   2.71173 255 255 255
0.322774 0.148355  2.50751 255 255 255
0.0302313 -0.309082   2.67572 255 255 255
-0.353355  0.339702   2.31684 255 255 255
 0.321504 -0.712599    2.6417 255 255 255
 0.310538 -0.720279   2.59083 255 255 255
-0.00325349   -0.176199     2.69729 255 255 255
1.32927 0.79953 2.94778 255 255 255
0.0100101  0.609179    2.5514 255 255 255
0.365247 0.695274  2.87762 255 255 255
 1.26201 0.568609  2.93912 255 255 255
 1.30703 0.856726  2.95067 255 255 255
 0.20749 0.269933  2.53448 255 255 255
0.856506 0.264291  2.61154 255 255 255
0.724164 0.688115  2.92437 255 255 255
 1.40956 0.819923  2.96065 255 255 255
-0.0991724   0.355888    2.69314 255 255 255
0.270157 0.290166  2.50802 255 255 255
 0.806199 -0.233286    2.6351 255 255 255
0.997746  0.10856  2.77376 255 255 255
 0.387364 0.0412939   2.53736 255 255 255
 1.36127 0.205436  2.76853 255 255 255
0.195141 0.297365  2.48801 255 255 255
-0.0771796    0.37016    2.69826 255 255 255
 1.31438 0.775874  2.93254 255 255 255
0.0697574  0.493448   2.72459 255 255 255
 1.12639 0.820266  2.95396 255 255 255
 0.23462 -0.40303  2.70022 255 255 255
0.965421 0.656871   2.9631 255 255 255
0.0571712 0.0107245   2.49984 255 255 255
-0.131213  0.685291   2.55916 255 255 255
   1.05802 -0.0775696     2.7928 255 255 255
 0.733832 -0.138327   2.62886 255 255 255
-0.116525  0.655605   2.53631 255 255 255
-0.116103 -0.228785   2.25169 255 255 255
 0.291542 -0.257004   2.57435 255 255 255
0.0490342  -0.18808   2.69669 255 255 255
 0.733779 -0.243437   2.68363 255 255 255
-0.247683  0.546583   2.50488 255 255 255
 -1.19764 -0.355642   2.28081 255 255 255
 0.0750905 0.00334022    2.45968 255 255 255
 0.756552 -0.516516   2.96657 255 255 255
 0.366652 -0.666254   2.66347 255 255 255
 0.863985 -0.721336   3.02616 255 255 255
 0.356075 -0.647343   2.66014 255 255 255
-0.360738  0.338006    2.2787 255 255 255
 0.75105 0.689886  2.91981 255 255 255
  1.14014 -0.812506   3.01265 255 255 255
 1.06341 0.838965  2.93647 255 255 255
  1.61943 -0.755935   3.06086 255 255 255
0.222106 0.557846  2.73368 255 255 255
0.279396 0.237756  2.46847 255 255 255
  0.28259 -0.726583   2.64827 255 255 255
 1.29631 0.883134  2.95584 255 255 255
0.592604 0.540437  2.92088 255 255 255
 0.884302 -0.928425   3.02288 255 255 255
0.871606 0.312938  2.59143 255 255 255
-0.0268246 -0.0278402    2.70581 255 255 255
 0.934784 -0.961142    3.0328 255 255 255
 0.805888 -0.811352   3.02573 255 255 255
  0.750731 -0.0171925    2.76824 255 255 255
-0.49478 0.608832  2.44923 255 255 255
0.0699079  0.063476   2.45093 255 255 255
0.0691298 0.0863895    2.4847 255 255 255
 1.09852 0.813397  2.93672 255 255 255
 0.421549 0.0499583   2.45977 255 255 255
 0.023419 -0.108374   2.70255 255 255 255
-0.340722  0.507892   2.55611 255 255 255
0.919633 0.711547  2.94988 255 255 255
 0.625884 -0.554875   2.95942 255 255 255
 0.242564 0.0559535   2.44678 255 255 255
0.959522 -0.85468  3.03865 255 255 255
0.872275 0.327034  2.62188 255 255 255
0.00410469   0.616189    2.51426 255 255 255
 0.813015 -0.148089   2.66105 255 255 255
   1.05688 -0.0380388    2.72764 255 255 255
0.0108935 -0.166433    2.6919 255 255 255
   1.1102 -0.286974   2.69608 255 255 255
 1.30791 0.836778  2.95044 255 255 255
 1.53209 -0.70941  3.04777 255 255 255
 1.29717 -0.60181  3.02982 255 255 255
0.264686 0.506698  2.71147 255 255 255
 1.32462 0.162948  2.79662 255 255 255
   1.3295 -0.731006   3.02547 255 255 255
 1.37605 0.194503  2.77062 255 255 255
 1.14007 0.843993   2.9386 255 255 255
  0.12499 -0.395996   2.72084 255 255 255
-0.238974   0.29756   2.50333 255 255 255
0.591678 0.347757  2.89743 255 255 255
0.88014 0.73237 2.95264 255 255 255
0.148927  0.26856  2.54152 255 255 255
 0.795715 -0.665393   3.02109 255 255 255
  1.68984 -0.836273   3.08076 255 255 255
0.858695 0.744999  2.94418 255 255 255
 0.24077 0.321915  2.50351 255 255 255
-1.67507 0.468257  2.32349 255 255 255
-1.14096 0.296072  2.28203 255 255 255
  2.33744 0.0768156   3.04898 255 255 255
0.220109 0.146754  2.68684 255 255 255
0.0573756  0.639297   2.55521 255 255 255
-0.606238 -0.293768   2.15439 255 255 255
-1.22688  1.10852  2.61781 255 255 255
1.79136 0.92403 2.87174 255 255 255
1.34926  0.2302 2.80701 255 255 255
 0.971072 -0.521079    2.8486 255 255 255
  1.23061 -0.143311    2.8849 255 255 255
 0.266372 -0.234302   2.57176 255 255 255
-0.228239   0.59113   2.53514 255 255 255
 0.510411 -0.607772   2.51481 255 255 255
-0.856723   1.13598   2.37791 255 255 255
  -1.0499 -0.439806   2.06978 255 255 255
-1.01741  -1.0481  2.30004 255 255 255
-0.916281 -0.971556   2.27273 255 255 255
0.0208804  0.908508   2.54567 255 255 255
 2.17052 0.262242  2.56384 255 255 255
 -1.6754 0.567951  2.34768 255 255 255
 -1.38401 -0.881211   2.19157 255 255 255
 1.61584 0.462673  3.08959 255 255 255
 0.711429 -0.595438   2.97718 255 255 255
 1.26047 0.519308  2.73346 255 255 255
-0.217407  0.701184   2.52904 255 255 255
0.248095  1.04531  2.47985 255 255 255
-1.32668  1.26857  2.64526 255 255 255
0.172817  1.02143  2.30503 255 255 255
0.187721 0.402425  2.70672 255 255 255
 1.09744 0.921526  2.67817 255 255 255
 2.17326 0.247548  2.75441 255 255 255
