ply
format ascii 1.0
element vertex 1172
property float x
property float y
property float z
property uchar red
property uchar green
property uchar blue
end_header
0.850463  1.52465  2.41849 255 255 255
-2.07746  0.79433  2.60598 255 255 255
-1.01337 0.177826  2.32895 255 255 255
-2.74855  1.45363  2.68641 255 255 255
   2.633 0.579556  2.35044 255 255 255
 -1.65298 -0.919675   2.24661 255 255 255
-0.654317  -1.01007   2.11812 255 255 255
-1.05558 0.923405  2.32308 255 255 255
-1.21351 -1.11334  2.23102 255 255 255
-1.15364  -1.4375  2.33139 255 255 255
 2.58217 -1.29527  2.96926 255 255 255
2.37426 -1.3298 3.07633 255 255 255
 -1.56815 -0.697248     2.204 255 255 255
  1.14404 -0.343212   2.69773 255 255 255
  1.06547 -0.243681   2.71346 255 255 255
 0.10081 0.953303  2.40066 255 255 255
   -1.32814 -0.00309934     2.28793 255 255 255
 -1.9809 0.712657  2.64416 255 255 255
 1.03321 -1.32915  2.74888 255 255 255
-1.08092 -1.45969  2.38582 255 255 255
-1.49042 -1.15629  2.29965 255 255 255
-2.11293 0.307453  2.29562 255 255 255
 -1.46454 -0.993577   2.18169 255 255 255
 1.71457 0.983017    2.951 255 255 255
-0.443868     1.167   2.60026 255 255 255
-1.21942 -1.59008  2.48545 255 255 255
 -1.1534 0.115393  2.23001 255 255 255
-0.99866 0.567712  2.27665 255 255 255
0.0157469  0.725759   2.56558 255 255 255
 0.250432 -0.429889   2.67816 255 255 255
0.909381  0.65258  2.93079 255 255 255
0.347994  1.51441  2.37197 255 255 255
-2.33266 0.940701  2.63217 255 255 255
-1.29533 0.405795  2.27987 255 255 255
-2.15749  0.29793  2.27141 255 255 255
 -2.36919 -0.831143   2.42124 255 255 255
 1.0853  1.2745 2.90894 255 255 255
  1.06117 -0.780641   3.02184 255 255 255
  1.04297 -0.338061   2.69835 255 255 255
-0.687661  0.228462   2.35473 255 255 255
  -1.36704 -0.0264613    2.28296 255 255 255
 2.78014 -1.34851  2.96339 255 255 255
 1.7398 -1.3659 2.86605 255 255 255
0.135463 0.820245  2.72428 255 255 255
0.283801  1.24532  2.22269 255 255 255
  3.09238 -0.988509   3.02159 255 255 255
 -1.44925 -0.128582     2.288 255 255 255
-2.15884 0.839785   2.6549 255 255 255
-2.49371  1.25236  2.56719 255 255 255
0.250165 0.166407  2.49858 255 255 255
1.67682  1.0748 2.90597 255 255 255
-2.07284 0.953634   2.6534 255 255 255
-0.623151  0.827364   2.43023 255 255 255
-0.482088  0.987104   2.63526 255 255 255
 3.30084 -1.07388  3.02154 255 255 255
 -2.3005 -1.08173  2.40681 255 255 255
-1.04372 0.542873    2.278 255 255 255
-0.92107 0.568584  2.24588 255 255 255
-2.41806 -1.24232  2.59109 255 255 255
 2.32851 0.374342  2.30386 255 255 255
 -1.89027 -0.327014   2.24136 255 255 255
-0.917693   1.36995   2.10874 255 255 255
-0.520811   -1.0231   2.27734 255 255 255
-2.20413 -1.04607  2.38384 255 255 255
-0.870159  -1.02383   2.20252 255 255 255
 0.726277 -0.967256   2.26172 255 255 255
 -2.62585 -0.783207    2.5687 255 255 255
 -2.25754 -0.206949   2.19603 255 255 255
2.60616   1.119 2.37868 255 255 255
 -1.28884 -0.959444    2.1873 255 255 255
-0.546307 -0.876998   2.20231 255 255 255
 -2.29607 -0.172309   2.22184 255 255 255
-1.88133 0.757974  2.65751 255 255 255
 -1.94444 -0.356531   2.25556 255 255 255
 -1.25176 -0.293031   2.30765 255 255 255
 2.66283 0.703533   2.3392 255 255 255
-1.55054 -1.20588  2.27407 255 255 255
-1.60367 -1.14097  2.28604 255 255 255
 -2.34742 -0.200579   2.23408 255 255 255
 2.28219 -1.62721   3.0732 255 255 255
   1.348 0.123952  2.80159 255 255 255
 -1.86196 -0.342649   2.25515 255 255 255
 -2.38004 -0.310348   2.23417 255 255 255
-2.02085 -1.33529  2.73973 255 255 255
0.0381054  0.998233   2.50406 255 255 255
0.22004 1.45216 2.66332 255 255 255
 -2.2742 0.766271  2.55822 255 255 255
  1.52708 -0.460691   3.04199 255 255 255
0.618753 -1.26696  2.19915 255 255 255
 1.04279 -1.29396  2.75472 255 255 255
 2.98655 -1.19294  3.00958 255 255 255
0.139558 0.320312  2.59962 255 255 255
 0.318891 -0.750295   2.49453 255 255 255
 -1.07899 -0.218414   2.31698 255 255 255
 -2.35882 -0.348459   2.23116 255 255 255
  -2.08882 -0.0512785     2.2385 255 255 255
  2.37909 -0.137882   3.07214 255 255 255
-2.67201  -1.3756  2.51247 255 255 255
0.780805 -1.14658  2.27472 255 255 255
 1.08424 -0.88822  3.02416 255 255 255
-0.519091 -0.908885   2.17895 255 255 255
 2.72131 0.647577  2.33782 255 255 255
 -2.67646 -0.976342   2.59061 255 255 255
-1.43186 0.291344  2.25649 255 255 255
   0.98572 -0.0163757    2.72227 255 255 255
-0.134321   1.30749   2.69239 255 255 255
 3.13849 -0.77193  3.06501 255 255 255
0.399704 0.278612  2.55177 255 255 255
-2.55072  1.30473   2.6632 255 255 255
 1.91008 0.887706  2.34715 255 255 255
0.165994 0.499186  2.72089 255 255 255
 2.89491 -1.02983  3.05045 255 255 255
-2.39419  -1.0365  2.40568 255 255 255
 1.54901 -0.83355   3.0521 255 255 255
0.812604 0.305659  2.68423 255 255 255
 0.371129 -0.369583   2.49864 255 255 255
-1.30922 -1.49018  2.39083 255 255 255
-0.525978 -0.939912   2.17632 255 255 255
1.58781 0.20254 2.76433 255 255 255
 1.14126 -1.54538  2.95436 255 255 255
 0.831964 -0.946322   3.00521 255 255 255
 -1.03943 -0.775964   2.11751 255 255 255
0.224118 0.572324  2.71564 255 255 255
 -2.5224 -1.01157  2.41962 255 255 255
  2.81209 -0.638485   3.10634 255 255 255
-0.689956  0.967122   2.55625 255 255 255
0.0288111  0.783099   2.56666 255 255 255
 -2.13081 -0.145739   2.13603 255 255 255
-0.122149  0.283472   2.73871 255 255 255
 1.04215 -1.46526  2.84481 255 255 255
 2.21773 -1.56173  3.07059 255 255 255
0.698387 0.988229  2.61911 255 255 255
-2.12254 0.481383  1.99741 255 255 255
 -2.64399 -0.965586   2.45849 255 255 255
 -2.3202 -0.96188  2.40647 255 255 255
  1.14441 -0.427964   2.70225 255 255 255
  2.36212 -0.198365   3.07358 255 255 255
 1.84677 0.134122  2.95071 255 255 255
 0.246706 -0.315497   2.58982 255 255 255
    1.6495 -0.0287225    2.98459 255 255 255
-0.142914   1.27673   2.70881 255 255 255
  1.0327 -1.32434  2.65337 255 255 255
-0.405465 -0.453407   2.16956 255 255 255
   3.13576 -0.0336351    2.99267 255 255 255
0.629983 -1.22328  2.23432 255 255 255
-1.91203  1.11789  2.65108 255 255 255
  -2.6245 -0.851061   2.55849 255 255 255
 -1.37311 -0.986074   2.17702 255 255 255
   2.8124 -0.208702   3.18529 255 255 255
-2.08638 0.746047  2.64778 255 255 255
 2.01712 -1.74917  3.06157 255 255 255
  2.59906 -0.216896   3.10144 255 255 255
 0.780844 -0.253476   2.64254 255 255 255
0.165939 0.297091  2.52966 255 255 255
  1.24196 -0.309968   2.69953 255 255 255
 0.667324 -0.967811    2.3049 255 255 255
 2.56317 -1.27974  3.08272 255 255 255
-0.754963  0.321807   2.31319 255 255 255
-2.38611 -1.48549  2.54807 255 255 255
  2.54078 -0.232866   3.12615 255 255 255
  1.7626 0.611738   2.9651 255 255 255
-1.03775 -1.39841  2.45774 255 255 255
-2.30757 -1.01202  2.40685 255 255 255
0.0730253 0.0935987   2.52261 255 255 255
 1.34258 0.860403  2.94482 255 255 255
 1.46557 -1.58475  3.00584 255 255 255
0.269507  1.47212  2.39966 255 255 255
0.429903 -1.06755  2.20245 255 255 255
-0.0586232    1.50308    2.40445 255 255 255
  -2.3277 -0.875255   2.40774 255 255 255
  2.80025 0.0734047     3.103 255 255 255
 1.26214 0.535827  2.72942 255 255 255
 2.20439 0.487444  2.33295 255 255 255
 0.91206 -1.15688   3.0325 255 255 255
-2.77251  1.34556  2.71851 255 255 255
 -0.627561 -0.0717502    2.12755 255 255 255
-0.0302374    1.45374    2.36274 255 255 255
  3.17841 -0.754252   3.06823 255 255 255
-0.838833 -0.841382   2.18125 255 255 255
 0.342739 -0.693328   2.67744 255 255 255
 0.930433 -0.369836   2.53699 255 255 255
-2.72109 -1.46584   2.5859 255 255 255
 0.345224 0.0598067   2.47788 255 255 255
-1.51001 0.936855   2.6479 255 255 255
 0.354053 -0.953533   2.25852 255 255 255
 3.34737 -1.00766  3.03466 255 255 255
-2.09964  -1.4089   2.7327 255 255 255
-1.46205 -1.06513   2.2172 255 255 255
 1.92458 0.105355  2.96085 255 255 255
1.29941 1.58171  2.9091 255 255 255
 1.63736 0.475465  2.95405 255 255 255
-2.70296 -1.45757  2.48441 255 255 255
 1.69494 0.439608  2.96462 255 255 255
 0.0888822 -0.0445785    2.43285 255 255 255
0.224237 0.472109  2.71417 255 255 255
-2.24383 0.404854  2.49203 255 255 255
  0.71821 -0.511064   2.96296 255 255 255
 1.62244 0.589568  2.96618 255 255 255
 1.37854 0.819677  2.96609 255 255 255
-0.0246058   0.754887    2.55585 255 255 255
0.272353 0.301604  2.54331 255 255 255
-0.359153  0.360898   2.31319 255 255 255
   1.04408 -0.0237387    2.70719 255 255 255
  1.79845 -0.127989   3.07144 255 255 255
-0.808866 -0.917024   2.12551 255 255 255
2.64954 1.06157 2.39545 255 255 255
  1.75757 -0.576829   3.07403 255 255 255
 0.178418 -0.363002   2.71191 255 255 255
   0.299889 -0.00284914     2.48875 255 255 255
 1.41105 -1.56323  3.04235 255 255 255
-0.0209731   0.699993    2.55438 255 255 255
1.46301  0.2231 2.74072 255 255 255
 0.427164 -0.688985   2.65783 255 255 255
  1.22869 -0.694159   3.03981 255 255 255
-0.602347  -0.54855   2.23451 255 255 255
-2.02518 0.735381  2.66869 255 255 255
 2.66119 0.604274  2.40822 255 255 255
 1.07976 -1.02968  3.02164 255 255 255
-2.08217  -1.1692  2.36516 255 255 255
   2.13636 -0.0839783    3.04351 255 255 255
 0.902343 -0.966847   3.01293 255 255 255
 0.779656 -0.823585   3.03053 255 255 255
 1.91894 0.253723  2.94979 255 255 255
 0.226358 -0.541621   2.48822 255 255 255
-2.01953  1.07933  2.66008 255 255 255
0.165462  1.41135  2.33247 255 255 255
 1.33474 0.769071  2.96431 255 255 255
  0.19918 -0.929922   2.94546 255 255 255
  1.94969 -0.646465   3.08174 255 255 255
 1.63248 0.619023   2.9677 255 255 255
0.315221  0.53728  2.71787 255 255 255
 0.677325 -0.119152   2.65205 255 255 255
0.123654  1.41128   2.4767 255 255 255
-0.166386  0.415364   2.54925 255 255 255
 0.127754 -0.553236   2.25625 255 255 255
  3.40405 -0.945507   3.05303 255 255 255
-0.571307  0.713672   2.51617 255 255 255
 1.69476 0.828859  2.95841 255 255 255
 1.95726 0.290821  2.96321 255 255 255
0.281483 0.184174  2.46958 255 255 255
-0.251903  0.257961   2.56064 255 255 255
  0.141122 0.00508329    2.43133 255 255 255
0.466233 0.894272  2.90434 255 255 255
0.222669 0.177165  2.48697 255 255 255
 0.242098 -0.666368   2.61407 255 255 255
  1.24754 -0.709768   3.03124 255 255 255
 5.02063 -2.34999  2.85087 255 255 255
0.496566 -2.85787  2.99288 255 255 255
 5.37532 -2.37155  3.03083 255 255 255
-0.47678 0.279262  2.52885 255 255 255
 0.404918 0.0950457   2.64922 255 255 255
0.218967 0.138684  2.59026 255 255 255
 1.26774 0.332951  2.84822 255 255 255
 1.29163 0.171131  2.98833 255 255 255
 0.780031 -0.332648   2.60994 255 255 255
0.491447 -0.27754  2.58722 255 255 255
  0.362965 -0.0263191    2.53455 255 255 255
0.157602  0.46513  2.72984 255 255 255
1.25039 0.39874 2.97996 255 255 255
-0.436892 -0.164922    2.1891 255 255 255
0.194052 0.180449  2.44326 255 255 255
-0.244887  0.236425   2.41537 255 255 255
 0.737846 -0.410984   2.67322 255 255 255
 0.542653 -0.639091   2.69619 255 255 255
 0.718164 -0.323143   2.66827 255 255 255
 0.363132 -0.704055   2.55841 255 255 255
-1.06554 0.138971  2.25908 255 255 255
-0.264965  0.371499   2.49193 255 255 255
0.946099 0.621416  2.77334 255 255 255
0.954016 0.609567  2.94145 255 255 255
-0.297211  0.526902   2.53466 255 255 255
 0.594561 -0.308385   2.68387 255 255 255
 0.274179 -0.433127   2.45293 255 255 255
-0.541111 -0.176975   2.22321 255 255 255
 1.09474 0.750922  2.93905 255 255 255
 -0.74632 -0.231507    2.2243 255 255 255
-0.855264  -0.13399   2.33026 255 255 255
-0.176003  0.609652   2.57056 255 255 255
 0.428374 -0.103909     2.562 255 255 255
  1.10855 -0.317222   2.73193 255 255 255
-0.744676  0.346852   2.25834 255 255 255
0.240782 0.732976   2.7168 255 255 255
0.801948 0.261874  2.75549 255 255 255
 0.885378 -0.391735   2.55054 255 255 255
 0.518065 -0.646675   2.60121 255 255 255
-0.27022 0.195596  2.71649 255 255 255
 -0.418679 -0.0655723    2.39924 255 255 255
-0.420619 -0.097687   2.35458 255 255 255
-0.389639  0.401659   2.30964 255 255 255
  0.291277 -0.0955893    2.51587 255 255 255
-0.966361  0.547452   2.25505 255 255 255
 0.409553 -0.182508   2.56643 255 255 255
-1.11221 0.135215  2.23279 255 255 255
  1.04344 -0.232431   2.77629 255 255 255
-1.04495  0.50192  2.24234 255 255 255
 0.731072 -0.606689   2.99149 255 255 255
-0.980454 0.0107724   2.31441 255 255 255
0.704912 0.651726  2.93303 255 255 255
  1.03262 -0.267947   2.72706 255 255 255
0.967449 0.595001  2.82984 255 255 255
 0.853095 -0.359367   2.54085 255 255 255
 -1.04003 -0.186929   2.31397 255 255 255
 -1.03653 0.0897621   2.31553 255 255 255
0.606182 0.806155  2.89336 255 255 255
-0.360366  0.401396   2.32236 255 255 255
0.0336019  0.482461   2.48779 255 255 255
 0.163671 -0.399513   2.70751 255 255 255
-0.287883 -0.160734   2.43103 255 255 255
  0.972527 -0.0557648    2.77362 255 255 255
 0.193725 -0.527082   2.47345 255 255 255
-0.409216 -0.126748   2.43279 255 255 255
0.868181 0.268286  2.60573 255 255 255
 0.404808 -0.360112   2.45807 255 255 255
-0.162566  0.281402   2.68555 255 255 255
    0.392 -0.333562   2.51765 255 255 255
-0.960183   0.22277   2.29816 255 255 255
-1.33346 -0.52372  2.72602 255 255 255
 -0.92386 -0.461517   2.12479 255 255 255
0.115886  0.02451  2.40591 255 255 255
0.950698 0.814046  2.92738 255 255 255
-0.358166  0.563993   2.51871 255 255 255
   1.2024 -0.973349   3.01674 255 255 255
 0.919601 -0.544481   2.74255 255 255 255
 1.37767 0.815436  2.95809 255 255 255
0.953507 0.637181   2.9494 255 255 255
-0.526415 -0.198575   2.20378 255 255 255
-0.231011  0.507327   2.49362 255 255 255
 0.978394 -0.278192   2.63322 255 255 255
-0.906711 -0.476585   2.10359 255 255 255
   0.32392 -0.0589662    2.50683 255 255 255
-0.394376  0.542661   2.49243 255 255 255
0.331086 0.208156   2.4962 255 255 255
-0.494815 -0.282419   2.16871 255 255 255
-0.576141 -0.186668   2.19459 255 255 255
-0.368423   0.53879   2.54111 255 255 255
-0.424872 -0.214899   2.50879 255 255 255
 0.265623 -0.217315   2.75055 255 255 255
 -0.584429 -0.0417616    2.28925 255 255 255
 1.29215 0.642226  2.95684 255 255 255
-0.0415888 -0.0816248     2.7051 255 255 255
 0.901477 -0.928313    2.9966 255 255 255
 0.117949 -0.381326   2.53094 255 255 255
 0.101634 -0.509821    2.2642 255 255 255
0.0347984 -0.393699   2.27158 255 255 255
0.246415 -0.48974  2.45716 255 255 255
-0.323616 -0.203902   2.35512 255 255 255
-0.372049  -0.11833   2.39597 255 255 255
0.113415 0.253358  2.50322 255 255 255
-0.329694 -0.254006   2.38985 255 255 255
  1.18502 -0.334974   2.68322 255 255 255
  1.08159 -0.250014   2.74144 255 255 255
 0.289291 -0.462411   2.46014 255 255 255
0.933368  0.55622  2.95432 255 255 255
   1.06455 -0.0130503    2.69605 255 255 255
-0.269378  0.394098   2.50296 255 255 255
-0.048113  0.449546   2.57319 255 255 255
-0.212393  0.624877   2.55558 255 255 255
 1.36882 0.153497   2.7766 255 255 255
-0.831123  0.627757   2.25984 255 255 255
0.186102 0.123858  2.42167 255 255 255
-0.031284 -0.205916   2.26151 255 255 255
 0.244276 -0.253606   2.55995 255 255 255
-0.337542  0.560087   2.55249 255 255 255
-0.203266  0.417049   2.46531 255 255 255
-0.592492 -0.149085   2.38679 255 255 255
 1.07576 0.855398  2.92404 255 255 255
  1.01797 0.0526739   2.75214 255 255 255
 0.797192 -0.271893   2.61023 255 255 255
    1.203 -0.297248   2.68295 255 255 255
-0.336645   0.34817   2.30042 255 255 255
-0.0392684   0.342297    2.71636 255 255 255
 0.0908184 -0.0255137    2.47967 255 255 255
0.103859 -0.21713  2.69471 255 255 255
  0.145816 -0.0549334    2.43125 255 255 255
0.920649 0.454761  2.94517 255 255 255
 -1.35119 -0.495273    2.7302 255 255 255
 0.214136 -0.300504   2.55179 255 255 255
0.319582 0.156054  2.48648 255 255 255
-0.912281 -0.181045   2.28113 255 255 255
 0.199766 -0.410213   2.72043 255 255 255
 0.125859 -0.457749   2.61918 255 255 255
-0.476266  -0.27799   2.20484 255 255 255
0.166435 0.023565  2.42238 255 255 255
-0.708508  0.358987   2.25237 255 255 255
 0.304069 0.0599063   2.43647 255 255 255
0.644897 -0.52359  2.95515 255 255 255
-0.175789  0.650618   2.54832 255 255 255
0.195094 0.303159  2.47074 255 255 255
-0.121201  0.623948   2.53336 255 255 255
 -0.93543 -0.194771    2.2788 255 255 255
0.231657 0.517749  2.74677 255 255 255
 0.189669 -0.481056   2.68184 255 255 255
0.0726417 0.0251201   2.46091 255 255 255
  0.10816 -0.344338   2.67064 255 255 255
0.107687 0.280588  2.59514 255 255 255
-0.0395575  -0.220731    2.25146 255 255 255
-0.102347  0.633355    2.5334 255 255 255
 0.378708 -0.381357   2.47579 255 255 255
0.116785 0.155972  2.39902 255 255 255
  0.128429 -0.0915527    2.44643 255 255 255
0.386509 0.720748  2.89431 255 255 255
 0.243832 -0.445725   2.67222 255 255 255
-1.15567 -0.34578  2.26903 255 255 255
0.404416 0.763915  2.89822 255 255 255
0.333947 0.256114  2.53872 255 255 255
0.909363 0.657921  2.93698 255 255 255
 0.331873 -0.722961   2.58867 255 255 255
0.654211  0.30324  2.92091 255 255 255
0.133315 0.408687  2.68424 255 255 255
  0.191397 -0.0816323    2.44074 255 255 255
  1.02485 -0.131381   2.78721 255 255 255
0.0895106 -0.395621   2.60902 255 255 255
 0.865343 -0.822576   3.01873 255 255 255
0.420739  0.80791  2.90329 255 255 255
-0.888102   -0.1948   2.64451 255 255 255
0.0994703  0.394765   2.72693 255 255 255
0.119133 0.300391  2.57788 255 255 255
 0.83885 0.738618  2.93097 255 255 255
0.0275505  0.475755   2.66297 255 255 255
 0.732105 -0.354863   2.63938 255 255 255
   0.277195 -0.00330191     2.46875 255 255 255
-0.102919  0.617257   2.54563 255 255 255
 0.310502 -0.727009   2.65685 255 255 255
 0.706033 -0.236605   2.64252 255 255 255
  1.10171 -0.294922   2.73313 255 255 255
-0.0656277   0.303352    2.72254 255 255 255
0.0143303  0.436424    2.7022 255 255 255
  0.993399 -0.0472077    2.73758 255 255 255
  0.513495 -0.0886644     2.6175 255 255 255
 0.862782 -0.345254   2.57843 255 255 255
 0.817463 -0.593647   2.98692 255 255 255
-0.177451  0.393285   2.53645 255 255 255
-0.274729  0.578528   2.57089 255 255 255
  1.56114 -0.720587   3.04189 255 255 255
0.163568 0.130734  2.47637 255 255 255
   0.70776 -0.0743547    2.67798 255 255 255
 0.790448 -0.295734   2.63993 255 255 255
 0.322474 -0.403648    2.6449 255 255 255
0.339191 0.568096  2.70549 255 255 255
 1.10173 -0.25465  2.73514 255 255 255
 0.103979 -0.425041   2.62381 255 255 255
1.39842 0.21228 2.73392 255 255 255
0.0779941 -0.284205   2.66204 255 255 255
-0.275296  0.459114   2.53559 255 255 255
 0.265788 -0.279387   2.58165 255 255 255
0.227791  0.14348  2.44479 255 255 255
   1.09407 -0.0575294     2.7211 255 255 255
  1.07076 -0.965708   3.02434 255 255 255
 1.19446 0.471039  2.98234 255 255 255
   0.24058 -0.0476608     2.4919 255 255 255
  1.12858 -0.813974    3.0278 255 255 255
0.431022  0.16916  2.56259 255 255 255
 0.121641 0.0664896   2.45146 255 255 255
 -0.2501 0.337308  2.47279 255 255 255
 0.286424 -0.208304   2.68176 255 255 255
 -1.30253 -0.446025    2.5956 255 255 255
-0.319804  0.569943   2.54903 255 255 255
 1.28768 0.720393  2.95974 255 255 255
0.211888 0.528691  2.73946 255 255 255
 0.091186 -0.313179   2.67131 255 255 255
0.205533 0.342687  2.54781 255 255 255
  0.14586 -0.494624   2.61493 255 255 255
  0.113646 -0.0261416    2.41757 255 255 255
0.919681 0.768561  2.94073 255 255 255
 -1.14408 -0.313119   2.30916 255 255 255
  1.30406 -0.956702    3.0173 255 255 255
 0.157484 -0.440202   2.66741 255 255 255
-1.18492 -0.38139  2.27391 255 255 255
1.29251  0.6785 2.95521 255 255 255
0.365466 0.108862  2.51259 255 255 255
 0.701348 -0.559626    2.9676 255 255 255
0.808529 0.141058  2.95605 255 255 255
 -1.10479 -0.334526   2.60792 255 255 255
 0.815196 -0.402288   2.66723 255 255 255
 0.774013 -0.573536   2.99322 255 255 255
0.0591622 -0.290317   2.71182 255 255 255
0.731032 0.230654  2.91489 255 255 255
0.0334259 -0.186147   2.68871 255 255 255
 0.746201 -0.569805   2.98161 255 255 255
-0.366385  0.511964   2.46893 255 255 255
0.0677129 -0.388844   2.65415 255 255 255
-0.233493  0.609482   2.54435 255 255 255
0.897667 -0.31919   2.6119 255 255 255
  1.28079 -0.613129    3.0382 255 255 255
   1.1375 -0.278879    2.6987 255 255 255
 0.836069 -0.903881   3.01346 255 255 255
 0.140158 -0.406621   2.65302 255 255 255
-0.205916  0.425335   2.40303 255 255 255
 0.677898 -0.523598   2.96546 255 255 255
-0.307834  0.422006   2.53191 255 255 255
-0.439808  0.517714   2.48082 255 255 255
 -0.1927 0.396074  2.51893 255 255 255
 0.386784 -0.699239   2.64379 255 255 255
  1.04054 -0.824007   3.02929 255 255 255
  0.67277 -0.726864   3.00199 255 255 255
-0.170463   0.70992   2.48133 255 255 255
-0.429458  0.601205   2.50366 255 255 255
 0.98385 -0.85073  3.01278 255 255 255
0.0819375 -0.274481   2.71299 255 255 255
0.322726 0.134655  2.50787 255 255 255
 0.030017 -0.326625   2.67517 255 255 255
-0.355706  0.326551   2.31295 255 255 255
 0.322181 -0.729152   2.63798 255 255 255
 0.311169 -0.736371    2.5871 255 255 255
-0.0038233   -0.19443    2.70144 255 255 255
  1.3285 0.785087  2.93786 255 255 255
0.00786485   0.595786    2.54786 255 255 255
0.363813 0.679813   2.8722 255 255 255
 1.26245 0.553878  2.93214 255 255 255
 1.30596 0.842246  2.94018 255 255 255
0.206536 0.256049  2.53234 255 255 255
0.856981 0.250891  2.60766 255 255 255
0.723723 0.673047  2.91903 255 255 255
1.40845 0.80543 2.94971 255 255 255
-0.101081  0.340278   2.69088 255 255 255
0.269401 0.277055  2.50639 255 255 255
0.808227 -0.24889  2.63472 255 255 255
 0.999859 0.0940404   2.77208 255 255 255
 0.387643 0.0269569   2.53737 255 255 255
1.36305 0.19144 2.76401 255 255 255
0.194075 0.283944  2.48575 255 255 255
-0.0790516   0.354603    2.69595 255 255 255
 1.31375 0.761533  2.92301 255 255 255
0.0680716  0.478392   2.72177 255 255 255
1.12527 0.80531 2.94434 255 255 255
0.235023 -0.42044  2.69879 255 255 255
0.965414 0.641719  2.95692 255 255 255
  0.0564475 -0.00439661     2.50204 255 255 255
-0.133867   0.67173   2.55518 255 255 255
   1.06095 -0.0931885    2.79216 255 255 255
 0.734811 -0.153287    2.6263 255 255 255
-0.119093  0.642184   2.53247 255 255 255
-0.116415 -0.240839    2.2444 255 255 255
 0.291818 -0.272909    2.5734 255 255 255
0.0486092 -0.205174   2.69512 255 255 255
 0.734889 -0.259157   2.68146 255 255 255
-0.250378  0.532788   2.50137 255 255 255
 -1.20319 -0.373901   2.28263 255 255 255
  0.074393 -0.0113264    2.46066 255 255 255
 0.758176 -0.535232   2.96367 255 255 255
 0.367398 -0.683085   2.66022 255 255 255
 0.866339 -0.741085   3.02396 255 255 255
 0.356795 -0.664173   2.65699 255 255 255
-0.36308 0.325149  2.27473 255 255 255
0.750647 0.674898  2.91436 255 255 255
  1.14416 -0.832822   3.01293 255 255 255
 1.06279 0.824452   2.9282 255 255 255
  1.62343 -0.774835    3.0594 255 255 255
 0.22071 0.543207  2.73034 255 255 255
0.278867  0.22476   2.4678 255 255 255
 0.283674 -0.744261   2.64688 255 255 255
 1.29511 0.868598  2.94508 255 255 255
0.592219 0.524789   2.9167 255 255 255
 0.887437 -0.949204   3.02232 255 255 255
0.872011 0.299877  2.58736 255 255 255
-0.0279161  -0.046142    2.71724 255 255 255
 0.938274 -0.982248   3.03281 255 255 255
 0.808306 -0.831483   3.02382 255 255 255
  0.751564 -0.0329412    2.76518 255 255 255
-0.498148  0.595028    2.4449 255 255 255
 0.069249 0.0487913   2.45593 255 255 255
0.0682291 0.0719978   2.48498 255 255 255
 1.09799 0.798882  2.92846 255 255 255
 0.421513 0.0364141    2.4578 255 255 255
0.0228793 -0.126427    2.7084 255 255 255
-0.343566  0.493328   2.55269 255 255 255
0.919423 0.696574  2.94356 255 255 255
 0.627011 -0.573532   2.95561 255 255 255
0.242274 0.042093  2.44683 255 255 255
 0.962669 -0.875169   3.03774 255 255 255
0.872659 0.313754  2.61772 255 255 255
0.00191644   0.603097    2.51058 255 255 255
 0.815093 -0.163529   2.66082 255 255 255
   1.05958 -0.0529341    2.72672 255 255 255
0.0103747 -0.184433   2.69559 255 255 255
  1.11355 -0.302874   2.69602 255 255 255
 1.30697 0.822305  2.94022 255 255 255
  1.53668 -0.728662   3.04719 255 255 255
  1.30074 -0.620776   3.02828 255 255 255
 0.26349 0.492165  2.70826 255 255 255
 1.32706 0.149367  2.79318 255 255 255
   1.3344 -0.751134   3.02647 255 255 255
 1.37792 0.180486  2.76617 255 255 255
 1.13937 0.829518  2.92971 255 255 255
0.125128 -0.41358  2.71876 255 255 255
-0.240934  0.282982   2.49928 255 255 255
0.591619 0.331713  2.89384 255 255 255
0.879841 0.717378  2.94639 255 255 255
 0.14782 0.254491  2.53942 255 255 255
 0.797906 -0.685128   3.01909 255 255 255
 1.69868 -0.85816  3.08658 255 255 255
0.858335 0.730082  2.93795 255 255 255
0.239768 0.308524  2.50099 255 255 255
-1.67414 0.447796  2.30263 255 255 255
-1.14291 0.281351  2.27297 255 255 255
 2.33838 0.061498  3.04068 255 255 255
0.220807 0.134868  2.68354 255 255 255
0.0556377  0.633294   2.60599 255 255 255
-0.606757 -0.306949   2.14879 255 255 255
-1.23129  1.09659  2.60698 255 255 255
 1.78857 0.910055  2.85697 255 255 255
 1.34863 0.215836   2.7976 255 255 255
 0.972733 -0.538291   2.84535 255 255 255
  1.23107 -0.159048   2.87787 255 255 255
 0.266587 -0.250254   2.57117 255 255 255
-0.230349  0.576738   2.52754 255 255 255
 0.511554 -0.623316   2.51246 255 255 255
-0.859043   1.12162   2.36366 255 255 255
 -1.05303 -0.455223   2.06916 255 255 255
-1.01935 -1.06798  2.30085 255 255 255
-0.915491 -0.987397   2.26676 255 255 255
0.0185104  0.893944   2.53612 255 255 255
  2.1702 0.251266  2.55462 255 255 255
-1.67003 0.550964  2.32419 255 255 255
 -1.38349 -0.897151   2.18528 255 255 255
 1.61423 0.446468  3.07708 255 255 255
 0.712918 -0.614365   2.97414 255 255 255
 1.25931 0.505723  2.72332 255 255 255
-0.220125   0.68756   2.52414 255 255 255
0.245855  1.03288  2.46981 255 255 255
-1.32947  1.25098  2.62849 255 255 255
0.170634  1.00989  2.29359 255 255 255
0.186436 0.387106  2.69843 255 255 255
1.09552 0.90847 2.66665 255 255 255
 2.17266 0.234903  2.74429 255 255 255
  1.66506 -0.485407   3.02386 255 255 255
 1.37954 0.297957  2.82606 255 255 255
-0.980469 -0.943501    2.3143 255 255 255
 0.794653 -0.438941   2.62195 255 255 255
0.279017 0.039936  2.38322 255 255 255
 -1.39223 0.0564431   2.22123 255 255 255
  2.1832 -1.29662  3.05027 255 255 255
-1.55128 0.384922  2.27887 255 255 255
 0.484114 0.0239936   2.64766 255 255 255
 2.37834 -1.35422  2.99548 255 255 255
 0.526234 -0.640162   2.31504 255 255 255
 0.504183 -0.650835   2.22434 255 255 255
 1.37433 0.514885  2.84787 255 255 255
  1.4759 -1.32234   2.9384 255 255 255
0.765839 0.963252   2.6305 255 255 255
0.290707 0.305252  2.55158 255 255 255
-1.45685 0.620966  2.30042 255 255 255
 1.68172 -1.16378  3.05768 255 255 255
 0.558595 -0.596738   2.18729 255 255 255
  1.88733 -0.798703    3.0194 255 255 255
 -1.25514 -0.429571   2.34033 255 255 255
  1.13334 -0.171885   2.75803 255 255 255
-1.34279 0.703885  2.32513 255 255 255
-0.729749  0.454188   2.28088 255 255 255
1.66258 1.06013 2.95154 255 255 255
-1.61485 0.213778  2.22026 255 255 255
   0.96472 -0.0868199    2.70817 255 255 255
-0.0975351   -1.05911     3.3429 255 255 255
 -1.55882 -0.710738   2.25411 255 255 255
 1.98988 0.776799  2.31907 255 255 255
 0.295513 0.0369595   2.46461 255 255 255
 -1.27293 -0.967473   2.22896 255 255 255
 2.00471 0.728759  2.30052 255 255 255
  2.09522 0.0598158   3.08177 255 255 255
-0.786864 -0.303867   2.33268 255 255 255
 2.02715 0.468853  2.82837 255 255 255
 1.84422 0.971247  2.32639 255 255 255
-0.645127 -0.871599   2.22716 255 255 255
 0.417037 0.0187133   2.50291 255 255 255
-1.72342 0.848896  2.65504 255 255 255
  1.71552 -0.366618   3.06959 255 255 255
-0.103257 -0.910281   2.20359 255 255 255
 2.62489 -1.32136  3.03997 255 255 255
 2.39284 -1.38269  3.02004 255 255 255
-0.503308   1.03507   2.66696 255 255 255
  -1.9499 -0.654266   2.28186 255 255 255
  -1.6098 -0.164707   2.27048 255 255 255
1.81333 1.01544 2.31971 255 255 255
-0.0505581  -0.999571    2.19739 255 255 255
-0.366449    1.2075   2.66042 255 255 255
 -0.25423 -0.998042   2.20918 255 255 255
 0.256542 -0.945522   2.20252 255 255 255
 0.17795 -0.79939  2.18248 255 255 255
0.282989   -0.996  2.20962 255 255 255
 0.329278 -0.414066   2.64818 255 255 255
-0.05407 -0.22921  2.59936 255 255 255
-0.356332 -0.807995   2.19789 255 255 255
 0.312613 -0.916542   2.20189 255 255 255
-0.282066 -0.955678   2.21666 255 255 255
 -1.20947 -0.836382   2.14422 255 255 255
0.833646 0.260349  2.61017 255 255 255
-0.334172 -0.861185   2.21526 255 255 255
-0.0767512  -0.958469    2.21044 255 255 255
 1.72847 0.975634   2.8223 255 255 255
-0.304279 -0.777403   2.19724 255 255 255
0.621079 0.537693  2.77992 255 255 255
  -1.48834 -0.0715618    2.22691 255 255 255
-2.12239  1.03032   2.6814 255 255 255
-1.17145  1.06061  2.04892 255 255 255
 -1.98916 -0.381684   2.25454 255 255 255
  -1.3227 0.0204247   2.22179 255 255 255
  1.63034 -0.337412   3.03961 255 255 255
-0.860149 -0.561945   2.15182 255 255 255
-0.292105  0.878198   2.53391 255 255 255
  1.90847 -0.321027   3.06994 255 255 255
-1.26934   -1.036  2.15498 255 255 255
-0.250477   1.06526   2.50341 255 255 255
-0.599697 -0.213151   2.14711 255 255 255
1.59596 1.22825  2.8442 255 255 255
0.137905 0.950419  2.43325 255 255 255
 1.34991 0.398969  2.97275 255 255 255
0.595649 0.149558  2.65224 255 255 255
  -1.2038 0.0665484   2.28723 255 255 255
 0.184455 -0.691641   2.21882 255 255 255
 -1.96443 -0.399114   2.26971 255 255 255
 0.548964 -0.602522   2.28555 255 255 255
  1.09188 -0.312245     2.686 255 255 255
 0.342436 -0.965095   2.20929 255 255 255
-0.863509 -0.809183   2.32681 255 255 255
-1.22377 0.454541  2.30043 255 255 255
 -1.79106 -0.305178   2.27635 255 255 255
-0.645988   1.03177   2.65257 255 255 255
-1.85264 -0.12507  2.16718 255 255 255
  2.70004 -0.939492   3.09382 255 255 255
0.367972 -1.00044  2.18029 255 255 255
-0.487353 -0.466637   2.16374 255 255 255
   2.2301 0.0877578   3.10665 255 255 255
-0.462426 -0.399192   2.23063 255 255 255
-0.599123     1.137    2.6519 255 255 255
-1.58543 0.196688  2.22804 255 255 255
 -2.3877 -0.59803  2.97996 255 255 255
 -1.41793 -0.111283   2.31132 255 255 255
-0.980535  0.958812   2.36662 255 255 255
-1.02359 -1.05517  2.24273 255 255 255
-0.316432   1.11344   2.66227 255 255 255
 -1.73605 -0.222409    2.2121 255 255 255
  2.69315 -0.258393   3.08466 255 255 255
-1.34105  0.33867  2.24455 255 255 255
  0.55757 -0.125116   2.61168 255 255 255
 1.44963 0.187087   2.7414 255 255 255
-1.28128 0.233933  2.23467 255 255 255
-1.3031 1.11541  2.5949 255 255 255
 -1.15482 0.0909473     2.269 255 255 255
-1.23403 0.864832  2.31976 255 255 255
   1.3828 0.0753853   2.77783 255 255 255
 1.96707 0.415435  2.94795 255 255 255
-1.64785 0.153852  2.19204 255 255 255
 -0.83434 -0.719237   2.19935 255 255 255
  -1.9065 0.0140552   2.19758 255 255 255
0.757631 0.976084  2.65736 255 255 255
0.759181 0.984171  2.68017 255 255 255
0.250542 0.164505  2.52275 255 255 255
-0.807743 -0.796782   2.24884 255 255 255
-0.721943   0.96125   2.55534 255 255 255
 -1.75494 -0.279554   2.28507 255 255 255
-0.231235  0.232731   2.68415 255 255 255
2.02596 0.13835 2.92335 255 255 255
  2.74104 -0.928646    3.0898 255 255 255
-1.29522  0.74925  2.35639 255 255 255
 -1.16682 -0.968116   2.22792 255 255 255
   2.67476 -0.0262029    3.10147 255 255 255
  1.14583 -0.303421   2.67766 255 255 255
 -1.17664 0.0513661   2.30726 255 255 255
 0.162834 -0.534818   2.38198 255 255 255
  -1.7294 -0.230645   2.25986 255 255 255
-0.959528 -0.495727   2.03932 255 255 255
 -1.22099 -0.245726   2.30156 255 255 255
-1.62298 0.179358  2.21812 255 255 255
  1.88737 -0.718778   3.06385 255 255 255
-1.45521 0.703289  2.31413 255 255 255
-0.784869  0.323382   2.25989 255 255 255
-1.07863 0.901152  2.36837 255 255 255
-0.593734 -0.962858   2.11186 255 255 255
-0.596187 -0.967614   2.12057 255 255 255
-0.494743   1.19302   2.66616 255 255 255
 -0.87154 -0.713179   2.26035 255 255 255
 2.65735 -1.20182  3.07645 255 255 255
-2.03984   1.0208  2.65586 255 255 255
 0.647502 -0.189696   2.69596 255 255 255
0.0344456  0.812463   2.55639 255 255 255
0.973768 0.651217  2.60448 255 255 255
 0.666552 -0.966255    2.3014 255 255 255
 -1.2555 0.818033   2.3316 255 255 255
-1.55382 0.634986  2.33531 255 255 255
-1.40138 0.739718   2.3311 255 255 255
  1.52776 -0.460591   3.04382 255 255 255
-1.22681  1.05058  2.04572 255 255 255
-0.639214  -0.90475   2.10923 255 255 255
 1.80173 -0.88092  2.92409 255 255 255
 0.294414 -0.755796   2.22485 255 255 255
 1.97482 0.317476  2.97882 255 255 255
-0.670457 -0.901252   2.10291 255 255 255
-0.638792 -0.797294    2.1927 255 255 255
-0.96685 0.200604  2.27422 255 255 255
-0.518688   1.01751   2.55937 255 255 255
 0.289874 -0.464284   2.46381 255 255 255
 0.297303 -0.833365   2.19991 255 255 255
 0.352773 -0.944269   2.23508 255 255 255
 1.99761 0.142308  2.93798 255 255 255
0.892396 -1.08215  3.02268 255 255 255
 1.69271 0.544229  2.97738 255 255 255
0.409639 0.129369  2.48608 255 255 255
  2.52713 -0.228282    3.0962 255 255 255
-1.78875 0.500482   2.3129 255 255 255
-0.550395 -0.974732   2.14177 255 255 255
-1.08705 0.910147  2.32638 255 255 255
 1.66434 0.491157  2.96262 255 255 255
-0.402575  0.943408    2.6833 255 255 255
-2.34771 -1.28674  2.70167 255 255 255
-0.613848    1.0095   2.65776 255 255 255
  2.42138 -0.165781   3.07362 255 255 255
-0.0668427     1.2919    2.64234 255 255 255
-0.252977  0.807599    2.5077 255 255 255
0.189616 -0.66805  2.26679 255 255 255
  1.15731 -0.036477   2.74215 255 255 255
-0.422956  0.869645   2.56613 255 255 255
 0.662453 -0.766096   2.21571 255 255 255
-0.324446  -1.07921   2.21529 255 255 255
 0.313997 -0.868855   2.22084 255 255 255
  1.8691 0.843366  2.31169 255 255 255
 0.301904 -0.197334   2.57538 255 255 255
  1.24369 -0.337284   2.66066 255 255 255
0.0953873 -0.383586   1.93872 255 255 255
  1.79861 -0.128306   3.07169 255 255 255
-2.09709 -1.08857  2.60939 255 255 255
  -1.1698 -0.752449   2.13278 255 255 255
  1.04692 0.0950724   2.75308 255 255 255
0.415709 -1.04972  2.22519 255 255 255
-0.879146 -0.477998    2.1551 255 255 255
 0.251924 -0.772613   2.25658 255 255 255
-1.15415 0.869429  2.30833 255 255 255
 0.247837 -0.494668    2.4685 255 255 255
-1.72988 0.113687  2.19505 255 255 255
-0.549164 -0.938254   2.15098 255 255 255
-0.976945 -0.461498   2.07865 255 255 255
-0.919156 -0.641531   2.13975 255 255 255
-0.459577   1.29894   2.69853 255 255 255
-0.896217 -0.835454   2.34174 255 255 255
0.181127 0.174221  2.56201 255 255 255
-2.13022 0.541529  2.56753 255 255 255
-0.936495 -0.519035   2.10972 255 255 255
   2.58801 -0.0341907    3.05666 255 255 255
 0.827908 -0.736982   2.98911 255 255 255
-0.405407   1.02033   2.56934 255 255 255
-0.634217 -0.872039   2.12104 255 255 255
  1.57705 -0.480461   3.04662 255 255 255
-0.111786   1.17969   2.63463 255 255 255
 0.983266 -0.275636   2.63942 255 255 255
   0.27163 -0.0789697    2.48891 255 255 255
-0.518667 -0.865656   2.20032 255 255 255
  1.63214 -0.553211   3.03959 255 255 255
 0.729738 -0.841797   3.01278 255 255 255
-0.000186239    -0.164317      2.70123 255 255 255
 0.208523 -0.699803   2.26573 255 255 255
 -1.10507 -0.724166   2.12579 255 255 255
 1.82067 0.154277  2.96841 255 255 255
-0.567888 -0.858043   2.18842 255 255 255
0.938119 -1.05051  3.01236 255 255 255
0.467042 -1.01189  2.31042 255 255 255
  2.27497 -0.396178   3.12009 255 255 255
 -1.11138 -0.569972   2.09321 255 255 255
 1.35059 -1.26312  3.03527 255 255 255
0.460517 -1.02543  2.27514 255 255 255
 -1.01692 -0.280729   2.60336 255 255 255
-0.540222    1.1896   2.68203 255 255 255
-0.903544 -0.663673   2.16411 255 255 255
-0.900618 -0.658146   2.15407 255 255 255
-0.624098 -0.917799   2.13495 255 255 255
1.04438  0.8648 2.94092 255 255 255
 1.70215 0.945819  2.95141 255 255 255
-0.734142 -0.814556   2.13524 255 255 255
 0.723564 -0.338609   2.65101 255 255 255
 -2.2226 0.730513  2.62562 255 255 255
 1.10405 0.924838  2.62751 255 255 255
-0.061824 -0.227494   2.85492 255 255 255
 2.14629 -1.50006  3.03905 255 255 255
-1.27652   1.1595  2.62804 255 255 255
-0.606932 -0.835279   2.18595 255 255 255
0.166145 0.982282  2.28661 255 255 255
0.720466 -0.59434  2.99416 255 255 255
 1.38841 0.153009  2.81242 255 255 255
 0.567274 -0.630383   2.91612 255 255 255
0.914426 0.254979  2.67207 255 255 255
 1.07135 0.913332  2.94039 255 255 255
 0.932169 -0.405954   2.57013 255 255 255
  1.84839 -0.724916   3.08341 255 255 255
0.686411 0.967835  2.64193 255 255 255
-0.487118 -0.347019   2.14371 255 255 255
-2.09476 -1.04339  2.60948 255 255 255
-1.19215  1.01789  2.56947 255 255 255
-0.615003  -0.44823   2.20176 255 255 255
 1.72603 0.897661  2.95982 255 255 255
0.112149 0.865496  2.70184 255 255 255
 -1.60362 -0.651983   2.09844 255 255 255
 -1.26672 -0.693497   2.09622 255 255 255
 2.69354 0.099302   3.1012 255 255 255
-1.21636 -1.02454  2.26819 255 255 255
 2.62267 -1.24772  3.04175 255 255 255
 0.217278 -0.421568   2.65636 255 255 255
0.628651 0.896865  2.72036 255 255 255
-0.643677 -0.477858   2.23204 255 255 255
-1.29913  1.07971  2.65858 255 255 255
  2.11658 -0.388933   3.11128 255 255 255
  1.0921 0.742445  2.94699 255 255 255
0.104657 0.167263  2.47801 255 255 255
   1.9249 -0.486781   3.06043 255 255 255
-0.270166  0.395025   2.50839 255 255 255
2.31953 0.94584 3.46828 255 255 255
 1.65981 0.444786  2.95748 255 255 255
 1.72993 0.941998  2.93601 255 255 255
1.52137  0.1654 2.76134 255 255 255
 0.789734 -0.295217   2.63769 255 255 255
 -1.10471 -0.533003   2.79414 255 255 255
-0.0488776   0.741535    2.53994 255 255 255
 0.846691 -0.172539   2.70989 255 255 255
 1.75253 0.267487  2.96479 255 255 255
 1.76155 0.506055  2.96563 255 255 255
 1.56587 0.614101  2.90804 255 255 255
 1.62296 0.661985  2.96974 255 255 255
 1.61804 0.558003  2.96662 255 255 255
-0.625336  -1.01117   2.12152 255 255 255
  1.12837 0.0301352   2.74382 255 255 255
 1.73185 0.471602  2.96324 255 255 255
-1.53545 -0.57021  2.43974 255 255 255
 2.31903 -1.40193  3.03707 255 255 255
0.838409 0.738507   2.9303 255 255 255
-0.646172  0.898339   2.56999 255 255 255
 1.42865 -1.00332  3.02174 255 255 255
1.28928  0.7209 2.96171 255 255 255
 1.70863 0.463908  2.96256 255 255 255
3.19551 1.27687 4.69436 255 255 255
-0.974017  -0.69536   2.21801 255 255 255
0.165413 0.663253  2.57458 255 255 255
 1.07353 -1.17996  3.02503 255 255 255
  0.499374 -0.0748735    2.68384 255 255 255
 1.90786 0.195423  2.95423 255 255 255
-0.659821  0.881086   2.58168 255 255 255
 0.292514 -0.421234   2.51814 255 255 255
 1.00821 -1.08946  3.03289 255 255 255
-0.0312902  -0.204951    2.25833 255 255 255
0.216036  0.21795  2.38985 255 255 255
 0.216422 -0.465889   2.68898 255 255 255
 -1.24343 -0.669751   2.10313 255 255 255
   2.1149 -0.479322   3.08167 255 255 255
 0.024207 -0.390656   2.21174 255 255 255
-0.671773  0.911034   2.57515 255 255 255
0.0681769   0.80343   2.54443 255 255 255
 0.713123 -0.361245   2.66202 255 255 255
0.22066  0.7182 2.75689 255 255 255
0.023358 0.618669  2.54318 255 255 255
 0.145686 -0.490675   2.60466 255 255 255
0.228794 0.318551  2.60257 255 255 255
0.958771 -1.13883  3.02481 255 255 255
 -1.05191 -0.675174   2.84153 255 255 255
  1.80247 -0.761268   3.06526 255 255 255
0.916763 0.767152  2.93428 255 255 255
  1.68662 -0.272156   3.03982 255 255 255
-1.42586  0.71135  2.34619 255 255 255
0.909207 0.119703    2.969 255 255 255
 0.331759 -0.722555   2.58802 255 255 255
  -1.932 0.753406  2.61371 255 255 255
-0.212244  0.625498    2.5577 255 255 255
 -1.33013 -0.719112   2.11598 255 255 255
-0.708214  0.948121   2.57897 255 255 255
 1.21924 -1.02872  3.02285 255 255 255
  1.20159 -0.680741   3.04508 255 255 255
 1.96497 0.259905  2.95223 255 255 255
 1.56386 0.605316  2.96188 255 255 255
 1.77462 -1.04891  2.85108 255 255 255
 -1.11487 -0.550162   2.09246 255 255 255
0.0675139 -0.240518   2.69927 255 255 255
0.849154  0.69723  2.94965 255 255 255
 1.59198 0.593802  2.96889 255 255 255
 1.78343 0.542443  2.96675 255 255 255
  1.94805 -0.494648   3.05997 255 255 255
0.245178 0.295296  2.51258 255 255 255
  1.70314 -0.179117   3.06009 255 255 255
 1.64583 0.995455  2.90039 255 255 255
0.223277 0.144188  2.38926 255 255 255
-1.43075 0.712341  2.30861 255 255 255
0.0942519 0.0281518   2.45809 255 255 255
   0.331696 -0.00539826     2.52718 255 255 255
-0.80463 -0.61342  2.16898 255 255 255
-0.745335   1.18679   2.73176 255 255 255
0.328064 0.279995  2.52108 255 255 255
-0.538496  0.648399   2.53357 255 255 255
-0.890066 -0.594207   2.15129 255 255 255
 3.80383 -1.73091  1.97637 255 255 255
   4.6169 -0.636111   3.37521 255 255 255
0.519529 -2.35951  2.90107 255 255 255
5.64302 -1.0112 3.46817 255 255 255
  5.10715 -0.239329   3.49508 255 255 255
 5.83002 -0.83951  3.46104 255 255 255
  5.30843 -0.672695   3.49586 255 255 255
  5.78469 -0.528548   3.49942 255 255 255
 0.759104 -0.971487   3.00383 255 255 255
   6.0666 -0.704753   3.43069 255 255 255
   2.906 -2.00932  1.95384 255 255 255
  2.3589 -1.18382  3.08456 255 255 255
  6.16158 -0.409789   3.50617 255 255 255
  3.65063 0.0756246    3.1608 255 255 255
4.25479 -0.1684 3.31388 255 255 255
-0.949677 -0.356906   2.32243 255 255 255
 -1.27649 -0.440942   2.48769 255 255 255
 0.190739 -0.239648   2.49425 255 255 255
-0.530084 -0.459096   2.21869 255 255 255
 -0.99617 -0.666284   2.11337 255 255 255
0.363221  -0.7291  2.41536 255 255 255
-0.0561764  -0.710693    2.23347 255 255 255
 -0.99203 0.0304548   2.30516 255 255 255
 0.288509 -0.755733   2.41186 255 255 255
 0.781807 -0.147521   2.66436 255 255 255
-0.707863 -0.922844   2.09088 255 255 255
  1.10223 -0.210971   2.84241 255 255 255
 -1.15409 -0.266631   2.30602 255 255 255
 0.183063 -0.238998   2.65559 255 255 255
-0.830267 -0.171149   2.66412 255 255 255
 0.272018 -0.463752   2.59812 255 255 255
-0.227124 -0.536809   2.22694 255 255 255
  1.20574 -0.976741   3.02386 255 255 255
 1.29179 -1.33878  3.03409 255 255 255
-0.638917 -0.905339   2.10963 255 255 255
-0.0412359 -0.0805929    2.70143 255 255 255
0.0930577 -0.286348   2.74959 255 255 255
 0.29659 0.241154  2.52295 255 255 255
  1.24565 -0.258782   2.79152 255 255 255
  0.23967 -0.759641   2.28176 255 255 255
  0.11366 -0.346008   1.76798 255 255 255
 1.35656 -1.56484  3.03677 255 255 255
-0.673393 -0.905689   2.11227 255 255 255
-0.629857 -0.870696    2.1159 255 255 255
 0.668647 -0.831869   2.30773 255 255 255
 0.292821 -0.780546   2.60223 255 255 255
0.537368 -1.19773  2.36724 255 255 255
 0.0286512 -0.0477909    2.60362 255 255 255
 0.165513 0.0235318   2.41626 255 255 255
 0.445295 -0.683592   2.41327 255 255 255
-0.684461 -0.948238    2.0753 255 255 255
-0.910347 -0.475416   2.10611 255 255 255
 1.46728 -1.30364   3.0355 255 255 255
 1.57764 -1.85851  3.03298 255 255 255
0.462184 -1.03687  2.29592 255 255 255
  0.288582 -0.0487964    2.50389 255 255 255
  1.11417 -0.371222   2.73385 255 255 255
-0.65835 -0.88372  2.13126 255 255 255
 0.257005 -0.236206   2.70713 255 255 255
-0.693259 -0.892915   2.11089 255 255 255
  0.516277 -0.0898204    2.62905 255 255 255
 0.136506 -0.517516   2.42625 255 255 255
0.0493213 0.0402455   2.46866 255 255 255
 0.270057 -0.234282   2.55367 255 255 255
  0.0401666 -0.00589568     2.53427 255 255 255
 -0.538035 0.00604815     2.3563 255 255 255
  0.233804 -0.0652534    2.51457 255 255 255
 0.510747 -0.633663    2.3918 255 255 255
 0.812186 -0.588384   2.97237 255 255 255
  0.990547 -0.0458751    2.73023 255 255 255
 0.859463 -0.533042   2.65905 255 255 255
 1.28077 -0.61159  3.03689 255 255 255
-0.296551 -0.955184   2.22779 255 255 255
 1.00903 -1.08998   3.0338 255 255 255
-0.0488496  -0.113228    2.70854 255 255 255
 1.10636 -1.14615  3.03766 255 255 255
 0.308744 -0.569638   2.53134 255 255 255
 -1.07884 -0.658079   2.75983 255 255 255
 -0.74019 -0.946747   2.08773 255 255 255
 1.59522 -1.83602  3.03644 255 255 255
  -1.1291 -0.630128   2.80591 255 255 255
 0.395162 -0.953146   2.24317 255 255 255
 0.285192 -0.764918   2.36749 255 255 255
 0.671136 -0.953903   2.32222 255 255 255
 0.388069 -0.705362    2.2387 255 255 255
  1.74285 -0.692357   3.03733 255 255 255
 1.45999 -1.26819  3.03555 255 255 255
  1.12392 -0.269295   2.70911 255 255 255
 -0.228376 -0.0966246    2.50936 255 255 255
  1.11376 -0.303823   2.69646 255 255 255
 -0.947928 -0.0419838    2.32404 255 255 255
  1.71602 -0.969194   2.86204 255 255 255
 0.407647 -0.888144   2.29902 255 255 255
 0.247744 -0.738127   2.69645 255 255 255
-0.841118 -0.178963   2.63235 255 255 255
-0.100391 -0.579064   2.22628 255 255 255
 1.72252 -1.04404  2.89516 255 255 255
 0.311355 -0.777338    2.2421 255 255 255
 0.988256 -0.191449   2.82351 255 255 255
 -2.1472 0.537488  2.20392 255 255 255
 2.66639 -1.74103  2.91852 255 255 255
2.57243 1.33467 2.37876 255 255 255
3.10078 1.35301 2.68125 255 255 255
 2.95925 -1.08798  2.98098 255 255 255
2.38956 1.09987 2.40926 255 255 255
  3.45713 -0.453218   3.11276 255 255 255
0.065001  1.22065  2.59851 255 255 255
-0.226392  -1.54157   2.52601 255 255 255
0.784834  1.10604  2.82575 255 255 255
-1.06856   1.0539  2.32912 255 255 255
-2.53873 -1.12922  2.44366 255 255 255
0.709934  1.59192  2.48987 255 255 255
-1.90672  1.29204  2.30095 255 255 255
 1.79099 0.632127  2.90167 255 255 255
-0.190533   1.12671   2.49485 255 255 255
-1.18884 -1.01356  2.20841 255 255 255
0.227567  1.33087  2.36342 255 255 255
  3.99847 -0.384331   3.28857 255 255 255
-2.06116 0.707389   2.5414 255 255 255
-2.37232 0.877885   2.2669 255 255 255
  3.87929 -0.141994   3.13336 255 255 255
3.66256 1.56498 3.17346 255 255 255
-0.325292   0.18097   2.24601 255 255 255
-0.308171   1.55523    2.4312 255 255 255
-0.340503  0.734777   2.49337 255 255 255
  1.23201 -0.600339    3.0508 255 255 255
  1.60494 -0.197361    2.9248 255 255 255
-0.466274    -1.668   2.77879 255 255 255
-2.13544 -1.25108  2.63832 255 255 255
-1.74626 -0.74618  2.22876 255 255 255
 -2.75001 -0.720962   2.40897 255 255 255
0.919742  1.47933  2.27333 255 255 255
  4.41647 -0.319683   3.31956 255 255 255
 3.7827 1.78115 3.17618 255 255 255
 3.90453 -1.55398  1.99894 255 255 255
 -2.0327 -0.79369  2.24932 255 255 255
0.221837 0.984516  2.48068 255 255 255
-2.11847 -1.45104   2.2743 255 255 255
  1.7436 -2.00398  3.00742 255 255 255
  0.39935 0.0771804   2.51227 255 255 255
-1.08996  1.20243  2.61308 255 255 255
 -1.60161 -0.766272   2.19924 255 255 255
-0.684267  -2.44028   2.89947 255 255 255
-2.43517 0.288816    2.477 255 255 255
3.45079 1.46522 3.09593 255 255 255
 -2.67697 -0.904895   2.42414 255 255 255
1.86453  1.6045 2.30942 255 255 255
-1.21215 -1.42387   2.3416 255 255 255
-0.903262  -1.15515   2.29025 255 255 255
  4.33405 -0.136816   3.31602 255 255 255
  3.58166 -0.189257   3.08576 255 255 255
 4.82163 0.116109  3.37929 255 255 255
1.97656 1.63388 2.32722 255 255 255
-0.11249   1.5327  2.33646 255 255 255
0.348661  1.59145  2.40044 255 255 255
  3.27892 -0.242983   3.19047 255 255 255
-1.7437 1.30535 2.13955 255 255 255
  1.09621 0.0601358   2.64619 255 255 255
  4.62593 -0.301564   3.39717 255 255 255
0.608196 -1.44673   2.2193 255 255 255
3.62506 1.71107 3.15605 255 255 255
 2.59318 -2.13266  2.97166 255 255 255
-2.20241 0.795218  2.55683 255 255 255
  2.95829 0.0673208   3.12007 255 255 255
-2.20993 0.890362   1.9218 255 255 255
3.77063 1.32747 3.16342 255 255 255
-2.73782  1.51292  2.61009 255 255 255
 1.0642 1.51331 2.57818 255 255 255
  -2.1524 -0.829183   2.29742 255 255 255
 2.52005 -1.97477   2.9945 255 255 255
1.02817 1.33404 2.56847 255 255 255
   1.91952 -0.0101583     3.0736 255 255 255
-2.05001 0.546498  2.63103 255 255 255
  -2.7617 -0.355113   2.46881 255 255 255
4.04545 1.32723 3.22113 255 255 255
 1.00627 -1.29789  2.64478 255 255 255
-2.21817  -2.1251  2.37753 255 255 255
-0.646438   -2.0102   2.85374 255 255 255
 -2.2333 0.143455  2.23704 255 255 255
4.34893 1.36253 3.16112 255 255 255
-2.18139 -2.19509  2.30721 255 255 255
-1.19587 -1.68324  2.51856 255 255 255
-0.232574  0.929253   2.49828 255 255 255
 -2.76221 -0.611882   2.47835 255 255 255
-0.767377   1.04293   2.56043 255 255 255
 3.06743 -1.80251  2.01455 255 255 255
-2.3261 1.47332  2.3635 255 255 255
  3.55607 -0.702238   3.02499 255 255 255
 2.47695 -2.30463  3.07091 255 255 255
 3.88317 -1.51804  3.85149 255 255 255
