ply
format ascii 1.0
element vertex 1271
property float x
property float y
property float z
property uchar red
property uchar green
property uchar blue
end_header
-1.55947  6.12788  2.80188 76 77 61
-1.99632  1.94077  2.82445 74 83 54
3.90601 5.12126 3.45078 69 97 49
0.442426  2.40527  2.49786 228 236 239
3.69008 4.61416 3.21206 30 41 24
-2.13188  3.65161  2.85296 60 56 44
3.22625 2.33519 3.29076 130 124 92
-2.16109  3.68022  2.83015 198 192 178
-1.45229  3.97291  2.90666 117 105 79
1.19544 3.02506 2.56771 190 199 206
4.55019 2.49538 3.36716 223 211 197
4.70468 4.83719 3.28396 52 60 45
4.80611 2.57201 3.39105 229 219 207
-0.821972   5.05046       2.7 13 20 13
5.63042 4.47319 3.64586 186 174 150
-2.25556  2.14636  2.83751 188 179 164
-1.77337  2.22274  2.82667 15 18 11
3.68614 4.85419 3.33404 7 29 17
0.836816  2.69264   2.5339 218 230 230
2.77122 5.05314 3.00851 231 227 216
5.50077 3.41274 3.63377 50 53 58
5.70556 4.68793 3.72146 198 186 162
5.96282 4.96498 3.68318 132 123 116
-2.53191  5.62794   2.7163 58 61 50
3.84285 3.55438 3.36114 117 120 113
0.693042  4.51176  2.96779 180 180 172
0.798252  5.04218   2.9851 72 47 42
-2.63916  5.80822  2.67788 22 28 16
-0.784244   5.41265   2.96643 2 9 15
1.25745 5.97399 2.99661 214 228 231
 2.4033  3.8392 2.96917 231 222 205
1.54484 5.22669 2.42984 143 147 146
1.06927 2.83233 2.53411 67 73 73
-2.08473  3.59426  2.87065 88 81 73
2.45718  5.8348 2.90343 215 222 230
-1.80427  2.33543  2.79698 25 24 6
-0.73505  4.42785  2.94588 27 23 22
-1.39913  3.80508  2.95071 30 28 16
-2.61915  5.87541  2.71234 96 96 70
2.72557 5.14048 3.01866 223 219 208
-1.96021  5.49075  2.73056 73 66 47
3.56521 4.57765 3.41919 64 93 37
-1.57503  4.64644  2.66742 21 22 6
-1.95134  2.65317  2.79543 166 159 149
5.14743 3.49807 3.60709 51 64 70
0.177764  3.62021  2.86996 230 245 250
4.70235  3.4721 3.42749 154 145 130
0.585768  4.81724   2.9225 14 21 31
0.145887  5.40551  3.02217 62 66 69
-0.203338    2.4359   2.50362 53 54 46
5.74925 5.17636 3.68371 39 46 56
6.00465 5.00176 3.74986 128 119 110
-1.75657  4.86496  2.71233 55 52 33
0.540721   4.3475  2.94402 29 37 13
 2.8511 3.07614 3.30857 98 96 97
-2.30894  2.82815  2.86777 218 206 192
5.12325 3.15447  3.4093 232 233 228
-1.98635  1.55645  2.82408 179 174 170
3.04137 5.98728  3.0849 223 217 203
-0.565964    3.4746   2.91947 152 151 147
-2.39422  4.65996  2.54293 218 221 210
-1.43382  2.26406  2.81619 166 164 152
-2.01165  2.16141   2.7395 80 88 65
1.14272 5.18634 2.38207 158 160 159
-1.80422  3.73408  2.70375 90 91 83
5.55853 3.05367 3.57142 198 194 182
-2.37627  2.92973  2.87456 71 65 51
-1.89665  4.00889  2.90717 158 144 118
1.36797 5.58873 2.30857 193 194 188
0.125446  3.15503   2.8993 122 123 127
-1.54826  4.48906  2.66437 140 130 118
1.54577 5.55273 2.31331 200 201 203
1.46102 3.14427 2.93211 24 24 22
1.08811 5.29325 2.40228 149 153 154
1.47523 5.48707 2.30916 201 201 191
-2.43992  3.34125  2.87562 169 157 141
 5.2255  5.6504 3.66791 222 229 237
-0.84581  3.61326  2.92729 68 68 66
-1.31231  4.13587  2.74951 83 77 63
-0.137349   4.89925   2.88427 219 218 213
-1.31043  4.18473  2.71408 108 98 88
1.69432  2.6281 2.72957 33 37 40
0.74847 5.57111 3.01064 175 172 163
2.07582 4.78093 2.79604 77 71 59
1.40439  5.4471 2.31195 53 51 52
-1.50944  2.72235  2.86756 75 70 40
5.40905 2.60423 3.50987 64 65 60
0.504119  4.53435  2.96797 180 171 164
1.85348 3.08627  2.9293 54 51 46
-1.94822  5.24713  2.75378 39 54 23
 4.7813 4.27777 3.48047 40 29 23
6.22814 3.97415 3.68564 72 81 88
2.14332 5.13007  2.9871 30 36 34
3.92007 6.39893 3.52531 147 144 137
1.17945 3.85092 2.96321 95 97 96
-1.62404  1.75195  2.83951 97 89 87
-1.99218  4.83897  2.72952 177 156 135
2.53795 3.60327 2.95241 22 26 11
0.581627  2.71876  2.53032 212 220 223
3.18725 4.22623 3.38057 213 205 192
3.19024 4.23123 3.37704 213 205 192
-1.55354  2.61772  2.86685 22 20 8
-2.35502  3.40442  2.86831 84 72 56
0.439176   5.7024  2.99782 90 91 95
3.36271  4.7833 3.44292 88 103 62
-1.74377  1.58081  2.79767 132 126 128
-2.22957  4.15857  2.67971 101 90 62
1.47367 5.58355 2.31153 208 214 214
1.08607 2.73346  2.4953 52 62 63
0.0224455   5.63065   3.00215 177 179 176
-2.30989  3.27486  2.88339 90 78 62
-1.49755   5.6098  2.76021 188 181 162
1.38504 4.64688 2.57154 223 222 217
1.43567 5.55915 2.30836 206 208 205
-1.53285  4.82498  2.69397 170 157 140
4.70091 3.22113 3.41876 214 208 194
-2.18782  2.49905  2.79438 94 88 76
0.466612  4.39794  2.91637 80 70 43
1.51768 5.60525 2.32256 207 213 213
-1.60169  5.76018  2.76555 88 92 69
3.47375 4.41163  3.3997 73 93 42
1.73129 3.88401 2.61171 36 29 23
-2.30424  2.32808  2.84489 196 186 174
0.0944384   5.83073   2.99228 141 139 98
3.45719 5.16826 3.43932 196 195 174
1.24951 5.05595  2.4297 233 237 236
-1.98689  3.37818  2.88433 188 182 166
-0.376095   2.03167   2.46965 174 184 185
-2.03015  2.86634  2.88591 84 81 66
4.44991 4.08482 3.44706 188 188 180
-3.34431 -2.64106  2.45941 45 58 32
-2.24437 -4.26822  2.64984 37 44 28
0.232306 -2.82847  2.99765 104 92 66
-3.63272 -3.98442    2.864 213 210 195
-4.74546 -5.11254   2.8221 38 46 31
-5.44225 -2.13235  2.12345 202 188 177
  -5.152 -4.67041  2.74501 187 167 140
-0.799339  -2.31163   3.11763 163 182 197
0.446805 -1.68416  2.37365 218 228 230
-5.62785 -3.20978  2.50901 229 241 241
0.202695 -3.40261  2.98238 189 146 103
-1.89717 -2.88176  2.21421 192 201 210
-5.38561 -1.78738   2.3106 175 168 158
-1.39092 -1.69071  2.90385 105 107 68
-7.44285 -2.51041  2.67909 124 89 67
-6.56234 -3.15027   2.6642 52 59 43
-2.75644 -3.49651  2.51849 17 31 8
-2.53987  -4.0515  3.33506 193 176 156
-4.73818 -3.93322  2.67573 189 182 154
-2.09462 -4.16215  2.58365 40 52 32
-0.320624  -1.60176   2.90112 218 229 225
-5.21248 -5.05049  2.76714 31 39 26
-4.02033 -3.61436  2.69062 185 173 159
-4.08453 -3.20836  2.44251 132 180 190
-1.70479  -3.1554  2.20722 209 218 223
  -1.699 -3.15279  2.20191 200 211 213
-2.47432 -3.47062  2.75644 238 240 237
-0.909324  -4.84468   3.25542 51 67 38
-2.17126 -3.17419   2.2015 111 120 127
-2.17323 -3.17528  2.19815 120 136 151
-3.22851 -2.48376  2.02462 42 51 34
-5.55237 -4.97757  2.65141 25 27 24
 1.13271 -3.68939  2.79811 79 79 77
-2.95817 -4.02684  2.88838 26 26 16
-7.26611 -1.62923  2.63104 26 23 16
-0.643828   -5.0515   3.25231 164 144 135
-5.62119 -4.66645  2.76777 52 61 34
-7.18816 -1.47718  2.67239 129 165 187
-4.01867  -3.9721  2.79316 19 18 16
-5.48216 -5.23109  2.84467 171 159 135
 -2.88544 -0.720745   2.48641 59 62 69
-5.17791 -4.86012  2.77748 188 173 150
-7.11159 -3.69576   2.6935 189 169 142
 -1.8887 -2.72345  2.21731 62 74 88
-4.93124  -4.3816  2.46758 199 187 171
-2.59752 -4.40057   2.8813 49 82 25
-6.30927 -5.17788  2.89165 46 55 24
-1.54957 -4.31487  2.94158 34 26 24
-3.08817 -3.42317    2.273 37 45 30
 -6.0389 -3.54336  2.57101 242 250 253
1.05029 -4.2853 2.62791 28 28 26
 -1.7686 -1.37775  2.73053 29 33 19
-2.68603 -3.29054  2.27772 13 24 8
-0.677776  -1.22554   2.56087 102 116 67
-1.33385 -2.47127   2.9352 19 22 31
-6.61821 -1.73966  2.66507 31 39 50
-5.86193 -4.95161  2.72392 56 64 40
 -5.4476 -5.02077  2.73972 37 47 22
0.713193 -3.80954  2.74976 58 58 56
-6.42683 -2.09019  2.59414 18 24 24
-1.46054 -1.87649  2.90384 27 33 23
-4.53848 -4.68493  2.77964 193 185 162
-4.93579 -5.06348  2.82142 32 40 19
-1.41515 -3.62252  2.85102 159 135 125
0.739189 -4.36528  2.62977 195 198 191
-5.06022 -4.19194  2.66774 18 35 43
-0.0858697   -1.41078     2.4121 135 144 151
-5.25896  -5.2663  2.84601 47 58 28
-2.64832 -3.07955  2.59949 159 160 154
-6.18635 -5.38986  2.87522 123 136 108
-5.75591 -3.96714   2.4704 237 245 247
-4.79919 -1.90241  2.32343 17 16 12
-5.70996  -5.0956    2.659 147 143 116
-1.81294 -4.05538  2.95793 198 185 168
-1.23319  -4.2757  2.88653 149 131 107
-7.33215 -4.53387  2.79406 119 94 64
 -4.44972 -0.753456   2.68156 57 22 28
-4.59774 -2.35749  2.62974 52 54 40
0.895345 -2.79158  3.06641 201 177 151
 -7.0427 -1.55431  2.57852 116 158 183
0.124105 -4.17995  2.73417 94 98 99
 0.18826 -3.87277  2.75299 99 102 109
-4.37233 -3.97826  2.64206 209 204 185
-6.07344 -4.99666  2.72554 162 150 134
-1.27831 -4.35144  2.75623 50 41 32
 -2.55812 -0.803008   2.61063 47 46 44
 -5.39409 -0.807124   2.68981 178 166 150
-0.546937 -0.529464   2.31113 222 233 237
-5.85652 -2.50439  2.66954 189 191 180
0.0423027  -3.66409   2.92712 70 67 60
 -2.17774 -0.692796   2.76632 31 21 22
-0.615445  -2.58443   3.01406 128 127 125
-5.82413 -4.36529  2.71946 204 187 157
0.879295  -3.8101  2.69436 55 56 51
 -6.0497 -5.21005  2.76946 188 174 147
-5.92657 -4.27064  2.71977 191 172 140
-1.76499 -2.24575  2.20236 219 230 234
-5.41082 -4.23632  2.60377 98 105 54
-6.09792 -4.87498  2.72073 34 47 19
-4.60245 -3.97445  2.59854 214 229 226
-5.59202 -5.41932  2.92386 53 67 41
 -2.20305 -0.579637    2.5868 227 222 218
-1.88886 -1.30628  2.83263 179 166 149
-1.81128 -4.49447  3.03682 64 87 43
-4.43187 -4.14437  2.59656 170 161 144
-0.4996 -3.4091 2.97307 191 156 137
-6.00372 -5.65162  2.96272 103 106 77
 -2.13337 -0.842405   2.65239 42 31 35
-0.598792  -4.10651   2.85205 32 33 27
-5.75717  -2.9189  2.62732 213 221 224
 1.20189 -3.88812  2.69772 140 165 172
 -2.94004 -0.436199   2.52906 117 130 138
-2.33709 -3.40714   2.8247 57 54 47
-6.36271 -5.57778  2.93059 104 107 88
-1.67861 -1.37379  2.68303 100 123 77
-5.55688  -5.7073  2.94683 10 14 15
-0.420264  -4.72592    3.2383 133 107 84
-5.04652 -5.24285  2.83433 179 173 151
-0.953408  -3.84981   3.00343 189 173 150
 -5.88488 -0.999498   2.71807 49 51 48
-7.19577  -3.3049  2.70081 156 126 102
-4.43527 -3.99884  2.57894 44 45 47
-7.19527 -4.23959  2.71376 54 64 29
-6.12533 -5.60648  2.93275 57 62 40
-3.82182 -2.99872  2.73178 102 96 70
-4.43159 -3.70513  2.80209 20 6 6
-5.59395 -4.78153  2.72896 59 65 31
-3.50204 -2.09247  2.75783 72 74 53
-6.84737 -4.76263   2.8481 63 74 44
-7.10984 -4.83578  2.86888 98 87 55
-6.16976 -5.17087  2.81703 48 54 28
0.253991 -3.81224  2.68885 177 180 173
0.755475 -3.69705  2.87203 129 130 122
-4.37673 -5.01753  2.90628 193 174 142
 -6.0708 -2.09628  2.61592 233 237 238
 -2.33121 -0.398765   2.51071 203 208 204
-6.49604 -4.49947  2.71255 34 44 19
-0.966548  -3.74338   2.96709 135 120 97
-4.72329 -5.13821  2.90444 52 59 41
 0.62713 -3.85393  3.01207 63 64 69
-5.80309  -2.4118  2.66695 16 19 10
-2.29236 -2.30814  2.15251 65 76 82
-3.74162 -4.96176  3.01782 31 41 17
 -5.9255 -5.06678  2.66053 45 54 27
-3.47078  -2.7948  2.08351 28 34 24
-5.37558 -3.29377  2.65036 177 171 159
-5.33749 -2.27965  2.06939 186 176 164
-0.904352  -1.92276   3.00921 62 58 47
-1.35806 -1.52354  2.48249 79 88 57
-4.80595 -5.17468  2.86547 31 38 31
-0.696506  -4.02564   2.91881 38 38 28
-5.87914 -3.75923  2.65464 143 140 125
-6.79197  -3.2888  2.70163 143 131 107
-7.37421 -4.18756  2.72961 156 132 104
-7.27379  -4.7697   2.8352 114 99 66
-5.15249 -3.78931  2.64448 168 165 148
0.622235 -2.21476  3.10125 53 54 40
-5.16155 -2.67115  2.57586 174 166 153
-7.45456 -4.58699  2.80186 53 47 25
-4.94353  -1.8667   2.4838 80 84 85
 1.12034 -2.77591  3.07848 149 114 92
 -4.46041 -0.916148   2.55502 224 226 238
-5.78336 -2.54566  2.69686 31 26 23
-7.47834 -2.86897  2.68949 189 163 130
-3.28038 -2.39129  2.11377 55 68 50
-2.97916 -2.49192  2.15965 14 20 16
-2.48055 -1.62611  2.80833 124 107 89
-6.28458 -2.94975  2.62449 234 239 242
-5.81185 -2.81052  2.62957 231 242 248
-5.52911 -4.73784  2.76357 176 156 129
-4.13178 -4.13185  2.75347 49 41 28
-1.27487 -2.04626  2.84383 114 117 98
 1.34587 -4.81278  3.37321 150 152 139
-0.092101  -1.59128   2.97316 141 141 141
-0.568535  -4.24702   2.94538 227 223 222
-0.409689  -3.85108    2.8516 47 46 42
-6.27299 -4.94859  2.72607 24 33 12
-2.35776 -3.84528  2.91638 40 37 32
0.130114 -3.53668  2.97756 32 39 32
-5.6608 -4.6587 2.72564 56 63 29
-5.94393 -5.51994  2.90711 46 61 30
-1.07383 -4.11504  2.93169 145 140 118
-0.97125 -3.76194  2.99764 133 116 98
-4.16718 -4.03334  2.61843 165 162 153
-4.16632 -4.03087  2.62917 177 177 165
 -5.0253 -2.41705  2.66098 58 72 47
 -4.4224 -4.32186  2.54246 50 59 66
-0.538765  -2.11887   3.04732 146 142 141
-3.13714 -2.39174  2.16846 10 18 7
-7.45268 -4.78169  2.84539 51 50 22
-7.27576   -3.966  2.69302 177 156 129
-6.02183 -2.22746   2.6412 230 243 251
0.504571 -2.32401   2.8642 95 98 67
-6.85776  -1.4586   2.6603 79 70 65
-1.85651 -3.33041  2.16265 204 212 214
-6.14078 -3.21755   2.6783 118 115 108
-1.03943 -4.89243   3.1987 66 69 50
-6.16406 -5.43569  2.86949 46 56 31
0.146549 -3.88469   2.8156 214 220 218
-3.88556 -3.07175  2.82884 42 35 17
-5.55363 -5.62084  2.99298 23 37 12
-3.13302 -4.29775  2.91296 51 61 37
-6.23144 -5.29852  2.89123 159 153 131
-6.71996 -4.74411  2.82658 36 42 16
-0.23432 -3.30582  2.84247 73 77 52
0.808117 -4.89078  3.49977 186 170 136
-0.128888  -2.71532   3.00211 122 90 67
-0.12054 -2.71823  3.01644 127 100 83
-0.412646  -3.34062   2.86293 65 65 41
-4.84429 -5.47831  3.02135 0 9 4
-0.269576  -1.27775   2.91989 123 128 72
-5.5588  -4.614 2.75065 39 41 17
-1.95732 -4.24226  2.65402 61 79 39
-5.54876  -5.1714  2.74889 158 147 127
-5.66229  -5.7143  2.86126 47 47 45
-6.10716 -5.78033  3.01123 33 39 13
-4.15815 -3.95202  2.70588 10 6 5
-6.14976  -4.7253  2.71721 151 134 106
-5.34593 -3.72789  2.64716 246 250 253
-4.90433 -2.37295  2.60507 50 56 46
 1.19337 -3.97925  2.71955 45 50 46
-0.0650843   -4.24225    2.89359 209 210 202
-5.22198 -2.39995  2.54361 89 89 77
-7.35586 -4.41071  2.73843 78 79 47
-7.44624 -4.86228  2.85151 167 142 112
-2.39867 -3.60187   2.8092 250 250 242
-1.23046 -1.46396  2.45045 98 110 70
 -0.31702 -0.376385   2.30475 229 239 238
-5.72036  -4.7922  2.71614 141 130 102
-3.43909 -2.67625  2.06948 6 17 3
-2.13618  -4.8966  3.16969 40 49 30
-5.95718 -3.83838  2.63922 128 135 119
-0.63441 -2.76519  2.97359 50 73 79
 -4.8829 -2.92347  2.78734 154 107 99
-5.67067 -3.46905  2.66108 234 239 243
-6.21325 -5.81074  2.99186 46 54 31
-2.20642 -3.77956  2.94053 53 50 45
-1.46974 -1.38423   2.4031 100 109 66
-7.42386 -4.48257  2.76381 118 98 73
-0.451246  -3.35376   2.99696 153 120 105
-0.298007  -1.14787   2.71959 221 223 220
-6.21151 -5.54067  2.89836 57 71 48
-6.02727 -4.97271  2.69125 201 192 177
-0.821206 -0.846588   2.29784 67 79 55
-5.5343 -5.5073 2.93942 110 114 97
-0.0933404   -3.01333    2.91233 65 60 38
-6.71616 -4.59804  2.75462 138 131 103
 -4.2222 -5.32838  3.02492 173 145 134
-3.45728 -4.84565  3.04196 49 66 34
-3.55669 -3.46606  2.29473 54 63 42
-5.67186 -5.17478  2.69721 43 57 31
-6.42024 -5.50683  2.93794 30 40 13
-5.30965 -2.75089  2.73175 204 202 190
-2.17302 -1.56159  2.78194 127 111 33
-1.92394 -1.81675  2.43967 88 92 41
-5.05253 -3.88528  2.67945 180 174 162
-4.45015 -5.39834   3.0183 166 147 130
-5.83499 -3.55197  2.69325 84 81 72
-5.82716 -3.54853  2.67735 91 88 81
-3.59877 -3.34097  2.35808 127 97 86
-5.65382 -3.13486  2.62136 239 253 254
0.815523 -3.89199  2.59045 221 237 237
-2.33487 -3.14119  2.17694 210 218 221
 1.33304 -2.26691  3.07473 243 251 253
-7.2977 -4.5513 2.80397 145 118 89
-0.502386  -3.27012   2.95605 234 243 238
0.707654 -3.69984  3.12472 25 26 21
-7.49934 -4.16336  2.75426 93 72 45
-2.58759 -4.04782  2.92233 192 173 158
-5.00193 -4.90942  2.77341 57 65 28
-7.38455  -1.6376   2.6643 21 6 0
-1.64177  -4.9281  3.20991 184 149 130
-7.07631 -4.22026  2.71104 40 57 13
0.674181  -3.4356  3.03537 152 128 102
-1.03445 -4.28609  2.79041 38 41 30
-5.73845 -3.53785  2.66433 148 141 131
 -3.8741 -3.95098  2.83312 126 107 93
-1.99261 -1.72196  2.41588 25 32 1
-4.13392 -3.86353  2.62518 79 76 71
0.365494 -4.93546  3.26648 72 78 64
 -0.3505 -4.87105  3.24617 9 10 2
 1.24992 -2.88299   3.0704 175 158 142
-0.967333  -4.79951    3.1969 40 50 26
-7.33599 -3.83927  2.71794 174 157 137
-3.25496 -5.06057  3.09102 41 45 28
-1.47792 -1.47269  2.46534 67 66 45
-7.39132 -3.82797  2.71822 128 112 96
0.793337 -3.67263  2.61061 213 213 213
  0.6688 -3.83689  2.75817 45 46 50
-5.4933 -5.7082  2.9866 28 30 27
  -3.6942 -0.751917   2.61592 245 247 244
-7.03216 -1.73661  2.69579 146 134 112
-6.21474 -5.88516  2.99107 103 81 70
-4.77847 -2.90318  2.78295 137 98 93
-4.70527 -2.17435  2.41507 19 30 22
-2.12897 -1.13459  2.70503 118 119 111
-5.55315 -2.98924   2.6694 24 25 20
0.563784 -3.35401   3.0215 157 125 102
-6.12655 -4.02753  2.76356 181 161 128
-2.49907 -2.40141  2.28118 63 71 84
-6.81116 -1.90613   2.6136 49 57 46
-3.07058  -2.5002  2.07364 15 23 8
-7.28489 -4.30145  2.72038 134 112 88
-7.20319 -2.54659  2.66493 157 127 99
 -5.4338 -5.59792  3.00706 42 46 23
0.618114 -4.17012  2.77667 66 72 70
-6.75265 -2.97452  2.68222 44 53 24
 1.19141 -3.19619  3.02868 87 83 74
-5.48304 -3.01761  2.71372 72 72 62
-5.62381  -4.8784  2.76058 46 50 25
-5.81058 -3.90812  2.54155 45 47 44
0.937114  -3.7392  2.75125 209 215 213
-4.11558 -3.71449  2.82826 175 157 143
-4.79749 -5.05513  2.77767 90 94 79
-6.41799 -5.77946  2.99211 68 68 32
-6.96926 -2.38584  2.68952 37 49 25
-1.89235 -2.59208  2.19836 130 140 142
-7.57572 -2.25205  2.67545 178 145 114
-4.54245 -4.01379  2.56076 61 68 76
-0.135765  -2.79895   2.99918 145 109 83
 0.17199 -4.16936  2.60866 50 53 60
-6.47852 -1.51693  2.74305 193 194 189
-5.82469 -4.80041  2.76123 162 146 120
-7.49779  -2.5277   2.5896 57 35 24
 1.00194 -4.81792  3.37263 69 70 74
 -3.97122 -0.628709   2.62892 64 73 78
 1.31649 -4.75182  3.37484 196 193 186
-4.56573 -3.86229  2.52202 65 75 38
-2.8784 -5.0352 3.14102 149 126 112
-0.0385109   -3.84813     2.8978 60 65 61
-0.491553  -1.87234   2.94433 232 235 240
 1.00537 -3.41863  3.00596 38 42 41
-6.36571 -4.51127  2.69832 155 138 110
 1.04379 -3.49097  2.93471 228 229 221
-2.16545 -5.40914  3.17416 184 171 162
 -4.2736 -1.19936   2.2378 223 221 226
-4.81661 -4.42142  2.59719 46 44 45
-7.30499 -3.76632  2.71691 177 162 141
-7.36726 -4.26249  2.73235 56 57 23
0.954758 -3.91752  2.64084 111 137 152
-0.642812  -4.27504   2.95545 50 43 35
-0.292969   -3.9676   2.91608 88 92 101
 1.37623 -4.09401  2.70124 132 158 171
-4.73663 -4.38962  2.55909 167 181 184
-7.47552  -3.8677  2.71239 152 135 117
-5.82378 -3.36801  2.66562 160 152 139
-0.773538  -3.96421   2.97824 148 131 111
-0.49116 -4.86008  3.22437 30 36 26
-0.0504581  -0.565582    2.28491 52 63 69
-1.62425 -4.87164  3.20536 53 57 34
-7.59909 -1.53193   2.6345 178 196 210
-6.66289 -2.46322  2.60616 90 95 89
-5.70548 -5.34544    2.823 32 38 28
-4.15229 -3.73844  2.80401 57 31 16
 -5.83454 -0.868755   2.58449 218 226 229
0.968245 -3.53195  3.03182 93 95 90
-7.46033 -4.27173  2.72773 85 68 40
-5.13854  -5.4851  3.02607 89 90 50
-5.93065 -2.85277  2.65611 241 247 247
-4.83124 -2.83042  2.77578 147 102 97
 -5.64544 -0.779315   2.71405 36 28 17
-5.69088 -0.93509  2.66526 47 40 30
-0.455244  -1.90861   2.96917 234 244 243
-3.43937 -3.02657  2.14256 9 18 1
-7.51555 -3.58696  2.70304 119 100 85
-0.782497 -0.883456   2.19512 70 78 39
-4.51065 -3.72976  2.76421 83 65 51
-2.05346 -1.31784  2.82048 88 85 70
0.189897 -3.65942  3.01032 176 162 136
0.596243 -1.40933  2.27892 224 235 241
-1.43561 -1.18962  2.41168 31 39 18
-6.20488 -5.34199  2.88129 53 59 33
-5.27081  -3.6434  2.59483 204 215 219
-5.11332 -4.93791  2.75312 57 61 26
-7.26533   -1.691  2.69135 23 21 8
-4.99868 -2.53693  2.56995 60 62 48
-3.33331 -2.57417  2.04063 47 61 36
-7.32824 -4.45964    2.762 142 123 93
-6.75659  -4.5567  2.73337 66 63 46
-4.39165 -3.53925   2.8175 93 87 73
-6.71208 -3.47407  2.65797 173 144 110
-5.00519 -4.31334   2.5794 62 63 58
-0.474145 -0.917675   2.26641 120 134 117
-5.37946 -5.07792  2.73212 54 59 39
-2.83941 -2.66451  2.09547 3 16 0
-2.18612 -3.63111   2.9832 148 115 106
-6.63938 -1.84536  2.62449 225 240 245
-1.18554 -3.76659  2.95729 244 246 241
 -4.5018 -4.75911  2.77677 66 73 42
-5.02315 -3.60361  2.62904 227 221 209
-5.20916 -3.85368  2.66121 143 137 125
-4.49522 -3.62372  2.78724 122 126 129
-6.29459 -3.09012  2.69596 108 102 90
-1.41144 -4.52338  3.04412 21 39 13
-5.81493  -5.2107  2.74873 24 33 6
-4.99284 -2.32552  2.58713 62 69 53
-2.13084  -1.5056  2.82091 58 49 42
-4.69268 -3.68321  2.74584 11 17 5
-3.12372 -4.13977   2.9375 78 86 45
-7.33659 -2.88321  2.70452 197 173 137
-7.35301  -4.7474  2.83437 55 51 24
-0.184837  -2.03574    3.0485 180 144 130
-4.85861 -4.33071  2.55022 131 152 173
-2.11547 -2.89878  2.13981 78 87 96
-3.25921 -3.61477   2.8134 63 79 79
-5.18627  -3.9854  2.66203 58 53 49
-5.72935 -3.79696  2.66704 13 24 30
-5.03321 -2.27416  2.55608 69 80 63
-0.0549583   -3.96648    2.90148 228 232 233
-5.97768 -2.77105  2.63984 250 252 251
1.06735 -2.3768 3.09785 199 184 165
-1.72764 -2.85445  2.21519 14 16 13
-1.71761 -2.85744  2.24819 13 18 24
-6.66901 -4.43859  2.70635 29 37 13
-6.73532 -1.90263  2.60486 56 56 54
-2.96637 -3.46629  2.15448 169 168 150
-2.05937  -2.4482  2.16778 59 70 76
-2.22031 -2.71423  2.14365 78 84 96
 1.26476 -3.70297  3.04027 82 82 84
-2.64663 -4.12808  2.87523 32 39 23
-2.63523 -2.52828   2.1765 79 89 90
 -5.7303 -3.44918  2.67082 100 95 89
 -7.4397 -2.14448  2.65411 167 140 111
-0.64083 -3.94201  2.93998 70 63 57
-5.51329 -4.59998  2.75669 177 161 136
-2.97522  -4.8287  3.01245 69 77 53
-6.77325 -2.04512  2.60964 51 53 48
 -3.0502 -4.67031  2.99871 123 140 60
-1.61647 -4.34669   2.8563 35 39 24
-3.66609 -1.06336   2.2998 168 187 194
-5.18955 -2.27115  2.70333 89 87 75
 -7.3989 -2.57045  2.65959 56 25 7
-3.55597 -2.70588  2.05109 16 27 10
-2.21811 -2.47758  2.14742 66 76 86
-2.37753 -2.98566  2.15094 64 71 79
-5.21325  -4.1925  2.60334 58 51 43
-5.29084  -4.0119  2.53166 233 232 237
0.141785 -3.98929  2.81581 233 234 229
-2.08282 -2.40149  2.15962 66 73 81
-1.05291 -4.22711  2.95371 12 7 1
-6.25939 -3.09662  2.72622 112 106 94
-2.16171 -2.26338  2.16276 63 76 85
-2.27041 -2.38491  2.14414 71 81 91
-4.00312 -3.31568  2.38598 67 74 58
-2.15321 -2.22389  2.44642 62 71 78
-2.14663 -2.21816  2.38528 64 74 86
-5.62659 -5.01732  2.69811 53 58 38
-5.96491 -3.67677  2.66888 163 159 150
-2.23537 -2.11718  2.25991 64 73 80
-2.58412 -2.61974  2.16752 77 88 94
-0.67447 -4.23222  2.95524 248 245 240
 -7.1939 -1.71922   2.6821 70 59 31
 -2.5832 -2.49501  2.15354 66 76 85
-2.58224 -2.49775  2.18046 61 70 77
-2.34582 -4.93531  3.08428 162 141 120
0.453957 -3.36053  3.03156 155 121 94
-2.13518 -2.30938   2.1652 62 74 86
0.0224611 -0.950185   2.27457 61 62 67
-6.17166 -1.73499  2.65443 73 94 99
0.110244  -4.1571  2.80377 236 240 239
-0.392739  -4.60804   3.30259 79 49 23
-4.90546 -5.53468   2.9657 165 146 132
-5.53288 -5.09172  2.73394 52 53 35
 -5.89177 -0.764959   2.71376 244 248 249
 -3.4822 -5.16422  3.11061 174 151 135
-3.36233 -4.19008   2.7654 17 26 9
0.304222 -0.49706  2.56883 51 70 77
-5.76572 -5.34011  2.84856 33 37 23
-6.78216 -2.03474   2.5548 75 81 69
-1.89506 -2.36929  2.22783 157 168 170
-2.22886 -1.19829  2.69376 70 63 57
-5.99528  -4.8208  2.72819 122 116 84
 -4.04529 -0.678955   2.63763 180 182 177
-1.77721  -2.9488  2.13043 64 74 86
-1.77756 -2.95461  2.14759 59 68 75
-3.69377 -4.04496  2.85663 115 111 100
-3.68874 -4.03791  2.83746 123 118 114
-0.414539  -4.38378   2.93414 18 23 17
 -2.33155 -0.867128   2.51392 234 229 225
-0.104997   -1.0245   2.26444 61 68 78
 -5.0176 -5.18343  2.85044 68 79 47
 -4.7715 -4.44348  2.60109 36 38 33
-0.819414  -3.80653   3.00181 181 157 131
 -0.22701 -0.793886   2.28803 39 49 58
0.174895 -0.80301  2.27115 63 66 75
-5.58634  -4.9353  2.76057 57 58 27
-0.000581215    -0.903897      2.28133 52 53 58
-1.98443 -3.00768   2.1328 61 70 77
-7.24338 -4.46528  2.77348 147 113 86
-2.16748  -2.5691  2.14248 64 77 86
-3.83369 -3.14933  2.82147 33 31 18
-3.62857 -4.00797   2.8831 213 209 197
-0.584771  -1.16945   2.89625 125 140 85
-6.78256 -1.08666  2.71579 110 112 109
0.418977 -1.21488  2.27257 67 65 76
-1.64373 -4.49339  3.03446 59 91 24
-2.59565 -2.37144  2.02274 66 74 85
 -2.5895 -2.37877  2.15772 66 74 85
-2.03128 -2.49357  2.16229 63 75 87
-2.56307 -2.42609  2.16376 69 79 89
-4.69876 -3.72088  2.69833 42 50 39
-1.93298 -2.67781  2.15003 62 74 86
-2.24748 -3.09631  2.15816 60 69 76
-6.79704 -4.15105  2.70274 158 134 110
-2.68785 -2.43607  2.17792 65 72 80
-0.00489876    -1.06529     2.48359 54 64 76
-2.00814 -2.54056  2.15946 63 72 79
-2.00811 -2.53833  2.15365 62 71 86
-1.05117  -2.1819  3.01288 114 115 120
-4.96227 -3.72277  2.66053 201 195 183
-2.12206 -2.44601  2.09043 63 74 80
-1.80532  -2.9054  2.12963 54 66 78
-1.80206 -2.90618  2.14177 64 74 86
-0.305738 -0.658211   2.28753 50 59 68
-1.88097 -2.76787  2.14433 65 75 87
 -6.5333 -4.55576  2.70895 226 220 198
   -2.895 -0.451191   2.57128 164 172 183
-0.0753301  -0.642401    2.27062 58 64 76
-2.27347 -3.04948  2.16149 63 73 82
-5.00466 -5.07223  2.80041 55 58 41
0.252511 -2.95405  3.01632 133 93 68
-1.60319  -3.4871  6.52246 66 79 95
-5.28162 -3.94793  2.65185 133 124 119
-2.29419 -2.34222  2.15391 70 80 90
-1.85907 -2.81397  2.13806 62 71 86
-2.11042 -4.94141  3.18136 158 131 120
-0.174684  -2.06087   2.94358 228 228 220
-2.03979 -2.79961  2.13605 66 76 86
-2.44146 -1.30244  2.70214 108 88 87
 -7.5798 -2.38076  2.63711 120 90 66
-5.69788 -3.31134  2.68875 31 52 57
-1.90804 -2.72365  2.14717 62 74 88
-1.90613 -2.72483  2.15324 56 60 69
-6.20524 -3.47125  2.62905 133 133 121
 -1.2254 -3.67633  2.96061 175 154 137
-1.21711  -3.6851  2.98976 159 141 129
-7.02751 -2.06439  2.63383 51 56 33
-4.79075  -4.3611  2.54905 150 160 169
-2.64315 -2.49479  1.43873 64 79 98
-5.41602 -3.34131  2.66724 203 195 182
-6.09942 -5.21925  2.81366 195 184 156
-3.25839 -1.91159  2.82001 30 38 17
-2.27708 -3.17013  2.15024 66 76 85
-6.73638 -2.12867  2.66439 89 88 83
-1.71597 -2.46588  2.25859 189 203 204
 1.51727 -3.56296  2.97694 181 182 168
0.912587 -4.01344  2.61681 220 229 228
-6.22317 -3.17382   2.6812 166 166 156
-6.58881 -3.56596  2.67163 139 141 119
-6.40174 -2.95513  2.56799 67 75 62
-0.0264932   -5.12842    3.32604 156 127 123
-7.23497 -2.18115  2.69156 138 127 99
-3.09199 -2.61693  2.06569 39 52 32
-1.66061 -2.56661  2.24854 248 241 225
-1.81594 -2.68843  2.21133 74 77 82
-4.08508 -4.31344  2.82015 126 111 92
-6.09286 -5.15941  2.78028 52 55 24
-1.75155 -2.33896  2.28415 234 239 245
-6.22877   -4.824  2.72778 22 31 10
-4.89597 -2.28717  2.54347 50 58 43
-6.78866 -2.52947  2.53992 15 19 4
-2.80965 -4.08688  2.82678 38 49 17
-3.22162 -2.40306  2.13923 9 20 4
-2.08361 -5.02713   3.1943 170 150 143
-6.40658 -5.91273  2.97386 52 55 28
-6.38547 -2.61075  2.67623 27 28 33
-3.63684 -5.28806  3.10675 177 168 159
-2.10471 -1.91694  2.52967 67 71 70
-5.85772 -3.69865  2.68891 98 95 86
  -5.6678 -0.945231   2.70494 101 88 72
-6.29231 -2.74014  2.72414 161 154 146
  0.2175 -4.08675  2.67845 53 54 49
-6.05232 -3.21248  2.68619 141 134 124
-2.89649 -4.36792  2.93718 73 101 53
-6.32867 -4.56141  2.69746 156 142 115
-5.49496 -3.14228  2.65469 205 207 196
-7.36886 -3.98992  2.75038 160 132 110
-0.639517   -5.0561   3.28506 160 142 132
-5.08224 -5.17169  2.79592 32 34 20
 -2.36414 -0.952708   2.53799 226 228 225
-6.00613 -3.22212  2.67515 164 157 147
-2.1676 -3.7322  2.9564 211 183 171
-6.86005 -2.98076  2.69893 171 150 123
 1.37122 -4.96417  3.35131 216 214 202
-5.44434 -3.64742  2.67213 126 123 118
-6.67542  -1.2219  2.71556 241 231 221
-6.10873 -4.78594  2.71557 137 131 99
-5.77594 -1.43866  2.65003 89 101 55
-0.0230711   -4.93002    3.23025 79 81 68
-6.01596 -4.75287  2.71852 165 150 121
-1.51797 -2.72762  2.17007 113 115 114
-5.48485 -5.31061  2.85637 79 77 54
 1.31967 -4.10362  2.69793 76 87 91
  0.6264 -1.97548  3.06382 145 132 115
-7.06289 -2.45289  2.68986 150 141 108
-5.40153 -3.61592  2.64647 224 240 240
-6.33808 -4.62575  2.70038 140 127 111
-5.84176 -2.64104  2.67759 78 78 80
-7.29569 -1.81908   2.6396 46 38 36
-7.31162 -1.71766  2.69039 94 86 73
-6.61249 -2.37463  2.65277 58 51 43
-6.50274   -5.874  3.00082 49 58 27
 -2.5895 -4.09399  2.93083 28 19 12
-1.1265 1.41589  2.4367 56 70 47
-4.29955  1.38523  2.29208 18 19 23
-1.10632  2.41747   2.9066 187 180 172
-3.8874 1.79074 2.35119 162 163 158
0.0966316    1.6202   2.47846 225 230 233
-4.64185 0.574582  1.56197 239 240 245
0.0235413    2.7229   2.68605 47 59 35
-3.41056  2.62003   2.5271 24 25 20
 -5.23187 -0.420188   2.50828 21 28 20
-2.17699  1.88349  2.86616 18 20 15
0.579742  1.84502  2.51263 218 223 229
-4.04279  0.14372   2.5363 167 159 148
-0.820059   3.03695   2.88349 182 175 165
-1.84257  2.15818  2.82896 39 54 21
-5.39886    2.147  1.68025 195 199 202
 0.332962 0.0914592   2.61239 81 75 41
-0.84907 0.912327  2.38195 159 176 183
-0.913302 -0.336441   2.37851 19 21 16
-4.93841  2.48022  2.16278 44 48 47
-5.16498  2.20326  1.89796 76 78 75
-0.499692   3.13924   2.88019 25 26 18
-2.47363 0.936409  2.70239 16 20 23
0.0167648   1.15972   2.63784 18 19 14
-1.64346 0.851674  2.75998 182 192 201
-4.94274  2.23501  1.97026 190 195 191
-4.21795 0.314802  2.66703 47 51 37
-3.13688  1.49842  2.40935 56 62 76
-1.47256  1.14836  2.43769 24 33 12
-4.88835  1.31472  1.62702 199 204 210
-4.89186  1.30715   1.6544 199 204 210
-4.07986  1.07781  2.30295 26 30 29
-4.82686  2.64055  2.31772 197 197 195
-1.21505   2.7827  2.88775 58 57 55
 1.12178 0.583066  3.01008 115 119 94
 -3.453 3.11138 2.53187 58 58 48
-5.30109 0.545431  1.59457 72 83 89
-5.98589 0.939299  1.66917 187 199 199
 -3.5048 0.376043  2.75934 47 47 47
0.666166 0.477689  2.96809 82 97 54
-3.90398  1.28368  2.24652 246 247 241
-3.96552  0.48601  2.66151 37 43 29
-0.987007   2.09161   2.83861 86 86 88
0.322587   3.3623  2.88508 62 72 74
-1.60143  1.72732  2.77402 81 80 85
-3.35431  2.99488  2.66124 161 148 132
-3.76734  0.40758  2.76313 78 71 63
-4.91635  1.67598  1.69922 192 196 199
-5.11092  1.53372  1.70561 190 191 196
-3.38904   2.8256  2.78557 34 34 22
-1.63487  3.43502   2.9038 71 77 43
-0.183301   1.97606   2.45022 229 233 234
0.238636  2.76192  2.63401 39 38 43
-1.4004 2.88001 2.78072 67 82 39
-0.168168   2.51744    2.6096 21 22 26
1.42065 0.60741 3.07877 68 78 43
-4.54223  2.80807  2.25158 198 201 206
-2.59011   2.6954  2.84957 188 176 160
-3.63565 0.554834  2.71083 37 48 50
-4.8023 1.02804 1.68617 188 196 198
-4.24893  1.68988  2.38632 46 48 45
-2.90662  1.44319  2.34693 142 82 74
-1.46849  2.64139  2.86478 206 180 157
-3.78105  1.38737  2.34481 48 52 53
-2.36152  2.58066  2.88929 169 159 147
-3.33103 0.222174  2.74054 165 156 151
  -5.2017 -0.128183   2.58383 180 177 172
-4.19392  2.72038  2.46777 75 77 74
0.122815  1.01286  2.45369 211 221 223
-4.78366  1.16849  1.63898 91 99 102
-0.370443  0.608056   2.55981 36 30 40
-5.35094 0.449259  1.52778 211 216 210
0.313746  2.92596  2.89422 170 171 165
-2.52794   1.7661   2.5377 18 21 12
-4.37813  1.92535  1.74512 59 62 67
-5.48112  2.93539  2.42684 206 193 174
-4.46497  1.93927  1.64742 221 224 215
-4.57175  1.38842    1.698 206 205 203
-4.97851  1.39196  1.50759 52 55 46
-4.72414  1.28315  1.68104 192 193 187
-2.74058  2.46326   2.8274 169 165 153
   -5.447 -0.385019   2.64123 23 25 20
0.731604  2.05613  2.50455 144 163 177
-0.212654  0.920836   2.69253 28 28 36
 -6.06137 -0.726923   2.71256 150 152 147
-1.85448   0.6703  2.77068 125 115 106
 0.2007 2.47284 2.49191 152 171 178
-3.42526  1.28831  2.33416 160 155 151
0.581655  1.57803  2.47684 36 38 17
-0.431645   1.79787    2.6547 32 28 29
-4.52021  2.09281  1.72589 195 199 202
-0.952407   2.21649    2.8635 162 158 155
-5.27285  2.83292  2.48807 18 21 26
-0.710357   2.71541   2.81455 73 92 47
-3.66378  2.79761  2.45002 28 29 21
-0.150713   3.68281   3.00131 81 85 88
-0.335053   2.40133   2.52974 16 14 17
-4.15253  1.03997  1.88218 207 207 209
-4.38601  2.13395  1.70315 85 94 99
-5.89901  2.89863  2.40866 31 36 16
-3.28672  1.53181  2.37612 174 170 159
-0.803536   2.69908   2.88919 50 51 56
-5.17589  1.70743  1.72518 118 86 73
 -6.25195 -0.746071   2.68838 134 139 135
-4.73478 -1.20712  2.43228 32 35 28
-5.28401  1.70762  1.73066 214 215 219
-1.4745 1.90644 2.83036 182 177 173
-4.64626   1.2273  1.66575 40 54 63
-5.1359 1.78116 1.73371 202 213 219
-4.65035  1.46878  1.74287 212 213 215
-0.260248  0.580421   2.56211 163 171 173
-4.41864  2.03843  1.68267 66 71 74
-3.06109 -1.07131  2.28166 108 125 133
-5.50942  2.63206  2.44581 82 77 55
-0.0331993    2.47868    2.50087 213 214 218
-2.46649  3.12912  2.87874 208 198 188
 -5.8306 -1.49437   2.6092 61 69 48
-2.43959 0.931495  2.75856 15 16 20
-3.18478  3.20165  2.56791 74 74 62
-3.74615  2.90298  2.42968 19 28 7
0.367975  3.29441  2.89167 72 77 83
0.0115319  0.984463   2.53116 158 168 169
 -5.32455 -0.699162   2.37207 22 28 14
-4.99987 0.398634  1.87028 158 138 113
-3.03333  3.29428  2.69301 31 32 16
 1.45365 0.441275  3.08842 109 106 87
-4.34827  2.05798  1.68905 200 205 209
-0.608355   2.96012   2.80725 27 23 20
 -3.19676 0.0627172   2.69495 6 11 14
-3.4629 1.11945 2.36412 164 155 150
-4.97726  2.99531  2.43641 31 35 44
-4.74208  2.10536  1.75647 196 198 197
-5.69403  2.68966  2.43634 52 57 37
-4.29219  1.54017  2.36637 78 81 86
-3.02119  1.65032  2.32922 25 32 42
-3.67173  2.17724  2.38641 67 66 64
-3.47372 0.180531  2.70144 26 31 34
-0.120791   1.96914   2.44096 227 231 232
-5.78141  2.65672  2.43143 165 154 136
0.866043  1.91906  2.46844 220 221 223
-1.4948 2.60621 2.84896 219 204 185
0.11826 1.31966 2.45411 19 29 20
-5.47372  2.71749  2.46369 207 193 180
-2.1373 2.49037 2.79769 201 191 181
  0.82105 -0.355067   2.75528 52 55 44
 0.636597 -0.243319   2.74182 77 80 71
 -4.229 1.58986 2.37232 73 78 84
-3.99803  1.72207   2.4008 134 136 133
-4.27725  1.87937  1.68222 195 200 204
0.138026  0.15527  2.97108 89 90 74
 -3.24572 -0.217106    2.6686 103 99 72
-2.68255  2.19825  2.82945 187 181 169
-4.76531 0.735634  1.59809 144 147 152
-5.35275 0.573073  1.57326 67 77 76
-1.24187  2.72649  2.86668 62 52 50
-3.2744 2.79241 2.80831 111 105 91
-2.78174  2.60397    2.795 182 176 162
0.74997 2.21414 2.42669 152 166 175
-5.21504  1.94994  1.65378 228 226 227
-3.15634  -1.0255  2.22873 206 224 228
-5.16684 0.767068  1.62514 196 206 208
-2.52251  2.72741  2.83131 187 175 161
-4.35193  1.85879  1.66727 78 79 84
-3.52507 0.139055  2.64023 215 224 223
-5.38438  2.73346  2.47133 62 65 46
-4.47724  1.70897  1.65634 202 208 206
-0.00221569     2.57884     2.51357 75 77 72
-5.18168 0.416318  1.57477 63 74 80
-4.47958  -1.0394  2.61641 12 14 26
-6.48723 -1.79515  2.69447 21 28 38
-4.06179 0.179337   2.7076 177 164 155
-1.78142  3.40813  2.92135 182 170 144
-5.32731  2.80494  2.44032 129 131 126
-6.1051 2.54922  2.4767 83 84 66
-1.69342  3.50925  2.64075 185 196 192
-2.18497   3.4157  2.77006 218 204 191
-0.275284   2.51102   2.67197 167 121 121
0.729839  -0.3198  2.78388 9 11 8
 -2.67971 -0.209227   2.61794 252 253 255
 1.58066 0.575449  3.08364 186 178 175
0.324079  3.20895  2.86142 235 242 248
-1.71216  2.22816  2.79677 50 55 35
-5.26877   2.9952  2.41588 237 245 255
-1.61881  1.66193  2.79134 50 56 56
-4.50411   2.8145  2.27411 204 204 206
-4.86459  1.23225  1.68281 199 201 198
-2.92469 0.468702  2.68113 237 246 251
-6.17323  -1.6825  2.68432 135 139 142
0.455678  3.26729  2.82895 224 225 230
 1.32603 0.734094  3.04914 120 120 84
 -5.09858 -0.494225   2.68622 138 129 120
-2.47614  2.41973  2.82409 182 176 164
-5.61065  2.91323  2.47121 194 184 174
0.70275 2.95392 2.46157 74 82 85
-4.97999  1.21451  1.69058 189 193 192
-1.77169  3.10221  2.90939 83 78 58
 1.08456 0.755899  3.02341 67 74 43
0.362591  3.09465  2.87214 240 245 251
-4.41828  1.96376  1.62821 223 228 222
-0.0570954    1.88897    2.44547 225 230 233
-1.49868  3.48542  2.93719 119 105 79
-3.52619  2.37316  2.42659 168 167 162
0.977587 0.199877  3.02338 82 93 53
-4.01968  1.16626  2.20412 157 157 165
0.760068  3.08348  2.78279 158 114 111
-4.41381   1.3171  1.93263 86 90 99
-6.71325 -1.12198  2.70531 188 183 180
-4.30797 0.668086  2.37802 29 33 32
 -3.6481 0.508665   2.6815 4 10 8
-4.90729   1.4398  1.56162 178 181 186
-2.39363   2.0728  2.80433 168 160 147
-1.30109  2.12292  2.84853 174 174 176
-3.5248 2.87447 2.59457 214 202 176
-4.52587  2.27841  1.76587 131 131 123
-4.38981  2.81816  2.45586 175 168 160
-4.69698  1.14507   1.6372 196 200 201
-5.28162  1.89329  1.64056 149 153 156
0.549043  1.71648  2.46652 218 221 226
-5.33161 0.621025  1.61941 28 37 44
-4.32732   1.1872  2.44173 74 77 82
-3.50838 0.633887  2.68922 207 218 222
-4.42155   1.7095  1.67956 82 85 90
-5.00154  1.75963  1.72178 201 200 198
-2.23562  1.53948  2.76741 20 29 26
-6.15777  2.73048   2.4104 208 194 168
 -3.7211 0.160476  2.69763 10 13 18
-2.07445  2.44457  2.76688 82 79 62
-4.82024 0.817845  1.63979 196 206 208
-2.67824 0.796267  2.71416 29 13 13
 -3.85327 -0.456839   2.67095 81 87 59
-0.380298   3.34555   2.89931 230 242 238
 0.05935 0.779748  2.57928 217 212 218
-5.66006  2.94816  2.43886 58 52 40
-0.163335    2.8188   2.81618 136 150 153
 -6.043 1.37333 1.62894 68 78 79
-4.54747  3.00865  2.31518 188 196 198
-1.82281  3.47657  2.89325 100 117 72
-0.412783   1.12737   2.69331 218 214 213
 -4.013 2.99745 2.45897 206 207 201
-0.0429124    1.56549    2.46783 216 231 236
-2.77764  3.26002  2.85824 59 53 27
0.293336  2.67111  2.55175 197 196 202
-5.03751  3.07459  2.49934 189 190 176
 -3.03674 -0.276495   2.60674 104 114 113
-4.20811  1.27178  2.40367 46 53 61
-1.53832    2.982  2.91583 176 175 154
-3.33396  3.04661  2.52959 213 203 191
-3.1596  1.6161 2.36295 234 235 240
 -4.24383 -0.175431   2.66261 244 248 249
-0.413099   2.19565   2.49262 161 180 186
-5.04827  1.38594  1.51412 201 202 197
-4.61564 -1.10913  2.52814 45 51 41
-6.30187  2.90499  2.42969 77 71 49
-2.69459  2.66466  2.82022 172 165 149
-0.854994   2.53606   2.80359 166 175 192
 -3.21277 0.0154134   2.62403 53 64 70
-4.56762 0.953337  1.68458 197 198 192
-3.25623  3.05275  2.56004 216 208 189
-1.79854  1.97398  2.82697 155 152 145
 -4.75867 -0.976872   2.55819 17 23 11
-0.30576  3.81887  2.87132 235 236 240
-3.09297  1.38918  2.36502 31 32 37
-4.32834  1.97628  1.73762 162 167 171
-2.57026   1.8699  2.82024 158 150 139
-2.62054  1.31377  2.75643 35 37 26
-2.61474  1.31086  2.78344 35 37 26
-3.30573   2.7185   2.7405 65 59 45
-5.99883  2.44495  2.42787 58 52 28
 -5.479 1.14707 1.63199 176 181 185
-1.97969  2.12962  2.68102 8 20 0
0.33881 1.58043 2.50392 216 223 229
-4.05802   2.6897   2.4514 180 179 177
 -4.0594 0.722154  2.34202 170 167 162
-2.54731  2.80137  2.84811 96 84 60
-5.42832  1.76032  1.61759 56 59 64
-5.53179  3.04495  2.41409 44 38 24
-4.37346  3.05376   2.4754 139 140 132
-4.89566   1.4131   1.6928 159 164 170
-0.693018   2.61692     2.838 111 126 87
-2.88606 -0.24211  2.66132 17 18 23
-0.218684   1.01417   2.72695 236 237 229
-2.58399  2.30687   2.7989 172 168 157
-5.80926  2.92733  2.42108 55 51 40
-6.33804  2.86013   2.4295 171 162 133
 -6.08597 -0.507862   2.71466 160 157 150
-2.24053  2.82183   2.8749 159 143 128
-3.49429  1.95497  2.42446 161 161 159
-5.77163  2.88116  2.44155 47 35 13
-2.63351  2.27682  2.82752 85 78 68
-2.64484  2.14502  2.81618 91 88 71
-3.51339  3.11406  2.44526 63 66 39
0.474458  2.68196  2.55957 228 243 250
-1.58276  0.26822  2.36004 171 190 197
-2.64967  3.45665  2.86465 220 198 175
-4.31403  1.84886  1.70525 191 192 196
-3.13603  2.71926  2.84656 170 163 147
0.139638  3.60182  2.87632 73 88 95
-5.87564  1.07344  1.54886 184 201 208
-4.81778   3.0871  2.44963 30 29 37
-0.39249 0.987757  2.69609 210 215 211
-3.62391  1.87569  2.35349 27 31 40
-0.849831    2.3943   2.81135 202 209 219
-2.0528 1.25191 2.80644 167 162 156
-5.66081  2.77151  2.45732 131 127 124
0.438877  3.13553  2.82802 229 245 245
-6.10744  2.75261  2.41134 51 35 20
-0.804697   2.51237   2.79465 95 88 82
-2.36856  2.51929  2.82164 181 172 163
-3.17368  1.60698  2.37704 244 245 250
-6.10756  1.38858  1.65601 176 187 191
-1.37613  3.64063  2.96052 128 124 99
-5.43974  1.60029  1.68942 217 217 217
0.133031 0.698972  2.63167 242 244 239
 0.88691 0.376456  3.03552 39 43 20
-4.08798  2.83081  2.45004 105 102 95
-2.14569   1.2296  2.79887 69 70 64
-3.96542  1.43688  2.37556 200 210 219
0.266702  1.60757  2.49079 156 167 173
-5.53772  1.01655  1.61054 99 97 98
-2.18137  2.85707  2.87669 203 191 177
-1.60352  1.57463   2.0114 109 118 97
-1.94436  3.54957   2.9042 112 110 62
 1.01501 0.489385  3.05152 45 53 32
-1.63309  3.27928  2.92501 73 66 48
-5.37519  1.65409  1.72027 201 198 193
 0.908354 -0.391451   2.64672 33 37 20
-1.1482 2.78889   2.832 25 31 43
-2.06683  3.16042  2.88345 107 100 84
-2.53873  2.53016  2.83818 174 162 148
-2.51437  1.93707  2.81362 86 80 68
-2.00623  2.46412  2.79313 88 80 67
-6.12822   1.4409  1.68711 72 82 84
-5.62201   1.9106  1.71127 101 104 95
-3.80419  1.31403    2.234 247 249 244
-0.431862   3.42413      2.95 182 182 180
-4.62777  2.07551  1.75492 204 206 203
-1.94615  1.80741  2.78837 248 247 219
-1.7781 2.49755 2.83735 154 151 120
-4.41524 -1.00967  2.62936 42 49 68
-3.48753  1.79558  2.41565 160 160 160
-1.4986 3.00886 2.86524 90 95 63
-4.92778  1.18821  1.69099 59 58 56
0.117333   1.3812  2.41746 229 231 228
-4.96235  1.58366  1.71525 190 195 199
-5.25352  1.17582  1.54172 137 136 131
-5.30046  1.84233  1.63834 63 68 72
 -4.19043 -0.137873   2.65106 13 25 23
-1.98731  1.28395  2.77137 49 44 41
-4.33019  1.81049  1.70941 175 189 192
-2.58553 0.859058  2.74977 55 54 59
-1.86827  1.86677  2.76007 57 63 49
-2.80933 0.722126  2.73675 81 51 51
-2.90266  1.01378  2.72528 177 176 174
-3.78249  2.23532  2.38852 57 55 58
-1.74618  2.01461  2.77307 177 194 204
-3.35512  2.90734  2.77112 69 66 49
-4.93194  1.47786  1.59481 161 170 175
-5.16421  2.01004   1.6833 211 212 204
-3.93254   1.2028   2.2134 231 235 234
  1.01982 -0.252899   2.79146 7 12 6
 -3.9114 0.245532  2.70354 175 168 160
-3.26243  2.61894  2.76704 31 25 11
-6.04013  2.77176  2.41381 224 209 186
 0.642768 -0.109397   2.74256 17 20 11
0.307805    2.273  2.54142 60 70 79
-2.92372  2.81639   2.8296 193 187 175
 1.04675 0.794821  3.02679 97 108 68
0.343031  1.50016  2.46774 186 190 193
-0.0560121    2.12307    2.47421 214 217 224
-5.38023  1.78549   1.6549 32 31 37
-4.02976 0.388146   2.6953 62 60 45
-3.38662  3.02768  2.51152 72 67 48
-1.64914 0.942673  2.74652 184 194 203
-5.80195   2.5329  2.42585 61 54 35
-3.41999 0.103577  2.68307 173 177 176
-2.5257  2.7528 2.85119 193 184 167
 1.44834 0.633609   3.0794 67 77 40
 -1.1137 0.419793  2.40254 164 183 190
-3.22333  3.01153  2.85063 67 61 37
0.399391   3.1162   2.8469 42 57 60
-5.58219   2.9647   2.4572 62 49 40
-5.76696  2.55802  2.43659 173 166 140
-4.62198   1.1766  1.62466 208 217 224
-5.84812  2.55414  2.40209 208 199 182
-1.65082  1.17592  2.67255 73 84 70
-4.74605  1.77499  1.73945 200 205 209
0.678055  1.76215  2.50703 218 223 226
-4.47383 0.994507  1.69183 53 49 46
-3.15789  2.98123  2.81929 164 155 124
-6.19467  2.48099  2.42986 195 181 170
-4.72014 0.218909  2.70994 152 151 149
0.305403  1.48843  2.45138 229 232 237
  -3.17942 -0.0250148    2.63046 48 61 69
-2.71311  1.84831  2.81635 9 11 8
-5.18342 0.632843  1.63408 191 200 197
-5.15835   1.9577  1.67961 67 69 68
-0.812959   2.85954   2.91858 172 161 157
-5.61477  2.66085  2.43628 59 53 27
-5.51116 0.968624  1.62475 110 109 114
0.357913  3.23583  2.84416 43 58 65
-5.99366  2.55722  2.45086 52 48 23
-1.38135  2.76394  2.86682 175 169 143
-5.25464  2.72948  2.42308 159 167 154
-5.49869 0.558417  1.64504 106 108 105
0.384181  1.56986  2.46879 74 79 83
 -1.62326 -0.847002   2.38819 21 23 9
-4.81317 0.244716  2.72712 16 20 21
-7.03047 0.720775  2.51084 52 54 40
-4.40529   1.9142  1.62931 63 71 74
-6.98226 0.578524  2.55441 80 79 74
-2.9994 1.58583 2.33725 163 176 192
-4.2946 2.68877 2.44774 73 73 71
-3.07805  1.43455    2.355 184 178 182
-4.68939  1.41994  1.72296 124 123 118
-5.01809  1.56829  1.70405 57 65 68
-4.71551  1.21808    1.645 171 176 180
-3.76966 0.386116  2.70954 172 165 157
-4.70761 0.923027  1.64458 246 248 245
-4.63823  2.68898  2.40142 181 174 166
-1.41887  2.17951   2.8571 185 178 170
-0.710817   1.83145    2.7588 124 141 151
-1.92333  3.49985  2.91939 71 68 33
 1.46851 0.578987  3.08882 93 106 62
-3.50334  1.06016  2.35571 154 149 145
-6.25767  2.29216  2.43078 58 55 38
0.0410721   1.36769   2.46921 133 147 148
 1.24579 0.285667  3.06741 80 91 49
-4.65912  1.34272  1.71679 144 141 132
-5.07645  3.09635  2.48685 70 66 65
-4.67818  1.18801   1.6308 43 52 61
-0.658548   3.27341   2.93598 111 105 105
-4.12202 0.217242  2.66901 17 28 34
-5.31829  2.23363  1.94473 121 122 114
-4.71621  1.56288  1.72258 183 184 179
-2.89231  3.12518   2.8203 89 81 58
-2.56681  1.38676  2.70015 61 77 41
0.834373  1.82131  2.50653 56 64 67
0.756218  2.13804  2.50633 210 220 229
-6.79441 -1.56911  2.71823 155 145 135
-3.48354  2.89908  2.65015 57 47 22
 -5.02131 -0.018468    2.7373 37 37 29
-4.68871  1.46372  1.72163 200 201 193
-3.73483  1.37846  2.38139 64 58 58
-2.09314  1.34077  2.80774 179 168 162
-0.23604  3.67126  2.94945 182 184 183
-2.57258  1.65784  2.39084 47 56 35
-5.38292  3.03647  2.45486 235 241 237
-1.99746 0.656093  2.71591 175 182 192
-4.20282  2.91737  2.42557 14 10 0
-3.69744  0.50319  2.66501 166 166 166
0.60536  1.6514 2.45851 165 168 161
-1.83607  2.69283  2.83628 201 185 159
-1.42994  2.82699  2.83984 96 96 72
-5.42997 0.722996  1.63882 65 76 82
-5.42603 0.722751  1.63023 65 76 82
-3.85474  1.01074  2.35542 54 51 44
0.838079  0.39538  3.03943 85 95 61
-3.08552   3.3105  2.58642 31 21 11
-5.13655  1.75849  1.71121 218 223 219
0.612669  1.69766  2.48779 83 88 91
-5.22903  2.06288  1.68382 58 68 67
-0.804433   2.13096   2.78567 49 63 74
 -4.27066 -0.127582   2.64996 101 100 98
-5.23485  1.50323  1.71138 122 123 115
-5.11186  1.95287  1.67054 228 234 230
-0.502435   1.76273   2.63156 144 148 160
-0.498337    1.2051   2.81402 168 169 164
-0.862761   2.42979   2.77406 71 84 93
-5.45246 0.241814  1.61675 243 249 247
-1.57464  3.43518   2.9194 59 65 37
-3.30118 -1.04676  2.24929 63 71 82
-5.94516  2.52994  2.43041 194 189 169
-1.67065  2.07138   2.7928 31 49 63
0.905456  2.14974  2.49506 136 149 157
-4.10618 0.257909      2.7 129 138 145
 -5.34686 -0.310265   2.73341 124 124 116
-3.08193  2.39756  2.80514 151 139 127
-6.61457 -1.55471  2.66602 21 28 34
-5.88901  2.59133  2.42464 48 45 28
-5.43327 0.692412  1.60848 198 203 207
-1.29071  1.78115  2.75116 9 12 19
-2.75075  2.68573  2.81062 71 62 47
-5.30833 -0.70179  2.38242 22 24 10
-3.33341 0.118496  2.72454 124 123 121
-0.684304   2.47961   2.81105 106 106 78
 0.774092 -0.272342    2.7475 8 13 6
 -5.10298 -0.647604   2.66765 198 191 183
-2.62238  2.64051  2.83002 194 188 174
-2.76934  0.75633  2.73566 86 50 52
-0.0507666    2.07919    2.46886 63 74 80
-4.25141   1.5173  2.38457 37 42 48
-4.77272 -1.00697  2.47214 60 62 48
-4.59305 -0.54299  2.68591 58 33 26
-4.55401  2.23237  1.75872 186 181 177
-1.34504  2.72884  2.85784 81 75 51
-6.14177    2.672  2.41481 121 96 76
-4.60094  1.48243  1.65697 230 230 232
-1.9311 2.74425 2.87877 83 75 64
-5.72272  1.56324  1.68538 128 129 133
-0.316691   2.34296   2.46434 236 235 240
 -5.81888 -0.679659   2.66009 33 37 40
-3.93444  2.75437  2.47278 106 105 103
 -3.79649 -0.507943   2.67151 85 95 61
-1.49052 0.301137  2.40104 172 190 200
-3.95181 0.845695  2.21561 251 247 246
-0.425137   2.09082   2.47989 150 168 172
-3.00938 0.182046  2.70908 156 152 153
-5.30047  2.95332  2.52371 195 193 180
-3.65452   2.8618   2.4733 55 54 36
-4.52375  2.19437  1.75335 205 204 200
 1.06895 0.106692   2.8255 23 29 15
-3.75526 0.465712  2.67262 218 215 208
-4.60679  1.88769   1.6601 114 123 128
-3.60593  2.14962  2.43215 177 172 168
-1.50655  2.30784  2.79519 25 40 45
-0.662213   3.06466   2.85793 202 211 220
-5.87105  2.84442  2.43561 198 194 167
-1.94299  2.32854  2.79721 71 70 50
-5.61088  2.70346  2.43408 178 166 152
-1.97018 0.721872  2.76847 149 149 157
-3.3538 3.07264 2.48053 52 45 35
-4.20033  2.86808  2.42433 182 178 167
-5.19077  1.58061  1.71334 121 122 117
0.192148 0.251335  2.98265 87 93 65
-1.87675 0.711191  2.76463 170 165 159
-4.23805   2.7662  2.45737 177 180 173
-3.44131  2.69299  2.64447 58 58 50
-0.612105   3.24903   2.89958 142 134 132
-4.0248 2.57822 2.44814 80 78 79
 -2.54797 -0.899192   2.51374 37 41 40
-3.41197 0.152701  2.67128 158 161 166
-2.48919  3.25248  2.88038 188 179 164
-4.78229 0.204685  2.74672 29 29 31
-4.68924  2.66347  2.24142 220 220 220
-0.684749   3.02745   2.83988 52 67 74
-4.81648  1.43536  1.71287 87 92 96
-5.85013  2.81785  2.44419 73 67 45
-1.31741  1.70362  2.81451 124 127 116
-4.23248  2.73043  2.44282 73 78 74
