ply
format ascii 1.0
element vertex 1236
property float x
property float y
property float z
property uchar red
property uchar green
property uchar blue
end_header
3.433272 0.664401 -0.347217 255 0 0
1.012001 2.250613 -0.200579 255 0 0
4.234503 0.504001 -0.158073 255 0 0
3.198001 0.214702 -0.236943 255 0 0
3.799033 -0.392938 -0.163690 255 0 0
3.288251 0.446962 -0.121905 255 0 0
-0.185886 5.253516 0.003702 255 0 0
0.883016 6.034689 -0.148585 255 0 0
-0.176505 2.198780 -0.356158 255 0 0
1.267452 4.471670 0.094380 255 0 0
0.007362 3.300461 0.010878 255 0 0
2.283923 4.064292 -0.417667 255 0 0
4.617289 -0.315617 -0.160111 255 0 0
0.191648 2.612857 -0.371591 255 0 0
0.709084 2.826660 -0.402804 255 0 0
2.712489 -0.116196 0.056601 255 0 0
0.246065 3.852820 0.076643 255 0 0
0.997237 6.209157 -0.033970 255 0 0
3.516815 -0.082562 -0.202569 255 0 0
1.413454 -1.163651 0.028309 255 0 0
-0.822691 4.267965 -0.032718 255 0 0
3.170429 -0.423854 -0.028708 255 0 0
3.335392 0.582013 -0.100780 255 0 0
3.271099 -0.313170 -0.150305 255 0 0
0.789466 3.725041 0.096866 255 0 0
-0.664862 2.997878 -0.047996 255 0 0
3.702374 1.958052 -0.052144 255 0 0
3.008352 2.566891 -0.124605 255 0 0
-0.007068 4.869914 -0.003936 255 0 0
-1.112573 4.896963 -0.019673 255 0 0
-1.116097 4.897943 -0.015028 255 0 0
4.250376 0.213046 -0.119522 255 0 0
4.493558 0.601167 -0.140695 255 0 0
3.651165 -0.486990 -0.194321 255 0 0
4.485102 0.441237 -0.141500 255 0 0
1.121252 5.714638 0.044908 255 0 0
0.495654 5.756362 -0.130196 255 0 0
3.585039 -0.443153 -0.137168 255 0 0
0.900744 2.798047 -0.323623 255 0 0
2.043740 6.059626 0.073526 255 0 0
-0.052582 6.502908 0.070144 255 0 0
2.659041 3.623725 -0.553477 255 0 0
3.492169 -0.270663 -0.149628 255 0 0
3.491455 -0.270657 -0.150528 255 0 0
1.116877 5.885129 -0.006018 255 0 0
0.209177 3.117762 -0.133075 255 0 0
1.476765 -1.426863 -0.013012 255 0 0
3.927915 3.303409 -0.479911 255 0 0
3.441675 2.207493 -0.058559 255 0 0
3.191985 0.371773 -0.106060 255 0 0
1.583509 4.568927 -0.010574 255 0 0
2.748785 -0.465224 -0.171103 255 0 0
2.287910 5.927867 0.111984 255 0 0
1.548846 7.351101 0.233994 255 0 0
2.535578 0.582344 0.019622 255 0 0
0.515134 3.226388 -0.372803 255 0 0
0.917191 2.562148 -0.231230 255 0 0
1.285317 5.557693 0.017295 255 0 0
0.718428 5.636543 0.036035 255 0 0
0.399590 5.377789 0.036469 255 0 0
1.459047 7.157551 0.219628 255 0 0
3.649433 0.843083 -0.569866 255 0 0
4.065348 -0.059841 -0.092081 255 0 0
3.234258 2.235986 -0.238809 255 0 0
1.590372 6.278018 -0.110367 255 0 0
1.582445 -0.797146 0.037019 255 0 0
3.312374 2.051440 -0.058587 255 0 0
2.626477 4.193958 -0.412769 255 0 0
2.436185 2.383804 -0.194773 255 0 0
0.296870 5.900571 -0.060119 255 0 0
3.337549 3.633972 -0.179341 255 0 0
0.519885 2.604424 -0.177358 255 0 0
1.782645 0.533000 -0.068025 255 0 0
3.507900 2.342107 -0.124426 255 0 0
1.269358 -1.246072 -0.026899 255 0 0
0.411205 2.613252 -0.204943 255 0 0
1.637407 6.695087 0.066740 255 0 0
2.993929 0.711594 -0.103467 255 0 0
2.086383 2.601078 -0.168776 255 0 0
0.280511 6.843801 0.151777 255 0 0
2.726493 3.557177 -0.592275 255 0 0
0.697283 5.335075 0.041463 255 0 0
0.465541 6.403507 0.168133 255 0 0
1.391963 -0.978502 -0.039551 255 0 0
4.292631 -0.398344 -0.210422 255 0 0
3.967609 1.793770 -0.063230 255 0 0
3.007205 2.355357 -0.254108 255 0 0
2.489081 4.531311 -0.245991 255 0 0
2.250767 -1.166438 0.103541 255 0 0
3.123162 -0.654949 0.017132 255 0 0
2.544403 1.640583 -0.139504 255 0 0
3.319021 -0.651185 -0.120886 255 0 0
-1.205131 4.632532 0.022541 255 0 0
2.404016 5.539212 0.089476 255 0 0
2.743794 0.390625 -0.084686 255 0 0
1.728478 1.840006 -0.109011 255 0 0
2.475070 1.669584 -0.160749 255 0 0
1.648650 -1.562576 0.062866 255 0 0
2.710645 -0.522876 -0.196668 255 0 0
2.430473 1.752059 -0.158970 255 0 0
1.658128 4.297859 0.083971 255 0 0
1.689298 7.234582 0.195550 255 0 0
4.065059 -0.121595 -0.108585 255 0 0
2.689835 3.073376 -0.869121 255 0 0
1.482148 4.569486 0.070947 255 0 0
0.552494 1.351278 -0.556058 255 0 0
2.038448 6.827630 0.174622 255 0 0
2.159358 0.826467 -0.056650 255 0 0
3.284250 -0.781968 -0.111441 255 0 0
0.559465 -0.043175 -0.440243 255 0 0
1.582241 5.618368 0.005548 255 0 0
0.130713 2.124917 -0.372709 255 0 0
3.275916 2.342659 -0.152903 255 0 0
0.869361 0.716659 -0.449283 255 0 0
1.803429 -1.070349 0.045452 255 0 0
3.097364 -0.695369 -0.016389 255 0 0
3.583221 2.330187 -0.138292 255 0 0
3.023289 -0.908409 0.040737 255 0 0
1.495687 6.717095 0.144956 255 0 0
1.318082 -1.094929 0.030567 255 0 0
2.504462 0.564244 -0.014258 255 0 0
0.546018 0.993579 -0.544433 255 0 0
3.288121 -0.917968 -0.156118 255 0 0
2.872940 -0.319905 0.003435 255 0 0
2.079843 2.482600 -0.186511 255 0 0
0.524067 0.683681 -0.478872 255 0 0
2.820885 2.816208 -0.729972 255 0 0
2.004494 3.059926 -0.584012 255 0 0
1.446199 -0.654419 -0.063033 255 0 0
1.834943 5.401443 0.082249 255 0 0
3.328377 -0.210832 -0.173741 255 0 0
2.595477 1.696741 -0.139376 255 0 0
3.010293 0.787347 -0.050340 255 0 0
1.701029 4.516174 -0.007694 255 0 0
-1.384830 6.006151 0.073726 255 0 0
0.521951 0.607499 -0.474141 255 0 0
0.531236 0.618155 -0.501524 255 0 0
2.038466 2.546989 -0.174177 255 0 0
2.279885 0.880600 -0.040944 255 0 0
0.624834 5.209232 -0.005096 255 0 0
0.635884 0.888808 -0.479401 255 0 0
2.484907 1.853286 -0.103978 255 0 0
1.077034 0.682931 -0.127641 255 0 0
-0.049434 6.880267 0.105100 255 0 0
1.953115 -1.394925 0.067157 255 0 0
1.478965 5.353836 -0.044451 255 0 0
0.663688 2.726052 -0.508148 255 0 0
0.016809 6.898686 0.075703 255 0 0
3.200571 -0.101374 -0.218365 255 0 0
0.375253 2.677854 -0.229677 255 0 0
0.790543 6.663892 0.214070 255 0 0
1.441428 -0.842928 0.019600 255 0 0
0.722535 2.251199 -0.308221 255 0 0
1.126139 2.491434 -0.201231 255 0 0
0.497750 1.919561 -0.541858 255 0 0
0.853742 -1.270896 -0.024881 255 0 0
1.832286 5.265266 0.078723 255 0 0
4.603731 -0.091488 -0.076461 255 0 0
2.484618 1.797796 -0.092571 255 0 0
-0.044608 3.254392 0.042058 255 0 0
-1.293144 5.274089 0.011225 255 0 0
1.447219 -1.023247 0.009506 255 0 0
3.294360 -0.255900 -0.217345 255 0 0
3.365506 -0.744452 -0.120311 255 0 0
1.944945 -0.047802 -0.038844 255 0 0
2.461999 -1.109940 0.110748 255 0 0
3.081007 -0.283314 0.061168 255 0 0
1.885417 -0.950516 -0.007145 255 0 0
1.212215 0.656906 -0.120068 255 0 0
2.575052 2.349734 -0.130174 255 0 0
1.501048 -0.807553 0.008015 255 0 0
1.356086 5.614929 0.042682 255 0 0
1.813333 4.463894 0.080468 255 0 0
0.320367 2.106978 -0.516928 255 0 0
0.668538 6.809640 0.130932 255 0 0
0.929151 0.931109 -0.488768 255 0 0
3.089440 -0.488739 -0.006922 255 0 0
1.481171 3.438806 -0.321007 255 0 0
3.809547 -0.435161 -0.193192 255 0 0
1.214932 -1.409023 0.016652 255 0 0
0.693020 5.780348 -0.180786 255 0 0
2.550111 2.288375 -0.163610 255 0 0
1.293594 2.086543 -0.166221 255 0 0
0.530318 1.165216 -0.506784 255 0 0
2.196787 5.884732 0.042200 255 0 0
-0.452975 4.368895 0.033473 255 0 0
0.782571 6.355881 0.145094 255 0 0
0.929373 0.790723 -0.470949 255 0 0
0.469839 2.678237 -0.215163 255 0 0
2.111228 6.198255 0.054224 255 0 0
0.931783 4.848659 -0.360283 255 0 0
0.893189 0.961508 -0.500139 255 0 0
1.295731 -1.155761 -0.049330 255 0 0
0.642888 1.322481 -0.507996 255 0 0
0.445185 5.469115 0.050716 255 0 0
1.432166 -0.871333 -0.022221 255 0 0
0.514587 0.178356 -0.466355 255 0 0
0.859422 7.083399 0.245732 255 0 0
2.718712 1.759506 -0.143957 255 0 0
1.022202 7.260654 0.214446 255 0 0
0.909596 -1.274129 -0.038249 255 0 0
2.189396 0.326867 0.009255 255 0 0
-0.458697 5.686684 0.096522 255 0 0
3.670130 1.573201 -0.007246 255 0 0
1.671649 7.521632 0.161731 255 0 0
2.658780 1.452689 -0.131196 255 0 0
2.608475 -0.284465 -0.163280 255 0 0
-0.086721 4.469347 0.006724 255 0 0
3.909857 1.764749 -0.089819 255 0 0
1.201145 4.376157 0.080574 255 0 0
0.757634 6.514813 -0.723109 255 0 0
3.438866 3.641654 -0.154784 255 0 0
2.688936 2.199094 -0.170047 255 0 0
2.591604 0.590998 -0.054782 255 0 0
0.881573 -1.173768 -0.013585 255 0 0
4.737887 -0.210727 -0.080602 255 0 0
3.600358 1.850314 -0.027110 255 0 0
4.835995 0.787117 -0.119991 255 0 0
1.077661 0.479864 -0.104594 255 0 0
1.688407 -0.551036 -0.018385 255 0 0
3.190503 -0.270867 -0.158313 255 0 0
0.599941 -0.366853 -0.122831 255 0 0
1.131856 0.594139 -0.138043 255 0 0
1.344520 0.488526 -0.148507 255 0 0
-0.553642 5.060841 -0.040953 255 0 0
2.075093 0.131206 0.012716 255 0 0
4.375339 -0.469670 -0.242992 255 0 0
0.512857 0.447703 -0.467658 255 0 0
2.250358 1.718375 -0.974777 255 0 0
1.973089 4.670825 0.108196 255 0 0
0.780366 2.253347 -0.199004 255 0 0
4.657137 0.664695 -0.155299 255 0 0
3.917712 -0.003355 -0.104879 255 0 0
0.555201 0.919127 -0.455016 255 0 0
3.681187 0.322437 -0.179976 255 0 0
-0.505439 2.640165 -0.163201 255 0 0
3.519653 2.049295 -0.103760 255 0 0
2.087020 -1.307870 0.097249 255 0 0
-1.624453 5.305543 0.054457 255 0 0
1.708022 6.013557 0.066772 255 0 0
1.939067 4.135805 -0.293244 255 0 0
3.616624 -0.412136 -0.119436 255 0 0
-0.627940 2.938885 -0.072185 255 0 0
0.188253 1.934174 -0.598722 255 0 0
1.231290 -1.064663 -0.064756 255 0 0
2.756264 0.552383 0.008288 255 0 0
-0.470687 6.423774 0.038825 255 0 0
1.234499 7.407391 0.169500 255 0 0
2.199825 0.990534 -0.078569 255 0 0
3.758137 1.223966 0.022639 255 0 0
1.701881 4.802348 0.075530 255 0 0
2.544547 4.274745 -0.372595 255 0 0
3.053231 2.264195 -0.259830 255 0 0
0.939275 3.770128 0.112354 255 0 0
0.557777 -0.401747 -0.136502 255 0 0
2.959146 3.056742 -0.850869 255 0 0
1.582639 -1.767612 0.086664 255 0 0
2.740453 1.792581 -0.040055 255 0 0
2.116555 -1.649110 0.114338 255 0 0
3.040130 2.110126 -0.137521 255 0 0
1.572537 5.676642 0.043629 255 0 0
0.162870 4.884588 0.021747 255 0 0
2.491309 2.383906 -0.185464 255 0 0
0.851048 2.415009 -0.263259 255 0 0
1.989061 -0.002221 -0.037281 255 0 0
-1.304285 5.894055 0.116749 255 0 0
-0.220320 3.795289 0.035196 255 0 0
-1.003605 5.751306 0.088404 255 0 0
3.368821 1.062368 -0.043847 255 0 0
4.197028 -0.503074 -0.233962 255 0 0
2.701122 4.275431 -0.353529 255 0 0
3.385039 0.186435 -0.228690 255 0 0
0.625124 -0.403366 -0.135443 255 0 0
3.598000 2.228830 -0.099586 255 0 0
0.691823 4.892654 0.038747 255 0 0
3.252292 0.177032 -0.215328 255 0 0
1.030596 6.574150 0.149479 255 0 0
1.746670 4.453490 0.043577 255 0 0
2.596799 4.285725 -0.331169 255 0 0
1.366496 2.606101 -0.240381 255 0 0
4.627216 -0.347649 -0.222675 255 0 0
0.228681 2.578113 -0.459068 255 0 0
3.132212 -0.384991 0.026679 255 0 0
2.661854 2.323274 -0.110619 255 0 0
1.514078 -1.749756 0.096094 255 0 0
1.168104 1.785635 -0.878191 255 0 0
-0.465609 6.951311 0.113404 255 0 0
2.623003 0.482894 0.051420 255 0 0
0.685936 1.320725 -0.505959 255 0 0
3.638282 0.291483 -0.176251 255 0 0
0.564831 0.847183 -0.489448 255 0 0
0.866168 -1.122521 -0.035452 255 0 0
-0.963070 3.630226 0.003387 255 0 0
1.219034 5.905991 0.022788 255 0 0
1.680489 -1.271794 0.003093 255 0 0
2.663064 3.712404 -0.429303 255 0 0
2.443843 2.306783 -0.178274 255 0 0
3.748560 -0.334792 -0.120075 255 0 0
2.641067 4.272900 -0.373011 255 0 0
1.839689 6.935705 0.207973 255 0 0
0.451258 6.720504 0.131620 255 0 0
2.201249 -1.382083 0.108424 255 0 0
0.787952 -1.125456 -0.026745 255 0 0
0.551187 6.986106 0.144456 255 0 0
0.772280 6.417314 0.152785 255 0 0
0.896742 2.497940 -0.243075 255 0 0
3.171856 2.040276 -0.064643 255 0 0
0.658870 2.783452 -0.451114 255 0 0
2.657974 0.694651 -0.015641 255 0 0
3.063504 0.159560 -0.225944 255 0 0
3.895465 1.245969 -0.009909 255 0 0
1.883412 -1.174480 0.021485 255 0 0
1.858624 6.359945 0.028166 255 0 0
3.234901 -0.347321 -0.105459 255 0 0
-0.291482 5.228946 0.000471 255 0 0
4.016897 3.282559 -0.486599 255 0 0
1.791772 -1.174455 0.046970 255 0 0
0.243155 5.829909 -0.026976 255 0 0
3.792424 -0.328482 -0.122560 255 0 0
2.746618 1.418512 -0.105114 255 0 0
-0.827139 4.933983 0.008555 255 0 0
2.252114 5.485508 0.100194 255 0 0
0.554118 1.568178 -0.575208 255 0 0
2.010103 -1.573860 0.089426 255 0 0
-0.367243 3.750348 0.049211 255 0 0
-0.362686 5.979934 0.048518 255 0 0
1.112361 -1.404056 0.030892 255 0 0
1.000791 2.541835 -0.203280 255 0 0
4.786466 0.857140 -0.110610 255 0 0
1.317783 -1.522183 0.063460 255 0 0
1.276951 5.211582 0.056640 255 0 0
0.567070 0.799338 -0.499455 255 0 0
0.939830 4.758345 -0.147538 255 0 0
2.884371 -0.820795 0.058932 255 0 0
-0.841472 3.272086 0.034216 255 0 0
2.923933 -0.834788 0.038169 255 0 0
2.840626 -0.068648 0.041010 255 0 0
0.750022 1.759704 -0.516020 255 0 0
-1.335106 4.512278 -0.016413 255 0 0
0.649306 5.757909 -0.175712 255 0 0
-1.390616 4.774677 -0.018334 255 0 0
3.490000 0.977210 -0.251595 255 0 0
-0.120340 6.426704 0.108577 255 0 0
1.621941 -1.649219 0.094970 255 0 0
1.458806 -1.192546 0.037565 255 0 0
1.149942 4.880999 -0.032134 255 0 0
0.630196 1.284489 -0.507683 255 0 0
1.768714 4.146240 -0.276839 255 0 0
-0.989379 5.805825 0.136698 255 0 0
0.030743 6.602003 0.171175 255 0 0
0.151898 6.955459 0.101926 255 0 0
4.813954 -0.239137 -0.092596 255 0 0
-0.066967 4.399623 0.014873 255 0 0
2.287299 2.068481 -0.110828 255 0 0
2.702453 2.415349 -0.117415 255 0 0
5.024330 -0.250326 -0.125709 255 0 0
3.784448 1.208172 0.000491 255 0 0
3.301047 3.262605 -0.173168 255 0 0
0.879325 3.241356 -0.249733 255 0 0
2.519332 3.103510 -0.744034 255 0 0
0.641773 1.554284 -0.532679 255 0 0
2.811104 -0.805338 0.073704 255 0 0
2.607422 4.235383 -0.373154 255 0 0
1.573156 -1.168503 0.007877 255 0 0
2.896551 0.778857 0.001644 255 0 0
2.666915 -0.098233 0.084398 255 0 0
5.073049 -0.197520 -0.095044 255 0 0
1.867016 4.149032 -0.264834 255 0 0
4.419967 0.196078 -0.127622 255 0 0
0.963101 4.651277 0.071148 255 0 0
3.495770 0.123361 -0.203660 255 0 0
1.922501 -1.145361 0.011494 255 0 0
-0.745026 5.535420 0.140547 255 0 0
1.752670 1.183361 -0.136878 255 0 0
-0.551365 5.117359 0.003625 255 0 0
2.607776 2.116424 -0.154102 255 0 0
3.332503 2.022498 -0.029845 255 0 0
0.902456 0.250410 -0.434824 255 0 0
0.439578 6.869906 0.116587 255 0 0
0.162809 7.015826 0.163452 255 0 0
3.773482 0.073365 -0.147976 255 0 0
2.216343 1.854738 -0.116040 255 0 0
-0.011885 3.299942 0.066953 255 0 0
2.245542 -1.367372 0.111917 255 0 0
-1.031062 5.331617 -0.044963 255 0 0
0.975529 -1.697066 0.072378 255 0 0
2.458339 4.835561 -0.250594 255 0 0
1.979187 0.468791 -0.014960 255 0 0
3.901740 -0.597462 -0.252184 255 0 0
1.333042 -0.877185 -0.005361 255 0 0
1.520649 -1.438169 -0.025538 255 0 0
2.677071 2.728487 -0.753328 255 0 0
2.803334 -0.509193 -0.122074 255 0 0
-1.330998 5.678928 0.078833 255 0 0
2.366780 -1.377033 0.122204 255 0 0
3.084570 -0.439580 0.081650 255 0 0
2.924331 3.110538 -0.858003 255 0 0
1.368552 0.918236 -0.090481 255 0 0
3.344835 0.071292 -0.204991 255 0 0
2.807648 3.249103 -0.868770 255 0 0
0.720150 2.082850 -0.181034 255 0 0
2.796630 2.733742 -0.731002 255 0 0
2.783785 3.155734 -0.864634 255 0 0
2.758559 -1.235985 0.118214 255 0 0
1.106493 6.637318 0.136700 255 0 0
2.234527 0.291296 0.015017 255 0 0
2.920131 0.116707 -0.132683 255 0 0
3.026171 1.520335 -0.127469 255 0 0
2.962882 0.138359 -0.169420 255 0 0
0.159619 2.021096 -0.390497 255 0 0
3.190197 2.626887 -0.101439 255 0 0
1.866451 3.388821 -0.416792 255 0 0
2.782480 3.075024 -0.854245 255 0 0
1.770558 -0.719531 0.040591 255 0 0
-1.652955 5.327912 0.043328 255 0 0
2.397418 1.914256 -0.093780 255 0 0
0.481720 2.397712 -0.218580 255 0 0
4.199811 0.092375 -0.099148 255 0 0
0.117307 5.576101 0.027660 255 0 0
-0.845062 6.714218 0.106158 255 0 0
2.136791 3.632480 -0.242133 255 0 0
2.390676 5.841100 0.095589 255 0 0
1.474615 2.177317 -0.142811 255 0 0
0.973741 -1.285753 0.049042 255 0 0
3.862896 -0.143248 -0.108389 255 0 0
0.608142 3.244719 -0.272600 255 0 0
0.775162 1.073711 -0.488344 255 0 0
0.835931 4.149645 0.076989 255 0 0
0.838967 4.154313 0.073067 255 0 0
1.699766 -0.808094 0.046741 255 0 0
2.773613 -1.132337 0.101410 255 0 0
3.453571 2.418210 -0.089087 255 0 0
1.239972 4.574836 0.108030 255 0 0
0.881547 -1.476009 0.023013 255 0 0
3.379883 -0.680265 -0.117946 255 0 0
2.869206 3.200674 -0.864693 255 0 0
0.547734 1.518093 -0.570236 255 0 0
3.589625 2.020319 -0.044337 255 0 0
2.637954 -1.153378 0.115688 255 0 0
4.302787 0.659873 -0.144052 255 0 0
2.083560 2.700296 -0.572816 255 0 0
2.866006 3.155529 -0.863687 255 0 0
3.631843 0.247974 -0.185876 255 0 0
-0.770887 4.995414 0.001735 255 0 0
1.900193 -1.425644 0.036409 255 0 0
2.296634 1.811496 -0.138049 255 0 0
2.866999 3.250519 -0.858360 255 0 0
4.484502 0.641228 -0.133101 255 0 0
0.861424 4.490260 0.064615 255 0 0
1.247320 2.642170 -0.544587 255 0 0
1.804631 -1.604257 0.101991 255 0 0
3.731131 2.177842 -0.066133 255 0 0
1.532955 4.840894 0.085486 255 0 0
2.510534 2.763967 -0.712331 255 0 0
2.574306 -0.821790 0.084012 255 0 0
0.630746 -0.096756 -0.441926 255 0 0
2.145466 -1.103895 0.103180 255 0 0
0.106935 5.191327 0.030173 255 0 0
-2.053974 -4.922339 -0.053547 255 0 0
-4.012540 -4.720782 0.077509 255 0 0
-3.939085 -1.837009 0.156455 255 0 0
-3.104318 -5.777900 0.411514 255 0 0
-3.562342 -7.292662 0.502664 255 0 0
-0.597602 -6.543541 -0.207470 255 0 0
-2.978179 -7.443859 0.451780 255 0 0
-2.994709 -2.480071 0.357544 255 0 0
-3.023618 -1.161684 -0.514878 255 0 0
-1.463149 -7.184067 0.222080 255 0 0
-4.428804 -2.138529 0.159243 255 0 0
-2.951791 -3.796196 -0.425029 255 0 0
-0.325652 -6.311728 -0.035588 255 0 0
-2.162243 -2.720348 0.182966 255 0 0
0.014830 -8.419534 0.540623 255 0 0
-0.967553 -7.957383 0.461379 255 0 0
-3.087380 -4.811844 -0.026379 255 0 0
-3.695369 -4.811065 0.781119 255 0 0
-2.527114 -6.736782 0.324976 255 0 0
-3.989570 -4.545524 -0.005038 255 0 0
-2.595563 -1.743178 0.078919 255 0 0
-3.283513 -7.676145 0.489494 255 0 0
-2.590472 -5.956023 0.264951 255 0 0
-2.198055 -5.841487 0.013145 255 0 0
-3.283883 -3.759497 -0.442508 255 0 0
-3.284247 -3.753691 -0.448398 255 0 0
-3.204457 -4.530695 0.183693 255 0 0
-5.169475 -3.773039 0.572144 255 0 0
-3.077340 -4.176486 -0.404569 255 0 0
-3.077286 -4.179042 -0.407693 255 0 0
-1.962064 -4.786879 -0.501206 255 0 0
-3.054619 -7.949090 0.403793 255 0 0
-5.121232 -1.480400 -0.102551 255 0 0
-3.464446 -5.206627 0.374534 255 0 0
0.705197 -7.848790 0.453049 255 0 0
-5.477912 -3.640191 0.549992 255 0 0
-2.750954 -7.849685 0.517713 255 0 0
0.800603 -7.704193 0.482961 255 0 0
-2.907570 -6.115808 0.376363 255 0 0
-3.314856 -7.990699 0.596398 255 0 0
-0.587476 -3.601788 -0.120107 255 0 0
-3.133074 -7.554052 0.491533 255 0 0
-1.184714 -8.694958 0.555819 255 0 0
-2.816881 -3.712894 -0.426932 255 0 0
-2.824240 -7.139125 0.147553 255 0 0
-3.964848 -5.070751 0.344065 255 0 0
-2.873841 -8.683384 0.718227 255 0 0
-4.391664 -4.108738 0.304889 255 0 0
-2.859297 -5.089644 -0.242004 255 0 0
-1.560948 -7.696636 0.330661 255 0 0
-5.601584 -1.852995 -0.248512 255 0 0
-1.703287 -2.917064 0.037060 255 0 0
-2.935106 -4.674571 -0.278013 255 0 0
-2.087365 -1.907422 -0.236721 255 0 0
-2.875635 -3.040361 0.229625 255 0 0
0.297878 -7.332374 0.429945 255 0 0
-2.885404 -8.200295 0.503901 255 0 0
-3.144476 -7.869911 0.483153 255 0 0
-5.025245 -1.908789 -0.108694 255 0 0
-0.099918 -7.339276 0.350958 255 0 0
-2.292117 -2.869897 0.194328 255 0 0
-3.284855 -6.911611 0.429904 255 0 0
-3.428287 -7.435554 0.518283 255 0 0
-3.846006 -3.669141 0.183931 255 0 0
-5.523185 -2.162778 -0.215770 255 0 0
-2.600244 -7.142415 0.353673 255 0 0
-2.529788 -1.492813 -0.434612 255 0 0
-3.452471 -7.812417 0.578028 255 0 0
-2.774588 -4.510645 0.033173 255 0 0
-3.118393 -8.678797 0.696137 255 0 0
-2.066228 -7.661286 0.215606 255 0 0
-0.707184 -5.853205 -0.073987 255 0 0
-3.083116 -8.142411 0.429054 255 0 0
-4.038268 -4.213329 0.338624 255 0 0
-4.507309 -3.818829 0.219799 255 0 0
-1.817417 -9.278479 0.698567 255 0 0
0.127271 -4.965543 0.219651 255 0 0
-1.209513 -5.865824 0.224362 255 0 0
-4.224994 -1.233745 0.162607 255 0 0
0.665323 -7.622781 0.378124 255 0 0
-5.068677 -2.601757 -0.059902 255 0 0
-4.829976 -2.397233 -0.055260 255 0 0
-2.740799 -6.441872 0.258830 255 0 0
-2.823920 -8.406421 0.526268 255 0 0
-4.549527 -3.906652 0.096287 255 0 0
-0.818746 -3.343489 -0.024545 255 0 0
0.531279 -5.815342 0.316611 255 0 0
-1.533387 -1.484120 -0.515889 255 0 0
-0.737784 -7.031839 0.384274 255 0 0
-4.580618 -2.408713 0.126016 255 0 0
-0.907007 -2.943956 0.092323 255 0 0
-3.319984 -2.459451 0.244696 255 0 0
-2.388489 -7.887657 0.480394 255 0 0
-5.103955 -1.769162 -0.179181 255 0 0
-3.023578 -8.483478 0.573457 255 0 0
-2.256421 -7.931906 0.487661 255 0 0
-2.456188 -3.378075 -0.465939 255 0 0
-2.470326 -7.475880 0.323597 255 0 0
-2.705265 -8.370140 0.520512 255 0 0
-2.626568 -6.645157 0.236689 255 0 0
-3.429312 -8.169132 0.690378 255 0 0
-0.791776 -2.928874 -0.087029 255 0 0
-1.585193 -2.978393 0.147908 255 0 0
-4.426309 -4.414188 0.428657 255 0 0
-2.857264 -6.577492 0.223458 255 0 0
-4.098684 -2.755982 0.215088 255 0 0
-3.437374 -8.636069 0.773297 255 0 0
-1.057205 -2.987350 -0.021207 255 0 0
-4.661186 -3.187089 0.122325 255 0 0
-1.148387 -7.146995 0.344073 255 0 0
-5.326707 -1.524312 -0.203593 255 0 0
-0.312398 -3.509574 -0.080164 255 0 0
-3.215723 -4.374091 0.237261 255 0 0
-3.200297 -8.917409 0.772549 255 0 0
-1.741819 -2.841023 -0.018646 255 0 0
-3.699481 -8.273823 0.717641 255 0 0
-5.298545 -3.290713 0.506727 255 0 0
-3.533157 -7.616739 0.546136 255 0 0
-4.269464 -3.360040 0.298975 255 0 0
0.596297 -6.333293 0.395231 255 0 0
-0.801398 -8.581124 0.560497 255 0 0
-2.727470 -6.512609 0.202369 255 0 0
-1.622721 -9.025896 0.598167 255 0 0
-3.338989 -8.723554 0.753512 255 0 0
-2.145568 -5.484712 0.271213 255 0 0
-2.475980 -6.348160 0.416343 255 0 0
-2.864218 -7.884498 0.479621 255 0 0
-1.503098 -4.770086 0.243503 255 0 0
-2.251114 -8.959192 0.713606 255 0 0
-2.190354 -9.221455 0.760503 255 0 0
-2.932792 -8.565175 0.630867 255 0 0
-4.806888 -2.316927 -0.126788 255 0 0
-4.949229 -1.806646 0.006112 255 0 0
-3.656887 -6.917281 0.549834 255 0 0
-0.275868 -7.029134 0.339877 255 0 0
-0.570098 -2.961583 -0.155720 255 0 0
-2.185073 -8.539330 0.539209 255 0 0
-4.168959 -3.324098 0.261191 255 0 0
-3.597206 -7.277825 0.583253 255 0 0
-5.028596 -1.980540 0.161537 255 0 0
-0.681954 -6.941187 0.374297 255 0 0
-2.257904 -3.873231 -0.465137 255 0 0
-3.913767 -6.325380 0.600649 255 0 0
-2.954834 -8.316784 0.449742 255 0 0
-2.120664 -5.141539 -0.411926 255 0 0
-1.660428 -6.990543 0.341678 255 0 0
-0.775887 -6.527458 -0.267054 255 0 0
-2.600759 -2.396252 0.249009 255 0 0
-2.022311 -2.651364 -0.243918 255 0 0
-3.588913 -7.371110 0.553076 255 0 0
-4.544871 -3.227552 0.195662 255 0 0
-1.828620 -7.652331 0.404864 255 0 0
-0.980251 -8.220623 0.523548 255 0 0
-1.491848 -9.155867 0.629107 255 0 0
-2.053267 -9.336273 0.740384 255 0 0
-2.202085 -7.032897 0.328359 255 0 0
-3.588663 -1.193546 0.207219 255 0 0
-1.214387 -6.513201 0.231196 255 0 0
-1.805729 -9.410047 0.719061 255 0 0
-0.610207 -5.947177 0.098037 255 0 0
-4.319011 -1.028586 0.153400 255 0 0
-0.007839 -5.064467 0.099007 255 0 0
-0.809561 -6.985077 0.405799 255 0 0
-0.283302 -8.620814 0.563780 255 0 0
-1.857941 -4.779653 -0.410129 255 0 0
-2.091224 -4.560281 -0.389642 255 0 0
-1.582781 -3.650294 0.186928 255 0 0
-0.923371 -7.622707 0.390843 255 0 0
-1.027127 -7.142784 0.348490 255 0 0
-2.857563 -7.803741 0.506915 255 0 0
-2.992970 -6.294640 0.351559 255 0 0
-2.528676 -2.794427 0.121937 255 0 0
-6.221679 -1.776750 0.480009 255 0 0
-2.697080 -1.531786 0.129215 255 0 0
-4.800993 -3.219005 0.216156 255 0 0
-4.527238 -2.899945 0.097607 255 0 0
-2.686353 -8.557726 0.543970 255 0 0
-3.592527 -4.592802 0.342064 255 0 0
-4.511752 -2.266417 0.164718 255 0 0
-2.724336 -7.884540 0.479235 255 0 0
-3.349145 -8.526169 0.708919 255 0 0
-4.443327 -3.598648 0.245747 255 0 0
-4.183651 -3.334201 0.292527 255 0 0
-2.886714 -6.291192 0.217803 255 0 0
-2.885181 -6.288253 0.228348 255 0 0
-1.058142 -6.264827 0.296574 255 0 0
-3.016521 -6.659072 0.173448 255 0 0
-2.948487 -2.166986 0.258346 255 0 0
-1.927936 -4.649608 -0.368926 255 0 0
-1.978519 -9.497310 0.767386 255 0 0
-1.343563 -8.967482 0.577699 255 0 0
-0.414998 -7.046637 0.363996 255 0 0
-3.623402 -1.370767 -0.014950 255 0 0
0.659276 -7.407838 0.439882 255 0 0
-3.364131 -3.979802 -0.468194 255 0 0
-1.228394 -7.619946 0.438220 255 0 0
-5.148041 -3.914823 0.528985 255 0 0
-3.169172 -8.681753 0.689590 255 0 0
-4.821822 -2.433484 0.011233 255 0 0
-2.181274 -5.566158 0.375656 255 0 0
-3.626075 -8.225356 0.760980 255 0 0
-3.619305 -5.486449 0.422364 255 0 0
-3.016969 -8.673056 0.713817 255 0 0
-2.295288 -8.841070 0.679913 255 0 0
-4.132026 -2.487185 0.057821 255 0 0
-6.035839 -2.271867 0.657778 255 0 0
-3.667200 -2.098064 0.191288 255 0 0
-3.674046 -2.090816 0.204856 255 0 0
-4.077793 -2.657659 0.095600 255 0 0
-3.840496 -7.534984 0.719843 255 0 0
-2.335817 -1.542071 0.084276 255 0 0
-2.734352 -7.771741 0.493511 255 0 0
-4.127010 -4.457242 0.054438 255 0 0
-3.228603 -8.029360 0.505635 255 0 0
-3.653459 -8.377281 0.642401 255 0 0
-3.501986 -8.783346 0.834565 255 0 0
-2.821450 -6.236253 0.301852 255 0 0
-2.548973 -8.344265 0.517826 255 0 0
-2.055760 -7.172287 0.347282 255 0 0
-1.076054 -6.143342 0.228566 255 0 0
-5.403120 -1.573230 -0.178656 255 0 0
-5.036315 -2.781807 0.117927 255 0 0
-0.946673 -6.439487 0.197480 255 0 0
-1.696765 -9.245590 0.642116 255 0 0
-2.052497 -9.529601 0.775023 255 0 0
-3.356975 -4.522345 0.232699 255 0 0
-2.030297 -2.514453 -0.289191 255 0 0
-1.508701 -1.210765 -0.547564 255 0 0
-2.812909 -8.001222 0.478833 255 0 0
-2.031407 -5.058553 -0.431970 255 0 0
-4.626963 -4.877589 0.601634 255 0 0
-1.860508 -7.759753 0.398834 255 0 0
-3.468810 -2.566152 0.210968 255 0 0
-1.573565 -6.370446 0.422631 255 0 0
-1.673555 -7.331025 0.384290 255 0 0
-3.477585 -8.892363 0.825902 255 0 0
-3.607645 -4.426945 0.350363 255 0 0
-1.844938 -2.689838 -0.316314 255 0 0
-1.727905 -9.336929 0.675575 255 0 0
-4.073695 -2.685069 0.232926 255 0 0
-2.203975 -1.523680 -0.115916 255 0 0
-3.239291 -8.770632 0.725502 255 0 0
-2.824233 -8.357870 0.487232 255 0 0
-1.680524 -1.876416 -0.495333 255 0 0
-3.534483 -8.159271 0.702866 255 0 0
-3.944009 -2.217776 0.106552 255 0 0
-2.167321 -8.774741 0.604056 255 0 0
-4.006201 -6.919621 0.661891 255 0 0
-3.948194 -6.019276 0.595301 255 0 0
-2.673513 -5.517358 -0.175913 255 0 0
-3.171658 -8.143359 0.465667 255 0 0
-3.110652 -8.933086 0.783300 255 0 0
-1.216903 -6.666020 0.402175 255 0 0
-1.672536 -3.353317 0.130510 255 0 0
-2.008468 -3.289743 -0.226427 255 0 0
-2.334866 -6.988132 0.356473 255 0 0
-3.958563 -7.152780 0.678238 255 0 0
-1.668519 -7.511148 0.433707 255 0 0
-1.668907 -7.504158 0.417066 255 0 0
-2.544881 -5.488423 -0.112288 255 0 0
-1.387301 -7.160421 0.334320 255 0 0
-5.143213 -1.873738 -0.274537 255 0 0
-2.969657 -4.305950 -0.414763 255 0 0
-3.973594 -0.600030 0.116481 255 0 0
-1.849395 -9.255780 0.705709 255 0 0
-3.974948 -2.693635 0.194713 255 0 0
-4.934123 -1.826026 0.262126 255 0 0
-1.411314 -9.251300 0.664570 255 0 0
-3.660680 -4.889745 0.374618 255 0 0
-3.260383 -7.424256 0.472519 255 0 0
0.753751 -7.953126 0.497329 255 0 0
-4.891744 -4.456972 0.596787 255 0 0
-1.662540 -8.913003 0.583946 255 0 0
-4.684207 -1.737450 0.169267 255 0 0
-4.609395 -3.659210 0.106024 255 0 0
-1.701650 -7.422789 0.395620 255 0 0
-2.958950 -5.975682 0.402209 255 0 0
-1.891911 -3.306689 -0.246274 255 0 0
-2.753629 -6.180400 0.216936 255 0 0
-5.858657 -2.701759 0.467685 255 0 0
-5.459498 -3.298349 0.511964 255 0 0
-4.474801 -0.967296 0.136220 255 0 0
-5.100859 -3.807632 0.518059 255 0 0
-1.204012 -8.957227 0.604707 255 0 0
-4.234646 -5.940585 0.631134 255 0 0
-1.920016 -2.733389 -0.251256 255 0 0
-1.167653 -9.000137 0.609801 255 0 0
-4.940399 -1.786455 -0.258245 255 0 0
-5.028224 -1.959841 -0.095491 255 0 0
-3.731489 -8.214980 0.751372 255 0 0
-0.231062 -4.310997 0.084414 255 0 0
0.497738 -7.689633 0.498718 255 0 0
-3.542210 -8.929283 0.827231 255 0 0
-1.605561 -6.269944 0.408066 255 0 0
-0.992798 -5.892441 0.015766 255 0 0
-1.316998 -3.118117 0.038542 255 0 0
-1.308539 -6.998420 0.368961 255 0 0
-4.559508 -1.796219 0.163502 255 0 0
-1.948279 -7.986371 0.543282 255 0 0
-2.243722 -4.086265 -0.315473 255 0 0
0.244979 -7.585264 0.400976 255 0 0
-2.053003 -4.652171 -0.466580 255 0 0
-1.634354 -9.133106 0.614686 255 0 0
-0.131177 -8.228792 0.505329 255 0 0
-3.663509 -8.108412 0.763306 255 0 0
-5.297020 -2.161537 -0.063540 255 0 0
-0.722645 -8.037993 0.492245 255 0 0
-4.721007 -1.171913 0.108423 255 0 0
-1.367887 -6.946566 0.407346 255 0 0
-2.935679 -7.953880 0.516428 255 0 0
-1.989764 -7.674173 0.289913 255 0 0
-5.070517 -1.679450 -0.129784 255 0 0
-2.635769 -6.074128 0.413419 255 0 0
-3.486131 -7.314864 0.461726 255 0 0
-3.352277 -9.056247 0.844252 255 0 0
-0.102322 -7.945360 0.503904 255 0 0
-2.699375 -3.655117 -0.448946 255 0 0
0.305288 -8.412545 0.542424 255 0 0
-2.688997 -6.615082 0.194581 255 0 0
-3.737294 -2.144289 0.191228 255 0 0
-5.079630 -2.566654 -0.189539 255 0 0
0.425080 -7.096648 0.488730 255 0 0
-2.771205 -8.092045 0.533579 255 0 0
0.027778 -8.484187 0.457087 255 0 0
-6.061818 -2.079694 0.511370 255 0 0
0.009249 -4.492917 0.119696 255 0 0
-6.154140 -1.773145 0.482729 255 0 0
-2.544017 -6.566696 0.154149 255 0 0
-4.393371 -5.594835 0.645409 255 0 0
-4.703000 -2.569960 0.109192 255 0 0
-2.752397 -2.017668 0.144920 255 0 0
-4.826962 -1.442800 0.108919 255 0 0
-2.257421 -8.432454 0.513307 255 0 0
-4.907356 -1.450480 0.036368 255 0 0
-5.063163 -5.147536 0.622403 255 0 0
-0.339172 -5.066334 -0.226493 255 0 0
-2.916707 -7.045841 0.267019 255 0 0
-1.154743 -8.895402 0.598877 255 0 0
-1.561028 -9.185327 0.633182 255 0 0
-5.233229 -1.759573 -0.236577 255 0 0
-4.790313 -3.296326 0.233792 255 0 0
-4.686693 -2.847583 0.154090 255 0 0
-5.590903 -1.470026 -0.210742 255 0 0
-2.926205 -6.964365 0.220856 255 0 0
-1.162181 -9.093211 0.612839 255 0 0
-1.511750 -7.416088 0.400283 255 0 0
-4.455357 -3.259922 0.260308 255 0 0
-5.382187 -3.418028 0.502980 255 0 0
-1.801820 -1.070140 -0.586935 255 0 0
-4.850441 -4.415129 0.589139 255 0 0
0.949700 -8.092862 0.484698 255 0 0
-0.314940 -7.722520 0.394657 255 0 0
-3.308096 -8.242427 0.598515 255 0 0
-2.638749 -6.119911 0.393312 255 0 0
0.689854 -6.239416 0.254143 255 0 0
-4.909276 -1.526926 0.141101 255 0 0
-1.524567 -9.271474 0.637435 255 0 0
-3.705936 -7.794822 0.751930 255 0 0
-1.008012 -7.264248 0.387014 255 0 0
-1.516297 -6.281962 0.403876 255 0 0
0.675311 -6.019347 0.363241 255 0 0
0.561253 -6.138023 0.323017 255 0 0
-2.802120 -2.000941 0.167251 255 0 0
-2.340445 -5.219254 -0.349898 255 0 0
-0.896318 -8.994971 0.599778 255 0 0
-1.729246 -1.869856 -0.600177 255 0 0
-2.459033 -6.432543 0.386603 255 0 0
-1.516428 -3.128839 0.151342 255 0 0
-4.648795 -2.269742 0.195058 255 0 0
-2.851702 -0.908775 -0.630286 255 0 0
-1.690528 -2.566269 -0.316098 255 0 0
-3.067627 -8.671550 0.702621 255 0 0
-2.016366 -7.071226 0.286004 255 0 0
-3.231743 -7.537072 0.463380 255 0 0
0.649315 -7.871948 0.514647 255 0 0
-1.174230 -6.307378 0.206689 255 0 0
-1.991711 -4.920104 -0.473179 255 0 0
-1.753427 -9.242620 0.664323 255 0 0
-2.111251 -8.792309 0.585545 255 0 0
-2.349720 -6.232597 0.423582 255 0 0
-1.180213 -8.243424 0.477624 255 0 0
-2.731300 -7.160622 0.263879 255 0 0
-1.908150 -1.610149 -0.556821 255 0 0
-3.227068 -7.838398 0.470805 255 0 0
-2.308227 -4.526663 -0.461863 255 0 0
-3.487877 -4.334303 0.387015 255 0 0
0.216024 -7.405161 0.394318 255 0 0
-4.084481 -3.527401 0.272303 255 0 0
-3.367466 -6.915268 0.425626 255 0 0
-2.100497 -6.832670 0.296099 255 0 0
-2.231881 -7.111574 0.351961 255 0 0
-2.373769 -6.366255 0.405283 255 0 0
-1.043354 -7.691783 0.466636 255 0 0
-4.642932 -4.078036 0.399719 255 0 0
-3.135910 -8.280655 0.531132 255 0 0
-0.991728 -6.199690 0.217634 255 0 0
-1.644342 -3.286071 0.163912 255 0 0
-2.330778 -6.571044 0.383913 255 0 0
-3.485531 -5.400566 0.441734 255 0 0
-0.363864 -8.502380 0.566011 255 0 0
-1.995808 -9.394902 0.746290 255 0 0
-3.044651 -1.818002 0.224586 255 0 0
-2.815993 -7.043615 0.221742 255 0 0
-2.860853 -4.002004 -0.478447 255 0 0
-2.957142 -5.279825 0.316794 255 0 0
-2.358509 -7.154413 0.354159 255 0 0
-1.933597 -7.538341 0.404358 255 0 0
-0.926682 -6.213339 0.189097 255 0 0
-4.799148 -2.640508 0.117519 255 0 0
-0.913431 -7.267827 0.372998 255 0 0
-3.943608 -0.882434 0.166980 255 0 0
-3.008846 -3.634970 -0.440455 255 0 0
-3.016957 -3.624538 -0.408456 255 0 0
-2.048819 -8.661930 0.547415 255 0 0
0.211992 -7.518164 0.385171 255 0 0
-2.952887 -5.014971 -0.370092 255 0 0
-2.492565 -3.735167 -0.467761 255 0 0
-2.648765 -4.005080 -0.469832 255 0 0
-5.201340 -1.348798 0.126637 255 0 0
-3.701960 -4.984075 0.335327 255 0 0
-2.287870 -4.275630 -0.403707 255 0 0
-1.627813 -7.372710 0.398971 255 0 0
0.335196 -8.244353 0.505748 255 0 0
-4.498481 -3.136986 0.209365 255 0 0
-2.743915 -7.724723 0.494942 255 0 0
-4.163065 -5.592854 0.520903 255 0 0
0.104889 -7.618904 0.397221 255 0 0
-3.987851 -5.583992 0.509953 255 0 0
-4.385848 -4.190382 0.227036 255 0 0
-0.511368 -4.464875 -0.224567 255 0 0
-0.852411 -6.334644 0.350040 255 0 0
-0.058490 -8.411649 0.518744 255 0 0
-2.001185 -5.176530 -0.438680 255 0 0
-2.442078 -3.889776 -0.472568 255 0 0
-2.812144 -4.271373 -0.440829 255 0 0
-2.526254 -7.282407 0.303737 255 0 0
-2.329074 -7.270657 0.234767 255 0 0
-4.911406 -2.487584 0.014660 255 0 0
-2.440168 -3.734108 -0.474956 255 0 0
-4.552202 -3.631833 0.268707 255 0 0
-1.066518 -7.661298 0.493673 255 0 0
-2.281249 -3.736763 -0.468204 255 0 0
-2.335635 -3.891509 -0.473459 255 0 0
-2.330020 -5.826939 -0.047801 255 0 0
-2.256579 -3.683842 -0.187695 255 0 0
-2.253410 -3.681098 -0.249312 255 0 0
-3.055036 -8.028524 0.458195 255 0 0
-1.715515 -7.686533 0.424779 255 0 0
-2.119696 -3.722158 -0.368577 255 0 0
-2.392424 -4.275510 -0.414942 255 0 0
-4.737577 -3.303549 0.235373 255 0 0
0.590591 -7.823898 0.499585 255 0 0
-2.283037 -4.216446 -0.432255 255 0 0
-2.286467 -4.214388 -0.405476 255 0 0
-4.558980 -5.087225 0.537033 255 0 0
-4.512959 -1.894326 0.183844 255 0 0
-2.334375 -3.735329 -0.467007 255 0 0
-2.174197 -1.191107 -0.593755 255 0 0
0.088798 -6.941065 0.377939 255 0 0
-5.043445 -2.596416 0.010050 255 0 0
-5.209529 -3.204330 0.565042 255 0 0
-3.859598 -7.620566 0.671604 255 0 0
-3.165906 -7.978836 0.487170 255 0 0
0.805644 -6.227696 0.385349 255 0 0
-4.217481 -6.186753 0.674398 255 0 0
-3.412073 -5.649189 0.293832 255 0 0
-1.917099 -0.700929 -0.338949 255 0 0
-3.275163 -8.290103 0.629385 255 0 0
0.119412 -7.626879 0.343183 255 0 0
-2.503051 -3.548309 -0.425279 255 0 0
-1.324964 -3.236857 0.038253 255 0 0
-2.706893 -8.253903 0.517007 255 0 0
0.000340 -4.580800 0.136549 255 0 0
-3.066235 -3.731292 -0.517733 255 0 0
-3.071530 -3.732762 -0.500465 255 0 0
-3.128152 -5.860836 0.411432 255 0 0
-3.123963 -5.854875 0.391698 255 0 0
-4.994449 -3.150858 0.194361 255 0 0
-0.981303 -3.185277 -0.140053 255 0 0
-2.178334 -1.338892 -0.590078 255 0 0
-3.495135 -7.561584 0.557919 255 0 0
-2.957719 -7.016606 0.267316 255 0 0
-4.295458 -3.222473 0.283823 255 0 0
-1.918001 -1.333114 -0.561441 255 0 0
-2.117729 -0.987978 -0.615163 255 0 0
-3.003553 -7.948326 0.514465 255 0 0
-2.122678 -1.188493 -0.586125 255 0 0
-3.018962 -3.940206 -0.494649 255 0 0
-1.799175 -9.170108 0.668053 255 0 0
-2.546540 -3.889724 -0.479736 255 0 0
-2.274036 -5.558594 0.365584 255 0 0
-3.127383 -5.783729 0.430768 255 0 0
-2.089586 -1.767899 0.087014 255 0 0
0.948800 -7.159293 0.478282 255 0 0
-2.596094 -0.971347 -0.625380 255 0 0
-4.505382 -4.267533 0.410786 255 0 0
-2.165831 -4.180583 -0.564579 255 0 0
-2.178036 -4.166038 -0.430599 255 0 0
-2.545717 -3.732814 -0.474618 255 0 0
-2.232348 -4.164984 -0.425774 255 0 0
-2.359957 -6.598808 0.338187 255 0 0
-2.754230 -3.736093 -0.491017 255 0 0
-2.971615 -4.209940 -0.442729 255 0 0
-1.735050 -8.636774 0.548023 255 0 0
-2.181777 -4.277421 -0.399877 255 0 0
-2.266584 -1.250357 -0.380117 255 0 0
-2.597981 -3.735310 -0.478327 255 0 0
-2.595915 -3.734764 -0.484172 255 0 0
-2.758240 -2.647928 0.273120 255 0 0
-2.234894 -6.833445 0.324978 255 0 0
-2.459061 -3.796146 -0.539014 255 0 0
-3.014673 -3.735194 -0.517082 255 0 0
-3.017170 -3.731579 -0.505279 255 0 0
-1.761222 -1.337132 -0.558262 255 0 0
-2.858054 -3.734210 -0.499108 255 0 0
-2.216623 -8.599101 0.540566 255 0 0
-0.347973 -3.473426 -0.041906 255 0 0
-1.857094 -1.129899 -0.596819 255 0 0
-2.918139 -4.209964 -0.438255 255 0 0
-3.402618 -7.501867 0.503971 255 0 0
-4.059412 -1.877586 0.176506 255 0 0
-3.714183 -3.423994 3.852131 255 0 0
-2.279824 -7.220764 0.351848 255 0 0
-2.286987 -3.890975 -0.462669 255 0 0
-2.908872 -3.737686 -0.506150 255 0 0
-4.678868 -4.875393 0.612058 255 0 0
-3.069372 -1.830987 0.119881 255 0 0
-2.809854 -3.888882 -0.491821 255 0 0
-1.315000 -3.471528 0.069019 255 0 0
0.195012 -8.481183 0.508057 255 0 0
-1.522636 -7.276871 0.410159 255 0 0
-2.806344 -3.736470 -0.494953 255 0 0
-2.808420 -3.734795 -0.489056 255 0 0
-1.419347 -7.802050 0.401897 255 0 0
-3.986238 -3.518799 0.276896 255 0 0
-3.998512 -3.513009 0.305377 255 0 0
0.208969 -7.847942 0.445321 255 0 0
-2.875086 -6.998962 0.215109 255 0 0
-2.239210 -4.335826 -1.138212 255 0 0
-1.683204 -7.046990 0.363482 255 0 0
-3.008822 -8.527154 0.622293 255 0 0
-1.461998 -4.465019 0.278060 255 0 0
-3.022129 -4.271798 -0.445914 255 0 0
0.012750 -7.621461 0.450527 255 0 0
-2.674104 -3.435112 -0.408656 255 0 0
-5.197734 -1.067297 0.036533 255 0 0
-5.296806 -1.844481 -0.254049 255 0 0
-1.150679 -7.670758 0.447563 255 0 0
-1.320104 -8.178349 0.482263 255 0 0
-0.870921 -7.732925 0.345582 255 0 0
-5.842028 -3.130742 0.568340 255 0 0
0.204369 -8.079512 0.525068 255 0 0
-2.145113 -4.727372 -0.469413 255 0 0
-2.788808 -3.435808 -0.421103 255 0 0
-2.820774 -3.633171 -0.440542 255 0 0
-3.176152 -6.334315 0.418435 255 0 0
-2.958708 -8.495977 0.586872 255 0 0
-2.546180 -3.403174 -0.383296 255 0 0
-2.598111 -8.459431 0.538274 255 0 0
-1.003429 -6.100853 0.164201 255 0 0
-0.311625 -7.870246 0.342114 255 0 0
-3.586857 -5.111350 0.301082 255 0 0
-1.896891 -4.731555 -0.389908 255 0 0
-4.767228 -4.891700 0.624736 255 0 0
-3.474381 -9.111646 0.828571 255 0 0
-0.578543 -7.544067 0.442669 255 0 0
-4.252250 -6.381347 0.688144 255 0 0
-2.011949 -3.487054 -0.117468 255 0 0
-1.786375 -7.601468 0.435385 255 0 0
0.540486 -6.118979 0.360648 255 0 0
-0.737694 -7.519989 0.485179 255 0 0
-5.030297 -2.480891 -0.126475 255 0 0
-1.266382 -7.539510 0.437759 255 0 0
-3.794470 -5.311071 0.426464 255 0 0
-2.319136 -8.424127 0.510358 255 0 0
-1.470434 -7.022065 0.353003 255 0 0
-1.321279 -9.054848 0.644037 255 0 0
-5.484698 -3.635547 0.582313 255 0 0
-3.452791 -7.617561 0.509317 255 0 0
-1.041387 -3.252360 -0.110808 255 0 0
-1.296690 -7.504803 0.422755 255 0 0
-3.584939 -4.368924 0.361312 255 0 0
-0.677149 -8.133222 0.518974 255 0 0
-6.366280 -1.828968 0.459888 255 0 0
-1.938588 -7.217473 0.379098 255 0 0
0.778840 -7.130317 0.471739 255 0 0
-2.621799 -8.337540 0.514010 255 0 0
0.160004 -6.454270 0.329098 255 0 0
-5.667427 -3.041988 0.467408 255 0 0
-2.637154 -8.240431 0.507490 255 0 0
-2.996723 -3.395475 -0.508122 255 0 0
-3.383648 -8.029930 0.610404 255 0 0
-5.572243 -1.524334 -0.208551 255 0 0
-3.379741 -1.079138 0.163222 255 0 0
-0.116465 -8.059141 0.514681 255 0 0
-1.930846 -7.167441 0.348762 255 0 0
-2.371201 -8.462803 0.515843 255 0 0
-0.865008 -7.083456 0.394552 255 0 0
0.552434 -7.964501 0.469347 255 0 0
0.648045 -7.925207 0.518680 255 0 0
-0.262206 -7.631805 0.434038 255 0 0
-3.394980 -9.174616 0.863269 255 0 0
-3.700491 -4.912667 0.384481 255 0 0
0.449296 -1.049463 -0.388980 255 0 0
1.941791 -3.849459 -0.238713 255 0 0
1.309355 -0.509342 0.050272 255 0 0
2.099692 -3.290203 -0.228757 255 0 0
0.043309 0.120489 -0.465939 255 0 0
1.408796 -4.604204 -0.912253 255 0 0
1.042240 0.602803 -0.281842 255 0 0
2.596379 -2.461065 -0.119781 255 0 0
0.797354 -5.505874 0.110646 255 0 0
1.352949 -1.703446 0.123204 255 0 0
0.009145 0.653090 -0.482571 255 0 0
0.723715 -4.195207 0.013608 255 0 0
1.717043 0.034422 -0.015654 255 0 0
1.435134 -1.283614 0.047958 255 0 0
3.148933 -4.503359 -0.766288 255 0 0
-1.414929 -0.390646 -0.313879 255 0 0
-0.124351 -1.052770 -0.455754 255 0 0
-1.190209 -1.705635 -0.420071 255 0 0
3.211394 -3.896680 -0.337423 255 0 0
3.082005 -4.251744 -0.572708 255 0 0
1.653838 0.362820 -0.051279 255 0 0
0.666450 -2.430292 0.012778 255 0 0
-0.326242 -0.154246 -0.287683 255 0 0
0.194097 -1.740172 -0.004412 255 0 0
3.002163 -4.035656 -0.522136 255 0 0
0.954921 -4.254229 0.155384 255 0 0
1.483097 -2.768753 -0.232501 255 0 0
0.379720 -1.479443 -0.348890 255 0 0
2.175198 -4.459920 -0.844370 255 0 0
2.169654 -4.464030 -0.816592 255 0 0
1.566608 -3.803361 -0.240042 255 0 0
3.295633 -3.708113 -0.197774 255 0 0
1.682445 -0.431651 0.031863 255 0 0
-1.368526 0.570556 -0.004031 255 0 0
3.048048 -2.263013 -0.124160 255 0 0
1.697562 -5.190936 -0.818072 255 0 0
2.369143 -5.594010 -0.690958 255 0 0
0.665954 -3.593349 0.179696 255 0 0
-1.242448 0.118288 -0.000898 255 0 0
1.664527 -3.556695 -0.317941 255 0 0
0.984751 -3.952468 0.122001 255 0 0
0.967602 -0.567138 -0.019780 255 0 0
1.456655 1.188107 -0.128369 255 0 0
0.942679 -1.283915 -0.017581 255 0 0
2.895866 -2.220299 -0.001421 255 0 0
0.819037 -3.807269 0.206907 255 0 0
2.504312 -4.305055 -0.779511 255 0 0
2.472235 -4.542365 -0.751381 255 0 0
2.761201 -2.319814 0.130040 255 0 0
2.455584 -0.485312 0.069332 255 0 0
0.490183 0.043272 -0.477615 255 0 0
0.974804 0.804446 -0.354566 255 0 0
1.858721 -0.557134 -0.060116 255 0 0
0.955032 0.330028 -0.334753 255 0 0
-1.491417 0.849706 0.036058 255 0 0
3.308106 -3.385678 -0.294376 255 0 0
2.263717 -1.678096 0.123326 255 0 0
0.886512 -3.626812 0.138762 255 0 0
1.881083 -4.516121 -0.785837 255 0 0
2.183158 -3.650886 -0.157682 255 0 0
1.325864 -2.599852 -0.314456 255 0 0
1.679950 -0.722689 0.036188 255 0 0
1.694776 -3.390558 -0.234228 255 0 0
2.052881 -1.529487 0.144773 255 0 0
0.448182 -3.516811 0.149002 255 0 0
1.037781 -5.332959 0.175300 255 0 0
3.060112 -3.103000 -0.109067 255 0 0
-0.502031 -0.149041 -0.476884 255 0 0
1.996502 -4.437188 -0.838262 255 0 0
-0.624014 -0.763297 -0.314895 255 0 0
1.638330 -5.286686 -0.877389 255 0 0
1.077509 0.972838 -0.106865 255 0 0
1.424464 -2.096922 -0.168163 255 0 0
2.465125 -3.711487 -0.790215 255 0 0
3.864932 -4.128566 -0.036494 255 0 0
2.520898 -3.789870 -0.879802 255 0 0
2.087129 -4.141493 -0.804952 255 0 0
2.288618 -4.513000 -0.956961 255 0 0
2.067867 -4.326482 -0.804946 255 0 0
2.132233 -1.922493 0.121338 255 0 0
0.928261 -5.664517 0.261937 255 0 0
0.122130 0.885818 -0.510263 255 0 0
-0.427530 -0.463612 -0.205688 255 0 0
0.920123 -6.357794 0.398826 255 0 0
0.135442 -2.010128 0.030568 255 0 0
0.742052 0.619896 -0.484821 255 0 0
1.437977 -3.128075 -0.275096 255 0 0
-0.225481 0.523881 -0.511280 255 0 0
0.448099 -0.239573 -0.246388 255 0 0
2.680485 -3.757423 -0.800666 255 0 0
1.060210 -0.474932 -0.001522 255 0 0
3.674131 -3.989827 0.007915 255 0 0
1.383696 -0.029796 -0.085878 255 0 0
2.874953 -2.604684 -0.177806 255 0 0
1.961868 0.938657 0.022573 255 0 0
0.934496 0.121294 -0.395728 255 0 0
1.576928 -3.924422 -0.651135 255 0 0
2.652956 -3.622681 -0.836802 255 0 0
4.032740 -4.512872 -0.014973 255 0 0
1.584724 -2.886816 -0.252609 255 0 0
1.412321 -0.111982 -0.002534 255 0 0
2.655419 -4.514314 -0.730508 255 0 0
0.994892 -6.535688 0.392890 255 0 0
-0.129667 -5.454637 0.009935 255 0 0
2.707142 -4.608156 -0.715061 255 0 0
1.038136 -1.082196 0.022004 255 0 0
1.981923 -4.286562 -0.825883 255 0 0
2.700877 -4.443366 -0.727674 255 0 0
2.194321 -4.167559 -0.755157 255 0 0
-0.700992 -0.680021 -0.322061 255 0 0
2.585097 -3.698729 -0.851633 255 0 0
-0.807096 -3.941886 -0.298354 255 0 0
3.611685 -4.296382 -0.006939 255 0 0
0.858773 0.419207 -0.454430 255 0 0
2.584906 -1.360219 0.129411 255 0 0
0.138059 -6.532459 0.294991 255 0 0
0.644690 -2.397629 0.065670 255 0 0
2.998383 -1.982214 -0.115486 255 0 0
3.007276 -2.628220 -0.193234 255 0 0
1.375207 1.195948 -0.124204 255 0 0
-0.475410 -0.252539 -0.388729 255 0 0
0.599515 -5.732866 -0.008953 255 0 0
1.418918 -4.972035 -0.567595 255 0 0
3.004728 -1.793929 -0.007431 255 0 0
-1.653284 0.800090 0.047025 255 0 0
2.568502 -3.627322 -0.852309 255 0 0
1.549999 0.175499 -0.109075 255 0 0
0.244941 -3.479961 0.095443 255 0 0
1.307050 -3.238793 -0.237310 255 0 0
3.676558 -3.658909 -0.075150 255 0 0
2.796896 -3.942369 -0.750046 255 0 0
3.750690 -4.431024 -0.000824 255 0 0
2.072780 -3.762053 -0.169563 255 0 0
1.562882 -2.602667 -0.326992 255 0 0
2.335297 -2.913901 -0.223909 255 0 0
0.480623 -3.665016 0.124384 255 0 0
0.454427 0.093702 -0.492429 255 0 0
3.763625 -4.523547 0.003243 255 0 0
-0.061731 0.934398 -0.554996 255 0 0
1.661962 -0.763960 0.023808 255 0 0
-0.230441 -0.006447 -0.484194 255 0 0
3.669271 -4.222715 0.005288 255 0 0
1.868358 -1.385348 0.035263 255 0 0
-2.043304 -0.164136 -0.204924 255 0 0
-1.856739 -0.273153 -0.204234 255 0 0
2.086093 -3.682562 -0.170803 255 0 0
2.091218 -3.414982 -0.167324 255 0 0
2.377855 -3.651232 -0.860930 255 0 0
-1.273252 -0.496774 0.059477 255 0 0
0.023160 -3.658852 0.081175 255 0 0
1.871735 -1.998183 0.125052 255 0 0
1.608471 -4.631738 -0.869163 255 0 0
1.746971 -5.224861 -0.835241 255 0 0
1.646342 -0.483905 0.014864 255 0 0
2.676792 -2.233389 0.142955 255 0 0
2.276149 -1.894285 0.089157 255 0 0
0.253744 0.970019 -0.593656 255 0 0
2.888590 -4.439390 -0.804398 255 0 0
-0.720238 -4.008180 -0.343448 255 0 0
1.827398 -4.964935 -0.805945 255 0 0
2.259904 -1.605471 0.098050 255 0 0
2.395785 -3.727701 -0.868359 255 0 0
0.470023 -3.735429 0.069308 255 0 0
3.640440 -4.136328 0.004207 255 0 0
2.324333 -3.909746 -0.863672 255 0 0
0.931656 0.495303 -0.447314 255 0 0
1.527529 -5.150153 -0.845393 255 0 0
-0.108200 -5.134316 0.165159 255 0 0
0.185938 -7.241700 0.448571 255 0 0
0.760482 -4.178708 0.184924 255 0 0
2.501638 -0.624524 0.101066 255 0 0
3.676588 -4.055247 -0.033834 255 0 0
3.822963 -4.853395 0.081089 255 0 0
2.554265 -0.525703 -0.189055 255 0 0
2.704312 -0.987630 -0.012408 255 0 0
