ply
format ascii 1.0
element vertex 1196
property float x
property float y
property float z
property uchar red
property uchar green
property uchar blue
end_header
 0.243374 -0.220932   2.03577 255 255 255
0.174886  0.28384  2.00774 255 255 255
0.512745 0.360141  1.81892 255 255 255
0.318132 0.206638  1.93509 255 255 255
 0.608518 0.0759839   1.81568 255 255 255
0.847621 0.157976  1.68291 255 255 255
0.475616 0.142749  1.87178 255 255 255
0.806475  0.36912  1.65876 255 255 255
0.652674 0.277004  1.75331 255 255 255
0.565004 0.390389   1.7806 255 255 255
0.622483 0.148179  1.78587 255 255 255
0.355025 0.299673  1.90078 255 255 255
  0.392425 -0.0138759    1.96207 255 255 255
0.791334 0.293896   1.6886 255 255 255
0.779974 0.352079  1.68483 255 255 255
 0.698362 -0.168109   1.82011 255 255 255
  0.42048 -0.168907   1.96898 255 255 255
0.224617 0.117685   2.0257 255 255 255
    0.4696 -0.0960796    1.96995 255 255 255
0.950473  0.12346  1.65132 255 255 255
 0.388261 0.0869015   1.94201 255 255 255
0.60149 0.26167 1.78954 255 255 255
0.824204 0.263161  1.67209 255 255 255
 0.755023 0.0799793   1.76106 255 255 255
0.262697 0.166415  1.98884 255 255 255
 0.231476 -0.122847   2.06056 255 255 255
0.221571 0.114437  2.02566 255 255 255
0.649614 0.339272  1.73258 255 255 255
 0.765169 0.0619652   1.75486 255 255 255
0.717551 0.381717  1.70901 255 255 255
 0.952801 0.0632434   1.66548 255 255 255
0.271642 0.071453  2.00783 255 255 255
0.779006 0.172617  1.71267 255 255 255
0.274736 0.316045  1.92551 255 255 255
0.728873 0.141749  1.75413 255 255 255
 0.303027 -0.205392    2.0176 255 255 255
0.764401 0.235812  1.70403 255 255 255
0.557278 0.330932  1.79139 255 255 255
  0.463295 -0.0488596     1.9633 255 255 255
 0.316964 0.0250143   1.99303 255 255 255
0.394031 0.358391  1.85287 255 255 255
0.623268 0.366791  1.75787 255 255 255
0.680328 0.357666  1.74024 255 255 255
0.380073 0.308761  1.89223 255 255 255
0.612238 0.369415  1.76728 255 255 255
  0.954086 -0.0237144    1.73455 255 255 255
0.118623 0.114058  2.07532 255 255 255
 0.800172 0.0504353   1.73893 255 255 255
0.743023 0.399316  1.68709 255 255 255
0.111079 0.276286  2.03861 255 255 255
0.162434 0.255389  2.01308 255 255 255
0.587396 0.241519   1.7969 255 255 255
0.587396 0.241519   1.7969 255 255 255
 0.177493 0.0386859   2.05929 255 255 255
 0.36269 0.100717  1.94945 255 255 255
 0.195815 -0.258068   2.05684 255 255 255
0.905922 0.106075  1.66496 255 255 255
0.618892 0.323458  1.75196 255 255 255
0.266893 0.333389  1.91587 255 255 255
  0.149363 -0.0475965    2.14696 255 255 255
0.535102  0.36629  1.79808 255 255 255
 0.89807 0.244216  1.62945 255 255 255
  0.77223 -0.183939   1.80945 255 255 255
 0.774753 0.0717414   1.73959 255 255 255
0.434057 0.124014  1.91186 255 255 255
 0.268533 0.0315846   2.01072 255 255 255
0.842156 0.119532   1.6933 255 255 255
0.0580781  0.228795    2.0815 255 255 255
  0.966644 -0.0471193    1.72156 255 255 255
0.0736736  0.171662   2.09093 255 255 255
0.844413 0.158789  1.68616 255 255 255
0.702957  0.28757  1.72026 255 255 255
 0.049459 0.0393888   2.10705 255 255 255
0.863175 0.356766   1.6415 255 255 255
0.495852  0.29393  1.78814 255 255 255
 0.655165 0.0169116   1.82356 255 255 255
0.171088 0.212094  2.02041 255 255 255
0.635205 0.393246  1.75483 255 255 255
  0.528028 -0.0347208    1.93287 255 255 255
0.732498 0.305944   1.7142 255 255 255
0.546262 0.306265  1.80632 255 255 255
0.414093 0.316002  1.87301 255 255 255
 0.406198 0.0849182   1.92849 255 255 255
  0.24399 -0.142481   2.07367 255 255 255
0.380469 0.271586  1.84168 255 255 255
 0.149777 -0.112826    2.1321 255 255 255
   0.81621 -0.0395125     1.8019 255 255 255
0.639415 0.205727  1.76901 255 255 255
0.715951  0.28841  1.72885 255 255 255
0.227743 0.119897  2.02292 255 255 255
0.621222  0.39127  1.75807 255 255 255
  0.34573 -0.247497   1.97795 255 255 255
 0.288845 0.0174871   2.00105 255 255 255
 0.56967 0.341764  1.78686 255 255 255
0.573334 0.340886  1.79237 255 255 255
   1.03466 -0.0566997    1.68459 255 255 255
0.857394 0.364311  1.64317 255 255 255
  0.36979 0.0158865   1.96064 255 255 255
0.453479 0.340076  1.85106 255 255 255
0.0651934  0.296581   2.06758 255 255 255
 0.543708 0.0146012   1.86951 255 255 255
0.636167 0.262313    1.775 255 255 255
0.725508 0.251955  1.72552 255 255 255
 0.908223 0.0865704    1.6724 255 255 255
0.180506 0.188789  2.02748 255 255 255
0.719465 0.377765  1.71017 255 255 255
  0.38352 0.0611977     1.946 255 255 255
 0.457723 -0.158511   1.95398 255 255 255
0.229086 0.152879  2.01452 255 255 255
0.456574  0.18801  1.80841 255 255 255
 0.514549 -0.185179   1.91166 255 255 255
0.285904 0.292308  1.92957 255 255 255
0.438268 0.361731  1.84024 255 255 255
0.855851 0.372149   1.6473 255 255 255
   0.5425 0.0842534   1.86588 255 255 255
 0.548542 -0.222868   1.88863 255 255 255
0.600437  0.21875   1.7789 255 255 255
0.652339 0.331011  1.73511 255 255 255
0.26699 0.30378 1.92951 255 255 255
 0.273666 0.0312157   2.00878 255 255 255
0.693171 0.141785  1.76425 255 255 255
0.0900418  0.121033   2.09825 255 255 255
0.697638 0.183233  1.74774 255 255 255
  0.153107 0.00743524    2.09164 255 255 255
 0.479412 0.0958545   1.88663 255 255 255
 0.618537 -0.184193   1.85611 255 255 255
0.900985 0.308823   1.6603 255 255 255
  0.7144 0.236294  1.74292 255 255 255
0.190139 0.318033   1.9946 255 255 255
 0.681998 0.0902246   1.79442 255 255 255
0.697999 0.150233  1.76033 255 255 255
0.668928 0.081572  1.80085 255 255 255
 0.441233 -0.214808   1.92416 255 255 255
0.120362 0.161976  2.06923 255 255 255
 0.196243 -0.146964    2.0745 255 255 255
0.919627 0.165187   1.6595 255 255 255
 0.532869 0.0634712   1.86363 255 255 255
  0.881511 -0.0334693    1.77006 255 255 255
0.358696 0.161098  1.92485 255 255 255
 0.229423 -0.125176   2.09164 255 255 255
0.318075 0.148809  1.96145 255 255 255
0.865693 0.237814  1.64789 255 255 255
0.710719 0.276553  1.71661 255 255 255
0.821139 0.244394  1.67131 255 255 255
 0.404997 -0.116567   1.99734 255 255 255
0.233365 0.177555  2.00077 255 255 255
 0.53982 0.378524  1.80032 255 255 255
  0.37862 0.0599532   1.95391 255 255 255
0.878013 0.085148  1.68796 255 255 255
 0.323857 -0.213082   2.00211 255 255 255
 0.157364 -0.161747   2.11597 255 255 255
0.500429 0.266956  1.81036 255 255 255
  0.662028 -0.0695788    1.87611 255 255 255
0.707574 0.167793  1.74463 255 255 255
 0.591573 0.0642014   1.83676 255 255 255
0.566237 0.338626  1.78721 255 255 255
 0.811712 0.0363961   1.74011 255 255 255
0.561993 0.328551  1.77973 255 255 255
0.249161 0.329198  1.93556 255 255 255
0.373675 0.376189  1.85355 255 255 255
0.338009 0.314854  1.89812 255 255 255
0.248992 0.189845  1.98622 255 255 255
 0.900632 0.0701872   1.68186 255 255 255
0.0858594 0.0324859   2.10315 255 255 255
 0.761404 -0.145618   1.81334 255 255 255
0.0843814 0.0258999   2.10876 255 255 255
0.948585 0.112342  1.64787 255 255 255
0.889205 0.202601  1.64883 255 255 255
0.671457 0.268384  1.74065 255 255 255
0.765658 0.222096   1.7178 255 255 255
0.933089 0.145514   1.6546 255 255 255
0.350108 0.374621  1.82123 255 255 255
 0.212895 0.0948546   2.03148 255 255 255
0.137147 0.276836  2.01471 255 255 255
 0.798199 0.0563688   1.74098 255 255 255
0.0960031  0.127033   2.09365 255 255 255
 0.28736 0.155303   1.9815 255 255 255
0.597866 0.222289  1.78434 255 255 255
0.143302 0.038791  2.07734 255 255 255
0.226379 0.278172  1.97666 255 255 255
    0.4301 -0.0772903    2.00373 255 255 255
0.752451 0.318296  1.69973 255 255 255
 0.846687 0.0744309   1.70711 255 255 255
0.356206 0.190531  1.87423 255 255 255
 0.563172 -0.104975   1.91804 255 255 255
0.657138 0.030464  1.82483 255 255 255
0.826541 0.251957  1.66676 255 255 255
0.821886 0.368236  1.65662 255 255 255
0.544599 0.165126  1.83078 255 255 255
0.910487 0.146995  1.66593 255 255 255
0.581843 0.235829  1.79121 255 255 255
0.294576 0.369928  1.89369 255 255 255
0.683158   0.2962   1.7183 255 255 255
0.161353 0.165708   2.0373 255 255 255
 0.731749 -0.054182    1.8426 255 255 255
 0.888281 -0.135589    1.7337 255 255 255
0.586295 0.306625  1.78364 255 255 255
  0.259338 -0.0961128    2.07436 255 255 255
0.675552 0.265331  1.73485 255 255 255
0.377842 0.196985  1.90486 255 255 255
0.448523 0.384029  1.81813 255 255 255
 0.251792 -0.254241   2.02969 255 255 255
0.173868 0.244531  2.06623 255 255 255
 0.280568 0.0302308    2.0085 255 255 255
 0.859295 -0.051786   1.77567 255 255 255
0.795764 0.317192   1.6805 255 255 255
0.647388 0.334207  1.73471 255 255 255
 0.76161 0.150753  1.72643 255 255 255
0.472569 0.332384  1.84098 255 255 255
0.0860936 0.0368403   2.10273 255 255 255
0.311069 0.155923  1.96538 255 255 255
0.259095 0.239506  1.97357 255 255 255
0.424223   0.3086  1.83353 255 255 255
0.594042 0.154667   1.8061 255 255 255
0.188568 0.305263  2.00481 255 255 255
  0.96094 -0.101503    1.7113 255 255 255
   0.81933 -0.0593085    1.80093 255 255 255
  0.62296 0.0785514   1.80663 255 255 255
0.667908 0.338821  1.74156 255 255 255
0.649519 0.400331  1.74597 255 255 255
 0.794742 0.0378142    1.7487 255 255 255
0.0766052  0.256653   2.06607 255 255 255
 0.906912 -0.137404   1.74614 255 255 255
 0.172283 -0.201764   2.08461 255 255 255
  0.973615 -0.0241316    1.72525 255 255 255
0.568894 0.346764  1.79305 255 255 255
 0.833063 0.0876266   1.71845 255 255 255
0.894547 0.190966  1.65202 255 255 255
0.893737 0.191115  1.65164 255 255 255
0.652172 0.216005  1.73485 255 255 255
0.719327  0.20235  1.73734 255 255 255
0.0810544 0.0322847   2.11338 255 255 255
 0.454542 0.0837849   1.91259 255 255 255
 0.812689 0.0547749   1.73332 255 255 255
0.371701 0.284839  1.84188 255 255 255
 0.19334 0.252679  2.00492 255 255 255
0.852791 0.338436  1.64791 255 255 255
0.231017 -0.19477  2.05775 255 255 255
0.709735 0.327332  1.71807 255 255 255
  0.433346 -0.0598559    1.99578 255 255 255
0.123094  0.25598  2.03987 255 255 255
0.650992 0.327911  1.73279 255 255 255
  0.317373 -0.0839548     2.0226 255 255 255
0.718333 0.224746  1.74443 255 255 255
0.609692 0.372945  1.76756 255 255 255
0.0393639  0.279934   2.07292 255 255 255
 0.51667 0.217308  1.83626 255 255 255
0.221246 0.313011  1.98471 255 255 255
0.83702 0.15897 1.68284 255 255 255
0.847101 0.205616  1.67578 255 255 255
 0.681351 -0.134494   1.85448 255 255 255
0.134113 0.254384  2.03497 255 255 255
0.789293 0.403858  1.66786 255 255 255
 0.540679 0.0581214   1.86167 255 255 255
0.546986 0.367854  1.79929 255 255 255
0.814026   0.4027  1.65459 255 255 255
0.528544 0.089159  1.86464 255 255 255
 0.542942 -0.221615   1.87737 255 255 255
0.133615  -0.1261  2.09602 255 255 255
0.802785 0.272418    1.691 255 255 255
 0.695871 -0.202099   1.82088 255 255 255
 0.16298 0.319325  1.99044 255 255 255
0.578851 0.141977  1.81745 255 255 255
0.221464 0.304167  1.96606 255 255 255
 0.65732 0.321956  1.73278 255 255 255
0.737535 0.294087  1.71019 255 255 255
 0.512163 0.0191351   1.88822 255 255 255
0.379684  0.37576  1.85406 255 255 255
0.501114 0.134368  1.86076 255 255 255
 0.70519 0.127865  1.75713 255 255 255
0.755427 0.240245  1.70602 255 255 255
0.792981  0.27712  1.69428 255 255 255
   1.02031 -0.0469801    1.69414 255 255 255
0.754282 0.371146  1.69192 255 255 255
0.825847 0.384749  1.65214 255 255 255
0.366701 0.268848  1.89584 255 255 255
0.871167 0.286129  1.65609 255 255 255
0.943833 0.100758   1.6534 255 255 255
 0.24321 0.305177  1.95073 255 255 255
0.642512 0.388163  1.75285 255 255 255
0.249676 0.134592  2.00646 255 255 255
0.551529 0.285811  1.81012 255 255 255
  0.898483 -0.0197909    1.76433 255 255 255
0.82754 0.31006 1.72151 255 255 255
0.949886  0.10519  1.64779 255 255 255
 0.540739 0.0123184   1.86615 255 255 255
0.0564857  0.216473   2.08414 255 255 255
0.293817 0.331017  1.92543 255 255 255
0.0776698  0.211031    2.0759 255 255 255
0.130909 0.190279   2.0538 255 255 255
0.705713 0.376704  1.70915 255 255 255
0.442963 0.304951  1.83712 255 255 255
 0.263545 0.0588918   2.01729 255 255 255
0.538196 0.393289  1.79032 255 255 255
0.602142 0.310643  1.76086 255 255 255
0.0931172 -0.104113   2.16751 255 255 255
  0.76185 -0.117632   1.80916 255 255 255
0.718771 0.290267  1.72577 255 255 255
0.856334 0.354128  1.64538 255 255 255
0.709809 0.278924  1.71968 255 255 255
0.111347 0.161088  2.06814 255 255 255
0.424162 0.359626  1.86753 255 255 255
0.644383 0.354657  1.75452 255 255 255
 0.488267 0.0486276   1.89472 255 255 255
 0.218089 0.0418722   2.03654 255 255 255
0.363402 0.278224  1.87174 255 255 255
0.446735 0.328367   1.8537 255 255 255
 0.68316 0.389641  1.72678 255 255 255
0.830972 0.333555  1.66341 255 255 255
0.255664 0.274287   1.9432 255 255 255
 0.78728 0.359378  1.67295 255 255 255
 0.371111 -0.207657   1.97164 255 255 255
0.124803 0.211794  2.05225 255 255 255
0.854382 0.242176  1.65653 255 255 255
 0.542015 0.0631053   1.86551 255 255 255
  0.532967 -0.0215507    1.93485 255 255 255
0.877656 0.166165  1.66781 255 255 255
 0.132481 0.0419889   2.07653 255 255 255
0.717659 0.334942  1.70986 255 255 255
0.387588 0.353646  1.82807 255 255 255
0.515884 0.371479  1.82347 255 255 255
0.583319 0.263567  1.79848 255 255 255
0.133191 0.168404  2.04627 255 255 255
 0.65651 0.346552  1.75582 255 255 255
 0.349113 -0.144939    2.0072 255 255 255
0.0633511  0.210834   2.08049 255 255 255
0.956375 0.119208  1.65193 255 255 255
0.422545 0.343796  1.86082 255 255 255
 0.703237 0.0988117   1.77783 255 255 255
0.389971  0.21834  1.90608 255 255 255
 0.375621 0.0288125   1.96211 255 255 255
0.512603 0.199679  1.82875 255 255 255
 0.777258 -0.198915   1.76673 255 255 255
 0.312971 -0.219541   1.99433 255 255 255
0.329227 -0.10025  2.01372 255 255 255
 0.762591 0.0377364   1.76413 255 255 255
 0.358006 0.0190084   1.96892 255 255 255
0.561226 0.390038  1.78254 255 255 255
0.418936 0.363006  1.85171 255 255 255
0.0783841  0.304124   2.05984 255 255 255
0.782756 0.182446  1.71531 255 255 255
0.885136 0.125067   1.6861 255 255 255
0.645917 0.359949  1.75303 255 255 255
 0.305261 -0.164284   2.03316 255 255 255
 0.372004 -0.187092    1.9862 255 255 255
0.746803 0.194542  1.71055 255 255 255
0.549364 0.372414  1.78046 255 255 255
0.733094 0.256166  1.71112 255 255 255
0.860163 0.149895  1.67993 255 255 255
0.359461 0.317403  1.90122 255 255 255
 0.759945 0.0334607   1.76832 255 255 255
0.438204 0.340473  1.85893 255 255 255
0.191675 0.225996   2.0103 255 255 255
0.216501 0.215644  1.99804 255 255 255
0.0761682  0.301596   2.05858 255 255 255
0.831737 0.159541  1.68629 255 255 255
0.597209 0.374006  1.77154 255 255 255
0.197574 0.160989  2.01482 255 255 255
0.790236 0.310366  1.68386 255 255 255
0.300899 0.220757  1.95516 255 255 255
 0.56619 0.315522  1.78426 255 255 255
0.0466291  0.293962   2.07536 255 255 255
0.898579 0.134881  1.67744 255 255 255
 0.290718 0.0511448   2.00333 255 255 255
 0.0795006 -0.0033165     2.1316 255 255 255
 0.873863 0.0796126   1.68947 255 255 255
0.465236 0.377925  1.80761 255 255 255
 0.193888 -0.160683   2.09666 255 255 255
0.366559 0.350031  1.85315 255 255 255
0.823322  0.37604  1.65704 255 255 255
0.154686 0.241359  2.02085 255 255 255
 0.715628 0.0822977   1.76829 255 255 255
0.963727 0.087235  1.65415 255 255 255
0.566386 0.380044  1.78507 255 255 255
 0.849702 0.0818656   1.70897 255 255 255
0.772647 0.223668  1.70556 255 255 255
 0.197333 -0.226486   2.05203 255 255 255
0.128648 0.138736  2.06235 255 255 255
0.0864015  0.203178   2.07022 255 255 255
0.770425 0.262162  1.69141 255 255 255
0.173168 0.105696   2.0531 255 255 255
 0.219212 -0.021949   2.10932 255 255 255
0.319698 0.311193  1.90509 255 255 255
0.207214 0.227736  2.00265 255 255 255
 0.0904569 -0.0935291     2.1692 255 255 255
 0.050592 0.0949977   2.11903 255 255 255
 0.372007 -0.197991   1.98927 255 255 255
 0.767081 -0.189067   1.78617 255 255 255
0.352419 0.267698  1.90481 255 255 255
   1.04244 -0.0774484    1.67896 255 255 255
0.382762 -0.17348  1.98867 255 255 255
0.698912 0.338662  1.71925 255 255 255
0.154508 0.244909  2.02815 255 255 255
0.90794 0.25435 1.67902 255 255 255
  0.29236 0.0511058   1.99799 255 255 255
0.219269 0.263873  1.99193 255 255 255
0.166593  0.20637  2.02846 255 255 255
 0.55479 0.334127  1.79888 255 255 255
0.734907 0.388275  1.69661 255 255 255
0.775426 0.154664  1.71764 255 255 255
0.421324 0.362927  1.84796 255 255 255
  0.902341 -0.0232862    1.76238 255 255 255
0.597819 0.378747   1.7727 255 255 255
0.251537 0.268492  1.95766 255 255 255
0.538811  0.33184  1.79644 255 255 255
0.613261 0.338288  1.75608 255 255 255
0.449037 0.387997  1.81978 255 255 255
0.499841 0.312811  1.82271 255 255 255
0.809171 0.350398  1.66266 255 255 255
0.557873 0.379699  1.79437 255 255 255
0.817004 0.326256  1.66806 255 255 255
  0.775625 -0.0539435    1.81971 255 255 255
 0.0729658 -0.0608005    2.16768 255 255 255
 0.583368 0.0640987   1.84376 255 255 255
0.101731 0.198045  2.07496 255 255 255
0.245265 0.220639  1.99539 255 255 255
0.639473 0.281382  1.75868 255 255 255
0.213499 0.244057  1.99665 255 255 255
 0.353241 0.0838634   1.96438 255 255 255
0.245819 0.283385   1.9641 255 255 255
 0.726494 0.0884115   1.76172 255 255 255
 0.57458 0.293277  1.80047 255 255 255
0.0732207  0.299603   2.06112 255 255 255
0.595402 0.308841  1.77207 255 255 255
0.0526458  0.283786   2.07734 255 255 255
  0.71988 0.0186227   1.79468 255 255 255
 0.335633 0.0331683   1.97657 255 255 255
  0.380387 -0.0417219    2.01985 255 255 255
    0.3738 -0.0362268    2.00635 255 255 255
0.305713 0.165341   1.9609 255 255 255
0.258203 0.302231  1.94506 255 255 255
0.448855 0.310369  1.85832 255 255 255
  0.739716 -0.0124985    1.83831 255 255 255
 0.312659 0.0648134   1.98555 255 255 255
0.356014 0.323149  1.90335 255 255 255
 0.968913 0.0766925    1.6537 255 255 255
0.649743 0.224004  1.75429 255 255 255
0.679366 0.252931  1.75439 255 255 255
 0.902871 0.0704056   1.67937 255 255 255
 0.102948 0.0395167   2.09118 255 255 255
  0.88424 -0.173503   1.72579 255 255 255
 0.298334 -0.214938   2.01108 255 255 255
0.740525  0.14316  1.74282 255 255 255
0.842689 0.322981  1.71966 255 255 255
 0.584744 -0.192383   1.87884 255 255 255
 0.78374 0.359474  1.67462 255 255 255
  0.313273 -0.0999267    2.04992 255 255 255
  0.832873 -0.0427141    1.79236 255 255 255
0.0829858  0.141552   2.08504 255 255 255
0.275908 0.233345  1.96653 255 255 255
0.530048 0.334806  1.78916 255 255 255
0.639652 -0.13839  1.86624 255 255 255
0.543509 0.396878  1.78941 255 255 255
0.774454 0.218823  1.71629 255 255 255
 0.23597 0.128094  2.01373 255 255 255
 0.619426 0.0338085   1.83964 255 255 255
0.862769 0.107986  1.69906 255 255 255
 0.453621 0.0415929   1.92034 255 255 255
 0.103088 0.0423266   2.09675 255 255 255
0.322551 0.186083  1.93045 255 255 255
 0.820711 0.0787238   1.72768 255 255 255
  0.377768 -0.0235843    2.00121 255 255 255
0.059012 0.277078  2.07452 255 255 255
 0.781183 0.0532097   1.75197 255 255 255
0.795673 0.383575  1.66058 255 255 255
0.272921 0.312338  1.92775 255 255 255
 0.217497 -0.148349   2.06448 255 255 255
0.111257 0.207063  2.05932 255 255 255
0.572717 0.341483  1.78464 255 255 255
0.864834 0.221602  1.64699 255 255 255
 0.424437 -0.044011   1.98377 255 255 255
 0.603015 0.0497505    1.8368 255 255 255
 0.704508 -0.132116   1.84317 255 255 255
0.500013 0.139853  1.85423 255 255 255
0.353269 0.186101  1.92501 255 255 255
0.480096 0.347397  1.83729 255 255 255
 0.352717 -0.158823   2.00244 255 255 255
 0.091197 -0.161933   2.15165 255 255 255
0.491637 0.136644  1.87019 255 255 255
0.761952 0.362387  1.68736 255 255 255
0.691936 0.241692  1.75234 255 255 255
0.213202 0.292073  1.97702 255 255 255
 0.736673 -0.166931   1.79522 255 255 255
0.511058 0.395096  1.78902 255 255 255
 0.222558 -0.100416   2.09226 255 255 255
 0.207845 -0.250599   2.04168 255 255 255
0.734662 0.207554  1.73806 255 255 255
 0.184666 0.0966013   2.04504 255 255 255
 0.30045 0.207927  1.94962 255 255 255
0.873757 0.258086  1.64347 255 255 255
0.821664 0.136724  1.70879 255 255 255
  1.03047 -0.103739   1.68056 255 255 255
0.793805 0.373839  1.66443 255 255 255
0.921502 0.112736  1.66853 255 255 255
0.682484  0.39559  1.72512 255 255 255
 0.320071 0.0838198   1.97484 255 255 255
 0.315766 -0.159929   2.02778 255 255 255
0.365195 0.362465  1.85158 255 255 255
0.600777 0.259794  1.77361 255 255 255
  0.852302 -0.0355472    1.78504 255 255 255
0.374067 0.131008  1.94064 255 255 255
0.546424  0.28251   1.8041 255 255 255
  0.21064 -0.194239   2.05404 255 255 255
 0.461815 -0.101476   1.96422 255 255 255
0.505542 0.387031  1.81549 255 255 255
0.150881 0.107162  2.06665 255 255 255
0.510605 0.344958  1.81018 255 255 255
0.0862428   0.19651   2.07174 255 255 255
0.455183 0.293317  1.81066 255 255 255
0.894273 0.215826  1.64747 255 255 255
0.779516 0.116597    1.734 255 255 255
 0.370778 0.0791828   1.95666 255 255 255
0.869519 0.241548  1.64749 255 255 255
0.140121 0.212271  2.04394 255 255 255
 0.684453 0.0370659   1.78949 255 255 255
 0.614459 0.0286564   1.83469 255 255 255
0.520867 0.290255  1.80776 255 255 255
 0.25505 0.292922  1.94211 255 255 255
0.834607  0.25516  1.66442 255 255 255
0.0922097  0.163783   2.07922 255 255 255
0.372016 0.324985  1.89418 255 255 255
0.376906 0.352327  1.84932 255 255 255
  0.363874 -0.0224107    2.02403 255 255 255
 0.0878736 -0.0451078    2.17592 255 255 255
0.274603  0.31013  1.92121 255 255 255
  0.6287 0.371638  1.76231 255 255 255
 0.779933 0.0735557   1.74587 255 255 255
0.129545 0.290922   2.0316 255 255 255
0.587039 0.367012  1.77786 255 255 255
0.105319 0.279587  2.04437 255 255 255
0.836473 0.389554  1.64659 255 255 255
 0.60754 0.368059   1.7664 255 255 255
 0.76497 0.331286  1.68847 255 255 255
  0.544889 -0.0271229    1.92541 255 255 255
 0.676058 -0.115868   1.85991 255 255 255
 0.885757 0.0656165   1.68729 255 255 255
0.557413 0.333951  1.79272 255 255 255
0.471053 0.339932  1.84495 255 255 255
0.787278 0.295208  1.71889 255 255 255
0.494275 0.369372    1.815 255 255 255
 0.701978 0.0582598   1.78949 255 255 255
  0.848274 -0.0481219    1.78265 255 255 255
0.719439 0.117309  1.76196 255 255 255
0.632542 0.251593  1.77265 255 255 255
0.635037 0.250928  1.77521 255 255 255
0.185391 0.110516  2.04483 255 255 255
0.183951 0.111608  2.04235 255 255 255
0.608162 0.375166  1.77012 255 255 255
  0.50041 0.0660177    1.8878 255 255 255
0.576836 0.300844  1.76742 255 255 255
  0.229405 -0.0212852    2.09703 255 255 255
0.666312 0.068725  1.80156 255 255 255
 0.951313 0.0971541   1.65651 255 255 255
0.650858 0.351365  1.75278 255 255 255
  0.273654 -0.0697832    2.07519 255 255 255
  0.721361 -0.0633815    1.84703 255 255 255
 0.589906 0.0505681   1.85273 255 255 255
 0.995032 -0.131298    1.6783 255 255 255
0.633791 0.366605  1.75294 255 255 255
   0.91356 -0.0173468    1.75593 255 255 255
0.885545 0.112614  1.69056 255 255 255
 0.821787 0.0799453   1.70295 255 255 255
0.637046 0.339006  1.74221 255 255 255
  0.44286 0.0204753   1.92274 255 255 255
0.284531 0.279226  1.90567 255 255 255
 0.831876 -0.166649   1.77563 255 255 255
0.0928466  0.123021   2.09801 255 255 255
0.140778 0.234029  2.02895 255 255 255
0.452654 0.317927  1.85599 255 255 255
0.451036 0.318278  1.85431 255 255 255
0.302816 0.063924  1.99202 255 255 255
 0.542527 0.0848624   1.85838 255 255 255
 0.944135 -0.171704   1.72873 255 255 255
0.654449 0.288114  1.72787 255 255 255
 0.249794 -0.138241   2.05286 255 255 255
0.630584 0.345043  1.75888 255 255 255
0.750588 0.247739  1.70761 255 255 255
 0.151404 -0.194006    2.1036 255 255 255
0.769308 0.179598  1.71895 255 255 255
 0.282528 0.0242385   2.00396 255 255 255
0.621808  0.26121  1.77588 255 255 255
0.164194 0.171721  2.03522 255 255 255
 0.174039 -0.231909   2.05178 255 255 255
0.178331 0.331067  1.99162 255 255 255
0.196221 0.207134    2.014 255 255 255
0.508315 0.358445  1.80932 255 255 255
 0.43322 0.111498  1.91046 255 255 255
  0.644347 -0.0662772    1.88721 255 255 255
0.583942 0.371945  1.77243 255 255 255
0.179958 0.185098   2.0283 255 255 255
0.79921 0.35728 1.66628 255 255 255
0.560806 0.319982  1.77249 255 255 255
 0.687091 -0.148844   1.84907 255 255 255
0.141744 0.176378  2.04226 255 255 255
 0.098025 0.0302742   2.10034 255 255 255
0.643015 0.123503  1.77261 255 255 255
  0.253934 -0.0991582    2.05973 255 255 255
 0.111242 0.0406714   2.09399 255 255 255
0.752408 0.319805  1.70573 255 255 255
 0.404142 -0.157512   1.96622 255 255 255
  0.970544 -0.0112216    1.72612 255 255 255
  0.797218 -0.0823841    1.80468 255 255 255
 0.361798 0.0274422   1.96749 255 255 255
0.713957 0.215499  1.74463 255 255 255
0.866522 0.260322  1.65864 255 255 255
0.677602 0.309348  1.72524 255 255 255
0.485392 0.368053  1.81359 255 255 255
0.158923 0.292765  2.01904 255 255 255
0.201692 0.184025  2.05372 255 255 255
0.679883 0.249894  1.75249 255 255 255
 0.208043 -0.216943   2.05068 255 255 255
0.782653  0.29079  1.69604 255 255 255
0.139737 0.288816  2.02368 255 255 255
  0.869574 -0.0647392    1.76998 255 255 255
 0.0833456 -0.0817102    2.17243 255 255 255
  0.242162 -0.0305625    2.08283 255 255 255
 0.631326 -0.108201   1.88178 255 255 255
 0.360947 -0.174978   1.98562 255 255 255
0.435493 0.264495  1.84634 255 255 255
0.917562 0.148361  1.66453 255 255 255
0.0877249   0.29589   2.05648 255 255 255
0.565205 0.305104  1.78785 255 255 255
 0.42638 0.043812  1.93185 255 255 255
0.398796 0.196782  1.88312 255 255 255
0.65611 0.17695 1.77506 255 255 255
0.231761 0.350595  1.94078 255 255 255
0.0910634  0.189204   2.06548 255 255 255
 0.155643 -0.175127   2.07346 255 255 255
0.185066 0.193557  2.02308 255 255 255
 0.285061 -0.183582   2.03506 255 255 255
 0.897384 0.0664485   1.68788 255 255 255
0.830409 0.348751  1.65148 255 255 255
 0.113334 -0.255665   2.10101 255 255 255
0.674019 0.143188  1.75339 255 255 255
 0.385336 -0.235552   1.95624 255 255 255
  0.736568 -0.0148034    1.83851 255 255 255
 0.950161 -0.038996   1.73289 255 255 255
 0.966304 0.0663148   1.65925 255 255 255
0.491789 0.272809  1.81092 255 255 255
0.749555 0.106803   1.7567 255 255 255
0.681264 0.401635    1.722 255 255 255
0.103468  0.26908  2.05164 255 255 255
0.209285 0.242373  2.00003 255 255 255
 0.331202 -0.150541   2.02467 255 255 255
0.493878 0.041385  1.89478 255 255 255
 0.142817 -0.047336    2.1506 255 255 255
 0.482436 0.0936831   1.87732 255 255 255
 0.113683 0.0408366   2.09131 255 255 255
 0.114236 0.0403205   2.09267 255 255 255
0.907758  0.10031  1.66734 255 255 255
0.0810854   0.17869   2.08586 255 255 255
 0.150493 -0.234665   2.05998 255 255 255
0.0854109  0.216625   2.07352 255 255 255
0.212986 0.114711  2.03056 255 255 255
 0.176064 -0.260705    2.0658 255 255 255
0.368654 0.318624  1.89489 255 255 255
  0.287821 -0.0527382    2.04617 255 255 255
0.613348 0.299872   1.7616 255 255 255
0.477325 0.317345  1.84058 255 255 255
0.634419 0.249305  1.76867 255 255 255
 0.962552 -0.055231   1.72188 255 255 255
  0.962425 -0.0552073    1.72183 255 255 255
 0.640462 -0.104674   1.87909 255 255 255
 0.263963 -0.212994   2.02705 255 255 255
 0.410295 -0.128147   1.98223 255 255 255
 0.337382 -0.174186   2.00492 255 255 255
 0.723077 -0.171229   1.80501 255 255 255
 0.239329 0.0226603   2.02723 255 255 255
0.853188 0.232201  1.65314 255 255 255
0.858707  0.30534  1.65327 255 255 255
0.273772 0.305983  1.92475 255 255 255
 0.785592 -0.158299   1.77412 255 255 255
0.534276 0.345213  1.80421 255 255 255
  0.323822 -0.0664144     2.0315 255 255 255
  0.897941 -0.0154787    1.76487 255 255 255
0.862027 0.231721  1.64892 255 255 255
0.549726 0.300118  1.80227 255 255 255
 0.270749 -0.202616   2.03311 255 255 255
 0.632835 -0.128766   1.87848 255 255 255
  0.235411 -0.0567251    2.08717 255 255 255
0.607199 0.256311  1.78838 255 255 255
 0.69383 0.308244  1.72921 255 255 255
0.643506 0.335178  1.73673 255 255 255
  0.317663 -0.0169537    2.03013 255 255 255
0.408051 0.308466  1.87747 255 255 255
  0.33213 0.0744315   1.97832 255 255 255
0.168116 0.171535  2.03253 255 255 255
  0.77043 0.0752113   1.74827 255 255 255
0.270594 0.308952  1.92829 255 255 255
0.653099 0.301273  1.72878 255 255 255
  0.970835 -0.0164809    1.72693 255 255 255
  0.25908 -0.027188   2.07458 255 255 255
0.138333 0.113595  2.06874 255 255 255
0.866314 0.123767   1.6959 255 255 255
0.178242  0.20325  2.02592 255 255 255
0.138841 0.108711  2.06868 255 255 255
  0.733315 -0.0131521    1.84176 255 255 255
 0.84213 0.157286  1.68056 255 255 255
 0.476289 -0.171849   1.93692 255 255 255
  0.5114 0.330621  1.82167 255 255 255
 0.809971 -0.114242   1.78482 255 255 255
0.635488 0.151945  1.78607 255 255 255
0.251695 0.247043  1.96825 255 255 255
0.619431 0.048465  1.82846 255 255 255
 0.710821 0.0622322   1.78671 255 255 255
0.705889 0.064081  1.78108 255 255 255
0.884888 0.249289  1.64142 255 255 255
0.726756 0.406604  1.69807 255 255 255
 0.244658 0.0286871   2.02346 255 255 255
 0.46816 0.302759  1.82006 255 255 255
  0.324396 -0.0938891    2.02799 255 255 255
 0.26779 0.340297   1.9187 255 255 255
0.913366 0.155567  1.66415 255 255 255
 0.29479 0.334299  1.92305 255 255 255
0.540397 0.360809  1.80768 255 255 255
 0.414807 -0.100442   1.99654 255 255 255
0.313641 0.287277  1.88459 255 255 255
0.863882 0.351572  1.64203 255 255 255
  0.696981 -0.0833268    1.85426 255 255 255
0.754942 0.195294  1.70598 255 255 255
 0.584257 0.0512869   1.84205 255 255 255
 0.754362 -0.175676   1.81876 255 255 255
 0.256136 0.0675503   2.01967 255 255 255
 0.815517 -0.110711   1.78259 255 255 255
0.648485 0.184473  1.77987 255 255 255
 0.293203 -0.247006    2.0115 255 255 255
0.588472 0.302614  1.75832 255 255 255
 0.310014 0.0257999   1.99194 255 255 255
 0.192927 -0.124753   2.09927 255 255 255
  0.791563 -0.0818184    1.80486 255 255 255
 0.348125 -0.162211   1.99328 255 255 255
0.821979 0.362962  1.65415 255 255 255
0.458645 0.389649  1.81722 255 255 255
 0.948516 0.0995795   1.65047 255 255 255
0.527393 0.241115  1.80331 255 255 255
 0.381832 -0.167225   1.97663 255 255 255
0.361233 0.365584  1.90043 255 255 255
0.593809 0.360915  1.77438 255 255 255
0.796304 0.371591  1.66373 255 255 255
0.865076 0.252769  1.65073 255 255 255
 0.116859 0.0281579   2.09337 255 255 255
  0.1324 0.030985  2.07796 255 255 255
 0.312606 0.0170067   1.98675 255 255 255
0.734992  0.28114  1.70902 255 255 255
  0.52013 -0.176485   1.90938 255 255 255
0.593363 0.313253  1.75972 255 255 255
 0.863466 0.0994325   1.70047 255 255 255
0.853031 0.264939  1.66765 255 255 255
0.729922 0.315458  1.71219 255 255 255
0.575887 0.304169  1.77933 255 255 255
 0.312275 -0.038617   2.04848 255 255 255
  0.452456 0.00699409    1.92051 255 255 255
 0.20686 0.104813  2.03623 255 255 255
0.298199  0.13527   1.9819 255 255 255
0.348368 0.200687  1.93613 255 255 255
 0.868149 -0.180477   1.75996 255 255 255
 0.782182 -0.163359   1.79994 255 255 255
0.718062 0.229802  1.74431 255 255 255
0.555669 0.234286  1.81306 255 255 255
0.705684 0.236437    1.748 255 255 255
 0.73481 0.249219  1.71521 255 255 255
 0.706355 -0.152863   1.82562 255 255 255
0.153338 0.102957  2.06256 255 255 255
  0.587642 -0.0657435    1.91238 255 255 255
 0.893614 -0.018332   1.76588 255 255 255
 0.280206 -0.173495   2.02861 255 255 255
0.624133 0.171122  1.78705 255 255 255
0.426126 0.327951  1.86531 255 255 255
 0.263107 0.0751774   2.01037 255 255 255
 0.812682 -0.120229   1.79433 255 255 255
 0.145466 0.0615896   2.06877 255 255 255
 0.994237 -0.125972   1.69241 255 255 255
0.950116 0.122714  1.65488 255 255 255
0.729168 0.295139  1.72727 255 255 255
0.267363 0.298419  1.92205 255 255 255
0.563122 0.336558   1.7813 255 255 255
0.225175 0.184075  2.00502 255 255 255
0.269846 0.219305  1.96826 255 255 255
  0.977505 -0.0194944    1.72824 255 255 255
 0.120984 0.0259726   2.09196 255 255 255
0.0961124  0.293297   2.05142 255 255 255
0.932169  0.11217  1.65734 255 255 255
0.422646 0.290725  1.84377 255 255 255
0.806764 0.184041  1.69089 255 255 255
  0.24147 -0.168233   2.06438 255 255 255
0.176746 0.042977  2.05835 255 255 255
 0.961413 0.0860851   1.65384 255 255 255
0.714278 0.327521  1.71932 255 255 255
0.780634 0.255717  1.68926 255 255 255
0.0995237  0.128175   2.08478 255 255 255
 0.442966 0.0332044    1.9221 255 255 255
0.191986 0.106925  2.04103 255 255 255
  0.31541 -0.132613   2.04095 255 255 255
0.667219 0.026201  1.81862 255 255 255
 0.613417 0.0999099   1.81144 255 255 255
0.906396 0.168322  1.66312 255 255 255
 0.200519 0.0285659   2.04577 255 255 255
0.907489 0.136915  1.66914 255 255 255
 0.544569 0.0782481   1.86225 255 255 255
 0.227306 -0.155738   2.07735 255 255 255
0.327623 0.313851  1.88361 255 255 255
  0.753098 -0.0114814    1.83169 255 255 255
 0.159946 -0.153518   2.07809 255 255 255
 0.128553 -0.158868   2.13425 255 255 255
0.0815525  0.239366   2.06922 255 255 255
 0.656217 -0.172787    1.8486 255 255 255
 0.273795 -0.183264   2.03011 255 255 255
0.616238 0.256659  1.78454 255 255 255
 0.343767 -0.105665    2.0303 255 255 255
0.645231 0.115905  1.78489 255 255 255
0.895759 0.100883  1.67634 255 255 255
0.126487 0.105963  2.17811 255 255 255
  0.25989 -0.186333   2.04627 255 255 255
0.422151 0.271381  1.85366 255 255 255
0.402808 0.025958  1.94489 255 255 255
 0.202882 0.0858318   2.03463 255 255 255
 0.182962 -0.129617   2.08842 255 255 255
  0.905899 -0.0525569    1.75029 255 255 255
0.561484 0.081628  1.84966 255 255 255
 0.254102 -0.184707   2.03874 255 255 255
 0.24837 0.145023  2.00448 255 255 255
 0.380668 -0.178746   1.97397 255 255 255
 0.263737 -0.167573   2.03702 255 255 255
0.379254 0.208688   1.9159 255 255 255
0.703176 0.386125  1.72192 255 255 255
  0.566277 -0.0533866    1.91647 255 255 255
 0.282265 -0.234987   2.01287 255 255 255
 0.854516 0.0977461   1.70447 255 255 255
  0.905171 -0.0129899    1.76709 255 255 255
0.454916 0.363431  1.85273 255 255 255
  0.237389 -0.0397226    2.07003 255 255 255
  0.760892 -0.0244742    1.83377 255 255 255
  0.29656 0.0278183   2.00371 255 255 255
  0.226958 -0.0364752    2.09725 255 255 255
 0.322102 -0.206485   2.00416 255 255 255
0.412146 0.299155  1.86948 255 255 255
0.773498 0.182103  1.71739 255 255 255
 0.345018 0.0226594   1.97924 255 255 255
 0.306145 -0.177364   2.01356 255 255 255
 0.873301 -0.171935   1.76575 255 255 255
0.542295 0.304634  1.81144 255 255 255
0.0666501  0.223766   2.08503 255 255 255
  0.192425 -0.0633662    2.11852 255 255 255
0.299148  0.19533  1.95374 255 255 255
0.385775 0.283079  1.85977 255 255 255
0.658505 0.394488  1.75514 255 255 255
0.131753  0.19352  2.05003 255 255 255
0.231567 0.053148  2.02738 255 255 255
 0.841102 0.0633392   1.71764 255 255 255
 0.386293 -0.163328   1.97319 255 255 255
 0.436087 0.0174981   1.93117 255 255 255
0.374629 0.127279  1.94103 255 255 255
0.874275 0.118596  1.69177 255 255 255
0.915589 0.211146   1.6435 255 255 255
 0.309296 -0.156949   2.03598 255 255 255
 0.367923 -0.166326   1.99301 255 255 255
 0.174125 -0.155929   2.08472 255 255 255
0.647177 0.359987  1.74914 255 255 255
0.379944 0.981651  1.54646 255 255 255
0.437601  1.07275  1.55612 255 255 255
0.402586  1.18956  1.55775 255 255 255
0.427413  1.08888  1.52838 255 255 255
0.44585 1.12173 1.54504 255 255 255
0.410119  1.01128  1.52604 255 255 255
0.391422  1.00052  1.54333 255 255 255
0.378106 0.972958  1.57382 255 255 255
0.513761  1.10194    1.532 255 255 255
0.436709  1.11208   1.5706 255 255 255
0.484213  1.09138  1.51054 255 255 255
0.444608  1.01811  1.54033 255 255 255
0.393896 0.998928  1.57749 255 255 255
0.435872  1.06162  1.53845 255 255 255
0.407357  1.03501  1.57333 255 255 255
0.381268  1.00698  1.56877 255 255 255
0.494904   1.0778  1.54489 255 255 255
0.50057 1.11201 1.52245 255 255 255
0.308834   1.0901  1.51358 255 255 255
0.185801  1.04513  1.65125 255 255 255
0.467485  1.03894  1.55422 255 255 255
0.410192 0.984433    1.483 255 255 255
0.555447   1.0483  1.58372 255 255 255
0.294721  1.11577  1.43602 255 255 255
0.395229 0.999238  1.56888 255 255 255
0.493894  1.09619  1.52115 255 255 255
0.432103  1.00964  1.47844 255 255 255
0.45807 1.11219 1.56649 255 255 255
0.383918  1.16344  1.58633 255 255 255
0.434027  1.01931   1.5043 255 255 255
0.390088 0.957194  1.50267 255 255 255
0.399148  1.16248   1.5802 255 255 255
0.443893  1.01699  1.54711 255 255 255
0.357571 0.942583  1.56033 255 255 255
0.405064 0.975985  1.47814 255 255 255
0.408461 0.979772  1.48216 255 255 255
0.396519 0.962742  1.48236 255 255 255
0.44155 1.03581 1.51434 255 255 255
0.403057 0.951027  1.47206 255 255 255
0.441284  1.09533   1.5584 255 255 255
0.439519  1.08609  1.55853 255 255 255
0.407206 0.982928  1.51014 255 255 255
0.428258  1.16795  1.56676 255 255 255
0.508107  1.11627  1.52864 255 255 255
0.364601 0.961867   1.5941 255 255 255
0.302774 0.960522  1.66364 255 255 255
0.367913  1.08662  1.56415 255 255 255
0.396222 0.992419   1.5683 255 255 255
0.366375 0.942376  1.55535 255 255 255
0.411719  1.01339  1.54541 255 255 255
0.438678   1.1373  1.50669 255 255 255
0.387354  1.12467  1.59752 255 255 255
0.453711  1.12301  1.51727 255 255 255
0.456124  1.04129  1.54781 255 255 255
0.428262  1.18148  1.56386 255 255 255
0.319038  1.08007  1.50214 255 255 255
0.427814    1.103  1.54923 255 255 255
0.442021  1.08838  1.53582 255 255 255
0.437396  1.11495  1.53659 255 255 255
0.189974 0.965915   1.6469 255 255 255
0.406733  1.03823   1.5536 255 255 255
0.328638  1.10446    1.499 255 255 255
0.45566 1.11043 1.54154 255 255 255
0.455156  1.03196  1.54237 255 255 255
0.451859  1.11947  1.53679 255 255 255
0.369707 0.981229  1.54605 255 255 255
0.317802  1.04997  1.62586 255 255 255
0.35125 1.09343  1.5663 255 255 255
0.433038  1.10371   1.5443 255 255 255
0.371891  1.22009  1.55572 255 255 255
0.362699  1.00688  1.52328 255 255 255
0.355441 0.947841   1.5666 255 255 255
0.385074 0.972206  1.59552 255 255 255
0.347337 0.933376  1.57396 255 255 255
0.426209  1.06984  1.55296 255 255 255
0.383623  1.11773  1.57321 255 255 255
0.45178 1.11873 1.57697 255 255 255
0.342587  1.15675  1.68689 255 255 255
0.410221 0.955478  1.45631 255 255 255
0.375129  1.01261  1.57654 255 255 255
 0.4193 1.07051 1.55643 255 255 255
0.384171  1.08878  1.55696 255 255 255
0.369367 0.972237  1.55394 255 255 255
0.373432  1.14696  1.55168 255 255 255
 0.4219 1.11481 1.57438 255 255 255
0.38477 1.10846 1.58353 255 255 255
0.317245  1.14129  1.42407 255 255 255
0.366014 0.942644  1.55619 255 255 255
0.548793  1.19778  1.52932 255 255 255
0.378745 0.942514  1.55061 255 255 255
0.368746 0.969178  1.59779 255 255 255
0.398055  1.19891  1.55168 255 255 255
 0.4471 1.11658 1.55496 255 255 255
0.408709  1.00853  1.52549 255 255 255
0.408891  1.00533  1.53946 255 255 255
0.372372  0.97622  1.55228 255 255 255
0.361604  1.01074  1.59434 255 255 255
0.352568  1.06489  1.62472 255 255 255
0.736783  1.20141   1.4526 255 255 255
0.527494  1.34316   1.5573 255 255 255
0.720082   1.4622  1.49923 255 255 255
 0.60138 0.776057  1.50093 255 255 255
0.740688 0.864267  1.44771 255 255 255
0.764073  1.41783   1.4771 255 255 255
0.751673  1.33613  1.46564 255 255 255
0.623686  1.46235  1.53258 255 255 255
0.700111  0.71457  1.47589 255 255 255
0.736207 0.727109  1.45945 255 255 255
 0.67464 0.641517  1.49975 255 255 255
0.654278   0.7257  1.48721 255 255 255
0.77114 1.51136 1.50487 255 255 255
0.779319  1.22152  1.44265 255 255 255
0.767379  1.38126  1.46509 255 255 255
0.454851 0.959342  1.44625 255 255 255
0.518564  1.28811  1.54477 255 255 255
0.820558 0.888429  1.42426 255 255 255
0.828638   1.2874  1.43496 255 255 255
0.654039 0.644157   1.5075 255 255 255
0.691576  1.50909  1.53414 255 255 255
0.632185  1.50978  1.55462 255 255 255
0.831363  1.40915  1.45021 255 255 255
0.484392 0.794032  1.54572 255 255 255
0.697636  1.08723   1.4495 255 255 255
0.468667   1.0001  1.44415 255 255 255
0.721768  1.39584  1.48636 255 255 255
0.418216 0.765279  1.62099 255 255 255
0.762555  1.36817  1.46687 255 255 255
0.781644  1.50915  1.48531 255 255 255
0.598646 0.730985  1.50902 255 255 255
0.541311 0.685152    1.542 255 255 255
0.421169 0.691991  1.64364 255 255 255
0.729411 0.980755  1.44308 255 255 255
0.740988 0.999031  1.43674 255 255 255
0.609331  0.72237  1.50684 255 255 255
0.768367  1.45582  1.48892 255 255 255
 0.43242 0.691666  1.59667 255 255 255
0.687172  1.39137  1.49612 255 255 255
0.708429  1.36766  1.48282 255 255 255
0.514421  1.37246  1.55925 255 255 255
0.658723 0.838588   1.4734 255 255 255
0.628729 0.672784   1.5123 255 255 255
0.716313  1.50583  1.51703 255 255 255
0.770297  1.41208  1.48332 255 255 255
 0.45509 0.787982  1.56135 255 255 255
0.450852   1.3727  1.58898 255 255 255
0.465499  1.47504  1.58777 255 255 255
0.517464 0.681563  1.54582 255 255 255
0.362645 0.960403   1.5473 255 255 255
0.594081 0.648338  1.53193 255 255 255
0.500716  1.42755   1.5699 255 255 255
0.739183 0.964812  1.43881 255 255 255
 0.49217 0.975872  1.43519 255 255 255
0.610782  1.26926  1.50434 255 255 255
0.559166  1.50904  1.57287 255 255 255
0.827564  1.44528  1.46114 255 255 255
0.449442 0.699414  1.58167 255 255 255
0.619592  1.51281  1.55662 255 255 255
 0.49792 0.981495  1.43713 255 255 255
 0.6696 1.45064 1.51593 255 255 255
0.657895  0.63475  1.50904 255 255 255
0.663928  1.27351  1.48986 255 255 255
0.685183  0.63763  1.50171 255 255 255
0.815045 0.718329   1.4421 255 255 255
0.742548 0.627122  1.47933 255 255 255
0.554653  1.01846  1.40296 255 255 255
0.701312  1.09369  1.44632 255 255 255
0.709306 0.635198  1.49492 255 255 255
0.507437 0.676572  1.55458 255 255 255
0.737706  1.41358  1.48321 255 255 255
0.427401 0.685052  1.63542 255 255 255
0.709197  1.51957  1.53081 255 255 255
0.623937  1.22229   1.5095 255 255 255
0.662147 0.667474  1.49867 255 255 255
0.402573 0.917593  1.53719 255 255 255
0.753148  1.06314  1.42419 255 255 255
0.812221 0.761348  1.44004 255 255 255
0.542489  1.36695  1.54582 255 255 255
0.861543  1.41605  1.44501 255 255 255
0.81679 1.31381 1.44703 255 255 255
0.811531  1.00514  1.42122 255 255 255
0.487649 0.753861  1.55565 255 255 255
0.661819 0.644741  1.50423 255 255 255
0.723198 0.782573   1.4475 255 255 255
0.482341 0.747257   1.5569 255 255 255
0.685897  1.47378  1.51415 255 255 255
0.698454  1.14191  1.46251 255 255 255
0.492689 0.699657  1.55804 255 255 255
0.589432 0.699556  1.51551 255 255 255
0.629611  1.31911  1.51363 255 255 255
0.673325  1.18868  1.47046 255 255 255
0.557404  1.49142  1.56838 255 255 255
0.670692  1.25809  1.49003 255 255 255
 0.52542 0.901522  1.42835 255 255 255
0.491198  0.76304  1.55077 255 255 255
0.609775 0.640422  1.52883 255 255 255
0.666334 0.828091  1.46741 255 255 255
0.653901 0.789493  1.47579 255 255 255
0.81625 1.36854 1.45267 255 255 255
 0.73546 0.930504  1.44539 255 255 255
0.444499 0.684706   1.5905 255 255 255
0.681826  1.07065  1.46087 255 255 255
0.635234 0.848663  1.48375 255 255 255
0.423338  0.70128   1.6096 255 255 255
0.686693 0.660479  1.49284 255 255 255
0.396736  1.01004  1.55941 255 255 255
0.388968 0.926724  1.53887 255 255 255
0.629788  1.47805  1.53563 255 255 255
0.655796  1.51286  1.55177 255 255 255
0.75986 1.29946 1.45864 255 255 255
0.605686  1.27391   1.5041 255 255 255
0.577194  1.34855   1.5286 255 255 255
0.678706 0.644784  1.50061 255 255 255
0.705326 0.671888  1.48183 255 255 255
0.754018 0.940435  1.43867 255 255 255
0.701421 0.855437   1.4644 255 255 255
0.738432  1.36766  1.47444 255 255 255
0.780224 0.755788  1.44745 255 255 255
0.696596  1.34244  1.48457 255 255 255
0.539012 0.694806  1.52906 255 255 255
0.651414  1.45174  1.52366 255 255 255
0.824712  1.29791  1.44329 255 255 255
0.718591 0.842328  1.45681 255 255 255
0.573792  1.47794  1.55595 255 255 255
0.732529  1.38811  1.48111 255 255 255
0.692443 0.715524  1.47413 255 255 255
0.84756 1.38812  1.4436 255 255 255
0.685767  1.24984  1.46993 255 255 255
0.765664 0.671152   1.4639 255 255 255
0.61449 0.77856 1.49203 255 255 255
0.854302  1.31568  1.43825 255 255 255
0.744232  1.21536  1.44942 255 255 255
0.627424 0.639351   1.5254 255 255 255
0.712105 0.637124   1.4902 255 255 255
0.809879  1.34926  1.45218 255 255 255
0.366427 0.949418  1.55597 255 255 255
 0.7095 1.18873 1.45428 255 255 255
0.780685  1.42829  1.47942 255 255 255
0.744991 0.648846  1.47707 255 255 255
0.586653  1.44923  1.54826 255 255 255
0.627089 0.995143  1.40385 255 255 255
0.549622 0.694335  1.53555 255 255 255
0.483783  1.05356  1.41745 255 255 255
0.672745  1.45599  1.52123 255 255 255
0.314918  1.08023  1.42915 255 255 255
0.502528  1.43871  1.56684 255 255 255
0.549576  1.01312  1.41766 255 255 255
0.531908 0.710489  1.54197 255 255 255
0.479559 0.932325  1.42829 255 255 255
0.609997 0.754617  1.49815 255 255 255
0.744027  1.30993  1.46523 255 255 255
0.748887  1.31114  1.46973 255 255 255
0.819759  1.27073  1.43755 255 255 255
0.446027 0.854286  1.45189 255 255 255
0.407675 0.856316  1.56445 255 255 255
0.551534  1.37753  1.54655 255 255 255
 0.42067 0.977879  1.46392 255 255 255
0.784173 0.664225  1.46243 255 255 255
 0.80988 0.714425  1.44427 255 255 255
0.48087 0.94954 1.42006 255 255 255
0.691677 0.917804  1.45726 255 255 255
 0.75864 0.672947  1.46796 255 255 255
0.571041  1.45243  1.55081 255 255 255
0.723136 0.672822  1.47715 255 255 255
0.502275  1.45356  1.57396 255 255 255
0.428257 0.697199  1.62969 255 255 255
0.731475 0.933275  1.44775 255 255 255
  0.4357 0.722245  1.58547 255 255 255
0.197753  1.27378  1.22238 255 255 255
0.605279  1.30788  1.51739 255 255 255
0.689765  1.09577  1.44793 255 255 255
0.510898  1.30876  1.54773 255 255 255
0.783235  1.20311  1.44293 255 255 255
0.700749 0.672426  1.48804 255 255 255
0.505841  1.35113  1.55657 255 255 255
0.620734 0.853476  1.48463 255 255 255
0.758069  1.42424  1.47582 255 255 255
0.454345  1.37437  1.58937 255 255 255
0.753673  1.47621  1.49324 255 255 255
 0.48697 0.970527  1.43576 255 255 255
0.643595 0.647301  1.51185 255 255 255
0.439056 0.681213  1.59413 255 255 255
0.490223  1.25379  1.55795 255 255 255
0.690982  1.22923  1.46524 255 255 255
0.734337 0.958484  1.44573 255 255 255
0.711332  1.36635  1.48786 255 255 255
0.567793  1.39668  1.54559 255 255 255
0.602783  0.67043  1.51573 255 255 255
0.857168  1.38582  1.43999 255 255 255
0.719194  1.07147  1.42907 255 255 255
 0.61733 0.788482  1.49295 255 255 255
0.749999 0.914189  1.44642 255 255 255
0.867458  1.37032  1.44151 255 255 255
0.816321  1.44287  1.46421 255 255 255
0.438227 0.823065  1.54816 255 255 255
0.421331   1.0713  1.56997 255 255 255
0.701691 0.955208  1.45207 255 255 255
0.756813  1.43196  1.47671 255 255 255
0.755078  1.43504  1.47978 255 255 255
0.664107  1.52264  1.54771 255 255 255
  0.5782 0.662547  1.53275 255 255 255
0.705099  1.13347   1.4547 255 255 255
0.710145  1.50317  1.51617 255 255 255
0.471753  1.00115  1.43733 255 255 255
0.409946 0.768606  1.62159 255 255 255
0.744291  1.40533  1.48104 255 255 255
0.434315 0.731562  1.60204 255 255 255
0.684075  1.48046  1.51337 255 255 255
0.708508 0.852105  1.45944 255 255 255
0.429567  1.03753  1.48497 255 255 255
0.545752  0.98649  1.42363 255 255 255
0.691331 0.641453  1.49878 255 255 255
0.429033  0.94623  1.44423 255 255 255
0.714922  1.52563  1.52074 255 255 255
0.53878  1.3653 1.54863 255 255 255
0.685434  1.45977  1.51665 255 255 255
0.753326 0.995359  1.43705 255 255 255
0.424905 0.760041  1.61256 255 255 255
0.830216  1.10783  1.41656 255 255 255
0.742612 0.992203  1.43828 255 255 255
0.737729 0.643708    1.481 255 255 255
0.659389  1.23128  1.48625 255 255 255
0.776593 0.635707  1.47447 255 255 255
0.454376 0.734744  1.57228 255 255 255
0.593423  1.16908  1.42531 255 255 255
0.818139  1.38916  1.45433 255 255 255
0.665184 0.798577  1.46218 255 255 255
0.651884 0.669737  1.50295 255 255 255
0.420838 0.747837  1.62795 255 255 255
0.552423  1.11948  1.40058 255 255 255
0.725301  1.25066  1.45599 255 255 255
0.804439  1.11981  1.42497 255 255 255
0.299027  1.23572   1.2581 255 255 255
0.689201  1.23474  1.46319 255 255 255
0.458582 0.693236  1.58168 255 255 255
0.456395 0.745083   1.5708 255 255 255
0.595487 0.764939  1.50548 255 255 255
0.41059  0.7657 1.62457 255 255 255
0.753343   1.4015  1.48471 255 255 255
