ply
format ascii 1.0
element vertex 1204
property float x
property float y
property float z
property uchar red
property uchar green
property uchar blue
end_header
  0.290719 -0.0162511    2.03498 255 255 255
 0.383167 -0.118765    1.9631 255 255 255
0.090722 0.182636  2.06385 255 255 255
 0.240402 -0.178194   2.02023 255 255 255
0.282442  0.23536  1.95023 255 255 255
0.306263 0.230847  1.94363 255 255 255
 0.126078 0.0448052    2.0663 255 255 255
 0.326316 0.0599722   1.97393 255 255 255
   0.24687 -0.0601089    2.02776 255 255 255
0.192314 0.135717  2.01731 255 255 255
0.115667 0.166159   2.0338 255 255 255
  0.365674 -0.0750897     1.9703 255 255 255
0.0764927  0.226338   2.06381 255 255 255
 0.210044 0.0479507   2.02622 255 255 255
0.426019 0.108434  1.90824 255 255 255
 0.293489 -0.148267   2.00079 255 255 255
 0.268151 -0.139851   2.01774 255 255 255
0.118724 0.220163  2.01908 255 255 255
 0.172482 -0.129404   2.07179 255 255 255
0.520391 0.153345   1.8415 255 255 255
 0.161549 0.0250293   2.05336 255 255 255
0.269476 0.229557  1.95507 255 255 255
0.188009 0.100364  2.02525 255 255 255
 0.199893 -0.165073   2.04758 255 255 255
0.264002  1.32769  1.53219 255 255 255
0.366407 0.617071    1.667 255 255 255
0.340284 0.682183   1.6887 255 255 255
0.368699 0.695515  1.68505 255 255 255
0.377932  1.38103  1.60483 255 255 255
0.289061  1.31065  1.52495 255 255 255
0.343905  1.39937  1.63572 255 255 255
0.351256 0.723333  1.62317 255 255 255
0.402412 0.740693  1.62268 255 255 255
0.414716 0.657614  1.65877 255 255 255
0.167745  1.13628  1.52448 255 255 255
0.282094  1.32123  1.51977 255 255 255
0.395432 0.699114  1.64498 255 255 255
0.237413  1.19474  1.51332 255 255 255
0.335175  1.40189  1.61925 255 255 255
0.394873  1.42014    1.629 255 255 255
0.409653 0.664598  1.65916 255 255 255
0.395582 0.666228  1.66816 255 255 255
0.318168  1.36885  1.60449 255 255 255
0.387874 0.735953   1.6142 255 255 255
0.243628  1.33229  1.53996 255 255 255
0.20531 1.35159 1.43719 255 255 255
0.381673  0.72288  1.62431 255 255 255
0.408962 0.601764  1.64895 255 255 255
0.300502 0.702306  1.67567 255 255 255
0.341079 0.648777  1.72227 255 255 255
0.356973  0.71444  1.65681 255 255 255
0.402419 0.642639  1.68415 255 255 255
0.315343   1.4113  1.62354 255 255 255
0.380183 0.601149  1.67428 255 255 255
0.409349 0.601506  1.67947 255 255 255
0.346517 0.723758  1.67988 255 255 255
 0.37409 0.702437  1.63562 255 255 255
0.331084 0.657699  1.70057 255 255 255
0.336362 0.761403  1.63716 255 255 255
0.318503 0.716047  1.67252 255 255 255
0.385558 0.644048  1.66193 255 255 255
0.321521 0.735206  1.66289 255 255 255
0.414447  0.63545  1.65293 255 255 255
0.28451 1.37106 1.60532 255 255 255
0.331459 0.693065   1.6779 255 255 255
0.354952 0.711191  1.65585 255 255 255
0.362311 0.665837  1.69279 255 255 255
0.394976 0.647523   1.6867 255 255 255
0.361883 0.661227  1.68605 255 255 255
0.409491   0.5723   1.6801 255 255 255
0.383679 0.752891  1.62974 255 255 255
0.331627 0.702541  1.67094 255 255 255
0.364103 0.652941  1.65012 255 255 255
0.364984 0.696074  1.66422 255 255 255
0.349473 0.676452  1.67967 255 255 255
0.335466 0.667366   1.6935 255 255 255
0.411659 0.630055  1.69003 255 255 255
0.381259 0.689485  1.64288 255 255 255
0.396917   0.7089  1.62816 255 255 255
0.225675  1.34833  1.43625 255 255 255
0.329472 0.733462  1.66553 255 255 255
0.401238 0.568525  1.68525 255 255 255
 0.3909 0.68258 1.66148 255 255 255
0.362023 0.737543  1.66825 255 255 255
0.402555 0.571215  1.68459 255 255 255
0.411801 0.643971  1.66502 255 255 255
0.409972 0.639339  1.68372 255 255 255
0.408193 0.976747  1.42975 255 255 255
0.441679 0.867152  1.46436 255 255 255
0.651303 0.724933  1.59565 255 255 255
 0.48989 0.922548  1.44437 255 255 255
0.24472 1.04864 1.46556 255 255 255
0.755309 0.754557  1.60448 255 255 255
0.413186  0.81405  1.46728 255 255 255
0.21882  1.0386 1.48324 255 255 255
0.259116  1.29381  1.44961 255 255 255
0.279463  1.31567  1.51718 255 255 255
0.464141  1.16195   1.5627 255 255 255
0.466548 0.702121  1.58838 255 255 255
0.703783 0.753965  1.62276 255 255 255
0.657836  1.16395  1.58289 255 255 255
0.545048  1.21236  1.56798 255 255 255
0.697116 0.674947  1.60399 255 255 255
0.379662 0.824014  1.55309 255 255 255
0.732706 0.598978  1.63341 255 255 255
0.484857 0.882579  1.46706 255 255 255
0.830198 0.660431  1.64901 255 255 255
0.602876   1.3642  1.60335 255 255 255
 0.43051 0.690242  1.60423 255 255 255
0.516717 0.751593  1.60113 255 255 255
0.767701 0.792523  1.62401 255 255 255
0.746992 0.663498  1.61968 255 255 255
0.355092 0.655462  1.69865 255 255 255
0.335217 0.897685  1.50782 255 255 255
 0.83026 0.742544  1.62956 255 255 255
0.695043 0.733936  1.59869 255 255 255
0.245645 0.837195  1.54631 255 255 255
 0.40258 0.740443   1.5945 255 255 255
0.555226 0.680105  1.57734 255 255 255
0.47396   0.717 1.60003 255 255 255
0.348011 0.957796  1.43051 255 255 255
0.382332  0.84303  1.50971 255 255 255
  0.7496 0.747797  1.61197 255 255 255
0.474411  1.13016  1.56244 255 255 255
0.497323 0.685985  1.59636 255 255 255
0.315291 0.728536  1.66402 255 255 255
 0.67391 0.678393  1.60295 255 255 255
0.432956 0.926304  1.44894 255 255 255
0.397732 0.710898  1.66949 255 255 255
0.328763 0.934528  1.51577 255 255 255
0.302815  1.08642  1.51052 255 255 255
0.600606 0.967612   1.4927 255 255 255
0.345996 0.866075  1.53653 255 255 255
0.785318  1.01856  1.57443 255 255 255
0.381457 0.854275  1.45472 255 255 255
0.427136 0.695121  1.59485 255 255 255
0.739802  0.73019  1.61313 255 255 255
0.576246 0.659085  1.60183 255 255 255
0.283492 0.869119  1.62097 255 255 255
0.474759 0.687045  1.61609 255 255 255
0.791782 0.648342  1.63004 255 255 255
0.387497 0.913261   1.4478 255 255 255
0.565991  1.12551  1.56559 255 255 255
0.374828  1.05884  1.51551 255 255 255
0.530215 0.740489  1.57633 255 255 255
0.433715   0.9232   1.4353 255 255 255
0.494711 0.971233  1.45363 255 255 255
 0.80898 0.584529  1.64097 255 255 255
0.207582  1.06355  1.45861 255 255 255
0.359438 0.843818  1.52269 255 255 255
0.787833 0.796036   1.6075 255 255 255
0.774368 0.717858  1.60797 255 255 255
0.411783 0.835871  1.46212 255 255 255
0.349635 0.716312  1.65849 255 255 255
0.499475 0.872057  1.47983 255 255 255
0.532448 0.651504  1.59443 255 255 255
0.514884 0.635338  1.59942 255 255 255
0.643829 0.606421   1.6196 255 255 255
0.820601 0.678288  1.63079 255 255 255
0.684734 0.737324  1.61526 255 255 255
0.784672 0.609692  1.63913 255 255 255
 0.37816 0.811873  1.56963 255 255 255
0.324603 0.896294  1.52997 255 255 255
0.843496 0.576656  1.65728 255 255 255
0.694604 0.752499  1.59566 255 255 255
0.334097  0.69147  1.62983 255 255 255
  0.3916 0.924564  1.44806 255 255 255
0.599602 0.915443   1.4983 255 255 255
0.761436 0.774696  1.60607 255 255 255
0.466261 0.952098  1.44503 255 255 255
0.605921 0.649386  1.60983 255 255 255
0.709026  0.78802   1.6014 255 255 255
0.373689  1.08342  1.54347 255 255 255
0.567904 0.981847  1.47162 255 255 255
0.50475 1.29312  1.5792 255 255 255
0.705426 0.725848  1.59501 255 255 255
0.332958 0.751302  1.64236 255 255 255
0.808171 0.681638  1.64008 255 255 255
0.754167  1.00238  1.58607 255 255 255
0.556309  1.23359  1.57144 255 255 255
0.299563  0.73006  1.68545 255 255 255
0.310923  0.74392  1.66654 255 255 255
 0.66057 0.700168  1.58768 255 255 255
0.791808 0.584454  1.63769 255 255 255
0.607478 0.623547   1.6127 255 255 255
0.469727  1.33017  1.57887 255 255 255
0.685883  0.66565  1.61067 255 255 255
0.382159 0.830854   1.4714 255 255 255
0.536411 0.642022    1.598 255 255 255
0.467913  0.68672   1.5969 255 255 255
0.310919 0.729358  1.66416 255 255 255
0.338408  0.96079  1.51063 255 255 255
0.358225 0.810373  1.54379 255 255 255
0.442535   0.9384  1.44738 255 255 255
0.277405  0.83121  1.63973 255 255 255
0.74942 0.78684 1.60588 255 255 255
0.387876  0.67247  1.67709 255 255 255
0.580725  1.26922  1.58213 255 255 255
0.777291 0.600056    1.641 255 255 255
  0.2957 0.917289  1.57903 255 255 255
0.816088 0.786955  1.62542 255 255 255
 0.68855 0.706231  1.60359 255 255 255
0.251297  1.30325  1.45038 255 255 255
 0.37399 0.877222  1.53457 255 255 255
0.754104 0.733346  1.60881 255 255 255
0.674117 0.793797  1.59651 255 255 255
0.407938 0.651163  1.62384 255 255 255
0.620768 0.749333  1.60219 255 255 255
0.329809 0.749687  1.65584 255 255 255
0.533405 0.664497  1.60076 255 255 255
0.545266 0.860315  1.48815 255 255 255
0.553062  1.34727  1.59151 255 255 255
0.763658 0.708833   1.6338 255 255 255
0.381706 0.815166  1.56239 255 255 255
0.22801 1.06743 1.44409 255 255 255
0.610735 0.735174  1.60196 255 255 255
0.691354 0.770341  1.61192 255 255 255
0.675662 0.728432  1.59188 255 255 255
0.596605  0.62003  1.60061 255 255 255
0.474866 0.753204  1.57174 255 255 255
0.771884 0.774615  1.62157 255 255 255
0.312484 0.731181  1.67381 255 255 255
0.219699  1.06112  1.44558 255 255 255
0.686155 0.745772  1.59936 255 255 255
0.193065  1.04206  1.46915 255 255 255
0.716814 0.716829  1.61154 255 255 255
0.790124 0.640685  1.63776 255 255 255
 0.74175 0.654856  1.62279 255 255 255
0.622049 0.734214  1.60007 255 255 255
0.486251 0.686467   1.5965 255 255 255
0.716809 0.772875  1.61321 255 255 255
0.15832 1.21144 1.10103 255 255 255
0.427076 0.682308  1.60008 255 255 255
0.622163 0.611567  1.61491 255 255 255
0.662336 0.791001   1.6109 255 255 255
 0.29571 0.711808  1.67748 255 255 255
0.372608 0.665471  1.64842 255 255 255
0.316831 0.685829  1.68976 255 255 255
0.416838 0.783123  1.55704 255 255 255
0.510995  1.14549  1.56027 255 255 255
0.344475 0.716845  1.62762 255 255 255
0.572697 0.642982  1.61387 255 255 255
0.485546 0.734463  1.58816 255 255 255
0.266384 0.826645  1.64096 255 255 255
0.409277 0.669781  1.62656 255 255 255
0.806972  0.72984   1.6272 255 255 255
0.364431 0.651908  1.72964 255 255 255
0.481109  1.31748  1.57775 255 255 255
0.324318 0.733056  1.69354 255 255 255
0.734814 0.780863  1.60498 255 255 255
0.348471 0.948126   1.5143 255 255 255
0.426002 0.917185  1.44054 255 255 255
 0.73898 0.773371  1.60181 255 255 255
0.427985 0.709815  1.63313 255 255 255
0.839217 0.643487  1.65326 255 255 255
0.687322 0.701059  1.60837 255 255 255
0.480079 0.668417  1.60963 255 255 255
 0.30649 0.887292  1.53255 255 255 255
0.778966 0.797064  1.61448 255 255 255
0.532029  1.24554   1.5752 255 255 255
0.681331 0.634024  1.61441 255 255 255
0.828683 0.763071   1.6438 255 255 255
0.343607 0.968436  1.46769 255 255 255
 0.30745 0.935264  1.46484 255 255 255
0.355248 0.985303  1.54785 255 255 255
0.311681 0.747834  1.68851 255 255 255
0.526104 0.660043  1.58622 255 255 255
0.395352 0.741013   1.6324 255 255 255
0.375595  1.03518  1.52387 255 255 255
0.305713 0.769547  1.65284 255 255 255
0.744461 0.766994  1.63042 255 255 255
0.449365 0.905536  1.43974 255 255 255
0.826675 0.784107  1.65892 255 255 255
0.310781 0.700713  1.67794 255 255 255
0.130479  1.23073  1.08383 255 255 255
0.334207 0.904247  1.52171 255 255 255
0.562974  1.22566  1.56517 255 255 255
0.314226 0.779308  1.65125 255 255 255
0.379306 0.835845  1.46574 255 255 255
0.671187 0.700962  1.60544 255 255 255
0.386389 0.697125  1.65571 255 255 255
0.444456 0.642894  1.61506 255 255 255
0.513042 0.958714  1.45584 255 255 255
0.268927  1.33388  1.43449 255 255 255
0.430554 0.715929  1.58705 255 255 255
0.523541 0.747702  1.56202 255 255 255
0.392688 0.721494  1.64599 255 255 255
0.155159   1.2127  1.12902 255 255 255
0.439013 0.712925  1.58886 255 255 255
0.133264  1.22739  1.12255 255 255 255
0.662691 0.602992  1.62315 255 255 255
0.825571 0.751263  1.62665 255 255 255
0.358568  1.09881  1.51267 255 255 255
0.750895  0.60467  1.62833 255 255 255
  0.3275 0.880652   1.5359 255 255 255
0.420311 0.907493  1.44769 255 255 255
0.495793 0.848986  1.46769 255 255 255
0.704208 0.756634  1.59717 255 255 255
0.397129 0.841366   1.4443 255 255 255
0.407524  0.73352  1.62573 255 255 255
0.632437  1.21705  1.57765 255 255 255
0.706588 0.596583  1.61976 255 255 255
0.332966 0.947486  1.52011 255 255 255
0.261456 0.824831  1.64366 255 255 255
0.430429 0.665082  1.60823 255 255 255
0.745762 0.990071  1.58899 255 255 255
0.270253  1.32974  1.43591 255 255 255
0.289188 0.913948  1.59813 255 255 255
0.648271 0.766736  1.60537 255 255 255
0.331189 0.969584  1.50708 255 255 255
0.751925  0.67295  1.61891 255 255 255
0.354998 0.691237  1.66945 255 255 255
0.643372 0.710127  1.60639 255 255 255
0.533777 0.750905  1.56413 255 255 255
0.339609 0.709221   1.6692 255 255 255
0.373265 0.726531  1.67352 255 255 255
0.367075 0.653983  1.69413 255 255 255
0.504635  1.17615  1.56121 255 255 255
0.849626 0.598636  1.65271 255 255 255
0.385081 0.835931  1.45495 255 255 255
0.753241 0.595593  1.63103 255 255 255
0.293288  1.35853  1.51717 255 255 255
0.52171 1.18081 1.56738 255 255 255
0.808125 0.956358  1.58378 255 255 255
0.425301  1.02055  1.41807 255 255 255
0.593899 0.665105  1.59652 255 255 255
0.751195  0.76172   1.6296 255 255 255
0.403139 0.684176  1.65459 255 255 255
0.589675   0.6266  1.61229 255 255 255
0.550647 0.689244   1.5971 255 255 255
0.557713 0.683751  1.59523 255 255 255
0.718097 0.708583  1.60919 255 255 255
0.350426 0.755074  1.66353 255 255 255
0.489518 0.653894    1.613 255 255 255
0.311523 0.705026  1.67992 255 255 255
0.430772  1.09922  1.57113 255 255 255
0.268952 0.841384  1.63321 255 255 255
0.447181  0.64349  1.60881 255 255 255
0.608221 0.655887  1.60833 255 255 255
0.456474 0.665612  1.60405 255 255 255
0.729924 0.759832   1.6037 255 255 255
0.501014 0.979525  1.46217 255 255 255
0.751439 0.768295  1.60498 255 255 255
0.495872 0.689632  1.60085 255 255 255
 0.69269 0.762323  1.61889 255 255 255
0.428976 0.644669  1.61392 255 255 255
0.475468  1.32403  1.57664 255 255 255
0.416561  0.72359  1.64757 255 255 255
0.403402 0.648041  1.68163 255 255 255
0.806189 0.743616  1.62396 255 255 255
0.446834  1.35133  1.58474 255 255 255
0.475236 0.842507  1.47584 255 255 255
0.465038 0.678491  1.59564 255 255 255
0.771335 0.655441  1.62618 255 255 255
0.204535  1.17957  1.16046 255 255 255
 0.72332 0.745496  1.60165 255 255 255
0.452915  1.11819  1.56208 255 255 255
0.740544 0.743113  1.62148 255 255 255
0.419086 0.836462  1.45702 255 255 255
0.550238 0.629347  1.61066 255 255 255
0.466559 0.635434  1.61329 255 255 255
0.550013 0.683979   1.6006 255 255 255
0.473837 0.664527   1.5905 255 255 255
0.739292  0.99899  1.58894 255 255 255
0.517836 0.649159  1.60411 255 255 255
0.720147  0.61184  1.63585 255 255 255
 0.73191 0.802294  1.60478 255 255 255
0.748382 0.728586  1.61166 255 255 255
0.248786  1.34009  1.43448 255 255 255
0.302751 0.777473  1.65523 255 255 255
0.506472 0.875493  1.47224 255 255 255
0.297836 0.710843  1.67806 255 255 255
0.371707 0.707136  1.63836 255 255 255
0.360674 0.660951  1.64373 255 255 255
0.326654 0.664223  1.71311 255 255 255
 0.64315 0.704131  1.60122 255 255 255
0.285194 0.890947  1.60759 255 255 255
0.366685 0.650283  1.69194 255 255 255
0.369814 0.707783  1.66256 255 255 255
 0.29191 0.709072  1.68028 255 255 255
0.540082 0.752446  1.59597 255 255 255
0.556237 0.625343  1.61148 255 255 255
0.551278 0.626239  1.60678 255 255 255
  0.3775 0.872955  1.53205 255 255 255
0.815787 0.593442   1.6477 255 255 255
0.349721 0.693674  1.68147 255 255 255
0.768141  0.66134  1.62174 255 255 255
0.779269 0.659332  1.61899 255 255 255
0.388305 0.725248  1.64648 255 255 255
 0.47426 0.773137  1.59025 255 255 255
0.563057 0.944342  1.47299 255 255 255
0.607052 0.660248  1.59537 255 255 255
0.426783 0.657522  1.66622 255 255 255
0.672201 0.740926  1.59977 255 255 255
0.441206 0.778969  1.56534 255 255 255
0.761245 0.759539  1.61622 255 255 255
 0.69857 0.626488  1.61894 255 255 255
0.488517 0.699179  1.58663 255 255 255
0.710193 0.784234  1.61513 255 255 255
0.219602  1.04207  1.43099 255 255 255
0.155774  1.21438  1.14754 255 255 255
0.421673 0.786577  1.55805 255 255 255
0.625568 0.658252  1.60658 255 255 255
0.742876 0.739713  1.60241 255 255 255
0.407051 0.822585  1.47681 255 255 255
0.497048 0.634354  1.61912 255 255 255
0.306184 0.731357  1.67694 255 255 255
0.765965 0.801022  1.61407 255 255 255
0.326315 0.716954  1.67497 255 255 255
0.642271 0.639431  1.62345 255 255 255
0.612324  1.35699   1.5992 255 255 255
0.697284 0.783268  1.59939 255 255 255
0.409748 0.659787  1.66059 255 255 255
0.790359 0.737855  1.61497 255 255 255
0.558179 0.707785    1.592 255 255 255
0.404948 0.691736  1.65668 255 255 255
0.373251  1.01043  1.53711 255 255 255
0.430041  0.69615  1.59287 255 255 255
0.489689  0.66346  1.61091 255 255 255
0.326414 0.697404  1.65535 255 255 255
0.170961  1.19895   1.1335 255 255 255
0.550987 0.678945  1.60734 255 255 255
0.347185 0.701663  1.67751 255 255 255
0.790752 0.765466  1.61093 255 255 255
0.487649 0.983717  1.45433 255 255 255
0.828096  0.71696  1.64363 255 255 255
 0.4231 0.72227 1.62034 255 255 255
0.380499  0.99241  1.41918 255 255 255
0.789122 0.588412  1.64621 255 255 255
0.347407 0.860603  1.54524 255 255 255
0.716959 0.753553  1.60106 255 255 255
0.779093 0.976365  1.58407 255 255 255
0.753754 0.742312  1.62137 255 255 255
0.470208 0.819105  1.48382 255 255 255
0.385822 0.842043   1.4673 255 255 255
0.746604 0.604271  1.64581 255 255 255
0.413046 0.693255   1.5994 255 255 255
0.716937 0.608207  1.62627 255 255 255
0.467813  0.68018  1.59439 255 255 255
0.553489 0.648313  1.60218 255 255 255
 0.82562 0.873057  1.60482 255 255 255
0.471608 0.661637  1.60804 255 255 255
0.468213 0.663173  1.60449 255 255 255
0.551376  1.04617   1.4626 255 255 255
0.287491 0.758674  1.66386 255 255 255
0.615413 0.694774  1.60288 255 255 255
0.569206 0.834864  1.50032 255 255 255
0.453892  0.70439  1.58778 255 255 255
0.412871  1.35715   1.5946 255 255 255
0.279663 0.827221   1.6374 255 255 255
0.670772 0.639037  1.61756 255 255 255
0.541687  1.22963  1.57163 255 255 255
0.541687  1.22963  1.57163 255 255 255
0.604409 0.661207  1.59897 255 255 255
0.331131 0.739361    1.684 255 255 255
0.325422 0.741628  1.63408 255 255 255
0.307025 0.908538  1.51817 255 255 255
0.790434 0.977569  1.57899 255 255 255
0.750819 0.802215  1.61179 255 255 255
0.761886 0.596129  1.62907 255 255 255
0.504384  1.17336  1.56526 255 255 255
0.404953 0.676683  1.62018 255 255 255
0.655027 0.734033  1.59561 255 255 255
0.663432 0.732954  1.60281 255 255 255
0.504142  1.10114  1.47121 255 255 255
 0.40773 0.696195   1.6044 255 255 255
0.417565 0.692011  1.61508 255 255 255
0.673025 0.746596  1.62207 255 255 255
0.785088  0.98396  1.57507 255 255 255
0.783546 0.719711  1.62989 255 255 255
0.617678 0.625615  1.62032 255 255 255
0.558036 0.656021    1.597 255 255 255
0.366223 0.730191  1.65158 255 255 255
0.344099 0.709079   1.6225 255 255 255
 0.71606 0.773081  1.59846 255 255 255
0.740288  1.02736  1.56863 255 255 255
0.350213 0.726869  1.67577 255 255 255
0.440181 0.688539  1.59566 255 255 255
0.428455 0.677735  1.60301 255 255 255
0.267662 0.846275  1.63966 255 255 255
0.770862 0.994497  1.58883 255 255 255
0.659378 0.701402  1.60149 255 255 255
0.659318 0.767469  1.59971 255 255 255
0.373134 0.646975  1.68652 255 255 255
 0.75981 0.601888  1.64198 255 255 255
0.313301 0.751685  1.68511 255 255 255
0.415632 0.667323  1.65407 255 255 255
0.659638 0.797378  1.60393 255 255 255
0.559246 0.670327  1.60487 255 255 255
0.510813 0.666124  1.59329 255 255 255
0.354051 0.868597   1.5309 255 255 255
0.504241 0.862205  1.48187 255 255 255
0.246503  1.32329   1.4424 255 255 255
0.322339 0.721985   1.6754 255 255 255
0.273216 0.847812  1.63029 255 255 255
0.264112  1.32804  1.43526 255 255 255
0.678806 0.671171  1.60668 255 255 255
0.470643 0.691929   1.5903 255 255 255
0.799972 0.766252  1.61228 255 255 255
0.707588 0.781967  1.62516 255 255 255
0.800287 0.736123  1.63814 255 255 255
0.743531 0.993969  1.59117 255 255 255
0.394176 0.660567  1.69703 255 255 255
0.258621 0.822181  1.64354 255 255 255
0.313354 0.982348  1.54903 255 255 255
0.262077  1.34387  1.42162 255 255 255
0.818229 0.654636  1.63301 255 255 255
0.39705 0.69215 1.63579 255 255 255
0.514394  0.63377  1.60838 255 255 255
0.321301 0.696114  1.67037 255 255 255
0.275412 0.855703  1.63284 255 255 255
0.272492 0.853489  1.63311 255 255 255
0.610876 0.635286  1.59807 255 255 255
0.138113  1.22377  1.12874 255 255 255
0.822355 0.631472  1.64009 255 255 255
0.796768 0.690977  1.62562 255 255 255
0.694715 0.771284  1.59882 255 255 255
0.427925 0.913322  1.44851 255 255 255
0.763092  1.00477  1.57967 255 255 255
0.449328 0.922426  1.43944 255 255 255
0.306285 0.703518  1.69261 255 255 255
0.458908 0.938212  1.44011 255 255 255
0.534438 0.682553  1.60035 255 255 255
  0.498 1.00489 1.45331 255 255 255
0.388327 0.721559  1.65623 255 255 255
0.829651  0.76413  1.63335 255 255 255
0.437125  1.00184  1.42893 255 255 255
0.147415  1.22123  1.13492 255 255 255
0.344946 0.769361  1.63834 255 255 255
0.749461 0.758231  1.60334 255 255 255
0.746738 0.674988  1.62057 255 255 255
0.671878 0.938365  1.50197 255 255 255
0.76018 1.00581 1.59146 255 255 255
0.714525 0.733952  1.60388 255 255 255
0.308246  1.35698  1.50931 255 255 255
0.413118  1.01174  1.41163 255 255 255
0.470005 0.928901  1.44603 255 255 255
0.527366 0.950725  1.47014 255 255 255
0.804345 0.656184  1.63417 255 255 255
0.647382 0.678271  1.60588 255 255 255
0.740739 0.717459  1.61769 255 255 255
0.434844 0.703994  1.59744 255 255 255
0.170049  1.20297  1.13685 255 255 255
0.659978 0.724916  1.61592 255 255 255
0.741908  1.03078  1.56547 255 255 255
0.541334   1.2265  1.57494 255 255 255
0.502049 0.691705  1.60623 255 255 255
0.372453 0.652523  1.68252 255 255 255
0.404654 0.834695  1.46241 255 255 255
0.592336 0.635111    1.601 255 255 255
0.742833  1.02413  1.57324 255 255 255
0.457181 0.705954  1.60316 255 255 255
0.265784  0.84098  1.63822 255 255 255
0.675422 0.748191  1.61919 255 255 255
 0.38925 0.869017  1.53929 255 255 255
0.564907 0.664353  1.59435 255 255 255
0.747632 0.674188  1.61709 255 255 255
0.428753 0.907943  1.40728 255 255 255
0.49613 1.18168 1.56243 255 255 255
0.775319 0.974356  1.58719 255 255 255
0.43204 0.70976 1.59197 255 255 255
 0.46145 0.907872  1.44908 255 255 255
0.323805 0.675587   1.6993 255 255 255
0.755651  1.01407  1.58647 255 255 255
0.395706  1.02136  1.44048 255 255 255
0.453791 0.761433  1.57941 255 255 255
0.503637 0.879854  1.46698 255 255 255
0.253982  1.32226   1.5388 255 255 255
0.348508 0.736409  1.67176 255 255 255
 0.35067 0.740192  1.67194 255 255 255
0.399218 0.730553   1.6418 255 255 255
 0.60527 0.638166  1.60175 255 255 255
0.374723 0.648086  1.69543 255 255 255
0.327314 0.725832  1.66686 255 255 255
0.589106 0.659273  1.60851 255 255 255
0.284863 0.930636  1.40232 255 255 255
0.670588 0.943516  1.50175 255 255 255
 0.42577 0.911522  1.45117 255 255 255
0.422354 0.831265  1.46185 255 255 255
0.418286 0.729349  1.62851 255 255 255
0.307928 0.760464   1.6583 255 255 255
0.393114 0.681561  1.64454 255 255 255
0.179674  1.08553  1.44556 255 255 255
 0.78243 0.978045  1.57858 255 255 255
0.698926 0.617494  1.61194 255 255 255
0.309078 0.728534  1.66941 255 255 255
0.315199 0.721113  1.67018 255 255 255
0.608901 0.696679   1.5867 255 255 255
0.598707 0.640587  1.60132 255 255 255
0.340109 0.655138  1.64718 255 255 255
0.508103 0.857282  1.48319 255 255 255
0.516216  0.63888  1.60055 255 255 255
0.387599 0.859895  1.54554 255 255 255
0.498317 0.872152   1.4688 255 255 255
0.562034 0.832495  1.49346 255 255 255
 0.73557 0.664839  1.62193 255 255 255
0.300031 0.713864  1.67836 255 255 255
0.202377  1.09129  1.48733 255 255 255
 0.44803 0.919131  1.43932 255 255 255
0.40891 0.96044  1.4372 255 255 255
 0.58299 0.615702  1.61011 255 255 255
0.430932 0.951195  1.44369 255 255 255
0.327032 0.773081  1.64724 255 255 255
0.396571  0.72786  1.63884 255 255 255
0.286406  1.09858  1.51289 255 255 255
0.470125 0.933412  1.44807 255 255 255
0.681906 0.715481  1.59754 255 255 255
0.48827 1.14306 1.56234 255 255 255
0.802604 0.575521  1.66837 255 255 255
0.416196 0.676157  1.65322 255 255 255
0.306009 0.921127  1.51659 255 255 255
0.405583 0.699371  1.64974 255 255 255
0.503253  0.64963  1.60253 255 255 255
0.386702 0.919401  1.43792 255 255 255
0.502597 0.943622  1.45482 255 255 255
0.414423 0.661533  1.62558 255 255 255
0.213099 0.980095   1.4892 255 255 255
0.779869 0.776961  1.61434 255 255 255
0.701459 0.794792  1.60514 255 255 255
0.546915 0.623031  1.61829 255 255 255
0.345044  1.08741  1.46077 255 255 255
0.536436 0.742376  1.55827 255 255 255
0.494205  1.17772  1.56263 255 255 255
0.527342 0.638278   1.5937 255 255 255
0.16934 1.19987 1.15364 255 255 255
0.645397 0.606643  1.61336 255 255 255
0.304326 0.721745  1.68489 255 255 255
0.384778 0.746011  1.63531 255 255 255
0.317589 0.675524  1.68719 255 255 255
0.331075 0.892846  1.51517 255 255 255
0.672274 0.712327  1.59968 255 255 255
0.403282 0.708086  1.66765 255 255 255
0.358726 0.982978  1.45417 255 255 255
0.446619 0.701863  1.60087 255 255 255
0.42659  1.0093 1.42641 255 255 255
0.603644 0.659586  1.58597 255 255 255
0.399983 0.725111  1.61811 255 255 255
0.416742   0.8339  1.46032 255 255 255
0.615485 0.617972  1.61362 255 255 255
0.434433 0.668209  1.61139 255 255 255
0.604659  1.17459   1.5794 255 255 255
0.488773  1.30803  1.57887 255 255 255
0.384981 0.662838  1.67496 255 255 255
0.658189 0.619567  1.61886 255 255 255
0.191694  1.18271  1.21586 255 255 255
 0.41814 0.830396  1.46164 255 255 255
0.538824 0.684316  1.60067 255 255 255
 0.35311 0.671488  1.68367 255 255 255
0.488242 0.651812  1.60919 255 255 255
0.445846  1.00905  1.43182 255 255 255
0.722082 0.763443  1.60487 255 255 255
  0.4925 0.738285  1.58644 255 255 255
0.341216 0.684106  1.63158 255 255 255
0.494858 0.643955  1.61678 255 255 255
0.713098 0.795644   1.6041 255 255 255
0.306152 0.932205  1.58475 255 255 255
0.405894 0.672841  1.66425 255 255 255
0.703271 0.793071  1.60317 255 255 255
0.417745 0.911791   1.3911 255 255 255
0.686133 0.736002  1.60776 255 255 255
0.451778 0.954537   1.4506 255 255 255
0.540926  1.22237  1.57271 255 255 255
0.38358 1.01814 1.40731 255 255 255
0.302131 0.714746  1.68843 255 255 255
 0.31214 0.679104  1.69548 255 255 255
0.550146 0.681047  1.58792 255 255 255
0.414607 0.690382  1.61056 255 255 255
 0.39413 0.658362  1.65236 255 255 255
0.396623 0.978294  1.43176 255 255 255
0.352977 0.729204  1.65848 255 255 255
0.779145 0.605467  1.63793 255 255 255
0.798744 0.740682  1.62145 255 255 255
0.669474 0.693034  1.59619 255 255 255
0.440506 0.649786  1.61276 255 255 255
0.764828 0.995678  1.59311 255 255 255
 0.36262 0.924688  1.43947 255 255 255
0.511665 0.635341  1.61571 255 255 255
0.752984 0.792803  1.62263 255 255 255
0.336784 0.943483  1.52158 255 255 255
0.386062 0.683594  1.66118 255 255 255
0.513286 0.747599  1.58608 255 255 255
0.565142 0.622937  1.61497 255 255 255
0.432139 0.900748   1.4254 255 255 255
0.381684 0.682015  1.68963 255 255 255
0.295636 0.756605  1.65251 255 255 255
 0.62036 0.648095  1.60541 255 255 255
0.148251  1.21477  1.11248 255 255 255
0.402443 0.690587  1.61028 255 255 255
0.438533 0.948279  1.44605 255 255 255
0.525184 0.738836  1.59502 255 255 255
0.367676 0.711231  1.62686 255 255 255
0.390014 0.971056  1.43098 255 255 255
0.463215 0.980495  1.44077 255 255 255
0.417769 0.780541  1.57403 255 255 255
0.355269 0.712051  1.62351 255 255 255
0.433176  1.08995  1.57044 255 255 255
0.773818 0.610244  1.63419 255 255 255
0.405589 0.732233   1.6392 255 255 255
0.328709 0.765049  1.63435 255 255 255
0.182632  1.19421  1.14892 255 255 255
0.402842  1.31407  1.60758 255 255 255
 0.45207 0.658926  1.60685 255 255 255
  0.6945 0.737445  1.60446 255 255 255
0.512038  1.27511  1.57801 255 255 255
0.296114 0.720576  1.68366 255 255 255
0.794636 0.748373  1.61822 255 255 255
0.322859 0.961173  1.57459 255 255 255
0.503025 0.985776  1.46061 255 255 255
0.762178 0.987304  1.58801 255 255 255
 0.39701 0.927177  1.44541 255 255 255
0.696817  0.70832  1.60706 255 255 255
 0.32724 0.886143  1.51777 255 255 255
0.447072 0.664752  1.61055 255 255 255
0.352896  1.03044  1.51825 255 255 255
0.34671 0.72842 1.67861 255 255 255
0.522873 0.747393  1.58593 255 255 255
0.431366 0.711062  1.59539 255 255 255
0.352508 0.714127  1.62898 255 255 255
0.398553 0.647265  1.63542 255 255 255
 0.66627 0.719045  1.57599 255 255 255
0.381138 0.650961  1.67804 255 255 255
0.766295    1.011  1.58463 255 255 255
0.548609 0.686051  1.58216 255 255 255
0.345341   0.7173  1.65853 255 255 255
0.14773 1.21821 1.13626 255 255 255
0.450114 0.684734  1.59895 255 255 255
0.153848  1.21376  1.13764 255 255 255
0.455064 0.646064  1.60208 255 255 255
0.689973 0.730952  1.60206 255 255 255
0.456324 0.689656  1.59316 255 255 255
0.428374 0.721066  1.61625 255 255 255
0.450309 0.668424  1.61108 255 255 255
0.364329 0.723289  1.65162 255 255 255
0.307376 0.764529  1.65828 255 255 255
0.320226 0.766151  1.63794 255 255 255
0.283168 0.893451  1.60886 255 255 255
0.166355  1.20635  1.13632 255 255 255
0.240053 0.809784  1.60403 255 255 255
0.179706  1.19418  1.15161 255 255 255
0.600454 0.614667  1.60945 255 255 255
0.513851 0.883703  1.48685 255 255 255
0.435921  0.70947  1.59128 255 255 255
0.449519 0.703284  1.60276 255 255 255
0.621541 0.648477  1.61317 255 255 255
0.600255 0.647605  1.61157 255 255 255
0.374403 0.964228  1.43044 255 255 255
0.31421  0.7019 1.67874 255 255 255
0.478769 0.929831  1.45012 255 255 255
 0.25501 0.834989  1.42323 255 255 255
0.159042  1.20988  1.14203 255 255 255
0.390358 0.846502  1.46409 255 255 255
0.158419   1.2116  1.11348 255 255 255
 0.83835 0.711585  1.63098 255 255 255
0.703889 0.772356  1.60288 255 255 255
 0.37255 0.758787  1.64716 255 255 255
0.279987 0.903141  1.60338 255 255 255
 0.30327 0.773495  1.65436 255 255 255
0.363972  1.05896  1.53017 255 255 255
0.429547 0.698217  1.60012 255 255 255
0.765436 0.991725  1.58683 255 255 255
0.198234 0.980367  1.49355 255 255 255
0.781913  0.76873  1.61465 255 255 255
0.468125 0.753062  1.57522 255 255 255
0.411863 0.684765  1.65483 255 255 255
0.830397 0.631883    1.641 255 255 255
0.780037 0.997833  1.58332 255 255 255
 0.34544 0.723253  1.65687 255 255 255
 0.39913 0.832472  1.52598 255 255 255
0.19614 1.18541 1.16054 255 255 255
0.596432 0.616748  1.60236 255 255 255
0.273952 0.859805  1.63099 255 255 255
0.383979 0.721005  1.64848 255 255 255
0.550756 0.684656  1.58596 255 255 255
0.404133 0.646496  1.65239 255 255 255
0.334425 0.929935  1.49793 255 255 255
0.444628 0.690731   1.6021 255 255 255
0.338775 0.647968  1.70699 255 255 255
0.348075 0.660279  1.70956 255 255 255
0.164815  1.20855  1.11328 255 255 255
0.730993 0.744925  1.62061 255 255 255
0.561303 0.671381  1.59868 255 255 255
 0.35615 0.688082  1.69869 255 255 255
0.261162  0.82885  1.64263 255 255 255
0.481284 0.681092  1.60221 255 255 255
0.337346 0.690338   1.6763 255 255 255
   0.311 0.970891  1.56619 255 255 255
0.404503 0.726889  1.65132 255 255 255
0.497222 0.631097  1.60994 255 255 255
0.415732 0.700324  1.58792 255 255 255
0.341977 0.867958  1.52264 255 255 255
0.343647 0.717733   1.6612 255 255 255
0.391308  0.70799  1.66937 255 255 255
0.639877 0.750322  1.60296 255 255 255
0.408032 0.711705  1.64838 255 255 255
0.321087 0.724091  1.70365 255 255 255
0.30426 1.09129 1.53949 255 255 255
0.303013 0.775381  1.65544 255 255 255
0.536987 0.667644   1.5967 255 255 255
 0.68741 0.792962  1.61511 255 255 255
0.581377 0.663407  1.59613 255 255 255
0.167305  1.20477  1.15028 255 255 255
0.303692 0.680579  1.68106 255 255 255
0.352748  0.65197  1.68928 255 255 255
0.186417  1.18283  1.21614 255 255 255
0.155995  1.21434   1.1151 255 255 255
0.404732  0.64744  1.63191 255 255 255
0.395416 0.670949  1.65789 255 255 255
0.316055 0.706795  1.65839 255 255 255
 0.51713 0.747848    1.585 255 255 255
0.312705 0.763945  1.66152 255 255 255
0.339773 0.687342  1.67764 255 255 255
0.40398 0.73365 1.64491 255 255 255
0.760926 0.745362  1.61203 255 255 255
0.474473 0.644468  1.61078 255 255 255
0.397184 0.713549  1.65018 255 255 255
0.349412 0.729579  1.65096 255 255 255
0.300325 0.746382  1.67551 255 255 255
0.160323   1.2107  1.11046 255 255 255
0.15481   1.213 1.14095 255 255 255
0.285972  0.78574  1.56838 255 255 255
0.379973 0.703754  1.66084 255 255 255
0.345731 0.742182  1.67439 255 255 255
0.353563 0.951437   1.4271 255 255 255
0.308699 0.796645  1.64102 255 255 255
0.314762  0.76973  1.66307 255 255 255
0.404462 0.695345  1.64866 255 255 255
0.166012   1.2061  1.15425 255 255 255
0.152759  1.21497  1.14079 255 255 255
0.533586 0.662538  1.59231 255 255 255
0.364254 0.674437  1.63831 255 255 255
0.156959  1.21186  1.14465 255 255 255
0.190853  1.18949   1.1558 255 255 255
0.292634 0.922785  1.55211 255 255 255
0.409963 0.646197   1.6348 255 255 255
0.680216 0.734392   1.6084 255 255 255
0.343325  0.69041    1.647 255 255 255
0.137795  1.22674  1.10906 255 255 255
0.472739 0.754595  1.57806 255 255 255
0.171206  1.20337   1.1459 255 255 255
0.172389  1.20072  1.14723 255 255 255
0.460501  1.05515   1.4598 255 255 255
0.155843  1.21362  1.10013 255 255 255
0.178114  1.20199  1.13354 255 255 255
0.134969  1.22646  1.09234 255 255 255
0.355641 0.694805  1.66942 255 255 255
0.291946  1.09581  1.50724 255 255 255
0.269205  1.10926  1.51701 255 255 255
0.354253  1.11454  1.53066 255 255 255
0.197583  1.10061   1.4721 255 255 255
0.293314   1.1014  1.53342 255 255 255
0.13945 1.02451 1.48643 255 255 255
0.269134  1.11683  1.50937 255 255 255
0.218194  1.04218  1.55873 255 255 255
0.219811   1.0727  1.46936 255 255 255
0.335504  1.08709  1.56437 255 255 255
0.345445  1.10176  1.51046 255 255 255
0.269421  1.12601  1.50516 255 255 255
0.191103  1.03446  1.46134 255 255 255
0.20756 1.11199 1.47062 255 255 255
0.290334  1.10154  1.51325 255 255 255
0.179073 0.196267  2.00873 255 255 255
0.560263 0.195448  1.80253 255 255 255
0.151673 0.237772   2.0128 255 255 255
 0.332683 -0.104765   1.99437 255 255 255
  0.152565 -0.0883031    2.11704 255 255 255
 0.578437 -0.115784    1.8647 255 255 255
0.572154 0.163143  1.80507 255 255 255
  0.22628 0.0579485   2.01941 255 255 255
0.464209 -0.11523   1.9101 255 255 255
 0.42922 0.143775  1.89614 255 255 255
 0.437899 -0.117684    1.9251 255 255 255
  0.374926 -0.0633284    1.98326 255 255 255
  0.207807 -0.0841411    2.05246 255 255 255
0.607498 -0.10983  1.85327 255 255 255
0.572507 0.064949  1.84077 255 255 255
0.250179 0.242911  1.96321 255 255 255
 0.395422 0.0552782    1.9307 255 255 255
0.355212 0.249853  1.90218 255 255 255
 0.625463 -0.064889   1.85902 255 255 255
 0.453679 -0.129385   1.91425 255 255 255
0.206776 -0.11858  2.05331 255 255 255
 0.143189 -0.102751   2.11601 255 255 255
 0.144388 0.0899189   2.04981 255 255 255
0.542946 0.204624  1.79174 255 255 255
  0.638411 -0.0904639    1.84797 255 255 255
 0.608917 0.0826909   1.81552 255 255 255
0.481116  0.23507  1.83234 255 255 255
 0.643716 -0.111686   1.83567 255 255 255
0.210915 0.138863  2.06682 255 255 255
 0.60016 -0.11662  1.85983 255 255 255
 0.334393 -0.187039   1.97303 255 255 255
  0.388628 -0.0595923    1.97748 255 255 255
 0.426329 -0.118395   1.95074 255 255 255
0.242333 0.249618  1.97107 255 255 255
0.165238 0.183816   2.0186 255 255 255
 0.452825 0.0961548   1.89653 255 255 255
  0.31413 -0.190932   1.98405 255 255 255
  0.626017 -0.0843263    1.85558 255 255 255
 0.248566 0.0765817   2.00406 255 255 255
0.591537 0.112762  1.80636 255 255 255
  0.541265 -0.0850797    1.89739 255 255 255
0.577268 0.234163  1.78156 255 255 255
  0.221783 -0.0402021    2.03631 255 255 255
  0.365068 -0.0400454    1.98655 255 255 255
0.549726  0.24741  1.79018 255 255 255
 0.598931 0.0858843   1.82042 255 255 255
 0.56774 0.456091  1.61237 255 255 255
  0.604365 -0.0862513    1.86532 255 255 255
 0.443068 0.0715636   1.90485 255 255 255
 0.155164 -0.158391   2.06621 255 255 255
   0.31636 -0.0622909    2.01196 255 255 255
 0.303749 -0.161916   1.99376 255 255 255
0.197916  0.16307  2.00438 255 255 255
 0.544747 -0.175458   1.86052 255 255 255
  0.598518 -0.0647818    1.87317 255 255 255
  0.253744 -0.0577695    2.02184 255 255 255
 0.463123 -0.158727   1.91502 255 255 255
  0.420324 -0.0435539    1.95986 255 255 255
  0.362992 -0.0623027    2.00134 255 255 255
0.154195 0.103538  2.04077 255 255 255
  0.477722 -0.0121703    1.94019 255 255 255
0.520881 0.218684  1.81612 255 255 255
 0.59881 0.446992  1.65488 255 255 255
0.585119 0.180263   1.7919 255 255 255
  0.611094 -0.0623538      1.867 255 255 255
 0.43595 0.235337   1.7911 255 255 255
  0.48914 0.0657453    1.8805 255 255 255
 0.401102 0.0755352   1.92278 255 255 255
  0.373628 -0.0840251    1.97821 255 255 255
0.246601 0.125722   1.9973 255 255 255
 0.259116 -0.166698   2.01576 255 255 255
 0.228712 -0.131853   2.03636 255 255 255
 0.218494 -0.205653   2.01663 255 255 255
0.250687 0.219342  1.96518 255 255 255
  0.547621 -0.0699228    1.89798 255 255 255
  0.610911 -0.0461625    1.86995 255 255 255
0.583394 0.101983  1.82731 255 255 255
  0.388415 -0.0836725     1.9748 255 255 255
  0.343509 -0.0481086    1.99529 255 255 255
0.148961 0.210116  2.02563 255 255 255
0.146553 0.203314  2.02795 255 255 255
0.150376 0.070028  2.05269 255 255 255
  0.238481 -0.0912126    2.03711 255 255 255
0.250031 0.258348  1.95711 255 255 255
 0.297129 -0.165324     1.998 255 255 255
  0.350513 -0.0415992    1.98584 255 255 255
 0.140199 0.0981576   2.04432 255 255 255
  0.652018 -0.0716471    1.84459 255 255 255
  0.371826 -0.0550284    1.96583 255 255 255
  0.394361 -0.0807052    1.96425 255 255 255
0.383047 0.149762  1.91817 255 255 255
  0.590463 -0.0666539    1.87685 255 255 255
0.724878 0.402647  1.68561 255 255 255
 0.427658 0.0523771    1.9141 255 255 255
 0.478792 0.0595709   1.88654 255 255 255
 0.253087 -0.124562   2.02571 255 255 255
 0.406735 -0.126399   1.95601 255 255 255
 0.432799 0.0465787   1.91235 255 255 255
  0.300374 -0.0215271    2.03035 255 255 255
 0.322565 0.0915763   1.96436 255 255 255
  0.15189 -0.106645   2.06875 255 255 255
0.340912 0.131744  1.93779 255 255 255
   0.299812 -0.00910211     2.03429 255 255 255
0.259611 0.117745  1.99242 255 255 255
 0.156855 -0.145326   2.07072 255 255 255
 0.187459 -0.213205   2.04937 255 255 255
 0.467276 -0.174448   1.89807 255 255 255
0.677527 0.376168  1.71451 255 255 255
 0.316299 0.0730085   1.96849 255 255 255
0.589283 0.175674   1.7887 255 255 255
 0.455109 0.0726455   1.90029 255 255 255
 0.189621 -0.104914   2.05908 255 255 255
0.281196 0.104517  1.98435 255 255 255
0.572064 0.443212  1.70162 255 255 255
  0.58418 -0.111476   1.86659 255 255 255
 0.408534 -0.138752   1.94503 255 255 255
  0.189175 -0.0147558    2.09032 255 255 255
 0.38451 -0.12692  1.96122 255 255 255
 0.19267 0.271205    1.984 255 255 255
 0.599594 -0.122285   1.85106 255 255 255
 0.118929 0.0469702    2.0677 255 255 255
 0.324006 -0.164342   1.98553 255 255 255
 0.482656 0.0662778   1.88396 255 255 255
  0.415112 -0.0796733     1.9623 255 255 255
 0.228914 0.0474275   2.01694 255 255 255
0.525739 0.183318  1.82803 255 255 255
 0.449582 -0.134197   1.92509 255 255 255
0.723936 0.388448  1.68372 255 255 255
 0.364388 -0.133282   1.97086 255 255 255
   0.15683 -0.0359664    2.11417 255 255 255
0.205431 -0.13408  2.05149 255 255 255
 0.385679 -0.093699   1.95818 255 255 255
 0.365958 -0.151406   1.96497 255 255 255
  0.539182 -0.0438767    1.90626 255 255 255
  0.146229 -0.0391325    2.11642 255 255 255
 0.457816 0.0715948   1.89677 255 255 255
  0.352268 -0.0881414    1.99187 255 255 255
 0.198026 -0.198234   2.02748 255 255 255
 0.58543 0.157058  1.79744 255 255 255
  0.297967 -0.0640756    2.03049 255 255 255
  0.325804 -0.0574195     1.9974 255 255 255
0.578719 0.222388  1.78484 255 255 255
 0.423415 -0.127734   1.94807 255 255 255
  0.52439 -0.112977   1.89765 255 255 255
 0.604484 0.0492355    1.8421 255 255 255
 0.21912 0.284279  1.96077 255 255 255
 0.633426 -0.128396   1.83541 255 255 255
 0.40668 0.208454  1.85892 255 255 255
 0.233691 -0.106887   2.03887 255 255 255
 0.361196 -0.170393   1.96155 255 255 255
   0.2286 0.0525159   2.01769 255 255 255
  0.526977 -0.0544266    1.91138 255 255 255
 0.460691 -0.175435   1.91442 255 255 255
0.546804 0.443371  1.67487 255 255 255
0.403249 0.218762  1.86744 255 255 255
  0.559205 -0.0278458    1.89998 255 255 255
0.284979 0.165609  1.96658 255 255 255
  0.231282 -0.0138459    2.06502 255 255 255
0.452935 0.072335   1.8999 255 255 255
 0.135562 -0.162291   2.07209 255 255 255
0.128888 0.049662  2.06401 255 255 255
 0.546809 0.0888544   1.84919 255 255 255
 0.188019 -0.163738   2.06001 255 255 255
 0.353393 -0.163077    1.9679 255 255 255
  0.243592 -0.0327363    2.02915 255 255 255
 0.124821 -0.151305   2.08706 255 255 255
 0.635677 -0.117972   1.83715 255 255 255
 0.590319 0.0614539   1.83903 255 255 255
 0.636124 -0.108472   1.84068 255 255 255
0.606439 -0.10503  1.85676 255 255 255
0.577969 0.114188   1.8144 255 255 255
  0.502284 -0.0551026    1.92154 255 255 255
0.309333 0.159393  1.95112 255 255 255
 0.319959 -0.107454   1.99898 255 255 255
 0.430319 -0.147671   1.92491 255 255 255
  0.632159 -0.0999192    1.84492 255 255 255
  0.248758 -0.0178957    2.06152 255 255 255
  0.373895 0.00091259    1.98053 255 255 255
0.626811 0.400968  1.74025 255 255 255
 0.636432 -0.113337   1.83834 255 255 255
  0.610906 -0.0809816    1.86467 255 255 255
 0.590232 0.0673185   1.83728 255 255 255
  0.585113 -0.0828394    1.87439 255 255 255
 0.329153 0.0798743   1.96284 255 255 255
 0.581145 0.0676009   1.84029 255 255 255
0.600285 0.450739  1.67646 255 255 255
  0.39537 -0.150737   1.94799 255 255 255
  0.373668 0.00706112    1.97917 255 255 255
0.198767 0.186854  2.00183 255 255 255
0.362968 0.218912  1.90692 255 255 255
  0.207275 -0.0950334    2.07329 255 255 255
  0.62473 -0.119119   1.84306 255 255 255
0.577861 0.166089  1.79966 255 255 255
0.576814 0.214879  1.78885 255 255 255
  0.308891 -0.0295189      2.025 255 255 255
  0.612783 -0.0552627    1.86727 255 255 255
 0.513476 -0.107115   1.90436 255 255 255
 0.214751 -0.121921   2.05115 255 255 255
0.431848 0.223114  1.84782 255 255 255
  0.515269 -0.0497534    1.91723 255 255 255
   0.543308 -0.00734974     1.91044 255 255 255
 0.456386 -0.170103   1.90668 255 255 255
 0.552477 -0.147805   1.85334 255 255 255
  0.291339 -0.0228026    2.03524 255 255 255
 0.201351 -0.161276   2.05768 255 255 255
0.194466 0.245243  1.99042 255 255 255
 0.197862 -0.151993   2.04834 255 255 255
 0.262833 0.0547716    1.9972 255 255 255
 0.596278 -0.108449   1.86059 255 255 255
 0.410166 -0.122437   1.95613 255 255 255
 0.346578 -0.180503   1.96838 255 255 255
0.327443 0.147631   1.9467 255 255 255
 0.479236 -0.171673    1.8893 255 255 255
0.507533 0.152417  1.84928 255 255 255
 0.272892 0.0499101   1.99235 255 255 255
0.202748 0.188628  2.00079 255 255 255
    0.4128 -0.0802097    1.97043 255 255 255
0.563699 0.271907  1.79154 255 255 255
 0.165224 -0.134393   2.07438 255 255 255
0.600265 -0.13281  1.85185 255 255 255
 0.616877 -0.121284   1.84567 255 255 255
0.301399 0.168361  1.95728 255 255 255
0.300793 0.168326  1.95659 255 255 255
  0.570941 -0.0698511    1.88587 255 255 255
  0.604707 -0.0797538    1.86524 255 255 255
0.574551 0.172006  1.79887 255 255 255
0.270912 -0.15626    2.012 255 255 255
 0.219079 -0.155705   2.03216 255 255 255
0.296207 0.163527  1.95642 255 255 255
  0.207764 -0.0774322    2.07688 255 255 255
0.568957 0.185583  1.80075 255 255 255
 0.302778 -0.176621   1.99384 255 255 255
   0.52035 0.00293944    1.91409 255 255 255
0.117615 0.208278  2.04467 255 255 255
 0.333048 -0.194623   1.97729 255 255 255
0.525139 0.453491  1.61381 255 255 255
0.552363 0.467936  1.55708 255 255 255
 0.56015 0.267004  1.79422 255 255 255
 0.332561 0.0837552   1.96176 255 255 255
  0.446309 -0.0244486    1.94231 255 255 255
0.595176 0.196556  1.78451 255 255 255
  0.408418 -0.0738018    1.96708 255 255 255
 0.253827 -0.041618   2.05697 255 255 255
0.570754 0.158494  1.80725 255 255 255
 0.443128 -0.124141   1.93855 255 255 255
 0.236462 -0.132195   2.02808 255 255 255
 0.541342 -0.125887   1.88321 255 255 255
 0.306854 -0.155659   1.99503 255 255 255
0.651327  0.38983  1.75936 255 255 255
  0.181899 -0.0296572    2.10026 255 255 255
 0.318045 0.0527791   1.97388 255 255 255
0.444844 0.249757  1.83456 255 255 255
0.579654 0.180841   1.7959 255 255 255
0.703176 0.378685  1.69532 255 255 255
0.281113 0.171989  1.96675 255 255 255
0.247773 0.160958  1.98247 255 255 255
 0.274891 -0.129967   2.01715 255 255 255
 0.176691 -0.154005   2.05336 255 255 255
 0.276891 -0.172565   2.00644 255 255 255
 0.377615 -0.162129   1.95458 255 255 255
  0.364103 -0.0248275    1.98743 255 255 255
0.718099 0.390138  1.68723 255 255 255
0.133988 0.276873  2.02144 255 255 255
  0.546662 -0.0552043    1.90383 255 255 255
 0.19604 0.114738  2.02335 255 255 255
 0.398703 -0.010072   1.97551 255 255 255
 0.439043 0.0789713   1.90614 255 255 255
 0.214515 -0.109855   2.05083 255 255 255
0.0941805 0.0981375   2.08293 255 255 255
  0.29567 0.0564006   1.98062 255 255 255
 0.299845 -0.187085    1.9926 255 255 255
0.249233 0.256529   1.9579 255 255 255
  0.616693 -0.0913224    1.85479 255 255 255
 0.74557 0.389417  1.67309 255 255 255
 0.216916 -0.134048   2.04062 255 255 255
 0.199443 0.0546416     2.031 255 255 255
  0.618782 0.00245025    1.86647 255 255 255
 0.140254 -0.116925   2.07398 255 255 255
0.306973 0.157107  1.95561 255 255 255
    0.306268 -0.000949165      2.02675 255 255 255
  0.178239 -0.0538578     2.0468 255 255 255
0.548032 0.269703  1.79378 255 255 255
0.0892043  0.101822   2.08558 255 255 255
0.282324 0.160498  1.96387 255 255 255
 0.145291 -0.136267   2.06801 255 255 255
 0.614239 -0.102612   1.85289 255 255 255
 0.367169 -0.159945   1.96268 255 255 255
 0.347557 -0.129985   1.97983 255 255 255
0.569784 0.260817  1.78893 255 255 255
 0.350072 -0.178606   1.96555 255 255 255
0.272206 0.161754  1.96898 255 255 255
  0.404302 -0.0715978    1.96955 255 255 255
0.32776 0.19615 1.93478 255 255 255
0.261219  0.12286  1.99102 255 255 255
 0.56107 0.160019  1.80938 255 255 255
0.162528 0.181105  2.01963 255 255 255
 0.176673 0.0492625   2.04244 255 255 255
 0.207781 -0.161293   2.05284 255 255 255
 0.120311 0.0608675   2.06653 255 255 255
0.239901 0.254951  1.96582 255 255 255
 0.551271 -0.119034    1.8825 255 255 255
 0.156398 -0.067644   2.11072 255 255 255
0.569102 0.206786  1.79529 255 255 255
  0.255265 -0.0736624    2.03546 255 255 255
  0.256751 -0.0784635    2.05284 255 255 255
 0.56384 0.265655  1.79272 255 255 255
0.475208 0.193939  1.86096 255 255 255
 0.334301 0.0551092    1.9634 255 255 255
0.579571 0.120746  1.81246 255 255 255
 0.48336 0.120327  1.87135 255 255 255
 0.465726 -0.131185   1.90691 255 255 255
 0.264648 -0.142642   2.01902 255 255 255
 0.609575 0.0925582   1.81215 255 255 255
 0.426568 -0.017886   1.95615 255 255 255
0.548047   -0.125   1.8797 255 255 255
 0.201795 -0.140379   2.04969 255 255 255
  0.612543 -0.0893242    1.85639 255 255 255
 0.185412 -0.127984   2.06744 255 255 255
0.195595 0.173528  2.00521 255 255 255
 0.633875 -0.144074   1.84948 255 255 255
 0.378122 -0.115126   1.97304 255 255 255
 0.388359 -0.135472   1.95752 255 255 255
 0.383929 0.0692265     1.937 255 255 255
0.587766 0.442918  1.71697 255 255 255
0.136407 0.256639  2.01881 255 255 255
 0.515595 0.0697043    1.8673 255 255 255
0.466507 0.147275  1.86836 255 255 255
 0.233033 0.0363925   2.00933 255 255 255
0.169017 0.108145  2.03313 255 255 255
  0.61969 -0.101606   1.84954 255 255 255
0.470257 0.198146  1.85072 255 255 255
 0.16669 0.241909  2.00646 255 255 255
  0.52447 -0.101516   1.90067 255 255 255
   0.31968 -0.0624057    2.00587 255 255 255
  0.296348 -0.0708713    2.03709 255 255 255
 0.282382 -0.179218   2.00313 255 255 255
0.170387 0.280955  1.99929 255 255 255
  0.324639 -0.0444282    2.00573 255 255 255
 0.269882 -0.158805   2.01181 255 255 255
 0.139048 -0.153489   2.07222 255 255 255
0.317991 0.200986  1.92302 255 255 255
 0.57001 0.168293  1.80223 255 255 255
  0.258209 -0.0700266    2.05871 255 255 255
0.209391 0.258067  1.97627 255 255 255
