ply
format ascii 1.0
element vertex 1190
property float x
property float y
property float z
property uchar red
property uchar green
property uchar blue
end_header
 0.832493 0.0330832   1.74364 255 255 255
0.641101 0.101792  1.80455 255 255 255
 0.30354 0.132599   1.9769 255 255 255
0.853335 0.319834  1.64697 255 255 255
 0.409838 0.0242714   1.94156 255 255 255
0.775619 0.114766  1.72964 255 255 255
0.597789 0.296506   1.7646 255 255 255
0.645433  0.34862  1.75518 255 255 255
 0.632111 0.0140154   1.83414 255 255 255
0.571237 0.239137  1.79845 255 255 255
 0.668382 0.0686766    1.7817 255 255 255
 0.639571 0.0571252   1.80024 255 255 255
0.758331 0.187115   1.7148 255 255 255
 0.55359 0.311824  1.80053 255 255 255
0.638148 0.372838  1.75362 255 255 255
 0.942161 0.0862376   1.66608 255 255 255
0.607008  0.35386  1.77026 255 255 255
0.383537 0.282854  1.88685 255 255 255
0.419786 0.271467  1.84458 255 255 255
0.664593 0.274474  1.73539 255 255 255
 0.979545 -0.156894   1.70807 255 255 255
0.594347 0.328038  1.77678 255 255 255
 0.388739 0.0676216   1.94329 255 255 255
0.686406 0.307183  1.72606 255 255 255
  0.159204 -0.0248774    2.11826 255 255 255
0.0448478  0.269636   2.07197 255 255 255
0.250988 0.252498  1.97116 255 255 255
0.607528 0.226648  1.78093 255 255 255
0.674882 0.331649   1.7459 255 255 255
0.621084 0.357709  1.75905 255 255 255
0.760489 0.355809    1.734 255 255 255
0.433929 0.351523  1.84295 255 255 255
 0.48719 0.319055  1.82378 255 255 255
0.592184  0.34397  1.77025 255 255 255
0.739826  0.22146  1.72938 255 255 255
0.309547 0.172487  1.95045 255 255 255
 0.62753 0.283682  1.76424 255 255 255
0.745967 0.360577  1.69661 255 255 255
0.641732   0.1392  1.78446 255 255 255
0.644895 0.257617  1.76671 255 255 255
0.645263 0.257478  1.76879 255 255 255
0.148595  0.27734  2.01971 255 255 255
 0.656806 -0.152541   1.85281 255 255 255
0.274887 0.319069  1.91773 255 255 255
 0.750739 0.0558923   1.76032 255 255 255
0.188831 0.099944  2.04062 255 255 255
0.740669 0.362547  1.73528 255 255 255
 0.154074 -0.100856   2.12937 255 255 255
 0.344594 -0.142749   1.99979 255 255 255
 0.91613 0.125279  1.66442 255 255 255
   0.18793 -0.0553892    2.11887 255 255 255
 0.29791 0.175972  1.96368 255 255 255
0.376285  0.23808  1.83184 255 255 255
0.797961 0.376964  1.66239 255 255 255
0.775868 0.375742  1.67504 255 255 255
0.836385 0.325986  1.67048 255 255 255
0.793175 0.345873  1.72298 255 255 255
0.730843   0.3649  1.73866 255 255 255
0.0642506   0.23144   2.07989 255 255 255
 0.377964 0.0548954   1.94426 255 255 255
0.879422 0.145857  1.66886 255 255 255
0.0894948  0.175649   2.08243 255 255 255
  0.208114 -0.0350941    2.10182 255 255 255
0.496912 0.375248  1.81001 255 255 255
 0.685885 0.0527282    1.7853 255 255 255
0.611273 0.348859  1.75332 255 255 255
0.649634 0.189092   1.7674 255 255 255
 0.81621 0.344023  1.66246 255 255 255
0.476003  0.35953  1.82194 255 255 255
  0.680326 -0.0792016    1.86116 255 255 255
0.661899 0.350549  1.74971 255 255 255
 0.681466 0.0710191   1.78406 255 255 255
 0.629303 0.0918109   1.82069 255 255 255
0.852073 0.242608  1.66683 255 255 255
 0.223172 0.0717838   2.03169 255 255 255
0.233098 0.291732   1.9634 255 255 255
0.579512 0.322568  1.77795 255 255 255
0.633821 0.221079  1.76892 255 255 255
 0.456578 0.0365885   1.90845 255 255 255
 0.88912 0.261703  1.71514 255 255 255
 0.656132 -0.163514   1.84331 255 255 255
  0.11584 -0.154543   2.12817 255 255 255
0.816411  -0.1237  1.79021 255 255 255
 0.537289 0.0839661   1.86615 255 255 255
0.938053 0.146075  1.65422 255 255 255
 0.407776 -0.127645   1.98143 255 255 255
0.228394 0.265569  1.98265 255 255 255
 0.885454 -0.169705   1.74856 255 255 255
 0.721424 0.0540524   1.77882 255 255 255
0.238981 0.246839  2.00128 255 255 255
  0.84335 0.0829222   1.71147 255 255 255
0.672599 0.101952  1.77328 255 255 255
0.805621 0.127608  1.71378 255 255 255
0.687289 0.230764  1.74683 255 255 255
0.666069 0.143699  1.77144 255 255 255
  0.34363 -0.145538   2.00136 255 255 255
0.855822 0.350297  1.64338 255 255 255
0.843058 0.172639  1.67366 255 255 255
  0.114062 -0.0581067    2.16313 255 255 255
0.275007 0.196923  1.96195 255 255 255
0.253806 0.202034  1.98392 255 255 255
0.903774 0.142618  1.67237 255 255 255
 0.826799 -0.199893   1.78252 255 255 255
 0.954273 -0.134411   1.69714 255 255 255
0.332213 0.313915  1.90243 255 255 255
0.563794 0.346747  1.78385 255 255 255
0.680592 0.349498  1.73471 255 255 255
0.784737 0.324539  1.70735 255 255 255
0.901301 0.173154  1.65844 255 255 255
0.881654 0.344454  1.75991 255 255 255
  0.356704 -0.0743268    2.01437 255 255 255
0.758955 0.199995   1.7079 255 255 255
0.701921 0.232674  1.74643 255 255 255
0.759311 0.113864  1.74607 255 255 255
0.433538 0.337508  1.86164 255 255 255
0.281423 0.298465  1.92903 255 255 255
 0.918888 -0.166997   1.73366 255 255 255
  0.718033 -0.0849914    1.84376 255 255 255
  0.518437 -0.0867276    1.94906 255 255 255
0.899319 0.302481  1.71057 255 255 255
0.397826 0.074699  1.94164 255 255 255
 0.662254 -0.172444   1.83771 255 255 255
0.503623 0.351127  1.79918 255 255 255
0.673018 0.351644  1.74513 255 255 255
 0.368284 0.0994755   1.94478 255 255 255
0.285935  0.17962  1.97218 255 255 255
0.269073 0.279148  1.91795 255 255 255
0.706577 0.083681  1.77544 255 255 255
0.677268 0.290979  1.72811 255 255 255
0.675458 0.239748  1.75697 255 255 255
0.839237 0.203201  1.67242 255 255 255
 0.553519 -0.035151   1.92431 255 255 255
 0.62976 0.225068  1.77869 255 255 255
0.528256 0.288638  1.80772 255 255 255
0.845005 0.338181  1.64971 255 255 255
0.497744 0.303932  1.83734 255 255 255
0.768166 0.216708  1.71104 255 255 255
  0.54456 0.0892696   1.86177 255 255 255
 0.924822 -0.112615   1.72193 255 255 255
0.524125 0.360064  1.80998 255 255 255
0.596046 0.257414  1.79331 255 255 255
 0.712204 0.0910721   1.77536 255 255 255
0.610804  0.29583  1.75826 255 255 255
 0.102434 -0.162857   2.12048 255 255 255
0.746833 0.239833  1.71107 255 255 255
 0.496497 0.0916195   1.88496 255 255 255
0.620213  0.37886  1.75715 255 255 255
0.797974 0.241279  1.68511 255 255 255
 0.27328 0.331564  1.91557 255 255 255
 0.325098 -0.115999   2.01486 255 255 255
 0.32181 0.318148  1.90625 255 255 255
0.819531 0.227832   1.6768 255 255 255
0.263183 0.296071   1.9392 255 255 255
0.229062  0.26638  2.00415 255 255 255
 0.849493 0.0928875   1.70922 255 255 255
0.931098 0.169698  1.65227 255 255 255
0.843289 0.116849  1.70266 255 255 255
0.806241 0.110783  1.70876 255 255 255
 0.17716 0.170393  2.16224 255 255 255
0.195254 0.258804  2.00583 255 255 255
0.580306 0.267246  1.78661 255 255 255
0.275964 0.208372   1.9524 255 255 255
0.631541 0.349829  1.74967 255 255 255
0.755949 0.305251  1.70074 255 255 255
 0.234346 0.0819799   2.02627 255 255 255
 0.797375 0.0311157   1.74852 255 255 255
 0.651434 0.0990133    1.7874 255 255 255
0.781325 0.362197  1.67476 255 255 255
  0.951261 -0.0664752    1.72384 255 255 255
0.382186 0.126697  1.93634 255 255 255
0.924762 0.155377  1.66418 255 255 255
0.667884 0.248902  1.75684 255 255 255
0.475754 0.107575  1.88372 255 255 255
0.802577 0.306829  1.67156 255 255 255
0.740283 0.247646  1.71419 255 255 255
 0.473703 -0.243526   1.92006 255 255 255
0.307442 0.321988  1.91216 255 255 255
0.842583 0.304235  1.66821 255 255 255
 0.403277 0.0851055    1.9372 255 255 255
0.817891 0.279865  1.67904 255 255 255
0.259537 0.335758  1.92124 255 255 255
0.883274  0.25086  1.63921 255 255 255
0.701852 0.351896   1.7154 255 255 255
0.862627 0.252308  1.65494 255 255 255
  1.02931 -0.105369   1.67671 255 255 255
 0.392082 0.0925245    1.9372 255 255 255
0.0833311 0.0405464    2.1062 255 255 255
0.656317 0.389128  1.75367 255 255 255
 0.22807 0.200312  1.99707 255 255 255
0.521193 0.385803  1.79726 255 255 255
0.202766 0.115633  2.05015 255 255 255
0.769053 0.291747  1.69535 255 255 255
0.533084 0.378122  1.79315 255 255 255
 0.378221 0.0228852   1.95222 255 255 255
0.231315 0.302562  1.96027 255 255 255
0.483055 0.374357  1.80359 255 255 255
 0.682084 0.0357588   1.80484 255 255 255
 0.757324 0.0224604   1.77178 255 255 255
0.628326 0.355448   1.7535 255 255 255
  0.3399 0.226203  1.90428 255 255 255
 0.251461 -0.192941   2.03625 255 255 255
0.726761  0.13402  1.74965 255 255 255
 0.737198 -0.153159   1.82149 255 255 255
 0.891064 0.0648669   1.68474 255 255 255
  0.388999 -0.0630481    1.99834 255 255 255
0.701929 0.207084  1.73949 255 255 255
0.0695318   0.24417   2.07378 255 255 255
 0.529245 0.0495121   1.88086 255 255 255
0.637725  0.33959  1.74754 255 255 255
 0.12653 0.205401  2.05229 255 255 255
0.349822 0.100515    1.953 255 255 255
 0.402776 0.0251538   1.94506 255 255 255
0.339719 0.326549  1.90538 255 255 255
  0.968116 -0.0668869    1.71629 255 255 255
0.619088 0.126904  1.79502 255 255 255
 0.888934 -0.105044   1.75211 255 255 255
 0.773665 0.0186885   1.77009 255 255 255
0.133137 0.220711  2.04434 255 255 255
0.177941 0.304968  2.00697 255 255 255
 0.819429 0.0684442   1.72954 255 255 255
0.128655  0.17281  2.04953 255 255 255
0.832064 0.209289  1.67389 255 255 255
0.844747 0.267721  1.66878 255 255 255
 0.66766 0.382913  1.75149 255 255 255
0.659709 0.299922  1.72782 255 255 255
 0.62346 0.386502  1.75745 255 255 255
0.760513 0.235928  1.70961 255 255 255
0.0763813 0.0324029   2.11256 255 255 255
0.740491 0.329652  1.72397 255 255 255
 0.910679 0.0835327   1.66557 255 255 255
 0.56938 0.095887  1.85911 255 255 255
 0.85718 0.237434  1.65335 255 255 255
 0.748439 0.0357812   1.76714 255 255 255
0.902712 0.243967  1.63582 255 255 255
0.616364 0.172697  1.78445 255 255 255
0.547438 0.192083  1.81818 255 255 255
0.621958 0.330401   1.7456 255 255 255
0.407804 0.362852   1.8543 255 255 255
0.104334 0.308755  2.05419 255 255 255
0.500924 0.383233   1.8034 255 255 255
0.532652 0.341939  1.81157 255 255 255
0.939763 0.152083  1.64851 255 255 255
0.534072 0.354195  1.80065 255 255 255
0.803829 0.248014  1.69434 255 255 255
0.912492 0.137961  1.66948 255 255 255
0.382908 0.349909  1.84368 255 255 255
0.0830612  0.032288   2.10759 255 255 255
0.745466 0.378099  1.68468 255 255 255
 0.82772 0.109998  1.70691 255 255 255
0.538144 0.386318  1.79062 255 255 255
  0.746347 -0.0945896     1.8291 255 255 255
0.489606  0.34512  1.83916 255 255 255
0.875466 0.109108  1.69303 255 255 255
0.576816 0.317585  1.76565 255 255 255
0.775088 0.181982  1.71446 255 255 255
0.774308 0.182262  1.71313 255 255 255
0.575349 0.306763  1.78082 255 255 255
0.863865 0.306626  1.66342 255 255 255
0.736598 0.212319  1.73538 255 255 255
0.205738 0.301268   2.0168 255 255 255
0.520842 0.373592  1.80281 255 255 255
0.400876 0.277107  1.83274 255 255 255
 0.57702 0.298977  1.78276 255 255 255
0.446626  0.16334  1.86659 255 255 255
0.387968 0.200969  1.89841 255 255 255
0.254252 0.260327  1.94935 255 255 255
0.322877 0.288218  1.89408 255 255 255
0.144059  0.17003  2.04792 255 255 255
 0.815266 -0.140128   1.76519 255 255 255
0.290445 0.301993  1.88321 255 255 255
   0.7397 0.0910177   1.75358 255 255 255
0.664041 0.374926  1.75011 255 255 255
0.568733 0.394163  1.78709 255 255 255
0.549668 0.370843  1.78081 255 255 255
 0.608011 0.0574161   1.83452 255 255 255
0.834253  0.24834  1.66342 255 255 255
0.468666 0.380618  1.80517 255 255 255
0.683837 0.366828  1.72918 255 255 255
0.580783 0.357401  1.77917 255 255 255
0.0665022  0.157602   2.09728 255 255 255
 0.382746 -0.107142    1.9993 255 255 255
0.0894319 0.0411253   2.10174 255 255 255
 0.615811 0.0572434   1.81113 255 255 255
0.702955 0.224482  1.74855 255 255 255
0.562673 0.316422  1.78954 255 255 255
0.254679 0.349999  1.92528 255 255 255
0.377248 0.263294  1.87948 255 255 255
  0.253443 -0.0985715     2.0523 255 255 255
0.456318 0.283071  1.82671 255 255 255
0.643083 0.110859  1.77998 255 255 255
0.621188 0.371641  1.76107 255 255 255
 0.795508 -0.153686   1.79494 255 255 255
0.798571 0.208705  1.69606 255 255 255
0.695703 0.159805  1.75785 255 255 255
0.551614 0.393802  1.78664 255 255 255
0.643147 0.382891  1.74867 255 255 255
0.276484 0.267306    1.928 255 255 255
0.894521 0.183089  1.64828 255 255 255
 0.28474 0.307363  1.91312 255 255 255
0.536977 0.370829  1.79279 255 255 255
 0.74033 0.234287  1.71698 255 255 255
0.314869 0.299872   1.8998 255 255 255
 0.19254 0.187639  2.06463 255 255 255
0.808482 0.103439  1.72888 255 255 255
  0.46306 0.0716918   1.90666 255 255 255
0.734896 0.130471   1.7422 255 255 255
0.468002 0.296378  1.81989 255 255 255
0.522233 0.394514  1.79233 255 255 255
0.845419 0.258149  1.66244 255 255 255
  0.192963 -0.0245825    2.11735 255 255 255
0.788577 0.317354  1.68528 255 255 255
 0.49574 0.326566  1.82924 255 255 255
 0.22731 0.285813  1.97128 255 255 255
0.639847 0.162158  1.78412 255 255 255
0.729958  0.19887  1.73244 255 255 255
0.936021 0.126894  1.65674 255 255 255
 0.346629 0.0676697    1.9676 255 255 255
 0.364008 -0.162315   1.99609 255 255 255
 0.360793 -0.160514   1.99165 255 255 255
0.606663 0.310969  1.76007 255 255 255
 0.824373 0.0741585    1.7288 255 255 255
 0.80091 0.325108  1.68228 255 255 255
 0.494411 0.0778463    1.8904 255 255 255
 0.223404 0.0177728   2.02763 255 255 255
0.246452 0.212055  1.97881 255 255 255
0.579012  0.33191  1.78822 255 255 255
0.199863  0.24399  1.99697 255 255 255
0.307625 0.193464   1.9401 255 255 255
  0.577367 -0.0475397    1.91811 255 255 255
 0.365982 0.0487016   1.96227 255 255 255
 0.304876 0.0842193   1.98665 255 255 255
  0.507809 -0.0990917    1.94153 255 255 255
0.514011 0.357237    1.804 255 255 255
    1.03556 -0.00975106     1.70017 255 255 255
 0.83778 0.152259  1.68154 255 255 255
0.663526 0.343189  1.74282 255 255 255
0.664096 0.317078  1.72066 255 255 255
0.825972 0.373795   1.6496 255 255 255
0.766323   0.1904  1.70892 255 255 255
 0.55881 0.292316  1.80422 255 255 255
  0.8017 0.288769  1.71335 255 255 255
0.697024 0.400725  1.71044 255 255 255
  0.83994 0.0469954   1.72688 255 255 255
0.576654 0.270133  1.80033 255 255 255
0.681051 0.225185  1.74205 255 255 255
 0.408233 -0.119777   1.98491 255 255 255
0.927089 0.256211  1.70446 255 255 255
0.584719 0.323794  1.76571 255 255 255
0.0964525  0.116981   2.09069 255 255 255
0.674362 0.269293  1.73735 255 255 255
0.115268 0.238703  2.05012 255 255 255
0.727087  0.26021  1.71174 255 255 255
0.452609 0.344377  1.85117 255 255 255
 0.971608 -0.127551   1.69154 255 255 255
 0.716364 0.0967862   1.77059 255 255 255
 0.71877 0.203915  1.74113 255 255 255
0.528175 0.320221  1.81505 255 255 255
 0.76485 0.263707  1.69577 255 255 255
0.569779 0.324323   1.7743 255 255 255
 0.795994 0.0741271   1.73971 255 255 255
 0.797105 0.0737149   1.74109 255 255 255
0.824477 0.380772  1.64723 255 255 255
0.472423 0.198236  1.84955 255 255 255
0.745855 0.367644  1.69077 255 255 255
 0.842307 -0.186247   1.77854 255 255 255
  0.152512 -0.0727832    2.12868 255 255 255
 0.402549 -0.186978   1.97307 255 255 255
0.0554734  0.147318   2.10491 255 255 255
0.434842  0.35358  1.86176 255 255 255
0.569114 0.329857  1.77544 255 255 255
0.703106 0.357658  1.71535 255 255 255
0.201591 0.202872   2.0043 255 255 255
0.259293 0.162344  1.99275 255 255 255
 0.282048 -0.172846   2.03094 255 255 255
 0.358752 -0.170188   1.99648 255 255 255
  0.675768 -0.0896593    1.86484 255 255 255
  0.828647 -0.0380539    1.79398 255 255 255
0.336585 0.248226  1.90947 255 255 255
 0.83509 0.246099  1.65832 255 255 255
0.412732 0.108368  1.92081 255 255 255
 0.393369 -0.202113   1.96174 255 255 255
0.663723 0.389118  1.75178 255 255 255
0.780171 0.131035  1.73356 255 255 255
 0.756246 0.0909403   1.75388 255 255 255
0.351707 0.305966  1.90533 255 255 255
0.353491 0.305385  1.90662 255 255 255
0.612053 0.328127  1.77335 255 255 255
0.818672 0.050151  1.71694 255 255 255
0.341447 0.310423  1.89755 255 255 255
 0.23759 0.255937  1.97898 255 255 255
0.584109 0.351349  1.77394 255 255 255
0.757647 0.244169  1.70738 255 255 255
 0.14344 0.102955  2.07045 255 255 255
0.680522 0.171867  1.76037 255 255 255
   0.6663 0.0506154   1.79163 255 255 255
 0.909284 0.0637521   1.67608 255 255 255
0.840308 0.178293  1.69484 255 255 255
 0.234432 0.0919535   2.02242 255 255 255
 0.166973 -0.183144   2.08115 255 255 255
  0.435776 -0.0342497    1.97338 255 255 255
 0.448724 0.0983269   1.90708 255 255 255
  0.30779 0.0706368   1.98891 255 255 255
  0.268918 -0.0530558    2.05552 255 255 255
0.911074 0.219287  1.64257 255 255 255
0.456708 0.317565  1.82876 255 255 255
0.554908 0.378395  1.78005 255 255 255
0.391087 0.310371  1.80576 255 255 255
0.494363 0.045536  1.89517 255 255 255
0.926235 0.151256  1.65874 255 255 255
0.579065 0.346522  1.78308 255 255 255
0.0766074  0.233722   2.07215 255 255 255
 0.68783 0.351942  1.72468 255 255 255
 0.392175 0.0608615   1.94039 255 255 255
 0.815507 0.0947871    1.7175 255 255 255
0.254175 -0.18262  2.05427 255 255 255
0.719473 0.235053  1.74054 255 255 255
0.916904 0.158687  1.66488 255 255 255
0.268757 0.142014   1.9814 255 255 255
0.452339 0.314599  1.84982 255 255 255
0.831298 0.220057  1.67542 255 255 255
0.246277 0.261435  1.95881 255 255 255
0.448869 0.335651    1.855 255 255 255
 0.351138 0.0423742   1.96842 255 255 255
0.542546  0.30679  1.79933 255 255 255
0.620594 0.318259  1.76076 255 255 255
 0.77091 0.122297   1.7387 255 255 255
0.789397  0.30402  1.68464 255 255 255
0.542679 0.200122  1.81354 255 255 255
0.471083  0.07864  1.89968 255 255 255
0.582331 0.364618  1.77628 255 255 255
0.897358 0.106135  1.67492 255 255 255
 0.940461 0.0779872   1.65077 255 255 255
0.534445 0.137971  1.84917 255 255 255
 0.738801 0.0872059   1.75929 255 255 255
0.931483 0.107689  1.65708 255 255 255
  0.23316 -0.232471    2.0342 255 255 255
 0.421414 -0.218559   1.93999 255 255 255
 0.993919 -0.114375   1.69636 255 255 255
0.715362 0.356244  1.74113 255 255 255
  0.25349 -0.123567    2.0553 255 255 255
0.184144 0.254606  2.04221 255 255 255
 0.645555 -0.108093    1.8762 255 255 255
0.447971 0.314823  1.85512 255 255 255
0.475612 0.265178  1.84494 255 255 255
0.542733 0.350349  1.79508 255 255 255
0.638719 0.256562   1.7765 255 255 255
0.673189 0.373383  1.73856 255 255 255
0.690053 0.327039  1.73477 255 255 255
0.155676  0.28246  2.01986 255 255 255
0.693472 0.173712  1.75274 255 255 255
0.696951 0.172442  1.75596 255 255 255
0.558787 0.384827  1.78759 255 255 255
0.200424 0.138471  2.02252 255 255 255
0.856501 0.253113  1.65929 255 255 255
0.348015 0.194512  1.93035 255 255 255
 0.333985 -0.237204   1.98445 255 255 255
    0.3711 -0.0807993    2.02188 255 255 255
 0.755002 0.0421849   1.76257 255 255 255
0.253517 0.297382  1.95048 255 255 255
0.617525 0.233705  1.77338 255 255 255
0.299765  0.24412  1.93289 255 255 255
 0.736055 -0.114585   1.83133 255 255 255
0.648117 0.316405  1.73497 255 255 255
0.702348 0.218447  1.74906 255 255 255
   0.7206 -0.157072   1.81382 255 255 255
  0.912235 -0.0532362    1.74999 255 255 255
 0.943879 0.0961556   1.65763 255 255 255
 0.236148 -0.175564   2.04684 255 255 255
0.735996 0.388637  1.69619 255 255 255
0.523141 0.064156   1.8747 255 255 255
0.435159 0.362184  1.84227 255 255 255
 0.83167 0.186107  1.69128 255 255 255
0.667869   0.2593  1.75758 255 255 255
0.819375 0.234891  1.67088 255 255 255
 0.787555 0.0285415   1.75355 255 255 255
0.539768 0.266105  1.79728 255 255 255
 0.339069 -0.210604   1.99615 255 255 255
0.929149 0.120595  1.65871 255 255 255
 0.643781 0.0532507   1.79268 255 255 255
0.203334 0.213454  2.00695 255 255 255
0.641586 0.200442  1.77449 255 255 255
  0.475797 -0.0209918    1.95996 255 255 255
0.722272  0.10003  1.76587 255 255 255
0.672897 0.384132  1.74825 255 255 255
0.120133 0.073111  2.08015 255 255 255
0.495069 0.136438  1.86519 255 255 255
0.515118 0.192818  1.82534 255 255 255
 0.802034 -0.180195   1.79437 255 255 255
0.480563 0.239967  1.83345 255 255 255
  0.88223 0.0784831   1.68693 255 255 255
 0.611374 -0.130849   1.88837 255 255 255
 0.188185 0.0971139   2.04383 255 255 255
  0.163144 0.00825046    2.08783 255 255 255
 0.170163 -0.249201   2.07359 255 255 255
  0.64108 0.0818088   1.81216 255 255 255
0.545867 0.124861  1.83862 255 255 255
0.416921 0.265736  1.84939 255 255 255
0.526817 0.387667  1.79481 255 255 255
 0.84458 0.359438  1.75912 255 255 255
0.248989 0.222322  1.97602 255 255 255
0.093801 0.303423  2.05753 255 255 255
0.688279  0.38784  1.72571 255 255 255
0.0704902  0.178034    2.0895 255 255 255
0.429692 0.341773  1.86315 255 255 255
0.289883 0.319429  1.91191 255 255 255
  0.957227 -0.0165463    1.73815 255 255 255
0.505285 0.286087  1.81283 255 255 255
0.509267 0.385418   1.8046 255 255 255
0.472371  0.12239  1.87939 255 255 255
0.786347 0.363244  1.66646 255 255 255
0.644697  0.27385   1.7539 255 255 255
0.609097 0.392831  1.76125 255 255 255
 0.649876 0.0820222   1.80784 255 255 255
  0.928774 -0.0603775    1.73613 255 255 255
  0.294733 -0.0390527    2.06069 255 255 255
 0.198906 0.0210325   2.04792 255 255 255
0.467573 0.268269  1.85115 255 255 255
 0.173387 -0.246303   2.06642 255 255 255
0.638765 0.379075  1.74643 255 255 255
 0.269064 0.0684764   2.01212 255 255 255
 0.81543 0.375686  1.65482 255 255 255
0.591916 0.185984  1.76738 255 255 255
0.582121 0.249601  1.79875 255 255 255
0.886538 0.287481  1.71521 255 255 255
0.601372 0.204285  1.79335 255 255 255
 0.687518 0.0840327   1.78876 255 255 255
 0.320726 0.0185057   1.98873 255 255 255
0.0528057  0.167253   2.09926 255 255 255
 0.58436 0.373879  1.77013 255 255 255
 0.451727 0.0764023   1.91117 255 255 255
0.281222 0.341526  1.91587 255 255 255
0.377909 0.151369  1.92662 255 255 255
0.846905 0.203249  1.67073 255 255 255
0.773709 0.143097  1.73054 255 255 255
 0.122325 0.0329426   2.08301 255 255 255
0.957776 0.299854  1.76039 255 255 255
0.865541 0.129189  1.69185 255 255 255
0.624727 0.154092  1.79339 255 255 255
 0.890101 0.0744944   1.67748 255 255 255
 0.838057 -0.160471   1.77913 255 255 255
 0.219725 0.0150397   2.02875 255 255 255
  0.96221 -0.151201   1.68857 255 255 255
 0.82497 0.146938  1.69002 255 255 255
 0.615272 0.0241649   1.83589 255 255 255
   0.80348 -0.0423857    1.80837 255 255 255
0.698905 0.231631  1.75026 255 255 255
0.859574 0.340527  1.64637 255 255 255
0.324913 0.049582   1.9835 255 255 255
 0.114971 -0.136099   2.15203 255 255 255
  0.219503 -0.0886226    2.10308 255 255 255
0.867643 0.218941  1.64622 255 255 255
0.870813 0.291352  1.66359 255 255 255
0.943817 0.130149  1.65505 255 255 255
 0.255717 0.0253686   2.01868 255 255 255
 0.883526 0.0849409   1.68536 255 255 255
0.913307  0.15004  1.66632 255 255 255
 0.674386 0.0838348   1.79341 255 255 255
0.641733 0.266367  1.76467 255 255 255
0.933434 0.129113  1.66088 255 255 255
0.418763 0.089894  1.91965 255 255 255
0.649163 0.316709  1.72822 255 255 255
0.808158 0.342176  1.67043 255 255 255
0.794401 0.265077  1.69131 255 255 255
0.341023 0.318626  1.89832 255 255 255
0.228578 0.243518  1.98925 255 255 255
 0.336468 0.0790844   1.97462 255 255 255
0.692033 0.179796    1.752 255 255 255
0.699248 0.366568  1.72505 255 255 255
0.387121 0.056129  1.94734 255 255 255
0.627729 0.332558  1.74364 255 255 255
0.720057 0.206202  1.73933 255 255 255
0.204327 0.298527  1.97721 255 255 255
0.378782 0.295503  1.89425 255 255 255
  0.183267 -0.0540383     2.1255 255 255 255
0.624017 0.157678  1.79934 255 255 255
0.612612 0.162502  1.78362 255 255 255
0.674766 0.330136  1.74035 255 255 255
0.305957 0.262495  1.88356 255 255 255
0.814863 0.104037  1.72564 255 255 255
0.433084 0.345442  1.86182 255 255 255
0.826344  0.22979  1.67216 255 255 255
0.304932 0.302571  1.89963 255 255 255
0.590233 0.281066  1.79174 255 255 255
 0.60882 0.325289  1.76532 255 255 255
0.521426  0.34163  1.80701 255 255 255
 0.574397 0.0762876    1.8443 255 255 255
0.525238 0.356581  1.80771 255 255 255
  0.10162 0.0714417   2.09763 255 255 255
0.803557 0.353611  1.66599 255 255 255
 0.497903 0.0707313   1.89217 255 255 255
0.607253 0.398795  1.76148 255 255 255
0.863234  0.25916  1.65733 255 255 255
0.733748 0.305216  1.70987 255 255 255
0.197229 0.287444    1.987 255 255 255
 0.79218 0.358785  1.66928 255 255 255
0.854708 0.356789  1.64598 255 255 255
0.852613 0.372177  1.65141 255 255 255
0.729768  0.26257  1.70614 255 255 255
0.637759 0.310277  1.74034 255 255 255
 0.855174 -0.160906   1.76595 255 255 255
0.623293 0.393909  1.75719 255 255 255
  0.7689 0.368531  1.68744 255 255 255
 0.282539 0.0419335   2.00389 255 255 255
 0.830653 0.0651598   1.72038 255 255 255
0.427073 0.346852  1.86367 255 255 255
 0.873607 -0.035061   1.77518 255 255 255
0.167153 0.122178  2.05132 255 255 255
0.889151 0.239561  1.63436 255 255 255
    0.7709 -0.0367588    1.82026 255 255 255
 0.297782 -0.190056   2.01815 255 255 255
0.517264 0.355817  1.79259 255 255 255
0.494488 0.377268  1.81719 255 255 255
 0.790147 0.0627416    1.7519 255 255 255
  0.95161 0.0684475   1.66564 255 255 255
0.648252 0.282299  1.76384 255 255 255
 0.603407 0.0114128   1.85034 255 255 255
0.670488 0.068364  1.79504 255 255 255
0.333359 0.322117  1.89461 255 255 255
0.480198 0.381843   1.8215 255 255 255
 0.588401 0.0793648   1.83708 255 255 255
 0.163308 -0.126895   2.09112 255 255 255
 0.783625 -0.174003   1.78151 255 255 255
0.100731  0.27213  2.05376 255 255 255
0.882333 0.293238   1.6562 255 255 255
0.618679 0.339733  1.74712 255 255 255
0.837373 0.355979  1.64763 255 255 255
0.424859 0.324439  1.86563 255 255 255
  0.270215 -0.0473481    2.05396 255 255 255
0.866131 0.255167  1.65069 255 255 255
0.693234 0.260971  1.73281 255 255 255
0.766851 0.243611  1.70497 255 255 255
  0.522583 -0.0475456    1.93699 255 255 255
0.593694 0.236027  1.78849 255 255 255
0.838667 0.141408  1.68947 255 255 255
0.534775 0.242161  1.80414 255 255 255
0.406503 0.274071  1.85652 255 255 255
0.719143 0.373277  1.74118 255 255 255
0.391701  0.20529  1.89343 255 255 255
  0.208162 -0.0495027    2.10631 255 255 255
 0.277327 0.0697455   1.99902 255 255 255
0.226109 0.313148  1.95677 255 255 255
0.459407 0.315598  1.85252 255 255 255
 0.947626 0.0903747   1.65369 255 255 255
0.314577 0.194944  1.93192 255 255 255
0.308876 0.328365  1.91469 255 255 255
0.0503033  0.179654   2.09936 255 255 255
0.568865 0.322103  1.78155 255 255 255
0.308927 0.272689   1.8887 255 255 255
0.677548 0.272585  1.73632 255 255 255
 0.89747 0.198111  1.64658 255 255 255
 0.754433 -0.176544   1.81763 255 255 255
0.342642 0.138588  1.95438 255 255 255
0.812404 0.360096  1.66013 255 255 255
0.786235 0.142159  1.72467 255 255 255
 0.812679 -0.111673   1.78844 255 255 255
0.614659 0.329488  1.74776 255 255 255
0.810259 0.363467   1.6629 255 255 255
 0.855335 0.0333564   1.65938 255 255 255
   0.28505 -0.0290131    2.04869 255 255 255
  0.273272 -0.0116805    2.05141 255 255 255
0.597222 0.319539  1.77231 255 255 255
  0.793013 -0.0871689    1.80096 255 255 255
0.878301 0.263186  1.64228 255 255 255
0.187846 0.186783  2.02392 255 255 255
0.533031 0.315035  1.81467 255 255 255
0.806566 0.279771  1.70933 255 255 255
0.684839 0.239677  1.75028 255 255 255
 0.816721 0.0452051   1.71177 255 255 255
 0.758965 -0.123352   1.81816 255 255 255
0.67533 0.35892 1.74324 255 255 255
 0.067907 -0.171438   2.13026 255 255 255
0.768766 0.344779  1.68393 255 255 255
 0.711301 0.0364713   1.78092 255 255 255
0.335861 0.307725  1.89685 255 255 255
0.581143 0.313568  1.76242 255 255 255
0.734106 0.292216  1.70993 255 255 255
0.353567 0.320391  1.89623 255 255 255
  0.28544 -0.219101   2.01423 255 255 255
0.221796 0.311084  1.97276 255 255 255
0.831098 0.368284  1.64802 255 255 255
  0.302188 -0.0364533    2.05767 255 255 255
0.117304 0.259857  2.04416 255 255 255
0.903956 0.135134  1.67295 255 255 255
0.648843 0.322704  1.73574 255 255 255
0.740399 0.355074  1.69909 255 255 255
 0.801331 0.0590242   1.74055 255 255 255
0.0520567  0.268835   2.07333 255 255 255
0.364558 0.314636  1.89946 255 255 255
0.669106 0.271199  1.74794 255 255 255
0.281521 0.348111  1.91473 255 255 255
0.190749 0.182507  2.02338 255 255 255
0.526772 0.376163  1.79691 255 255 255
0.833866 0.373186  1.64903 255 255 255
0.699909 0.205631  1.74561 255 255 255
 0.243456 -0.220121   2.03572 255 255 255
0.175263 0.284453  2.00784 255 255 255
0.512745 0.360477  1.81866 255 255 255
0.318612 0.207016  1.93537 255 255 255
 0.607923 0.0763744   1.81508 255 255 255
0.847024 0.158234  1.68275 255 255 255
0.475724 0.143205  1.87169 255 255 255
0.806351 0.368343  1.65995 255 255 255
0.652476 0.277289  1.75311 255 255 255
0.564802  0.39074  1.78018 255 255 255
0.622306  0.14855  1.78575 255 255 255
0.355255  0.30012  1.90064 255 255 255
  0.392689 -0.0132328    1.96212 255 255 255
0.790949 0.293977  1.68855 255 255 255
0.779784 0.351872  1.68517 255 255 255
 0.697901 -0.167388   1.81991 255 255 255
0.420488  -0.1681  1.96879 255 255 255
0.224954 0.118315  2.02571 255 255 255
  0.469649 -0.0954021    1.96981 255 255 255
0.948948 0.123539  1.65159 255 255 255
 0.388475 0.0874521   1.94193 255 255 255
0.601432 0.261948  1.78943 255 255 255
 0.82373 0.263177   1.6722 255 255 255
 0.754589 0.0803778   1.76086 255 255 255
0.263071 0.166972  1.98892 255 255 255
 0.231638 -0.122046   2.06046 255 255 255
0.221922 0.115061  2.02569 255 255 255
0.649434 0.339546  1.73236 255 255 255
 0.764706 0.0623826   1.75465 255 255 255
0.717546 0.381684  1.70919 255 255 255
 0.951474 0.0635279   1.66554 255 255 255
 0.271953 0.0720784   2.00779 255 255 255
0.778583 0.172931  1.71245 255 255 255
0.275036 0.316587  1.92541 255 255 255
 0.72853 0.142091  1.75396 255 255 255
 0.303168 -0.204617   2.01761 255 255 255
 0.76405 0.236066  1.70385 255 255 255
0.557209 0.331244  1.79116 255 255 255
  0.463318 -0.0481843    1.96307 255 255 255
 0.317223 0.0256421   1.99298 255 255 255
0.394194 0.358807  1.85268 255 255 255
0.623075  0.36706  1.75759 255 255 255
0.680068 0.357879  1.73997 255 255 255
0.380312 0.309167  1.89214 255 255 255
0.611976 0.369739  1.76689 255 255 255
    0.9532 -0.0233004    1.73434 255 255 255
0.118943 0.114759  2.07545 255 255 255
 0.799617 0.0508775   1.73866 255 255 255
0.743178 0.398925  1.68777 255 255 255
0.111662 0.276815  2.03893 255 255 255
0.162815 0.256012  2.01322 255 255 255
0.587345 0.241809  1.79679 255 255 255
0.587345 0.241809  1.79679 255 255 255
0.177792  0.03937  2.05938 255 255 255
0.362944 0.101265  1.94939 255 255 255
 0.195926 -0.257299   2.05696 255 255 255
0.904951 0.106347  1.66487 255 255 255
0.618753 0.323741  1.75175 255 255 255
0.267154 0.333969  1.91568 255 255 255
  0.149645 -0.0468855    2.14708 255 255 255
 0.53503 0.366623  1.79779 255 255 255
0.896834 0.243756   1.6303 255 255 255
 0.771536 -0.183203   1.80905 255 255 255
  0.77381 0.0723467   1.73891 255 255 255
0.434419 0.124502  1.91197 255 255 255
0.268852 0.032224  2.01073 255 255 255
0.841534 0.119883  1.69304 255 255 255
0.0589407  0.229249   2.08172 255 255 255
  0.965614 -0.0466641     1.7214 255 255 255
0.0742257  0.172289   2.09107 255 255 255
0.843785 0.159081  1.68593 255 255 255
0.702814  0.28779   1.7202 255 255 255
0.0497206 0.0401811   2.10663 255 255 255
0.862231  0.35541  1.64308 255 255 255
0.495962 0.294221  1.78816 255 255 255
 0.654894 0.0174159    1.8234 255 255 255
0.17143 0.21274 2.02048 255 255 255
0.634875 0.393549  1.75438 255 255 255
  0.527959 -0.0340817    1.93261 255 255 255
0.732224 0.306158  1.71402 255 255 255
0.546287 0.306555  1.80619 255 255 255
 0.41429 0.316379  1.87289 255 255 255
 0.406384 0.0854638   1.92841 255 255 255
 0.244207 -0.141744    2.0737 255 255 255
0.380769 0.271954  1.84179 255 255 255
 0.150023 -0.112104   2.13226 255 255 255
0.815636 -0.03901  1.80163 255 255 255
0.639265 0.206024  1.76891 255 255 255
0.715499  0.28873  1.72847 255 255 255
0.22806 0.12052 2.02291 255 255 255
0.621163 0.391507  1.75789 255 255 255
 0.3458 -0.2467 1.97795 255 255 255
 0.289145 0.0181287   2.00105 255 255 255
0.569682 0.342041  1.78673 255 255 255
0.573272 0.341178  1.79215 255 255 255
   1.03252 -0.0561498    1.68492 255 255 255
0.856561 0.362912  1.64481 255 255 255
 0.369994 0.0165073   1.96057 255 255 255
 0.45359 0.340435  1.85087 255 255 255
0.0663965  0.296706   2.06821 255 255 255
 0.543649 0.0151581   1.86936 255 255 255
0.635999 0.262599  1.77481 255 255 255
0.725178 0.252247  1.72527 255 255 255
0.907276 0.086885  1.67226 255 255 255
0.180848 0.189431  2.02754 255 255 255
0.719429 0.377753  1.71031 255 255 255
 0.383728 0.0617725   1.94593 255 255 255
 0.457683 -0.157721   1.95377 255 255 255
0.229432 0.153482  2.01453 255 255 255
0.456765 0.188363  1.80859 255 255 255
0.514453 -0.18441  1.91154 255 255 255
0.286402 0.292808  1.92979 255 255 255
 0.43837 0.362116     1.84 255 255 255
0.855024 0.370676  1.64898 255 255 255
  0.54247 0.0847411   1.86573 255 255 255
 0.548365 -0.222068    1.8885 255 255 255
0.600308 0.219075  1.77876 255 255 255
 0.65207 0.331292  1.73482 255 255 255
0.267304 0.304327  1.92944 255 255 255
0.273959  0.03187  2.00874 255 255 255
0.692902 0.142122  1.76413 255 255 255
0.0904572  0.121718   2.09839 255 255 255
0.697351 0.183554  1.74758 255 255 255
  0.153393 0.00813333    2.09177 255 255 255
 0.479492 0.0963605   1.88651 255 255 255
0.618226 -0.18343  1.85595 255 255 255
0.895446 0.309116  1.65679 255 255 255
0.714128 0.236573  1.74277 255 255 255
0.190527 0.318621   1.9947 255 255 255
 0.681729 0.0906197   1.79429 255 255 255
0.697726 0.150561  1.76021 255 255 255
  0.66867 0.0819797   1.80077 255 255 255
0.441592 -0.21412  1.92456 255 255 255
0.120726 0.162647  2.06938 255 255 255
 0.196408 -0.146165   2.07449 255 255 255
0.918515 0.165201  1.65972 255 255 255
 0.532843 0.0639857   1.86349 255 255 255
  0.880878 -0.0330159    1.76978 255 255 255
0.358974 0.161595  1.92482 255 255 255
 0.229655 -0.124449   2.09168 255 255 255
0.318396 0.149341  1.96143 255 255 255
0.864902 0.237702  1.64819 255 255 255
0.710464 0.276812  1.71644 255 255 255
0.820704 0.244478   1.6714 255 255 255
 0.405128 -0.115854   1.99724 255 255 255
0.233706 0.178148  2.00079 255 255 255
0.539781 0.378849  1.80004 255 255 255
  0.37883 0.0605359   1.95382 255 255 255
 0.877259 0.0855102   1.68771 255 255 255
 0.323978 -0.212294    2.0021 255 255 255
 0.157588 -0.161025   2.11615 255 255 255
0.500476 0.267296  1.81024 255 255 255
  0.661734 -0.0689771     1.8759 255 255 255
0.707248 0.168129  1.74446 255 255 255
 0.591443 0.0646808   1.83662 255 255 255
0.566168 0.338918  1.78701 255 255 255
 0.811165 0.0368273   1.73986 255 255 255
0.561928 0.328848  1.77955 255 255 255
0.249463 0.329766  1.93549 255 255 255
0.373842 0.376633  1.85335 255 255 255
0.338256 0.315319  1.89799 255 255 255
0.249434 0.190338  1.98643 255 255 255
0.899806 0.070519  1.68171 255 255 255
0.0861391 0.0332636   2.10314 255 255 255
 0.760815 -0.144927   1.81305 255 255 255
0.0847482 0.0266236   2.10893 255 255 255
0.947128 0.112433  1.64818 255 255 255
 0.88828 0.202546  1.64913 255 255 255
0.671302 0.268636  1.74053 255 255 255
  0.7653 0.222365   1.7176 255 255 255
0.931739 0.145588  1.65476 255 255 255
0.350115 0.375198  1.82078 255 255 255
0.213229 0.095501  2.03151 255 255 255
 0.13753 0.277471  2.01477 255 255 255
 0.797652 0.0568041   1.74071 255 255 255
0.0963934  0.127724   2.09378 255 255 255
  0.2877 0.155858  1.98148 255 255 255
0.598579 0.222879  1.78457 255 255 255
0.143598 0.039485  2.07748 255 255 255
 0.22671 0.278765  1.97664 255 255 255
  0.430209 -0.0766066    2.00356 255 255 255
0.752315 0.318371  1.69985 255 255 255
 0.846086 0.0748086   1.70686 255 255 255
0.356566 0.190928  1.87448 255 255 255
 0.563055 -0.104307   1.91786 255 255 255
 0.656989 0.0308942   1.82489 255 255 255
0.825976 0.252036  1.66674 255 255 255
0.821543 0.367349  1.65775 255 255 255
0.544637 0.165497  1.83074 255 255 255
0.909436 0.147161   1.6659 255 255 255
0.581234 0.235797  1.79123 255 255 255
0.294828 0.370453  1.89356 255 255 255
0.683056 0.296423  1.71824 255 255 255
0.161676 0.166377  2.03737 255 255 255
  0.731276 -0.0535963    1.84232 255 255 255
 0.887434 -0.134958   1.73336 255 255 255
0.586203 0.306917  1.78344 255 255 255
 0.259591 -0.095391   2.07435 255 255 255
0.675401  0.26558  1.73475 255 255 255
0.378109  0.19744  1.90483 255 255 255
0.448592 0.384413  1.81789 255 255 255
 0.251894 -0.253478   2.02977 255 255 255
0.174253 0.245164  2.06629 255 255 255
 0.280873 0.0308751   2.00848 255 255 255
  0.858683 -0.0513002     1.7754 255 255 255
0.795484 0.317084  1.68077 255 255 255
0.647288 0.334455  1.73459 255 255 255
0.761224 0.151085  1.72624 255 255 255
0.472681 0.332716  1.84083 255 255 255
0.0864693 0.0375464   2.10292 255 255 255
0.311376 0.156465  1.96532 255 255 255
0.259483 0.240051  1.97363 255 255 255
0.424396 0.308969  1.83344 255 255 255
0.593623 0.154941  1.80591 255 255 255
0.18895 0.30586 2.00489 255 255 255
0.959721 -0.10087  1.71103 255 255 255
  0.818691 -0.0587492     1.8006 255 255 255
 0.621853 0.0789387   1.80551 255 255 255
0.667782 0.339048  1.74142 255 255 255
0.649522  0.40048  1.74592 255 255 255
 0.794222 0.0382486   1.74847 255 255 255
0.0774069  0.257098   2.06639 255 255 255
 0.906041 -0.136784    1.7458 255 255 255
 0.172457 -0.201024   2.08477 255 255 255
  0.972537 -0.0237052    1.72506 255 255 255
0.568841 0.347058  1.79282 255 255 255
 0.832506 0.0879962    1.7182 255 255 255
 0.89361 0.190948  1.65228 255 255 255
0.892758 0.191113  1.65184 255 255 255
0.651909 0.216324  1.73471 255 255 255
0.719006 0.202658  1.73715 255 255 255
0.0814431 0.0330064   2.11353 255 255 255
 0.454659 0.0843136   1.91247 255 255 255
 0.812117 0.0552091   1.73304 255 255 255
0.371992  0.28522  1.84195 255 255 255
0.193683 0.253296  2.00498 255 255 255
 0.85202 0.337572  1.64895 255 255 255
 0.231184 -0.194027   2.05784 255 255 255
0.709635 0.327498  1.71807 255 255 255
  0.433457 -0.0591905    1.99562 255 255 255
0.123571 0.256578  2.04008 255 255 255
0.650825 0.328141  1.73262 255 255 255
 0.317518 -0.083188   2.02239 255 255 255
0.718001 0.225054  1.74418 255 255 255
 0.60943 0.373272  1.76715 255 255 255
0.0408241  0.279955   2.07355 255 255 255
0.516897 0.217639  1.83632 255 255 255
0.221537 0.313661  1.98453 255 255 255
0.836411 0.159269  1.68261 255 255 255
0.846443   0.2058  1.67564 255 255 255
 0.680912 -0.133779    1.8542 255 255 255
0.134542 0.254996  2.03516 255 255 255
0.789426 0.402846  1.66927 255 255 255
 0.540637 0.0586382   1.86152 255 255 255
0.546971 0.368156  1.79907 255 255 255
0.813952 0.401274  1.65642 255 255 255
 0.528538 0.0896485    1.8645 255 255 255
 0.542752 -0.220811   1.87726 255 255 255
 0.133846 -0.125351   2.09619 255 255 255
0.802175 0.272611  1.69077 255 255 255
 0.695445 -0.201371   1.82072 255 255 255
0.163418 0.319897  1.99065 255 255 255
0.578726 0.142321  1.81737 255 255 255
0.221868 0.304745  1.96607 255 255 255
 0.65704 0.322241  1.73249 255 255 255
0.737338 0.294278  1.71015 255 255 255
 0.512161 0.0197002   1.88808 255 255 255
0.379846 0.376199  1.85385 255 255 255
0.501176 0.134818  1.86066 255 255 255
0.704865 0.128229  1.75697 255 255 255
0.754892 0.240555  1.70565 255 255 255
0.792309 0.277331  1.69396 255 255 255
   1.01852 -0.0464859    1.69429 255 255 255
 0.75422 0.370964  1.69226 255 255 255
 0.82553 0.383495  1.65371 255 255 255
0.366958 0.269281  1.89575 255 255 255
0.870213 0.285741  1.65656 255 255 255
 0.94246 0.100941  1.65355 255 255 255
0.243622 0.305734  1.95079 255 255 255
0.642172 0.388463   1.7524 255 255 255
0.250033 0.135182  2.00647 255 255 255
0.551536   0.2861  1.80999 255 255 255
  0.897827 -0.0193615    1.76405 255 255 255
0.827209  0.30996  1.72164 255 255 255
0.948468 0.105291  1.64812 255 255 255
 0.540674 0.0128844     1.866 255 255 255
0.0573162  0.216949   2.08438 255 255 255
0.294095 0.331539  1.92531 255 255 255
0.0782753  0.211604   2.07611 255 255 255
0.131248 0.190955   2.0539 255 255 255
0.705846 0.376687  1.70952 255 255 255
0.443115 0.305307  1.83701 255 255 255
 0.263817 0.0595287   2.01723 255 255 255
0.538037 0.393655  1.78991 255 255 255
   0.602 0.310929  1.76068 255 255 255
0.0935746 -0.103378   2.16771 255 255 255
 0.761288 -0.116985    1.8089 255 255 255
0.718426 0.290505  1.72553 255 255 255
0.855487 0.352964  1.64674 255 255 255
0.709617 0.279158  1.71958 255 255 255
0.111711 0.161769  2.06829 255 255 255
0.424297 0.360021   1.8673 255 255 255
0.644161 0.354918  1.75423 255 255 255
 0.488551 0.0491032   1.89488 255 255 255
 0.218417 0.0425296   2.03659 255 255 255
0.363744 0.278603  1.87184 255 255 255
0.446892 0.328718  1.85358 255 255 255
0.683153 0.389723  1.72682 255 255 255
0.830457 0.333063  1.66402 255 255 255
 0.25599 0.274839  1.94316 255 255 255
0.787188 0.358965  1.67368 255 255 255
  0.37131 -0.206895   1.97171 255 255 255
0.125191 0.212444   2.0524 255 255 255
0.853701 0.242124  1.65674 255 255 255
   0.5418 0.0635617   1.86528 255 255 255
  0.532906 -0.0209335     1.9346 255 255 255
0.876932 0.166319  1.66783 255 255 255
 0.132747 0.0427073   2.07663 255 255 255
0.717592 0.335064  1.70995 255 255 255
 0.38773 0.354069  1.82788 255 255 255
0.515883 0.371816   1.8232 255 255 255
0.583274  0.26385  1.79835 255 255 255
0.133522 0.169087  2.04638 255 255 255
0.656179 0.346863  1.75543 255 255 255
 0.349222 -0.144143   2.00703 255 255 255
0.064087 0.211361  2.08069 255 255 255
0.954862 0.119248   1.6523 255 255 255
0.422683 0.344183  1.86063 255 255 255
 0.702941 0.0991884    1.7777 255 255 255
 0.39043 0.218759  1.90627 255 255 255
0.375903 0.029394  1.96213 255 255 255
0.512662 0.200052  1.82868 255 255 255
 0.776649 -0.198219    1.7665 255 255 255
 0.313081 -0.218754   1.99434 255 255 255
  0.329384 -0.0994895    2.01356 255 255 255
 0.762119 0.0381804   1.76392 255 255 255
 0.358228 0.0196306   1.96885 255 255 255
 0.56103 0.390392  1.78212 255 255 255
0.419062  0.36341  1.85147 255 255 255
0.0794693  0.304302   2.06051 255 255 255
0.782341 0.182745   1.7151 255 255 255
0.884394 0.125328  1.68595 255 255 255
0.645696 0.360203  1.75275 255 255 255
 0.305447 -0.163524   2.03314 255 255 255
 0.372061 -0.186263   1.98604 255 255 255
0.746454 0.194849  1.71037 255 255 255
0.549221 0.372758  1.78013 255 255 255
0.732755 0.256451  1.71088 255 255 255
0.859553 0.150135  1.67983 255 255 255
0.359712 0.317834  1.90111 255 255 255
 0.759496 0.0339032   1.76813 255 255 255
 0.43833 0.340845  1.85874 255 255 255
0.192007 0.226629  2.01033 255 255 255
0.216838 0.216245  1.99808 255 255 255
0.0772431  0.301786   2.05923 255 255 255
0.831146 0.159848  1.68605 255 255 255
0.596971 0.374338  1.77115 255 255 255
0.197908 0.161628  2.01485 255 255 255
 0.78996 0.310328  1.68405 255 255 255
0.301235 0.221266  1.95512 255 255 255
0.566191 0.315803  1.78414 255 255 255
0.0481445  0.293911   2.07605 255 255 255
0.897775 0.135077  1.67741 255 255 255
 0.290987 0.0517759   2.00324 255 255 255
  0.0799397 -0.00260548     2.13179 255 255 255
 0.873165 0.0799619   1.68926 255 255 255
0.465223 0.378314  1.80729 255 255 255
 0.194089 -0.159957   2.09677 255 255 255
 0.36674 0.350473  1.85298 255 255 255
0.823012  0.37501  1.65835 255 255 255
0.155066 0.241988    2.021 255 255 255
 0.715252 0.0827073   1.76812 255 255 255
  0.96214 0.0874072   1.65441 255 255 255
0.566319 0.380353   1.7848 255 255 255
0.849134 0.082222  1.70876 255 255 255
 0.77223 0.223954  1.70532 255 255 255
 0.197418 -0.225686   2.05204 255 255 255
0.128983 0.139418  2.06249 255 255 255
0.0869201  0.203785   2.07044 255 255 255
0.770141 0.262345  1.69137 255 255 255
0.173486 0.106364  2.05318 255 255 255
   0.21951 -0.0212589    2.10934 255 255 255
0.319937 0.311682  1.90495 255 255 255
0.207545 0.228343  2.00269 255 255 255
 0.0909275 -0.0927962     2.1694 255 255 255
0.0511954 0.0956774   2.11911 255 255 255
 0.372109 -0.197202   1.98921 255 255 255
 0.766544 -0.188395   1.78596 255 255 255
0.352688 0.268146  1.90473 255 255 255
   1.03996 -0.0767357     1.6793 255 255 255
 0.382869 -0.172708    1.9886 255 255 255
0.698848 0.338822  1.71928 255 255 255
0.154877 0.245546  2.02826 255 255 255
0.907809 0.253809  1.68089 255 255 255
 0.292652 0.0517354   1.99793 255 255 255
0.219605 0.264466  1.99195 255 255 255
0.166934 0.207007  2.02857 255 255 255
0.554727  0.33444  1.79864 255 255 255
0.734957 0.388079  1.69701 255 255 255
0.774964 0.155016  1.71739 255 255 255
0.421443 0.363329  1.84772 255 255 255
  0.901629 -0.0228379    1.76206 255 255 255
0.597731 0.379031  1.77245 255 255 255
0.251888 0.269049  1.95766 255 255 255
0.538828 0.332132  1.79629 255 255 255
0.613146 0.338566  1.75587 255 255 255
0.449104 0.388382  1.81953 255 255 255
0.499945 0.313122  1.82263 255 255 255
0.808936 0.349854  1.66352 255 255 255
0.557817 0.380013  1.79409 255 255 255
0.816643 0.325918  1.66861 255 255 255
  0.775107 -0.0534048    1.81946 255 255 255
0.0734715  -0.06004   2.16781 255 255 255
 0.583247 0.0645895    1.8436 255 255 255
 0.10219 0.198675  2.07514 255 255 255
0.245694 0.221158  1.99553 255 255 255
0.639269 0.281681  1.75845 255 255 255
0.213836 0.244659  1.99668 255 255 255
 0.353496 0.0844347    1.9643 255 255 255
0.246132 0.283959  1.96404 255 255 255
 0.726104 0.0888116   1.76155 255 255 255
0.574524 0.293568  1.80029 255 255 255
0.074322 0.299781  2.06177 255 255 255
0.595269 0.309144  1.77184 255 255 255
 0.05397 0.283869  2.07793 255 255 255
0.719462 0.019126  1.79455 255 255 255
 0.335892 0.0337824   1.97653 255 255 255
 0.380582 -0.041058   2.01972 255 255 255
  0.373952 -0.0355319    2.00617 255 255 255
0.306048  0.16587  1.96089 255 255 255
0.258674 0.302767  1.94526 255 255 255
   0.449 0.310725  1.85817 255 255 255
  0.739317 -0.0120106    1.83811 255 255 255
 0.312958 0.0654117   1.98552 255 255 255
0.356248 0.323597   1.9032 255 255 255
 0.967358 0.0768476   1.65406 255 255 255
0.649525 0.224314  1.75412 255 255 255
0.679131 0.253214  1.75419 255 255 255
 0.902026 0.0707335   1.67923 255 255 255
 0.103205 0.0402565   2.09124 255 255 255
 0.883337 -0.172806   1.72545 255 255 255
 0.298416 -0.214107   2.01098 255 255 255
0.740116 0.143523  1.74259 255 255 255
0.842529 0.322665  1.72011 255 255 255
 0.584525 -0.191619   1.87869 255 255 255
0.783661 0.359092   1.6753 255 255 255
  0.313507 -0.0992048    2.04986 255 255 255
  0.832308 -0.0422279    1.79211 255 255 255
0.0834191  0.142231   2.08518 255 255 255
0.276249 0.233879  1.96649 255 255 255
 0.53003 0.335118  1.78899 255 255 255
 0.639328 -0.137677   1.86603 255 255 255
0.543332 0.397245  1.78897 255 255 255
0.774035 0.219114  1.71603 255 255 255
0.236326   0.1287  2.01375 255 255 255
 0.619243 0.0343063   1.83949 255 255 255
0.862137 0.108308  1.69884 255 255 255
0.453719 0.042162  1.92021 255 255 255
 0.103404 0.0430465   2.09689 255 255 255
0.322858 0.186594  1.93042 255 255 255
 0.820203 0.0790987   1.72746 255 255 255
  0.377917 -0.0229071    2.00102 255 255 255
0.0601735  0.277263   2.07508 255 255 255
 0.780661 0.0536524   1.75171 255 255 255
0.795697 0.382717  1.66192 255 255 255
0.273225 0.312881  1.92766 255 255 255
 0.217663 -0.147548   2.06445 255 255 255
0.111673 0.207706  2.05948 255 255 255
0.572726 0.341758  1.78451 255 255 255
0.864059 0.221571  1.64722 255 255 255
  0.424517 -0.0433257    1.98355 255 255 255
 0.602847 0.0502492   1.83664 255 255 255
 0.704027 -0.131409   1.84289 255 255 255
0.500074   0.1403  1.85414 255 255 255
0.353573 0.186576    1.925 255 255 255
0.480166 0.347739  1.83708 255 255 255
 0.352816 -0.158014   2.00228 255 255 255
 0.091685 -0.161168    2.1519 255 255 255
0.491886  0.13702  1.87032 255 255 255
 0.76193 0.362167  1.68784 255 255 255
0.691653  0.24197  1.75217 255 255 255
0.213532 0.292675  1.97702 255 255 255
 0.736141 -0.166234     1.795 255 255 255
0.510797 0.395563  1.78846 255 255 255
    0.2228 -0.0996918     2.0923 255 255 255
  0.20791 -0.249792   2.04168 255 255 255
0.734359 0.207844  1.73788 255 255 255
 0.184987 0.0972688    2.0451 255 255 255
0.300859   0.2084  1.94975 255 255 255
0.872895 0.257767  1.64409 255 255 255
0.821109 0.137073  1.70851 255 255 255
   1.0282 -0.102992   1.68088 255 255 255
0.793774 0.373161  1.66552 255 255 255
0.920468 0.112938  1.66854 255 255 255
0.682512 0.395642  1.72521 255 255 255
  0.32037 0.0843991   1.97481 255 255 255
