ply
format ascii 1.0
element vertex 1143
property float x
property float y
property float z
property uchar red
property uchar green
property uchar blue
end_header
-0.128854   0.50569   2.06024 255 255 255
-0.115611    1.0994   1.93683 255 255 255
0.00778897   0.490645    1.84842 255 255 255
0.0330519   1.75956   1.93367 255 255 255
-0.158829  0.588863   1.92986 255 255 255
-0.128796     1.352    1.9597 255 255 255
-0.255141   0.70176   2.05322 255 255 255
0.0980036   1.23199   1.73979 255 255 255
-0.488811   1.34896    2.0865 255 255 255
 -0.2296 0.670955   2.0787 255 255 255
-0.48795   1.0746  2.05417 255 255 255
0.223809  1.69907  1.79238 255 255 255
-0.274699   1.66226   2.25633 255 255 255
-0.0289462    1.43617    1.94224 255 255 255
-0.0289532    1.43539     1.9423 255 255 255
-0.534395   0.98425   2.11822 255 255 255
0.0172408  0.792117   1.81647 255 255 255
-0.121581  0.959781   1.83964 255 255 255
0.00669153   0.759982    1.85767 255 255 255
-0.150319  0.964992   1.97738 255 255 255
-0.00481662     1.23589     1.87699 255 255 255
-0.440334   1.18115   2.02842 255 255 255
-0.24231  0.75947  1.98263 255 255 255
0.218805  1.75482   1.8205 255 255 255
0.0310977   1.32804   1.76743 255 255 255
-0.57211 0.904799  2.14404 255 255 255
-0.149508   1.01628   1.95309 255 255 255
-0.480638   1.32334   2.08111 255 255 255
-0.216713  0.595924   1.96498 255 255 255
-0.189774  0.606093   1.92274 255 255 255
-0.068623  0.943091   1.88852 255 255 255
-0.0659962   0.941781    1.88897 255 255 255
-0.232218  0.722174   2.04238 255 255 255
-0.108044  0.631829   1.84709 255 255 255
-0.486484    0.9995   2.05042 255 255 255
0.0946335   1.15852   1.77065 255 255 255
-0.0558845    1.41448    1.92814 255 255 255
0.0428871    1.7236   1.92122 255 255 255
0.0264082    1.3633   1.84914 255 255 255
-0.133918  0.953587   1.84702 255 255 255
-0.17462 0.459575  2.15072 255 255 255
-0.0410048   0.633574    1.79819 255 255 255
-0.240821  0.801975   2.10419 255 255 255
-0.10146  1.66253  2.04475 255 255 255
-0.0573966    1.38977    1.92743 255 255 255
-0.189495  0.910072   2.04064 255 255 255
-0.543775   1.28202   2.13474 255 255 255
-0.0307395    1.75824    2.02062 255 255 255
-0.197265   1.14086   2.03929 255 255 255
-0.342455  0.775723   2.21309 255 255 255
-0.0660059   0.940468    1.87256 255 255 255
0.201954  1.74342  1.82759 255 255 255
0.162921   1.4205  1.76046 255 255 255
-0.154329  0.879021   1.95169 255 255 255
-0.398844   1.54664   2.35665 255 255 255
-0.527627   1.28392   2.10512 255 255 255
0.21887 1.69099 1.81277 255 255 255
0.0474341   1.11853   1.75917 255 255 255
-0.494897  0.937737   2.06325 255 255 255
-0.201165  0.758323   2.03851 255 255 255
-0.228969  0.667248   2.03858 255 255 255
-0.576618  0.890434   2.13299 255 255 255
-0.531958   1.28694   2.12978 255 255 255
-0.226644  0.618906   2.14396 255 255 255
0.0544216   1.47927   1.88607 255 255 255
-0.465509   1.35127    2.0552 255 255 255
0.188432  1.72385  1.84881 255 255 255
-0.26672 0.546856  2.17229 255 255 255
-0.493456  0.995836   2.08918 255 255 255
-0.509971  0.992872   2.08407 255 255 255
-0.0594559   0.719596     1.9068 255 255 255
-0.0201563    1.40909    1.90397 255 255 255
-0.113369  0.712689   1.89263 255 255 255
-0.310058   0.68283   2.16139 255 255 255
0.000774129    0.915466     1.78352 255 255 255
-0.252539  0.690135   2.12272 255 255 255
-0.253395   1.62379    2.2427 255 255 255
-0.502601  0.975806   2.07291 255 255 255
0.0348382   1.48488    1.8375 255 255 255
-0.404498   1.28496   2.03019 255 255 255
-0.277917  0.532638   2.19208 255 255 255
-0.33754 0.665417  2.30861 255 255 255
-0.553087   1.08995   2.30585 255 255 255
-0.579509  0.840453   2.15763 255 255 255
-0.0844384    0.75692    1.93132 255 255 255
-0.462247   1.17404   2.03026 255 255 255
-0.0995553    1.67904    2.01462 255 255 255
-0.053647  0.729086   1.79896 255 255 255
-0.0389425    1.74947    2.02331 255 255 255
-0.0493969   0.739669    1.89042 255 255 255
-0.190146  0.453368   2.17087 255 255 255
-0.0752445    1.67058    2.03554 255 255 255
-0.51761  1.11982  2.10058 255 255 255
-0.55441  1.04826  2.31434 255 255 255
-0.00131205    0.914461     1.77302 255 255 255
0.00620587    1.75105    2.00354 255 255 255
0.0765896   1.31305   1.77178 255 255 255
-0.202883  0.980142   2.00782 255 255 255
0.152576  1.40561  1.75185 255 255 255
-0.196879   1.64917   2.18866 255 255 255
-0.447557   1.17425   2.02062 255 255 255
0.268447  1.77402   1.7733 255 255 255
-0.165064   1.38833    1.9898 255 255 255
0.0446592  0.834781   1.77947 255 255 255
-0.526729   1.25404   2.08123 255 255 255
-0.511584   1.33068   2.09404 255 255 255
-0.477371   1.04145   2.04735 255 255 255
-0.00592587    0.616967     1.81112 255 255 255
-0.212969  0.745065   2.03848 255 255 255
-0.211832   1.14012   2.02165 255 255 255
0.0522758    1.6792   1.94334 255 255 255
-0.155465  0.588193   1.90024 255 255 255
-0.473841  0.944523   2.06987 255 255 255
-0.517475  0.931892   2.27671 255 255 255
-0.512389   1.15859   2.04894 255 255 255
-0.470743   1.15794   2.23994 255 255 255
0.0807607   1.31128   1.76274 255 255 255
0.106217  1.71517  1.92782 255 255 255
-0.554136   1.10446   2.13083 255 255 255
-0.223618   1.25022   2.02075 255 255 255
-0.0241476   0.818816    1.85165 255 255 255
0.0212158   1.27369   1.86074 255 255 255
-0.219519   1.11386   2.03484 255 255 255
-0.268218  0.718534   2.17351 255 255 255
-0.220274  0.880126   2.06257 255 255 255
-0.0386974   0.954858    1.75075 255 255 255
-0.520669    1.1193   2.10706 255 255 255
-0.552249   1.07138   2.32304 255 255 255
-0.0210461   0.905551    1.83713 255 255 255
-0.533107   1.02812   2.28173 255 255 255
-0.0648483   0.936043    1.86381 255 255 255
-0.426716   1.24884   2.00848 255 255 255
-0.333069  0.680711    2.3121 255 255 255
-0.493533   0.81896   2.07391 255 255 255
-0.542186   1.07779   2.30255 255 255 255
0.0244952  0.921641   1.74799 255 255 255
-0.0751265   0.934354    1.91535 255 255 255
-0.41624  1.27539  2.03343 255 255 255
-0.549942   1.31602   2.14406 255 255 255
0.0892335   1.66949   1.91711 255 255 255
-0.486623   1.32215   2.09443 255 255 255
-0.475227    1.2633   2.06416 255 255 255
-0.0325818   0.807006    1.84141 255 255 255
-0.314974    1.5375    2.2845 255 255 255
0.0629052    1.7236   1.92994 255 255 255
-0.368779    1.3023   2.00674 255 255 255
-0.0525924   0.891184    1.83915 255 255 255
-0.497268   1.24317   2.08822 255 255 255
-0.4779 1.15822 2.04993 255 255 255
-0.135677   1.02504   1.98584 255 255 255
-0.512882   1.29449   2.08638 255 255 255
-0.128947  0.598765   1.89288 255 255 255
0.118535  1.65716   1.8814 255 255 255
-0.369723   1.55013   2.35068 255 255 255
-0.138827   1.00327    1.9289 255 255 255
-0.0768594   0.710052    1.86831 255 255 255
-0.0679062    1.20715    1.93137 255 255 255
-0.337167   1.58219   2.27904 255 255 255
-0.22862  1.08079  2.05842 255 255 255
-0.259242  0.586376   2.17957 255 255 255
-0.152284   1.04756   1.89504 255 255 255
0.00674075   0.795504    1.83961 255 255 255
-0.299322  0.630017   2.16659 255 255 255
-0.209894  0.684853   2.11253 255 255 255
-0.538901   1.01366   2.07898 255 255 255
-0.0615669   0.722831    1.85129 255 255 255
-0.1295 1.42401 2.00541 255 255 255
-0.121299  0.483708   2.07142 255 255 255
0.084333  1.72537  1.86217 255 255 255
-0.485217  0.966859   2.06441 255 255 255
-0.181451   1.17013    2.0082 255 255 255
-0.432463   1.21911   2.03469 255 255 255
-0.256921  0.703924   2.04195 255 255 255
-0.147775  0.604611   1.87075 255 255 255
-0.157138  0.936323   2.00094 255 255 255
-0.391624    1.4042   2.25279 255 255 255
-0.0428922    1.29557    1.90761 255 255 255
0.0709622    0.8596    1.7372 255 255 255
-0.201554  0.661791   2.07591 255 255 255
0.0902669   1.36806   1.76106 255 255 255
-0.53162  1.12126  2.18196 255 255 255
-0.112018    1.1057   1.89405 255 255 255
0.103595  1.17187  1.78054 255 255 255
-0.125807   1.06435   1.98304 255 255 255
0.213256  1.74925  1.81215 255 255 255
-0.101271   1.66181   2.08298 255 255 255
0.220014  1.75764  1.80562 255 255 255
-0.284961    1.4676   2.27073 255 255 255
-0.565943  0.844643   2.13827 255 255 255
-0.134312   1.08861   1.93705 255 255 255
-0.0151421    0.82516    1.80645 255 255 255
-0.186624   1.06305   2.03411 255 255 255
-0.249817  0.711944   2.08934 255 255 255
-0.232846  0.710785   2.09403 255 255 255
-0.15425 0.973077  1.97411 255 255 255
-0.244232  0.652142   2.13334 255 255 255
-0.198218  0.660979   2.07666 255 255 255
-0.00145311     1.25429     1.87962 255 255 255
-0.012951   1.25386   1.87773 255 255 255
-0.0502895   0.868565    1.83195 255 255 255
0.181011  1.52799  1.77988 255 255 255
0.000499463     1.76517     1.99632 255 255 255
0.0232629   1.18697   1.81233 255 255 255
-0.031635  0.925642   1.81969 255 255 255
-0.164721    1.1956   1.99339 255 255 255
-0.228166  0.625376     2.144 255 255 255
0.0948069  0.731135   1.75735 255 255 255
-0.0995269   0.596481    1.86336 255 255 255
0.0557538   1.73186   1.89598 255 255 255
-0.24299 0.716179  2.03522 255 255 255
-0.310254    1.6931   2.30016 255 255 255
-0.516897  0.914668   2.27288 255 255 255
-0.236127  0.615998   2.13384 255 255 255
-0.125701   1.11553   1.84063 255 255 255
-0.0210772   0.816064    1.81883 255 255 255
0.197981  1.74595  1.84995 255 255 255
-0.0953541   0.682305    1.85495 255 255 255
-0.350066  0.776233   2.18818 255 255 255
-0.359691  0.776647   2.18501 255 255 255
-0.0496716   0.814775    1.88936 255 255 255
-0.207773   1.51501   2.15992 255 255 255
-0.489693   1.11676   2.06949 255 255 255
-0.532528  0.886556   2.31484 255 255 255
0.00874375   0.788422    1.84389 255 255 255
-0.469842   1.11853   2.07513 255 255 255
-0.379006  0.642435    2.3812 255 255 255
 -0.1507 0.593309  2.06968 255 255 255
0.0573571   1.21561   1.82319 255 255 255
-0.0847209    1.42529    1.97585 255 255 255
-0.255531   1.02974   2.05495 255 255 255
-0.174834  0.583999   2.10051 255 255 255
0.101292  1.49033  1.84361 255 255 255
-0.221457  0.938206   2.06072 255 255 255
-0.0787015   0.814645     1.9016 255 255 255
-0.365882    1.5517   2.31623 255 255 255
-0.545178  0.935304   2.09405 255 255 255
-0.263651     1.671   2.25453 255 255 255
-0.238115  0.844932   2.09357 255 255 255
-0.122349  0.479394   2.08221 255 255 255
0.144885  1.50381  1.79335 255 255 255
-0.208444  0.612409    1.9606 255 255 255
0.148241  1.40025  1.76378 255 255 255
-0.490549   1.33129   2.08215 255 255 255
-0.475317   1.28057   2.06182 255 255 255
0.169706  1.45687  1.76245 255 255 255
-0.551227   1.12779   2.11113 255 255 255
-0.467992   1.32802   2.03555 255 255 255
-0.201686   1.38282   2.00191 255 255 255
-0.239516  0.747527   2.01057 255 255 255
-0.38828  1.53249  2.35182 255 255 255
-0.128454   0.49764   2.07771 255 255 255
-0.152074  0.612373   1.87027 255 255 255
-0.477024  0.863668   2.06371 255 255 255
0.0637715   1.73227   1.88034 255 255 255
-0.0432622    1.43252    1.92763 255 255 255
-0.283109   0.66997   2.18515 255 255 255
-0.00340368    0.489483     1.85672 255 255 255
-0.00882845    0.747309     1.85531 255 255 255
-0.136119   1.65485   2.13086 255 255 255
-0.44291  1.18511  2.01993 255 255 255
-0.402623   1.28243   2.00705 255 255 255
0.0234862    1.1724   1.82896 255 255 255
0.228148   1.7037  1.80557 255 255 255
-0.0962212   0.475435     2.0496 255 255 255
-0.213327  0.527953   2.17059 255 255 255
0.111998  1.49025  1.83548 255 255 255
-0.467984  0.898523   2.07075 255 255 255
-0.535472   1.30587   2.13144 255 255 255
0.0412578   1.10644    1.8173 255 255 255
0.0668584   1.23973   1.81714 255 255 255
-0.167428  0.453512   2.14641 255 255 255
-0.370686   1.47986   2.36364 255 255 255
0.0378595  0.849468   1.77582 255 255 255
-0.477726    1.2646   2.05615 255 255 255
0.0707235   1.35661   1.75884 255 255 255
0.0342939    1.3453   1.80379 255 255 255
-0.058612   1.66904   1.98628 255 255 255
-0.569612   1.16639   2.11863 255 255 255
-0.165784  0.826823   1.97708 255 255 255
0.0233813  0.895329   1.79277 255 255 255
-0.311217   0.72483   2.18551 255 255 255
-0.204879  0.659217   2.05886 255 255 255
0.0834932   1.37457   1.74796 255 255 255
-0.128125   1.01118   1.90857 255 255 255
-0.323105  0.725534   2.23007 255 255 255
-0.077153  0.595848   1.85929 255 255 255
-0.316231  0.722806   2.20727 255 255 255
-0.079299  0.980168   1.93778 255 255 255
-0.507622   1.27847   2.09729 255 255 255
0.0376836   1.42777   1.84239 255 255 255
-0.106058   1.07094   1.95966 255 255 255
-0.428066   1.35664   2.02785 255 255 255
-0.493014   1.15442   2.06149 255 255 255
0.182489  1.45211  1.76193 255 255 255
-0.163345  0.585876   1.92162 255 255 255
-0.500845  0.981397   2.08513 255 255 255
0.173266  1.70937  1.84445 255 255 255
-0.122168  0.810778   1.91764 255 255 255
-0.251073   1.53868   2.22018 255 255 255
-0.130663  0.897541   1.89272 255 255 255
-0.496582    1.0771   2.05753 255 255 255
-0.163984   1.11662   2.00985 255 255 255
-0.162003   1.11711   2.01032 255 255 255
-0.0150287   0.740611    1.87258 255 255 255
0.0390506  0.816924   1.78189 255 255 255
-0.195811  0.599926   2.12292 255 255 255
-0.417306    1.2461    2.0187 255 255 255
-0.127903  0.485848    2.0841 255 255 255
-0.498501   1.25494   2.08371 255 255 255
-0.245846  0.694502   2.13891 255 255 255
-0.552398   1.27482   2.14027 255 255 255
-0.124395  0.856255   1.92681 255 255 255
-0.0485595   0.713439    1.91972 255 255 255
 -0.314 1.59942 2.25655 255 255 255
0.0398772   1.64089   1.94136 255 255 255
-0.304323  0.629558   2.15849 255 255 255
-0.546089  0.947896   2.08747 255 255 255
-0.241022  0.672569   2.13401 255 255 255
-0.163425   0.44925   2.14188 255 255 255
-0.0639216    1.12658    1.90525 255 255 255
-0.137453   0.62955   1.89603 255 255 255
-0.261354  0.672992   1.97868 255 255 255
-0.496407   1.31226   2.10225 255 255 255
-0.134559   1.68118   2.09428 255 255 255
-0.303363  0.689623   2.19228 255 255 255
-0.517764     1.155   2.06192 255 255 255
-0.120672   1.08426   1.92495 255 255 255
-0.229834  0.711959   2.12606 255 255 255
-0.214818   1.00345   1.99803 255 255 255
-0.153898  0.979822   1.86474 255 255 255
-0.0630789   0.724362    1.92179 255 255 255
-0.00354497    0.808802      1.8403 255 255 255
-0.30586  1.47939  2.33979 255 255 255
-0.563623  0.904213   2.15427 255 255 255
-0.466809  0.989158   2.06977 255 255 255
-0.483972   0.98711   2.06474 255 255 255
-0.585848  0.908985   2.14503 255 255 255
-0.559217   1.02779   2.31859 255 255 255
-0.00284947     1.64768     1.99098 255 255 255
0.0728771  0.680628   1.75553 255 255 255
-0.272434  0.723963   2.13463 255 255 255
0.040768   1.4939  1.84742 255 255 255
-0.105257   1.67077   2.00877 255 255 255
-0.174813  0.603904   2.09528 255 255 255
0.144199  1.54587  1.84857 255 255 255
0.0264659   1.33446   1.86348 255 255 255
-0.562107   1.12878   2.10246 255 255 255
-0.432324   1.20888   2.02617 255 255 255
-0.305929   1.52084   2.25216 255 255 255
-0.150855   1.01364   1.86438 255 255 255
0.0718855     1.693   1.94042 255 255 255
-0.454636    1.1883   2.04114 255 255 255
-0.480784   1.10687   2.05275 255 255 255
-0.117499  0.989755   1.95023 255 255 255
-0.0885533   0.832835    1.90244 255 255 255
-0.195903    1.5725   2.18665 255 255 255
-0.0111374   0.744937    1.86564 255 255 255
-0.273772   0.99258   2.06472 255 255 255
0.0229876   1.01808    1.7358 255 255 255
-0.545454   1.09909   2.08335 255 255 255
-0.609549   1.30046   2.16129 255 255 255
-0.218866  0.954963   2.05383 255 255 255
-0.146993  0.495799   2.10957 255 255 255
-0.152851  0.585739   2.08427 255 255 255
-0.233434   1.40141   2.04232 255 255 255
-0.341201  0.647872    2.2942 255 255 255
-0.219528  0.713762   2.07838 255 255 255
-0.149916  0.491415   2.11209 255 255 255
-0.503831   1.05648   2.06083 255 255 255
-0.228015  0.628443   2.13844 255 255 255
-0.0412582   0.718556    1.84854 255 255 255
-0.174624   1.33628   1.97061 255 255 255
-0.279937  0.948854   2.07138 255 255 255
-0.27281 0.583107  2.20442 255 255 255
-0.373762   1.52685    2.3391 255 255 255
0.0181056  0.503944   1.83736 255 255 255
-0.419465   1.29353   2.02451 255 255 255
0.252004  1.75546  1.76873 255 255 255
-0.430702   1.35269   2.26006 255 255 255
-0.0102776    1.15343    1.87345 255 255 255
-0.511769   1.25857    2.1576 255 255 255
-0.169295   1.35276   1.97458 255 255 255
0.161003  1.42154  1.74867 255 255 255
-0.00765567     1.65041     2.00018 255 255 255
-0.213895  0.646071   2.06804 255 255 255
0.203001  1.45587  1.74357 255 255 255
-0.000585799     0.495164      1.85312 255 255 255
-0.0640124   0.878236    1.83359 255 255 255
0.0834858   1.72036   1.87814 255 255 255
-0.548977  0.922735   2.09522 255 255 255
-0.132936  0.771822   1.98266 255 255 255
-0.0137231    1.64067    1.97885 255 255 255
-0.568842   1.07137   2.12854 255 255 255
-0.582358  0.975454   2.12679 255 255 255
0.111028  1.39278  1.73872 255 255 255
-0.0244727    1.16168     1.8933 255 255 255
-0.112352   1.58659   2.09572 255 255 255
-0.54983  1.03821  2.18828 255 255 255
0.0120884  0.501081   1.83915 255 255 255
-0.221899  0.843754   2.07735 255 255 255
-0.569383  0.839473   2.13344 255 255 255
0.00223072    1.16762    1.86614 255 255 255
-0.136147   1.58083   2.08084 255 255 255
-0.0507417    1.68033    1.95302 255 255 255
-0.0583773    1.67246    1.95028 255 255 255
-0.311959  0.731811   2.19056 255 255 255
-0.316469  0.733279   2.18926 255 255 255
-0.390858  0.766333    2.3256 255 255 255
-0.0219714    1.03584     1.7705 255 255 255
-0.137417  0.638574   1.88221 255 255 255
-0.10234 0.878747   1.8856 255 255 255
-0.406143   1.25282   2.02173 255 255 255
-0.534663   1.06101   2.07607 255 255 255
-0.111354   1.68838   2.03178 255 255 255
-0.0142359    0.78733    1.83009 255 255 255
-0.227898   1.53779   2.23422 255 255 255
0.0900564   1.71935   1.91572 255 255 255
-0.601183  0.841776   2.16947 255 255 255
0.0167937  0.896316   1.80367 255 255 255
-0.206877  0.669481   2.07605 255 255 255
-0.143029   1.65179   2.14756 255 255 255
-0.450532   1.36655   2.03139 255 255 255
-0.484452   1.14441   2.05815 255 255 255
0.00268517    1.43506    1.91182 255 255 255
-0.112198   1.13203   1.96944 255 255 255
0.0851402   0.81427   1.75284 255 255 255
-0.267761   1.46255   2.25508 255 255 255
0.216764   1.7293  1.79176 255 255 255
-0.129826   1.57029   2.11155 255 255 255
-0.462264   1.12587   2.25547 255 255 255
-0.452028   1.18287   2.03891 255 255 255
-0.504065   1.04946   2.08007 255 255 255
-0.519814   1.04787   2.07537 255 255 255
-0.205324  0.602789   2.12561 255 255 255
-0.29679 0.581839  2.19726 255 255 255
-0.057812   1.66817   1.99275 255 255 255
-0.505879   1.15158   2.09946 255 255 255
-0.0474479   0.738971    1.88383 255 255 255
0.0478651   1.16297   1.78991 255 255 255
0.0944466   1.23598   1.75147 255 255 255
-0.399043  0.570619   2.18992 255 255 255
-0.0757695   0.882927    1.85966 255 255 255
-0.172922   1.17008   2.02121 255 255 255
-0.501132   1.08893   2.08326 255 255 255
0.202154  1.70041  1.80706 255 255 255
-0.467446   1.34985   2.06856 255 255 255
-0.171896  0.804889   1.98153 255 255 255
-0.307537  0.682627   2.22755 255 255 255
-0.126564  0.923119   1.91796 255 255 255
-0.254903  0.752705   1.96475 255 255 255
-0.147088   1.11363   1.99449 255 255 255
-0.0243912   0.627278    1.81431 255 255 255
0.032215  1.07685  1.75787 255 255 255
-0.154665   1.19455   2.00658 255 255 255
0.105336 0.775206  1.77335 255 255 255
-0.0346304    1.65668    2.02738 255 255 255
-0.145402   1.70426   2.04795 255 255 255
-0.093019   1.12141   1.87782 255 255 255
-0.122987   0.79852   1.93209 255 255 255
-0.151645   1.02604   1.94011 255 255 255
-0.127331  0.845642   1.92877 255 255 255
-0.237615  0.701567   2.09157 255 255 255
-0.151693  0.991013   1.86826 255 255 255
-0.566524   1.05288    2.3149 255 255 255
-0.0963591    1.66653    2.06746 255 255 255
-0.0630622    1.20786    1.92068 255 255 255
-0.0502211   0.717966    1.92573 255 255 255
0.0706161    1.7339   1.91416 255 255 255
-0.150941    1.4396   2.08696 255 255 255
-0.427626    1.3492   2.04836 255 255 255
0.0214032   0.87027   1.77707 255 255 255
-0.529297  0.879743   2.33013 255 255 255
-0.0254424    1.37538    1.89335 255 255 255
-0.193741  0.917639   2.03979 255 255 255
-0.152198  0.526524    2.0865 255 255 255
-0.339308   1.54376   2.30006 255 255 255
-0.467433   1.32327    2.0588 255 255 255
0.0366439  0.584046   1.80628 255 255 255
-0.101003   1.58365    2.0583 255 255 255
-0.53084  1.10185  2.10003 255 255 255
-0.171605  0.995896   1.89184 255 255 255
0.0665554   1.22774    1.8213 255 255 255
-0.185052   1.56995   2.15242 255 255 255
-0.146742  0.823537   1.95398 255 255 255
-0.518324   1.03514   2.07987 255 255 255
-0.470568   0.97362    2.0516 255 255 255
0.232746  1.72843  1.80462 255 255 255
-0.100811  0.788244   1.95052 255 255 255
-0.51987 0.983008   2.1063 255 255 255
-0.440874   1.36298   2.02876 255 255 255
-0.192858   1.33244   2.01096 255 255 255
-0.125712  0.631264   1.87407 255 255 255
-0.456256   1.12119   2.05957 255 255 255
-0.539241   1.01272   2.12453 255 255 255
-0.203934   1.66623   2.20048 255 255 255
0.0917645   1.23372    1.7667 255 255 255
-0.469766   1.13665   2.04552 255 255 255
-0.216771  0.671852    2.0535 255 255 255
-0.269545  0.678523   1.99166 255 255 255
0.0173247   1.33809   1.79418 255 255 255
-0.112239  0.601123   1.84639 255 255 255
-0.0527622    1.39623    1.93038 255 255 255
-0.187973  0.612107    1.9324 255 255 255
-0.412271   1.21714   2.03385 255 255 255
0.0706956   1.48674   1.86277 255 255 255
-0.183995   1.32114   1.97743 255 255 255
-0.238214  0.631822   1.97601 255 255 255
-0.533006  0.849768   2.24085 255 255 255
-0.021577   0.67564   1.78442 255 255 255
-0.324536  0.721979   2.23893 255 255 255
-0.534686  0.974188   2.29593 255 255 255
-0.568493  0.913649   2.11998 255 255 255
-0.0805114    1.66187    2.01311 255 255 255
 -0.2018 0.571211  1.99891 255 255 255
-0.0949432    0.93522    1.94844 255 255 255
0.0634351   1.23928   1.82743 255 255 255
-0.194601    1.3908    1.9884 255 255 255
-0.566361   1.08051   2.11648 255 255 255
-0.480652   1.17677   2.04349 255 255 255
-0.497583   1.07303   2.25695 255 255 255
-0.154016   1.02846   1.93317 255 255 255
-0.350855  0.745246   2.28208 255 255 255
-0.290621   1.52818   2.24432 255 255 255
-0.0779823   0.968953    1.93062 255 255 255
-0.129027  0.915263   1.93208 255 255 255
-0.130879   0.91524   1.93162 255 255 255
-0.179787   1.56341   2.13611 255 255 255
-0.0469749   0.852074    1.89478 255 255 255
-0.0438063    1.41091    1.92572 255 255 255
-0.0321968    1.41203    1.92805 255 255 255
-0.00786963     1.45018     1.86711 255 255 255
-0.0780939    1.16066    1.93037 255 255 255
-0.0538548    1.66243    1.95939 255 255 255
-0.10454 0.795861  1.95246 255 255 255
-0.135628  0.519876   2.09108 255 255 255
0.0504022   1.73132   1.90311 255 255 255
-0.0763763   0.780476    1.90832 255 255 255
-0.189371  0.568722   1.89964 255 255 255
0.0852236    1.7192   1.93658 255 255 255
-0.19937 0.556029  1.97753 255 255 255
-0.524486   1.01192   2.11098 255 255 255
-0.138766      1.36   1.95896 255 255 255
-0.115445   1.11613   1.96147 255 255 255
-0.193935  0.884991   2.05193 255 255 255
-0.0539251    1.36641    1.92622 255 255 255
0.0603649   1.32648   1.72898 255 255 255
-0.122347  0.484332   2.07878 255 255 255
-0.125376   1.65878   2.11941 255 255 255
-0.143079  0.795592   1.97689 255 255 255
0.172228  1.42131  1.75791 255 255 255
-0.440874  0.578311   2.25763 255 255 255
-0.164341  0.574445   1.91339 255 255 255
-0.310102  0.726088   2.19214 255 255 255
-0.111819   1.25122   1.97015 255 255 255
-0.474638   1.26054   2.04682 255 255 255
-0.124224   1.67907   2.08527 255 255 255
0.0820414   1.73231    1.8618 255 255 255
-0.15773 0.570404  1.90054 255 255 255
-0.453231  0.599277    2.2603 255 255 255
0.135199  1.71161  1.89346 255 255 255
0.000255702    0.852057     1.79987 255 255 255
-0.204456  0.560396   2.14518 255 255 255
-0.523655   1.18008   2.06852 255 255 255
0.115851 0.806083  1.75787 255 255 255
-0.509936  0.856686   2.29928 255 255 255
-0.000412362     0.766988      1.84089 255 255 255
-0.0797369   0.908061    1.86491 255 255 255
-0.163151  0.885408   2.01474 255 255 255
-0.340966  0.762247   2.18179 255 255 255
-0.192887   1.39234    2.0011 255 255 255
0.016424  1.02573  1.73408 255 255 255
-0.131305  0.764013    1.9657 255 255 255
-0.0355709    1.70506    1.96505 255 255 255
-0.210716   1.58701    2.1575 255 255 255
-0.142295  0.764195   1.95258 255 255 255
0.117047  1.66788   1.8919 255 255 255
-0.358994    1.4051   2.09712 255 255 255
-0.169825  0.580279   2.09641 255 255 255
0.00342987    1.46133    1.93079 255 255 255
-0.465203  0.532559   2.33638 255 255 255
-0.109045   1.06424   1.83317 255 255 255
-0.148318  0.855683   1.99857 255 255 255
-0.0242129    1.56507    2.00454 255 255 255
-0.50451  1.21856  2.06706 255 255 255
-0.455258   1.11871   2.05494 255 255 255
-0.342645  0.676499   2.19471 255 255 255
-0.340219  0.731567    2.2738 255 255 255
-0.0707214   0.825846     1.9157 255 255 255
0.201333  1.54025  1.77523 255 255 255
0.188144  1.72549  1.83727 255 255 255
-0.106454   1.66979   2.01774 255 255 255
-0.00139793    0.774355     1.87798 255 255 255
-0.103655  0.968622   1.83429 255 255 255
-0.145339   1.04967   1.85477 255 255 255
-0.333388  0.740639   2.22484 255 255 255
-0.206688   1.52921   2.19702 255 255 255
-0.0770886    1.26603    1.94816 255 255 255
-0.0691116    1.66936    2.02943 255 255 255
-0.0820539   0.634038    1.83489 255 255 255
-0.196037  0.546995   2.14382 255 255 255
-0.564993   1.07011   2.30357 255 255 255
-0.170116   1.55699   2.11466 255 255 255
-0.191118  0.823266   2.04449 255 255 255
-0.285902  0.718289   2.15508 255 255 255
-0.0807626    1.45951    2.00652 255 255 255
-0.367249  0.739089   2.33407 255 255 255
-0.440185   1.26601   2.02917 255 255 255
-0.303339   1.48848   2.29251 255 255 255
-0.334234  0.658134   2.31916 255 255 255
-0.231296  0.833177   2.08661 255 255 255
-0.509524  0.858301   2.30786 255 255 255
-0.216284   1.67246   2.23418 255 255 255
-0.108244   1.67035   2.02713 255 255 255
-0.088094   1.11255   1.90281 255 255 255
0.127547 0.757399   1.7656 255 255 255
-0.12389 0.876293  1.96924 255 255 255
-0.224561  0.825474   2.08466 255 255 255
-0.183883   1.02699   2.01599 255 255 255
-0.250774  0.680673   2.14637 255 255 255
-0.126989  0.853384   1.93876 255 255 255
-0.523376  0.969904   2.29683 255 255 255
0.116132   1.3862  1.77369 255 255 255
-0.13159 0.898557  1.91498 255 255 255
0.00875916   0.811749    1.80798 255 255 255
-0.436174   1.08398   2.05121 255 255 255
0.0295669   1.74689    1.9708 255 255 255
-0.430145   1.21738   2.02432 255 255 255
-0.300527  0.602686   2.22049 255 255 255
-0.444217   0.59403   2.25242 255 255 255
-0.233045    1.5932    2.1877 255 255 255
-0.157172  0.960878   2.00265 255 255 255
-0.170014  0.598099   2.09778 255 255 255
0.0866576  0.742164   1.76265 255 255 255
-0.577926   1.04393   2.13152 255 255 255
0.00929928   0.684669    1.78045 255 255 255
-0.458421  0.936004   2.06172 255 255 255
-0.47879  1.24602  2.08072 255 255 255
-0.276107  0.706776   2.01104 255 255 255
-0.069919   1.21465   1.89822 255 255 255
-0.320692    1.6998   2.26179 255 255 255
-0.511331  0.903138   2.09066 255 255 255
-0.0817788    1.57927    2.03041 255 255 255
-0.542397    1.0994    2.1067 255 255 255
-0.333659  0.656324   2.31424 255 255 255
-0.00722737     1.63996     1.96137 255 255 255
-0.232182   1.57821   2.18659 255 255 255
0.0106445   1.49672    1.9568 255 255 255
-0.0447044    1.65861    2.00913 255 255 255
-0.147171   1.04736   1.99721 255 255 255
0.0771495     1.394   1.83061 255 255 255
0.194219  1.56177  1.78244 255 255 255
-0.116245   1.65854   2.11562 255 255 255
-0.195779  0.736991   2.07023 255 255 255
-0.180956   1.04869   2.02382 255 255 255
-0.447416   1.29509   2.03002 255 255 255
-0.429899   1.29604   2.03479 255 255 255
-0.218256   1.57144   2.15841 255 255 255
0.0419687   1.12345   1.82128 255 255 255
-0.0611733   0.755621    1.91862 255 255 255
-0.140938  0.950543   1.99227 255 255 255
0.0896887   1.72326   1.86674 255 255 255
-0.14183 0.827453  1.94757 255 255 255
-0.371055  0.682517   2.38355 255 255 255
-0.0543729    1.40186     1.9332 255 255 255
-0.541848   1.07257   2.08956 255 255 255
-0.177794   0.81516   1.99612 255 255 255
-0.0859251   0.831144    1.89733 255 255 255
-0.435031   1.25362   2.04083 255 255 255
-0.464136    1.3623     2.036 255 255 255
-0.113305  0.478915   2.06928 255 255 255
-0.572536    1.1532   2.11473 255 255 255
-0.361325   1.42245   2.35309 255 255 255
0.0292764   1.13699   1.82209 255 255 255
-0.467067  0.536323   2.33387 255 255 255
-0.059988   1.25328   1.92657 255 255 255
0.0661083   1.35161   1.75469 255 255 255
-0.556846  0.901614   2.11403 255 255 255
-0.138319  0.514339    2.0663 255 255 255
-0.432347   1.31454   2.05751 255 255 255
-0.577362   1.02517   2.13268 255 255 255
-0.11586  1.58723  2.11347 255 255 255
-0.556119  0.893255   2.21538 255 255 255
0.108545  1.67594   1.9123 255 255 255
-0.283512  0.698791   2.14391 255 255 255
-0.452967   1.18651   2.03705 255 255 255
-0.133128   1.69132   2.08639 255 255 255
0.0836744  0.633993   1.76788 255 255 255
-0.140519  0.887617   1.94202 255 255 255
-0.342866  0.706399   2.31343 255 255 255
-0.231632  0.752558   1.98394 255 255 255
-0.448529   1.36298   2.04765 255 255 255
0.211884  1.74659  1.82179 255 255 255
-0.582199  0.963787   2.13019 255 255 255
-0.365483   1.34238   2.00083 255 255 255
-0.0280413   0.600513    1.79639 255 255 255
-0.061337   1.39403   1.92168 255 255 255
-0.0571813    1.39479    1.92324 255 255 255
0.0322774   1.74067   1.95106 255 255 255
-0.324644   1.49646   2.31324 255 255 255
-0.422307   1.26131   2.03816 255 255 255
-0.0746308    1.35288    1.95059 255 255 255
-0.0638668   0.872652    1.83628 255 255 255
-0.0100222   0.815879    1.79571 255 255 255
0.236558  1.64596  1.76466 255 255 255
-0.1296 0.86715 1.93406 255 255 255
-0.579755   1.04375   2.12679 255 255 255
-0.0519002   0.630592    1.84396 255 255 255
-0.332965  0.782259   2.15141 255 255 255
-0.175474  0.578997   2.10061 255 255 255
0.212381  1.67809  1.81621 255 255 255
-0.469918   1.10398   2.22521 255 255 255
-0.449341   1.34957    2.0432 255 255 255
-0.45065  1.28212  2.02595 255 255 255
-0.35043 0.754836  2.28034 255 255 255
0.0757434   1.25627   1.81459 255 255 255
-0.478844   1.16166   2.04304 255 255 255
-0.14552  1.14248  1.99188 255 255 255
-0.459016   1.30406   2.25875 255 255 255
-0.263514   1.41045    2.2419 255 255 255
-0.0238178    0.71108    1.83565 255 255 255
-0.18283  1.56551  2.17484 255 255 255
-0.149946  0.964029   1.98653 255 255 255
-0.166821   1.03761   2.01389 255 255 255
-0.150749  0.892636   1.92684 255 255 255
-0.130278    1.6912   1.99765 255 255 255
-0.17123   1.4889  2.09687 255 255 255
-0.00193027    0.805645     1.80126 255 255 255
-0.147662   1.02243   1.87912 255 255 255
-0.373396  0.768561   2.35627 255 255 255
0.0150043  0.856732   1.81091 255 255 255
0.27907 1.77342 1.76071 255 255 255
-0.213507   1.62989   2.23288 255 255 255
-0.373477   1.66602    2.3497 255 255 255
-0.102322   1.70041   2.03945 255 255 255
0.0149506  0.914389   1.76389 255 255 255
-0.0528065    1.42954    1.94993 255 255 255
-0.113049   1.17203    1.9702 255 255 255
-0.467467   1.35472   2.06723 255 255 255
-0.497379   1.09602   2.07828 255 255 255
-0.134827   1.21568   1.98775 255 255 255
-0.499055   1.06361   2.05882 255 255 255
-0.334542  0.740813   2.23256 255 255 255
-0.0205961   0.696435    1.79277 255 255 255
-0.336976  0.647646   2.30972 255 255 255
0.170783  1.67583  1.83798 255 255 255
0.201464  1.74737  1.80007 255 255 255
-0.516539   1.06729    2.0722 255 255 255
-0.471298   1.36871   2.08532 255 255 255
0.00341066   0.489585    1.85213 255 255 255
-0.0587606   0.860216    1.83031 255 255 255
-0.023179   1.32918   1.91266 255 255 255
-0.297714  0.633035   2.25298 255 255 255
0.0309147   1.20078   1.79722 255 255 255
-0.186921   1.68366   2.19856 255 255 255
-0.561516   1.12525   2.11474 255 255 255
-0.00711779      1.6347     1.97574 255 255 255
0.159657  1.42416  1.74285 255 255 255
-0.333916  0.637403   2.33582 255 255 255
-0.0919058    1.58061    2.06622 255 255 255
0.0738778   1.25329   1.82257 255 255 255
-0.51646  1.03341  2.07191 255 255 255
-0.463825   1.22108   2.03078 255 255 255
0.250316  1.73431  1.77095 255 255 255
-0.474807  0.921439   2.06618 255 255 255
-0.15236   0.9683   1.9951 255 255 255
-0.530222   1.09994   2.10473 255 255 255
0.0350961   1.59734   1.94957 255 255 255
-0.0243195    0.92278     1.7878 255 255 255
-0.541882   1.02477   2.11091 255 255 255
-0.464146   1.35998   2.27425 255 255 255
-0.105285   1.66087   2.11331 255 255 255
-0.151463   1.02319   1.85122 255 255 255
0.0643051   1.26819   1.83307 255 255 255
-0.471473   1.16651   2.03499 255 255 255
-0.23957 0.723513  2.03632 255 255 255
-0.465423   1.34896   2.07462 255 255 255
-0.265953  0.684087   1.97371 255 255 255
-0.0811167    1.12324    1.89564 255 255 255
0.0109558  0.498755   1.83313 255 255 255
-0.270288  0.693977   1.97808 255 255 255
-0.0950136   0.674712    1.86437 255 255 255
-0.232788   1.48733   2.24514 255 255 255
-0.177615  0.792371   2.01419 255 255 255
0.0271546  0.591586   1.80311 255 255 255
-0.210497  0.618649   2.12668 255 255 255
-0.528879   1.17293   2.06834 255 255 255
-0.139919   1.01464   1.84684 255 255 255
-0.27189 0.705918  1.97868 255 255 255
0.266726  1.74024  1.76396 255 255 255
-0.172478   1.69692   2.09013 255 255 255
0.0979607   1.51894   1.85794 255 255 255
-0.318182  0.672572   2.24284 255 255 255
-0.171111   1.27716   2.01768 255 255 255
0.0798357   1.13619    1.7439 255 255 255
-0.498163    1.1415   2.07247 255 255 255
0.0265855   1.06239   1.74875 255 255 255
-0.142308   1.01929   1.84894 255 255 255
-0.13253 0.921028  1.92295 255 255 255
-0.29212 0.636093   2.2528 255 255 255
-0.199713  0.649117   1.93491 255 255 255
-0.35679 0.687628   2.3358 255 255 255
0.0122695  0.542579   1.83236 255 255 255
-0.159932   1.46964   2.12873 255 255 255
-0.128389   1.09546   1.94109 255 255 255
-0.117378  0.964723   1.93984 255 255 255
-0.56264 0.888232   2.1624 255 255 255
-0.180341  0.604403   1.92612 255 255 255
-0.0861305   0.970243    1.81966 255 255 255
-0.248632   0.65712   1.96978 255 255 255
-0.27725 0.768382  2.12437 255 255 255
-0.0703826    1.49841    2.02712 255 255 255
-0.00909499     1.58842     1.99236 255 255 255
-0.326936  0.722182   2.23145 255 255 255
-0.0107728    1.57393    1.97779 255 255 255
-0.52966  1.02281  2.10084 255 255 255
0.0346445   1.07725   1.76652 255 255 255
-0.48531  1.33169   2.0735 255 255 255
-0.263907  0.583836   2.19538 255 255 255
-0.152311   1.03334   1.99669 255 255 255
-0.536841    1.0078   2.12692 255 255 255
-0.0430897   0.688613    1.81252 255 255 255
-0.0670736    1.24758    1.92599 255 255 255
-0.221833  0.638068   2.11364 255 255 255
-0.137852     1.002    1.8536 255 255 255
0.0899481   1.64681   1.91511 255 255 255
-0.353657  0.685367    2.3405 255 255 255
0.075108   1.7271  1.86618 255 255 255
-0.483307  0.945442    2.0719 255 255 255
-0.345971   1.48092   2.33988 255 255 255
-0.207468  0.710786   2.09022 255 255 255
-0.226703  0.539416   1.95061 255 255 255
-0.460242   1.07669   2.04201 255 255 255
-0.134696  0.836754   1.99036 255 255 255
-0.110208  0.980355   1.83928 255 255 255
0.0162201  0.797578   1.81012 255 255 255
-0.299785  0.872526   2.08347 255 255 255
-0.579021  0.883972   2.16688 255 255 255
-0.534853   1.17373   2.07233 255 255 255
-0.00453304     0.82095     1.79318 255 255 255
-0.401379   0.81263   2.33228 255 255 255
-0.063891  0.951016   1.91896 255 255 255
-0.0315453    1.50648    1.97445 255 255 255
-0.230658  0.673832   1.95212 255 255 255
0.0821145   0.74769   1.76635 255 255 255
-0.276118  0.636091   2.14945 255 255 255
-0.0697966    1.26133    1.92506 255 255 255
-0.0668815    1.65952     2.0439 255 255 255
-0.246446  0.762721   1.97706 255 255 255
-0.578314   1.27686   2.17512 255 255 255
-0.428974   1.27815   2.01916 255 255 255
-0.0656573   0.952438    1.80936 255 255 255
-0.0563242   0.748922    1.87757 255 255 255
-0.485521   1.03624     2.065 255 255 255
-0.331499  0.730457   2.23881 255 255 255
-0.209261   1.58988   2.16344 255 255 255
-0.0405179    1.36111    1.93171 255 255 255
0.121922 0.577401   1.7878 255 255 255
-0.155435  0.812061   1.95962 255 255 255
0.000161243     1.50093     1.95676 255 255 255
0.0910326   1.58193   1.89832 255 255 255
-0.232768  0.935093   2.02958 255 255 255
-0.515781   1.33918   2.11225 255 255 255
-0.118422   1.65361   2.12414 255 255 255
-0.515626   1.20294   2.05726 255 255 255
-0.0377655   0.652146    1.80296 255 255 255
-0.56782 0.993533  2.14432 255 255 255
-0.175506   1.48481   2.08785 255 255 255
-0.0457264    1.15039    1.88653 255 255 255
-0.280255  0.606141   2.20647 255 255 255
-0.508958  0.860809   2.11594 255 255 255
-0.355156  0.749073   2.26989 255 255 255
-0.301788  0.673598   2.23112 255 255 255
-0.446722   1.06781   2.04024 255 255 255
-0.239302    1.0842   2.04844 255 255 255
0.099163   1.3899  1.73059 255 255 255
-0.147308  0.503313   2.08913 255 255 255
0.0959431   1.72767   1.85627 255 255 255
-0.585415  0.966118   2.13246 255 255 255
-0.173091   1.68843   2.10908 255 255 255
0.0358286   1.10995   1.76126 255 255 255
-0.545073  0.958149   2.08042 255 255 255
-0.175375  0.503557   2.14036 255 255 255
-0.528198  0.995758   2.29391 255 255 255
-0.15686 0.873465  1.93904 255 255 255
-0.421435   1.24225   2.01866 255 255 255
-0.0496564    1.27462    1.88848 255 255 255
-0.364216  0.694304   2.38777 255 255 255
-0.334923  0.746462   2.23104 255 255 255
-0.128031   1.13917   1.97409 255 255 255
-0.0981088   0.889912    1.87587 255 255 255
-0.115915    1.6829   2.00442 255 255 255
-0.263421  0.659708   1.97889 255 255 255
-0.296465  0.720974   2.19848 255 255 255
-0.183141  0.787568     2.025 255 255 255
-0.284911  0.685133   2.00189 255 255 255
-0.58923  0.91801  2.14007 255 255 255
-0.0625023   0.741249    1.90826 255 255 255
-0.30162 0.715182  2.19083 255 255 255
-0.15751 0.599866  2.06915 255 255 255
0.0393354  0.843298   1.78642 255 255 255
0.0445669  0.798999   1.78631 255 255 255
-0.507384  0.844922   2.11675 255 255 255
-0.137016  0.913512   1.99061 255 255 255
-0.136018   1.04825   1.84982 255 255 255
-0.134986   1.00186   1.92977 255 255 255
-0.108336   1.01542   1.82938 255 255 255
-0.146609  0.895699   1.99514 255 255 255
-0.430785   1.29812   2.03101 255 255 255
-0.533648   1.15283   2.11212 255 255 255
-0.188249  0.578083   2.12779 255 255 255
-0.198533  0.919165   2.04361 255 255 255
-0.535741   1.04418   2.08475 255 255 255
-0.505595   1.03921   2.07631 255 255 255
0.0233102  0.520505   1.82795 255 255 255
-0.013647    1.6411   1.95066 255 255 255
-0.0974405    1.70444    2.01514 255 255 255
-0.26694 0.589173  2.20187 255 255 255
-0.224803  0.640694   2.13326 255 255 255
0.0385789  0.836741   1.79093 255 255 255
-0.521982   1.08664   2.27391 255 255 255
0.0214266   1.03239   1.73779 255 255 255
-0.161341  0.617885   1.91122 255 255 255
-0.161313    1.6644   2.17465 255 255 255
-0.396738   1.30405   2.00443 255 255 255
-0.209586  0.635849   2.11932 255 255 255
-0.0344743   0.929006    1.82963 255 255 255
0.0206442  0.827209    1.7947 255 255 255
-0.151294  0.894513   1.93115 255 255 255
0.182746  1.63501  1.79794 255 255 255
-0.176199  0.602945   1.93327 255 255 255
0.145561  1.49212  1.80909 255 255 255
-0.189267  0.745442   2.06403 255 255 255
-0.214338   1.00269   2.00427 255 255 255
-0.531488   1.02419   2.11088 255 255 255
-0.341383  0.728804   2.27618 255 255 255
-0.23262 0.809903  2.09166 255 255 255
-0.230225  0.810108   2.09238 255 255 255
-0.0232357    1.04869    1.77174 255 255 255
0.0302019  0.832206   1.79245 255 255 255
-0.14011 0.505166  2.09928 255 255 255
0.208094  1.72058  1.81552 255 255 255
-0.0674686   0.756637    1.87734 255 255 255
-0.354845  0.637386   2.36605 255 255 255
0.073135  1.33319  1.72616 255 255 255
0.122947   1.1761  1.76149 255 255 255
-0.294968  0.756944   2.13368 255 255 255
-0.252611  0.721106   1.95591 255 255 255
-0.059187  0.908374    1.8564 255 255 255
-0.101511  0.837177   1.95227 255 255 255
0.0724715   1.25125   1.82598 255 255 255
-0.0829326    1.22441    1.94892 255 255 255
-0.0726814   0.932212    1.84238 255 255 255
-0.107487    1.2416     1.966 255 255 255
-0.137343  0.506632   2.07549 255 255 255
-0.490124   1.08168   2.04813 255 255 255
-0.344549  0.622756   2.36095 255 255 255
-0.171151  0.587065   2.08376 255 255 255
-0.223903   1.40175   2.03557 255 255 255
0.0146372   1.63275   1.98166 255 255 255
-0.142513  0.629266    1.9001 255 255 255
-0.465078   1.35564   2.27521 255 255 255
-0.147316    1.0394    1.8491 255 255 255
-0.247087  0.732354    2.0163 255 255 255
-0.107304   1.66124   2.04234 255 255 255
-0.109887   1.66388   2.11357 255 255 255
-0.151047   1.03739   1.93783 255 255 255
-0.451945    1.0871    2.0189 255 255 255
-0.341866  0.677073   2.30226 255 255 255
-0.200401  0.921772    2.0479 255 255 255
-0.452854  0.578166   2.24118 255 255 255
-0.522426   1.16685   2.06387 255 255 255
-0.528146   1.17048    2.0627 255 255 255
-0.367392  0.738467     2.325 255 255 255
-0.441608   1.15501   2.03064 255 255 255
-0.391953  0.800026   2.34984 255 255 255
-0.0209243   0.809578    1.83082 255 255 255
-0.198707   1.63691   2.20797 255 255 255
-0.0273718    1.71167    1.94795 255 255 255
-0.284183  0.735187   2.15022 255 255 255
-0.0704288   0.956384    1.81173 255 255 255
-0.110644   1.11217    1.9574 255 255 255
-0.154781   1.03402   1.92981 255 255 255
-0.25258   1.4698   2.1842 255 255 255
0.0904745   1.58114   1.90309 255 255 255
-0.153394    1.6432   2.17227 255 255 255
-0.162867   1.05369   2.00777 255 255 255
-0.093721   1.42908   1.97256 255 255 255
-0.479548   1.13289   2.27829 255 255 255
-0.0991289    1.44804    2.06199 255 255 255
0.101785  1.22522  1.79579 255 255 255
-0.138068   1.24592   1.98834 255 255 255
-0.150097   1.67572   2.16483 255 255 255
0.155505  1.41699  1.73623 255 255 255
-0.26586 0.697967  1.97712 255 255 255
0.21533   1.716 1.82024 255 255 255
-0.531573   1.01127   2.11467 255 255 255
0.161312  1.42854   1.7328 255 255 255
-0.527799   1.17753   2.05498 255 255 255
-0.0572413    1.43346    1.91201 255 255 255
-0.465702   1.35916     2.068 255 255 255
0.0869366   1.71488   1.93144 255 255 255
-0.281469   1.50412   2.22825 255 255 255
-0.470436   1.36391   2.05287 255 255 255
-0.107272   1.26923    1.9699 255 255 255
0.210969  1.49672  1.74453 255 255 255
-0.218147   0.75267   2.10162 255 255 255
-0.158383   1.03887   1.85374 255 255 255
-0.0571342    1.67163    1.93865 255 255 255
-0.194844   0.70089   1.91815 255 255 255
-0.00277959    0.480227     1.85755 255 255 255
-0.159955  0.564517   2.09801 255 255 255
-0.164861   1.67606   2.17894 255 255 255
-0.148156   1.27586    1.9965 255 255 255
-0.0742356   0.869675    1.86397 255 255 255
0.0581766    1.7209   1.92244 255 255 255
0.00748299   0.735379    1.87221 255 255 255
-0.0694408    1.65486    2.04102 255 255 255
-0.212705  0.552692   1.97335 255 255 255
0.171119  1.71094  1.86497 255 255 255
-0.200699   1.57669   2.16003 255 255 255
-0.159269   1.66197   2.17219 255 255 255
-0.148142  0.614476   1.86596 255 255 255
-0.452365    1.2608   2.02586 255 255 255
0.0293388    1.2027   1.85391 255 255 255
0.0134824  0.738425   1.86665 255 255 255
-0.109037  0.881074   1.90398 255 255 255
-0.19663  0.57578  2.01722 255 255 255
-0.562941   1.08483   2.30554 255 255 255
-0.00199925    0.770295     1.87591 255 255 255
0.230215  1.52109  1.74759 255 255 255
-0.33591 0.674559  2.32777 255 255 255
-0.56176  1.31769  2.13823 255 255 255
-0.0950466    1.22274    1.95263 255 255 255
-0.167044   1.03457   2.01119 255 255 255
-0.335171  0.679739   2.29104 255 255 255
-0.16314 0.880981  1.93963 255 255 255
-0.055101   1.49582   2.02558 255 255 255
0.189373   1.6313  1.83199 255 255 255
-0.159491   1.56324   2.14515 255 255 255
-0.463459    1.3533   2.07759 255 255 255
0.000925074     1.15991     1.87074 255 255 255
-0.142072   1.50663   2.10978 255 255 255
-0.346016  0.725943   2.27528 255 255 255
-0.52586 0.893793  2.09005 255 255 255
-0.214155  0.775028   2.03541 255 255 255
-0.276792  0.723002   1.97937 255 255 255
0.002632  1.42991   1.8929 255 255 255
0.0769124   1.25269   1.81902 255 255 255
-0.188534   1.67808   2.20537 255 255 255
0.258831  1.08085  1.56964 255 255 255
0.258923  1.08634  1.56848 255 255 255
0.152386  1.16468  1.54196 255 255 255
0.0689145    1.0354   1.64261 255 255 255
0.163619  1.07468   1.5508 255 255 255
0.171705  1.08159   1.4393 255 255 255
0.161389   1.0779  1.44341 255 255 255
0.151885   1.0813  1.44556 255 255 255
0.177799  1.11669  1.44527 255 255 255
0.163724  1.09377  1.44686 255 255 255
0.173542    1.073  1.43912 255 255 255
0.264196   1.1721  1.51441 255 255 255
0.247362  1.01858  1.58512 255 255 255
0.16608 1.12193 1.51262 255 255 255
0.230056  1.11809  1.45652 255 255 255
0.174516  1.05298  1.45126 255 255 255
0.180872  1.11026  1.44567 255 255 255
0.184736  1.03733  1.44936 255 255 255
0.21013 1.13737 1.45165 255 255 255
0.166471  1.13968  1.51551 255 255 255
0.133873  1.05135  1.45555 255 255 255
0.165268  1.07506  1.43797 255 255 255
0.172945  1.09733  1.51959 255 255 255
0.168909  1.09442  1.44776 255 255 255
0.178599  1.09346  1.44829 255 255 255
0.166133  1.15273  1.50569 255 255 255
0.183636  1.04049  1.59357 255 255 255
0.241835  1.15026  1.51994 255 255 255
0.16981 1.12223 1.44771 255 255 255
0.162843  1.08338  1.44442 255 255 255
0.12134 1.06225 1.45688 255 255 255
0.412155  1.15397  1.58964 255 255 255
0.178792  1.09829    1.457 255 255 255
0.204692  1.12897  1.45257 255 255 255
0.170216  1.08909  1.44786 255 255 255
0.16867 1.09243 1.44699 255 255 255
0.182403  1.09684  1.45397 255 255 255
0.162803  1.06838  1.44224 255 255 255
0.171866  1.04386  1.45122 255 255 255
0.130446  1.17511   1.5651 255 255 255
0.184871  1.10888  1.44936 255 255 255
0.159528  1.09128  1.44718 255 255 255
0.169491  1.05758  1.45723 255 255 255
0.157204  1.08199  1.44779 255 255 255
0.150611  1.07596  1.44491 255 255 255
0.402378  1.16988  1.58584 255 255 255
0.162207   1.0694  1.44447 255 255 255
0.16229 1.17831 1.54006 255 255 255
0.200923  1.09726  1.45251 255 255 255
0.418389  1.13074  1.59508 255 255 255
0.407661   1.1377  1.58416 255 255 255
0.142953  1.12681  1.59226 255 255 255
0.183319  1.12337  1.44659 255 255 255
0.159782  1.18357  1.54669 255 255 255
0.0700284   1.03469   1.65093 255 255 255
0.171395  1.04096  1.46129 255 255 255
0.19285 1.13769 1.45423 255 255 255
0.401681  1.18013  1.58199 255 255 255
0.116677   1.0736  1.46077 255 255 255
0.118061  1.06353  1.45911 255 255 255
0.0771216   1.15106   1.62322 255 255 255
0.122908  1.06143  1.45303 255 255 255
0.402813  1.17115  1.58256 255 255 255
0.152399  1.06677   1.4519 255 255 255
0.139076  1.07022  1.44446 255 255 255
0.398552  1.16333  1.58341 255 255 255
0.160749  1.08597   1.4457 255 255 255
0.190785  1.15037  1.51365 255 255 255
0.157332  1.07988  1.44085 255 255 255
    0.4 1.18169 1.58054 255 255 255
0.155241  1.17965  1.54834 255 255 255
0.123909  1.05349  1.46519 255 255 255
0.157607  1.08135  1.43969 255 255 255
0.233392  1.14998  1.50724 255 255 255
0.174108  1.05465  1.45438 255 255 255
0.278551  1.08783  1.57565 255 255 255
0.163407  1.15275  1.71408 255 255 255
0.214213  1.00974  1.61913 255 255 255
0.160797  1.09242  1.44926 255 255 255
0.161756  1.06827  1.45357 255 255 255
0.242997  1.15173  1.52134 255 255 255
0.402414  1.13216   1.5922 255 255 255
0.120937  1.07994  1.45695 255 255 255
0.219107  1.12163  1.44916 255 255 255
0.163223  1.09111  1.44777 255 255 255
0.180848   1.0998  1.46054 255 255 255
0.168111  1.04821  1.44611 255 255 255
0.133505  1.06795  1.44323 255 255 255
0.141565  1.07217  1.44636 255 255 255
0.149476  1.06532  1.45168 255 255 255
0.385875  1.16275  1.58301 255 255 255
0.19278 1.04762 1.60207 255 255 255
0.170463  1.05952  1.45454 255 255 255
0.17698 1.04284 1.44724 255 255 255
