ply
format ascii 1.0
element vertex 1182
property float x
property float y
property float z
property uchar red
property uchar green
property uchar blue
end_header
0.255876 0.305198  1.91406 255 255 255
 0.269791 0.0481705   1.98114 255 255 255
 0.66892 0.174571  1.74894 255 255 255
0.0876603  0.127744   2.05495 255 255 255
0.677405 0.212219   1.7395 255 255 255
0.151198 0.024754  2.04585 255 255 255
0.463394 0.119087  1.86662 255 255 255
 0.608134 -0.140382   1.83496 255 255 255
  0.651746 -0.0374549    1.84885 255 255 255
0.691597 0.264893  1.73465 255 255 255
0.176419 0.317679   1.9647 255 255 255
 0.806589 -0.158494   1.74351 255 255 255
0.0908881  0.299168   2.00883 255 255 255
0.660723 0.123254  1.77879 255 255 255
 0.67813 0.181207  1.74876 255 255 255
0.648745 0.114079  1.78563 255 255 255
0.088486 0.300091  2.01265 255 255 255
 0.441553 -0.176184   1.90195 255 255 255
0.114853  0.16755  2.02889 255 255 255
 0.201842 -0.121158   2.03572 255 255 255
0.897153 0.206789   1.6521 255 255 255
 0.516682 0.0905834   1.84523 255 255 255
 0.862181 0.0146006   1.75643 255 255 255
0.344892 0.175328  1.90184 255 255 255
  0.227397 -0.0945264    2.04262 255 255 255
 0.30567 0.162286  1.93443 255 255 255
0.844181 0.273748  1.64313 255 255 255
0.685544 0.303875  1.70198 255 255 255
 0.79837 0.278248  1.66479 255 255 255
 0.396241 -0.082371     1.963 255 255 255
0.226689  0.18409  1.97654 255 255 255
0.514885 0.392843   1.7891 255 255 255
 0.367396 0.0797151   1.93009 255 255 255
0.861877 0.125951  1.68318 255 255 255
 0.321351 -0.174008   1.96062 255 255 255
 0.160203 -0.131074   2.06209 255 255 255
0.48163 0.28208  1.8005 255 255 255
 0.644919 -0.028928   1.85503 255 255 255
 0.740555 -0.161589   1.77057 255 255 255
0.690352 0.197043  1.73589 255 255 255
 0.5713 0.09597   1.816 255 255 255
0.548675 0.353284  1.78511 255 255 255
 0.798506 0.0752856   1.72973 255 255 255
0.542845 0.344573  1.77554 255 255 255
0.233744 0.330345  1.91166 255 255 255
0.353463 0.381132  1.83832 255 255 255
0.321043 0.319862  1.88066 255 255 255
0.237815 0.198923  1.95458 255 255 255
0.883141 0.113448  1.67505 255 255 255
0.0886185 0.0435346   2.06034 255 255 255
  0.747749 -0.0982742    1.79665 255 255 255
0.0857749  0.038329   2.06265 255 255 255
0.932746 0.155759  1.64541 255 255 255
0.867003 0.241099  1.64275 255 255 255
0.648571 0.293303  1.73282 255 255 255
0.743887 0.253737  1.71085 255 255 255
0.915706 0.186712  1.65267 255 255 255
0.353356 0.365439  1.84203 255 255 255
0.209571 0.105539  2.00207 255 255 255
 0.13223 0.273757  1.99282 255 255 255
 0.780868 0.0949969   1.73254 255 255 255
0.092998 0.133677  2.05073 255 255 255
0.279345 0.165815  1.95818 255 255 255
0.575437 0.245683  1.77216 255 255 255
 0.141275 0.0531007   2.03391 255 255 255
0.212903 0.281132  1.94804 255 255 255
  0.417306 -0.0433832    1.96829 255 255 255
0.732349 0.345025  1.69937 255 255 255
0.830238 0.114578  1.70097 255 255 255
  0.550604 -0.0672427    1.89523 255 255 255
 0.637369 0.0656972   1.80748 255 255 255
0.806874 0.284813  1.66435 255 255 255
0.791777 0.398674  1.64671 255 255 255
0.526054  0.18747   1.8172 255 255 255
0.892958 0.187267  1.66308 255 255 255
0.561347 0.255973  1.78215 255 255 255
0.276452 0.371377   1.8739 255 255 255
0.156307 0.170369  2.00501 255 255 255
  0.71348 -0.107873   1.81155 255 255 255
   0.71303 -0.0114661    1.82451 255 255 255
  0.877274 -0.0859014    1.72481 255 255 255
0.563194 0.325637  1.77381 255 255 255
 0.253001 -0.065464   2.02176 255 255 255
    0.86555 -0.00660945     1.74873 255 255 255
0.652593 0.290712  1.72281 255 255 255
0.686156  0.38641  1.70756 255 255 255
0.362508 0.210108  1.88432 255 255 255
0.426125 0.392769  1.80575 255 255 255
 0.254635 -0.215499   1.98478 255 255 255
0.144471 0.256994  1.99163 255 255 255
0.274647 0.048297    1.977 255 255 255
   0.841189 -0.00427176     1.76222 255 255 255
0.772431 0.347666  1.67608 255 255 255
0.623261 0.355778  1.72703 255 255 255
0.450492 0.344061  1.82756 255 255 255
0.0867518 0.0491725   2.05588 255 255 255
0.298542 0.168917  1.93742 255 255 255
0.249195 0.244146  1.95248 255 255 255
0.405685 0.318301  1.82069 255 255 255
0.575588 0.179511  1.79448 255 255 255
0.175115 0.305618  1.97365 255 255 255
0.776062 0.194481  1.69018 255 255 255
   0.94843 -0.0497307    1.70393 255 255 255
  0.801111 -0.0132184    1.78655 255 255 255
0.609999 0.110778  1.79808 255 255 255
0.638663 0.364509  1.72269 255 255 255
0.623147 0.420343  1.73833 255 255 255
 0.780975 0.0761103   1.73787 255 255 255
0.0689179  0.252033   2.03188 255 255 255
0.180856  -0.1722  2.04091 255 255 255
 0.953853 0.0280599   1.71248 255 255 255
0.543863 0.363751  1.78178 255 255 255
0.710063  0.40454  1.69723 255 255 255
0.814485 0.127077  1.71059 255 255 255
0.872639 0.230146  1.64579 255 255 255
0.874135 0.229767  1.64807 255 255 255
0.640448 0.237359  1.73798 255 255 255
 0.69822 0.231972  1.72964 255 255 255
 0.084093 0.0426866   2.06934 255 255 255
0.438877 0.106965   1.8898 255 255 255
 0.795674 0.0940389   1.72543 255 255 255
0.184194 0.254094   1.9774 255 255 255
0.830858 0.369176  1.64867 255 255 255
 0.232325 -0.160049   2.01043 255 255 255
0.68646 0.35278  1.7126 255 255 255
  0.420031 -0.0271079    1.96151 255 255 255
0.119071 0.253493  2.01444 255 255 255
0.626357 0.349816  1.72559 255 255 255
  0.314724 -0.0575656    1.99102 255 255 255
0.696898  0.25339  1.73703 255 255 255
0.585021 0.391226  1.75918 255 255 255
0.0351494  0.274202   2.03466 255 255 255
0.499263 0.235699  1.82471 255 255 255
0.198992 0.317992  1.94181 255 255 255
0.819463 0.195205  1.67896 255 255 255
0.828313 0.240963  1.67271 255 255 255
  0.667424 -0.0905776     1.8353 255 255 255
  0.863869 -0.0405469    1.74755 255 255 255
 0.12965 0.252404  2.00979 255 255 255
0.765187 0.429856  1.66736 255 255 255
0.526559 0.082918  1.84892 255 255 255
   1.00668 -0.0981312    1.67507 255 255 255
0.522126 0.383122  1.78823 255 255 255
0.790717 0.429134  1.65621 255 255 255
0.511697 0.114816  1.84667 255 255 255
 0.535396 -0.177836   1.85222 255 255 255
 0.142065 -0.104092    2.0547 255 255 255
0.776567 0.305538  1.68078 255 255 255
0.0800861   0.29471   2.02273 255 255 255
 0.694115 -0.160132   1.81603 255 255 255
0.150431 0.317657  1.96002 255 255 255
0.561529 0.166803   1.8053 255 255 255
0.210973 0.303261  1.94545 255 255 255
0.632822  0.34473  1.72517 255 255 255
0.711128  0.32276  1.70085 255 255 255
 0.499058 0.0466997   1.87077 255 255 255
0.359197 0.381081  1.83879 255 255 255
 0.811547 0.0742835   1.73024 255 255 255
0.484552 0.155629  1.84492 255 255 255
0.686433  0.15924  1.74826 255 255 255
0.764527 0.309703  1.68244 255 255 255
   1.00248 0.00742324    1.68461 255 255 255
0.730289 0.397185  1.68853 255 255 255
0.802941  0.41244  1.65357 255 255 255
0.355874 0.276553   1.8858 255 255 255
0.846706 0.321781  1.65022 255 255 255
0.927911   0.1438  1.65123 255 255 255
0.232437 0.305473  1.93068 255 255 255
0.612643 0.409363  1.73971 255 255 255
 0.191347 -0.148835   2.02976 255 255 255
0.239994  0.14654  1.97351 255 255 255
0.529283 0.303518  1.79903 255 255 255
 0.878365 0.0286877   1.75069 255 255 255
0.930082  0.14976  1.64162 255 255 255
 0.526061 0.0422349   1.84703 255 255 255
0.051468 0.212258  2.04795 255 255 255
0.276219 0.334414  1.90245 255 255 255
0.0767917  0.209232   2.04521 255 255 255
0.125773 0.192099  2.02063 255 255 255
0.686351 0.398899  1.71096 255 255 255
  0.883086 -0.0432606    1.73966 255 255 255
0.423375 0.316067   1.8236 255 255 255
 0.258603 0.0741632   1.98817 255 255 255
0.519338 0.405002  1.78811 255 255 255
0.585168 0.327925  1.76006 255 255 255
 0.996819 -0.095728   1.67012 255 255 255
 0.0966143 -0.0792113    2.10868 255 255 255
  0.747178 -0.0719815    1.79389 255 255 255
0.834132 0.384109  1.64717 255 255 255
0.682654 0.306723  1.70286 255 255 255
0.581453 0.336248  1.75943 255 255 255
0.110948 0.163251  2.03644 255 255 255
0.401687 0.368353  1.85097 255 255 255
0.619058   0.3752  1.74592 255 255 255
  0.47631 0.0738548   1.87787 255 255 255
 0.212952 0.0584803   1.99849 255 255 255
0.355742 0.282933  1.86864 255 255 255
0.424505 0.339216  1.83791 255 255 255
 0.75517 0.395105  1.67592 255 255 255
0.657476  0.41172  1.72049 255 255 255
0.804801 0.366026  1.65669 255 255 255
0.242222 0.278055  1.91864 255 255 255
0.75996 0.38804 1.66519 255 255 255
 0.371756 -0.172027   1.94257 255 255 255
0.122014 0.211798  2.02423 255 255 255
0.834804 0.276629    1.655 255 255 255
 0.527538 0.0902003   1.84947 255 255 255
0.512714 0.011691  1.90245 255 255 255
0.856824 0.205347  1.66106 255 255 255
 0.134644 0.0525277   2.04077 255 255 255
0.692378  0.36073  1.70231 255 255 255
0.378748 0.356307  1.83124 255 255 255
0.491038 0.384802  1.81051 255 255 255
  0.971621 -0.0741005    1.68746 255 255 255
0.840758 0.316372  1.66514 255 255 255
0.559529 0.284289  1.78639 255 255 255
0.126625 0.174202  2.00727 255 255 255
 0.62781 0.369517  1.74348 255 255 255
 0.346361 -0.112749    1.9753 255 255 255
  0.0642 0.207784  2.04971 255 255 255
0.934961 0.163971  1.64493 255 255 255
0.402045 0.352418  1.84701 255 255 255
0.680211 0.132975  1.76319 255 255 255
0.868226  0.10614  1.68574 255 255 255
0.376372 0.230266  1.89107 255 255 255
 0.367288 0.0505413   1.93828 255 255 255
  0.706897 -0.0349867    1.82024 255 255 255
0.494374 0.218789  1.81529 255 255 255
 0.769333 -0.151339   1.75529 255 255 255
0.312235 -0.18133  1.95414 255 255 255
  0.326804 -0.0723915    1.98264 255 255 255
0.749088 0.074076  1.75399 255 255 255
 0.348932 0.0408048   1.94132 255 255 255
0.540759 0.403676  1.77878 255 255 255
0.405082 0.368357  1.84972 255 255 255
0.0701489  0.299559   2.02262 255 255 255
0.761927  0.21613  1.70831 255 255 255
0.866048 0.165873  1.67995 255 255 255
0.617865 0.381633  1.74127 255 255 255
 0.302314 -0.129728   1.99166 255 255 255
0.370175 -0.15197  1.95697 255 255 255
0.726736 0.225554  1.70407 255 255 255
0.529242 0.385845  1.77619 255 255 255
0.712139 0.284292  1.70591 255 255 255
0.840008 0.188678  1.67291 255 255 255
0.341273 0.323789  1.88416 255 255 255
0.742269 0.071704  1.75748 255 255 255
0.417362 0.350143  1.84533 255 255 255
0.183157 0.228704  1.98169 255 255 255
0.209457 0.219334  1.97502 255 255 255
0.0683273  0.296922   2.02176 255 255 255
0.814007 0.195541  1.68219 255 255 255
 0.74078 0.404633  1.66784 255 255 255
0.573553 0.391198  1.76421 255 255 255
0.191442 0.167298  1.98497 255 255 255
0.769818 0.339216  1.68313 255 255 255
0.286929 0.229552  1.92954 255 255 255
0.540662 0.333544  1.77041 255 255 255
0.0415108  0.287785   2.03748 255 255 255
0.877588 0.176446  1.66953 255 255 255
 0.284938 0.0679238   1.97596 255 255 255
0.0812251  0.012355   2.08008 255 255 255
0.858102  0.12068  1.68469 255 255 255
0.451857 0.384934  1.80998 255 255 255
   0.89244 0.00251767    1.73802 255 255 255
0.195062 -0.12896  2.04551 255 255 255
0.348332 0.354773  1.83979 255 255 255
 0.80016 0.404299  1.65741 255 255 255
0.148926 0.240693  1.99497 255 255 255
0.700457 0.115275  1.76206 255 255 255
0.947549 0.131777   1.6519 255 255 255
0.541145 0.395818  1.77484 255 255 255
0.830897 0.122531  1.70055 255 255 255
  0.971026 -0.0472144    1.69562 255 255 255
0.752488 0.254874  1.70061 255 255 255
0.773381 0.379998  1.65876 255 255 255
 0.205511 -0.195317   2.01347 255 255 255
0.746866 0.400103  1.66416 255 255 255
0.124138 0.145613  2.02306 255 255 255
0.0814376  0.204533   2.03092 255 255 255
0.751568 0.291537   1.6893 255 255 255
0.170974 0.114009  2.02066 255 255 255
  0.213725 0.00126321    2.06125 255 255 255
0.304391 0.315334  1.88871 255 255 255
0.200035 0.230429  1.97913 255 255 255
 0.0937149 -0.0695128     2.1105 255 255 255
 0.911065 0.0504582   1.73384 255 255 255
0.0548049  0.099356   2.08015 255 255 255
0.370327 -0.16162  1.95706 255 255 255
 0.758064 -0.141533   1.77425 255 255 255
 0.33797 0.275151  1.88975 255 255 255
   1.02809 -0.0227744    1.67445 255 255 255
 0.376621 -0.135707    1.9516 255 255 255
0.673424 0.363315  1.71121 255 255 255
0.144969 0.246715  1.99405 255 255 255
0.846784 0.295437  1.63905 255 255 255
 0.286835 0.0676823   1.97168 255 255 255
0.276153 0.271931  1.90724 255 255 255
0.209992 0.265594  1.96997 255 255 255
0.161943 0.208418  2.00223 255 255 255
0.531256 0.350528  1.78806 255 255 255
 0.71043 0.412826  1.69297 255 255 255
0.756858 0.188204  1.71166 255 255 255
0.407531 0.368361  1.84615 255 255 255
 0.881738 0.0258276    1.7476 255 255 255
0.572243 0.396372   1.7633 255 255 255
0.242896 0.270572  1.93757 255 255 255
0.515824 0.347244  1.78623 255 255 255
0.589758 0.357717  1.74767 255 255 255
0.143682 0.115824  2.03031 255 255 255
0.426409  0.39667  1.80728 255 255 255
0.477288 0.326897  1.81013 255 255 255
0.782485 0.380246  1.65585 255 255 255
0.532512 0.395052   1.7835 255 255 255
0.796761 0.355664  1.66921 255 255 255
    0.75697 -0.00971677     1.80379 255 255 255
0.0799368  -0.04311   2.11687 255 255 255
0.566245 0.093339  1.82732 255 255 255
0.917589 0.133856  1.66232 255 255 255
0.0958183  0.200665   2.03494 255 255 255
0.228391 0.230404   1.9558 255 255 255
0.617247 0.303892   1.7506 255 255 255
0.205507 0.246378  1.97467 255 255 255
0.342709 0.101185  1.93997 255 255 255
0.231613 0.286741  1.93729 255 255 255
0.710722 0.121816  1.75524 255 255 255
 0.55191 0.312126  1.78981 255 255 255
0.0657444  0.294801   2.02432 255 255 255
0.572547 0.328112  1.76329 255 255 255
0.0471027  0.278773   2.03866 255 255 255
 0.325725 0.0545649   1.94582 255 255 255
  0.368639 -0.0119989    1.98302 255 255 255
   0.364891 -0.00918858     1.97479 255 255 255
0.293194 0.177431  1.93367 255 255 255
 0.24733 0.303564  1.92869 255 255 255
0.427866 0.321996  1.84295 255 255 255
 0.720004 0.0285127   1.82122 255 255 255
 0.302735 0.0833453   1.95444 255 255 255
0.337549 0.329151  1.88527 255 255 255
0.949366 0.123307  1.64707 255 255 255
0.629676  0.24889  1.74594 255 255 255
0.657667 0.278429  1.74693 255 255 255
0.885921 0.113444  1.67343 255 255 255
0.887934  0.11312  1.67518 255 255 255
 0.106685 0.0491804   2.05433 255 255 255
 0.876293 -0.123504   1.71811 255 255 255
 0.301064 -0.180867   1.97863 255 255 255
0.721508 0.175593  1.73512 255 255 255
0.781149 0.364444  1.67598 255 255 255
 0.577855 -0.152504    1.8623 255 255 255
0.763764 0.385929  1.67662 255 255 255
  0.306582 -0.0684816    2.00745 255 255 255
  0.814018 0.00348027     1.7779 255 255 255
0.0842437  0.143933   2.05197 255 255 255
0.262338 0.240494  1.93957 255 255 255
0.513574 0.348502    1.787 255 255 255
  0.626088 -0.0956032    1.84491 255 255 255
0.523093 0.409289  1.78539 255 255 255
0.833513 0.404779  1.64977 255 255 255
0.753752 0.250461  1.71062 255 255 255
0.227317 0.139726  1.98021 255 255 255
 0.601933 0.0662245     1.823 255 255 255
0.843237 0.148448  1.69197 255 255 255
 0.441093 0.0659069   1.90011 255 255 255
 0.104792 0.0528062   2.05517 255 255 255
0.312292 0.195672  1.91301 255 255 255
0.881158  0.17892   1.6678 255 255 255
0.801766 0.118134  1.71862 255 255 255
  0.368265 0.00272437    1.97029 255 255 255
0.052879 0.273072  2.03524 255 255 255
 0.763707 0.0912449   1.74285 255 255 255
0.767077 0.411448  1.65326 255 255 255
0.258351  0.31464  1.90701 255 255 255
 0.222116 -0.121634   2.02677 255 255 255
0.109388 0.206584  2.03045 255 255 255
0.545021 0.359268  1.76909 255 255 255
0.844859 0.257634  1.64427 255 255 255
  0.413387 -0.0144199    1.95415 255 255 255
 0.586022 0.0805001    1.8208 255 255 255
    0.6904 -0.0873944     1.8246 255 255 255
0.483221 0.161325  1.83798 255 255 255
0.341243 0.197588  1.90758 255 255 255
0.457294 0.359321  1.82411 255 255 255
   0.3502 -0.125711   1.97109 255 255 255
0.0974545  -0.13326   2.09288 255 255 255
0.0689979  0.281406   2.02872 255 255 255
0.477108 0.157653  1.85561 255 255 255
0.737314 0.389779  1.68279 255 255 255
0.756139 0.204667  1.69306 255 255 255
0.668679 0.268632   1.7441 255 255 255
   0.681196 -0.00360379     1.84336 255 255 255
0.200574  0.29316  1.95022 255 255 255
 0.725764 -0.120982   1.78074 255 255 255
0.500355 0.400708  1.79654 255 255 255
  0.22352 -0.074637   2.05008 255 255 255
 0.216021 -0.217501    2.0044 255 255 255
0.180956 0.106569  2.01065 255 255 255
0.289403 0.216788  1.92737 255 255 255
0.849743 0.293977  1.63787 255 255 255
0.803361   0.1733   1.7031 255 255 255
   1.01534 -0.0474537    1.67282 255 255 255
0.769612 0.402055  1.66199 255 255 255
0.903597 0.155597  1.66275 255 255 255
0.656691 0.417463  1.71894 255 255 255
0.309295 0.101427  1.94509 255 255 255
 0.314712 -0.127351    1.9914 255 255 255
0.345987 0.367326  1.83647 255 255 255
0.589292 0.276706  1.77744 255 255 255
 0.834243 0.0103475   1.77307 255 255 255
0.362057 0.146769  1.92019 255 255 255
0.529015 0.300024   1.7997 255 255 255
 0.216752 -0.164372   2.01555 255 255 255
  0.451845 -0.0673892    1.93646 255 255 255
0.631784 0.420468  1.73368 255 255 255
0.480809 0.399196  1.80309 255 255 255
0.146121 0.117236  2.02611 255 255 255
 0.48772 0.358404  1.79894 255 255 255
0.0860785  0.195525   2.04116 255 255 255
 0.44473 0.304897  1.81033 255 255 255
0.873514 0.253852  1.64282 255 255 255
 0.76226 0.151954  1.72191 255 255 255
 0.360523 0.0977785   1.93446 255 255 255
0.848208  0.27751   1.6431 255 255 255
0.135514 0.212558  2.01436 255 255 255
 0.666762 0.0723724   1.77532 255 255 255
 0.597906 0.0608895   1.81863 255 255 255
     0.5 0.305931  1.79711 255 255 255
 0.24185 0.294805  1.92049 255 255 255
0.813462 0.289077  1.66053 255 255 255
0.0924476  0.165128   2.04673 255 255 255
 0.35233 0.332257  1.87516 255 255 255
0.357768 0.358125  1.83459 255 255 255
   0.35229 0.00539098    1.98702 255 255 255
0.0894175 -0.024699   2.11813 255 255 255
0.282803 0.175549  1.95479 255 255 255
0.262347 0.311468   1.9054 255 255 255
0.603047 0.391233  1.75362 255 255 255
0.761322  0.11107  1.73632 255 255 255
0.122738 0.287433  2.00562 255 255 255
0.561602 0.384592  1.76786 255 255 255
0.0976561  0.276568   2.01159 255 255 255
0.813452 0.417133  1.64898 255 255 255
0.582449 0.386457  1.75753 255 255 255
0.742282 0.358991  1.68499 255 255 255
 0.523847 -0.158459   1.88171 255 255 255
  0.528723 0.00658853    1.90025 255 255 255
 0.660851 -0.072779    1.8397 255 255 255
0.868945 0.108086  1.68112 255 255 255
0.534097  0.35043  1.78237 255 255 255
0.449456 0.351284  1.83187 255 255 255
0.741795 0.327632  1.68883 255 255 255
0.470833 0.381268  1.80293 255 255 255
 0.682351 0.0933149   1.77495 255 255 255
   0.829872 -0.00115956      1.7688 255 255 255
0.696864  0.15112  1.74961 255 255 255
0.612413 0.274624  1.76727 255 255 255
0.612562 0.274595  1.76745 255 255 255
0.182921 0.119054  2.01452 255 255 255
0.177939 0.122392  2.00485 255 255 255
 0.58255 0.393492  1.76089 255 255 255
 0.484275 0.0919578   1.86706 255 255 255
0.562853 0.315986  1.76934 255 255 255
   0.225909 0.000228542     2.05416 255 255 255
0.646915 0.101628  1.78673 255 255 255
0.931476 0.142252  1.64977 255 255 255
0.620534 0.373656  1.73796 255 255 255
  0.267573 -0.0415805    2.03029 255 255 255
  0.703333 -0.0208741    1.82873 255 255 255
 0.571401 0.0823706   1.83451 255 255 255
  0.985496 -0.0780672    1.67402 255 255 255
0.605193 0.387042  1.74046 255 255 255
  0.89586 0.0298713   1.74794 255 255 255
0.865245 0.154276   1.6822 255 255 255
0.611348 0.359998  1.73341 255 255 255
0.432345 0.044883  1.90311 255 255 255
0.27034 0.28378 1.88435 255 255 255
0.819786  -0.1161  1.76118 255 255 255
0.0900089  0.129951   2.05428 255 255 255
0.136869 0.233185  2.00422 255 255 255
 0.708565 -0.122006   1.79771 255 255 255
0.432655 0.328875  1.84258 255 255 255
0.429201 0.329727  1.83876 255 255 255
 0.296131 0.0802607   1.96621 255 255 255
0.525574 0.111313  1.84093 255 255 255
 0.928733 -0.115192   1.71367 255 255 255
0.633328 0.310498  1.72306 255 255 255
 0.252561 -0.111065   2.01711 255 255 255
0.606078 0.365305  1.75071 255 255 255
0.728063 0.277659  1.70055 255 255 255
 0.158626 -0.163506    2.0524 255 255 255
0.748437 0.212671  1.71119 255 255 255
 0.275163 0.0443025   1.96957 255 255 255
0.596705 0.284368  1.76398 255 255 255
0.161111 0.175466   2.0081 255 255 255
 0.185638 -0.202105   2.01877 255 255 255
 0.16467 0.329551  1.96187 255 255 255
0.186616 0.212485  1.98141 255 255 255
 0.48578 0.371223  1.79827 255 255 255
0.419937   0.1308  1.89252 255 255 255
  0.626626 -0.0261163    1.86478 255 255 255
0.557779 0.388952  1.76195 255 255 255
 0.17189 0.191006   1.9941 255 255 255
0.775216 0.386376  1.66335 255 255 255
0.544633 0.335728  1.77282 255 255 255
 0.674043 -0.104218   1.83063 255 255 255
0.138385 0.178399  2.01241 255 255 255
0.101783   0.0408  2.06123 255 255 255
0.622922  0.15233  1.75887 255 255 255
  0.253268 -0.0728109    2.02106 255 255 255
   0.128189 -0.00487428     2.08668 255 255 255
 0.110236 0.0537717   2.04849 255 255 255
0.729288 0.347354  1.70105 255 255 255
 0.401183 -0.123623   1.93877 255 255 255
 0.696354 -0.116547   1.81821 255 255 255
 0.950159 0.0402726   1.71378 255 255 255
  0.777682 -0.0355079    1.78909 255 255 255
   0.3536 0.0484477   1.94353 255 255 255
0.692276   0.2445  1.73615 255 255 255
 0.84623 0.294853  1.65707 255 255 255
0.652814 0.333466  1.71704 255 255 255
0.462453 0.379405  1.80171 255 255 255
0.147874 0.291836  1.98801 255 255 255
0.178971 0.199565  1.98888 255 255 255
0.842347 0.351656  1.64409 255 255 255
0.215264 -0.18587  2.01241 255 255 255
0.760657 0.320657  1.69197 255 255 255
 0.972256 0.0515078   1.71654 255 255 255
0.129645 0.287233  1.99184 255 255 255
   0.85248 -0.0167415    1.75783 255 255 255
 0.0866012 -0.0588342    2.11366 255 255 255
  0.239868 -0.0088789    2.04394 255 255 255
  0.616654 -0.0672552    1.86023 255 255 255
 0.360444 -0.141589   1.95594 255 255 255
 0.41755 0.276762  1.83216 255 255 255
0.899888 0.188937  1.66182 255 255 255
0.0792728    0.2922   2.01978 255 255 255
0.543236 0.322832  1.77779 255 255 255
 0.805741 -0.126857   1.76707 255 255 255
 0.414886 0.0667196   1.91095 255 255 255
0.382548 0.211307  1.86292 255 255 255
  0.880498 -0.0300425    1.73658 255 255 255
0.636343  0.20406  1.76543 255 255 255
0.215859 0.350252   1.9159 255 255 255
0.0910175   0.18869   2.03612 255 255 255
 0.164321 -0.148962   2.03393 255 255 255
 0.970321 0.0361876   1.70467 255 255 255
0.179827 0.197294  1.99672 255 255 255
 0.283856 -0.148591   1.99273 255 255 255
  0.8792 0.109938  1.68007 255 255 255
0.803761 0.379371  1.64545 255 255 255
 0.123044 -0.220573   2.04559 255 255 255
0.656305 0.171954   1.7453 255 255 255
0.390375 -0.20104  1.93909 255 255 255
 0.931712 0.0121655   1.72103 255 255 255
0.950704 0.111695   1.6566 255 255 255
0.730916 0.242892  1.70128 255 255 255
0.472718 0.287475  1.79967 255 255 255
0.729941 0.141651  1.74681 255 255 255
0.655516 0.423227  1.71611 255 255 255
0.0983611  0.265703    2.0221 255 255 255
0.201443 0.244497  1.97688 255 255 255
 0.326017 -0.115479   1.98372 255 255 255
 0.481897 0.0665911   1.87897 255 255 255
  0.141571 -0.0248311    2.09628 255 255 255
0.466744 0.116973  1.85807 255 255 255
 0.116587 0.0511121   2.05411 255 255 255
 0.113341 0.0535512   2.04726 255 255 255
0.891893 0.141801  1.66403 255 255 255
0.0808692  0.179278   2.05065 255 255 255
 0.162388 -0.205439   2.02262 255 255 255
0.0819803  0.215421   2.03862 255 255 255
0.209064 0.124171  2.00179 255 255 255
 0.182815 -0.223638   2.01509 255 255 255
0.350579 0.325508  1.87845 255 255 255
  0.283873 -0.0280989    2.01007 255 255 255
0.589651 0.320563  1.75279 255 255 255
0.093629 0.256039  2.01468 255 255 255
0.455153 0.330716  1.82595 255 255 255
0.616925 0.271347  1.76551 255 255 255
   0.945287 -0.00320622     1.71088 255 255 255
   0.945171 -0.00317033     1.71076 255 255 255
0.479454 0.282831    1.804 255 255 255
  0.625288 -0.0634392    1.85751 255 255 255
 0.133448 -0.216059   2.04951 255 255 255
 0.268649 -0.180288   1.99252 255 255 255
 0.403938 -0.094693   1.95306 255 255 255
 0.336755 -0.140947   1.97341 255 255 255
 0.627193 -0.120609    1.8459 255 255 255
 0.712136 -0.125391   1.78966 255 255 255
0.237204 0.038778   1.9972 255 255 255
0.834651 0.266713  1.65165 255 255 255
  0.8375 0.337786  1.65294 255 255 255
0.258609  0.30907  1.90218 255 255 255
   0.7747 -0.111313   1.76184 255 255 255
 0.717185 -0.155154   1.79475 255 255 255
0.510809 0.360101  1.79302 255 255 255
  0.318354 -0.0393936     1.9967 255 255 255
 0.877533 0.0328687   1.75109 255 255 255
0.840636 0.267687  1.64393 255 255 255
0.523846 0.317529  1.78671 255 255 255
  0.27065 -0.166488   1.98936 255 255 255
  0.619425 -0.0869629    1.85769 255 255 255
  0.234282 -0.0334805    2.04697 255 255 255
0.585067  0.27819  1.77819 255 255 255
 0.66398 0.335142  1.71553 255 255 255
0.621763 0.355293   1.7324 255 255 255
0.786441 0.382699  1.65015 255 255 255
  0.310965 0.00654793    1.99639 255 255 255
0.388855 0.317629  1.86182 255 255 255
 0.322356 0.0918223   1.95152 255 255 255
0.164938 0.175427   2.0058 255 255 255
0.754402 0.110904  1.74122 255 255 255
0.257444 0.310572  1.90994 255 255 255
0.631257 0.323673   1.7226 255 255 255
 0.950748 0.0351746   1.71469 255 255 255
   0.255774 -0.00504963     2.03663 255 255 255
0.137898  0.12003  2.03588 255 255 255
0.846009 0.164014  1.68772 255 255 255
0.173212 0.206037  1.99998 255 255 255
0.134677 0.118116  2.02795 255 255 255
0.824701 0.193805  1.67682 255 255 255
  0.46717 -0.131901   1.90636 255 255 255
0.486861 0.345333  1.80631 255 255 255
  0.795465 -0.0671233    1.77156 255 255 255
0.803294 0.373946   1.6444 255 255 255
0.61524 0.17963 1.77326 255 255 255
0.241993 0.250736  1.94816 255 255 255
 0.602221 0.0798859   1.81333 255 255 255
 0.689038 0.0980046   1.77161 255 255 255
 0.686875 0.0992444   1.76783 255 255 255
0.865697 0.284562  1.64126 255 255 255
0.701658 0.430206  1.69438 255 255 255
 0.242216 0.0446288   1.99404 255 255 255
0.448479 0.315113  1.80816 255 255 255
  0.320098 -0.0652679    1.99353 255 255 255
0.251431 0.341754   1.8964 255 255 255
0.893208 0.196883  1.65765 255 255 255
0.277749 0.337186  1.90159 255 255 255
0.515732   0.3759  1.79607 255 255 255
   0.40556 -0.0673714    1.96373 255 255 255
 0.30561 0.289219  1.87735 255 255 255
  0.8415 0.381876  1.64401 255 255 255
   0.68091 -0.0412118    1.83554 255 255 255
0.736118 0.226222  1.70102 255 255 255
  0.56768 0.0810708   1.82565 255 255 255
 0.741021 -0.127094   1.80114 255 255 255
 0.731538 -0.122806   1.78581 255 255 255
 0.251208 0.0819923   1.99036 255 255 255
  0.802961 -0.0650557    1.77341 255 255 255
0.625841 0.211422  1.76555 255 255 255
 0.713818 -0.161267   1.78394 255 255 255
 0.292978 -0.206094   1.96682 255 255 255
0.572627 0.318798  1.75967 255 255 255
 0.304303 0.0446602   1.96573 255 255 255
  0.194421 -0.0950143    2.04836 255 255 255
  0.774661 -0.0361285    1.78995 255 255 255
 0.347734 -0.129991   1.96347 255 255 255
0.802514 0.390537  1.65857 255 255 255
0.435659 0.398836  1.80489 255 255 255
0.931708 0.143731  1.64641 255 255 255
0.506638 0.260036  1.78933 255 255 255
0.380134 -0.13355  1.94799 255 255 255
 0.33993 0.371022  1.88047 255 255 255
0.566629 0.379079  1.76207 255 255 255
0.772047 0.399951  1.66124 255 255 255
0.841324 0.288537   1.6447 255 255 255
0.119796 0.039586   2.0551 255 255 255
  0.13489 0.0423635   2.04159 255 255 255
 0.304273 0.0385299   1.95433 255 255 255
  0.7131 0.308764  1.70381 255 255 255
 0.510415 -0.135337   1.88198 255 255 255
0.577574 0.329557  1.76025 255 255 255
0.845064 0.139832  1.69396 255 255 255
0.833927 0.298064  1.66808 255 255 255
  0.5155 0.231621  1.81613 255 255 255
0.706989 0.341876  1.70708 255 255 255
0.553805 0.322433  1.77006 255 255 255
  0.306819 -0.0137768    2.01348 255 255 255
 0.442216 0.0329447   1.90039 255 255 255
0.203288 0.114771  2.00634 255 255 255
0.286584 0.149014  1.95216 255 255 255
 0.33631 0.211503  1.91799 255 255 255
   0.8568 -0.128014   1.74602 255 255 255
 0.769253 -0.114682   1.78439 255 255 255
0.691794 0.259178  1.73257 255 255 255
0.535741 0.254081  1.80178 255 255 255
 0.68177 0.266004   1.7325 255 255 255
0.713799 0.277705  1.70969 255 255 255
 0.696383 -0.109499   1.81354 255 255 255
0.148834  0.11321  2.02261 255 255 255
  0.571797 -0.0283844    1.88883 255 255 255
 0.873377 0.0298846    1.7521 255 255 255
 0.283022 -0.142892   1.99429 255 255 255
0.602944 0.196283  1.77577 255 255 255
 0.720266 -0.126312   1.81031 255 255 255
0.405811 0.337352  1.85112 255 255 255
 0.257978 0.0891177   1.98284 255 255 255
  0.792696 -0.0699685    1.77567 255 255 255
 0.146368 0.0714956   2.03435 255 255 255
  0.981515 -0.0710195    1.68447 255 255 255
 0.93304 0.165482  1.65284 255 255 255
0.696372 0.324025  1.71004 255 255 255
 0.25452 0.300765  1.90209 255 255 255
0.545895 0.351004  1.77958 255 255 255
0.218589 0.189939  1.98041 255 255 255
 0.26015 0.225251  1.94748 255 255 255
 0.741289 -0.113314    1.7791 255 255 255
 0.959113 0.0316834   1.71891 255 255 255
 0.122205 0.0389256   2.04778 255 255 255
0.0872207  0.290201   2.01503 255 255 255
 0.91596 0.154352  1.65495 255 255 255
0.404522 0.301115  1.83013 255 255 255
0.786748 0.218695  1.68489 255 255 255
 0.241171 -0.135264   2.01848 255 255 255
  0.17659 0.0555817   2.02454 255 255 255
0.941819 0.131992  1.64728 255 255 255
0.687408 0.353569  1.70933 255 255 255
0.760341 0.286234  1.68555 255 255 255
0.100407 0.132093   2.0504 255 255 255
 0.431869 0.0572479   1.90017 255 255 255
0.189384 0.115915  2.01113 255 255 255
 0.700308 -0.123505   1.81591 255 255 255
  0.310013 -0.0990214    1.99855 255 255 255
 0.649174 0.0612926   1.80254 255 255 255
0.599155  0.12943   1.8066 255 255 255
0.884145 0.209161  1.65566 255 255 255
 0.199228 0.0427066   2.01178 255 255 255
0.888505 0.178266  1.66403 255 255 255
0.529572 0.104555  1.84732 255 255 255
 0.230028 -0.126079   2.03427 255 255 255
0.318338 0.315884  1.87822 255 255 255
 0.733246 0.0300634   1.81504 255 255 255
 0.167332 -0.128349   2.03781 255 255 255
0.134379  -0.1301  2.07881 255 255 255
0.0803908  0.235717   2.04033 255 255 255
 0.645649 -0.128922   1.83078 255 255 255
 0.276593 -0.151777   1.99534 255 255 255
 0.59433 0.278923  1.77468 255 255 255
  0.337401 -0.0743569     1.9928 255 255 255
 0.62727 0.144744  1.77436 255 255 255
  0.677217 -0.0173669    1.84327 255 255 255
0.878845 0.142591   1.6711 255 255 255
0.0907053  0.139852   2.05144 255 255 255
0.259514 -0.15122  2.00083 255 255 255
 0.40545 0.282148  1.84169 255 255 255
 0.393771 0.0489713   1.92258 255 255 255
 0.197079 0.0988622   1.99768 255 255 255
 0.188679 -0.105573   2.04933 255 255 255
   0.888231 -0.00308697     1.73804 255 255 255
0.545403 0.108543  1.83486 255 255 255
 0.257346 -0.153686   2.00252 255 255 255
0.725268 0.444546  1.60766 255 255 255
0.241401 0.154448  1.97804 255 255 255
0.773282 -0.11828  1.76801 255 255 255
 0.379573 -0.144457   1.94534 255 255 255
 0.267085 -0.137808   2.00179 255 255 255
0.365644 0.220772  1.89852 255 255 255
0.677475 0.409419  1.71598 255 255 255
  0.550546 -0.0174662    1.89194 255 255 255
 0.283288 -0.196467   1.96992 255 255 255
0.835148 0.138244  1.69677 255 255 255
 0.885334 0.0351258   1.75513 255 255 255
 0.661808 0.0169707   1.84694 255 255 255
0.431634 0.373639  1.83755 255 255 255
  0.235423 -0.0178489    2.03093 255 255 255
 0.740678 0.0182329   1.81673 255 255 255
0.291243 0.046352  1.97547 255 255 255
  0.223921 -0.0139177    2.05323 255 255 255
 0.320081 -0.168497   1.96357 255 255 255
0.392807 0.309197  1.85312 255 255 255
0.752454 0.215352   1.7096 255 255 255
 0.337948 0.0434889   1.95352 255 255 255
 0.308029 -0.145616   1.98075 255 255 255
 0.857055 -0.119065   1.74485 255 255 255
0.517763 0.321988  1.79635 255 255 255
0.355367 0.146115  1.92589 255 255 255
0.062031 0.223066  2.04487 255 255 255
  0.192242 -0.0402898    2.07179 255 255 255
0.289078  0.20457  1.93141 255 255 255
0.368825 0.291952  1.84441 255 255 255
0.129386 0.194652  2.02183 255 255 255
 0.228834 0.0670185   1.99789 255 255 255
0.822836 0.104211  1.70895 255 255 255
 0.384513 -0.129688   1.94499 255 255 255
 0.828194 -0.147502   1.76123 255 255 255
 0.425194 0.0422279    1.9102 255 255 255
0.362793 0.143282  1.92061 255 255 255
0.856795 0.158306  1.68697 255 255 255
0.896917 0.249117  1.64309 255 255 255
 0.305261 -0.122033   1.99329 255 255 255
 0.365585 -0.132484   1.96303 255 255 255
  0.18149 -0.130311   2.04471 255 255 255
0.619369  0.38133  1.73782 255 255 255
0.606999 0.310129  1.72212 255 255 255
0.385104 0.209605  1.89306 255 255 255
 0.664677 0.0360207   1.80028 255 255 255
 0.72664 0.152156  1.74199 255 255 255
0.878137 0.133098  1.66604 255 255 255
0.542941  0.27205  1.78641 255 255 255
0.545532  0.23244  1.79617 255 255 255
0.876375 0.239146  1.64124 255 255 255
0.113166 0.220828  2.02668 255 255 255
0.602956 0.184602  1.77461 255 255 255
0.602757 0.337559  1.74781 255 255 255
0.0776173   0.22994   2.03666 255 255 255
 0.480574 -0.192891   1.88376 255 255 255
  0.795315 -0.0861534    1.76924 255 255 255
0.0469951  0.219667   2.06163 255 255 255
    0.9422 -0.0680369    1.70153 255 255 255
0.453887 0.280441  1.82833 255 255 255
   0.75284 -0.0814708    1.78574 255 255 255
0.192998 0.193417  1.98016 255 255 255
 0.700571 0.0950607   1.79224 255 255 255
0.314397 0.162452  1.94722 255 255 255
 0.410531 -0.203061   1.92247 255 255 255
 0.629474 0.0859282   1.79661 255 255 255
  0.488182 -0.0228788    1.91465 255 255 255
 0.683827 0.0717475   1.77654 255 255 255
  0.668997 -0.0676388    1.83775 255 255 255
  0.895099 -0.0760873    1.72419 255 255 255
 0.925319 0.0405134   1.72999 255 255 255
0.923946   0.1312  1.65877 255 255 255
 1.01157 0.053718  1.69228 255 255 255
  0.351416 -0.0175927    1.99422 255 255 255
  0.362263 -0.0726737    1.98181 255 255 255
0.647955 0.186484  1.75756 255 255 255
0.953779 0.062065  1.71493 255 255 255
0.272552 0.140166  1.96578 255 255 255
  0.176034 -0.0386227    2.07723 255 255 255
0.184235  0.19691   1.9972 255 255 255
 0.396294 0.0270236   1.92189 255 255 255
0.629438 0.215045  1.75873 255 255 255
0.566964  0.20582   1.7931 255 255 255
0.685004 0.272923  1.72484 255 255 255
0.504795 0.173395  1.84432 255 255 255
0.240189  0.25833  1.94744 255 255 255
0.0347132     0.206   2.06568 255 255 255
0.262623 0.318772  1.90321 255 255 255
 0.890864 0.0469794     1.745 255 255 255
0.281716 0.255852  1.90407 255 255 255
0.0962081 0.0116089   2.06028 255 255 255
 0.645803 -0.109982   1.83566 255 255 255
0.0950349  0.242199   2.02666 255 255 255
0.669444 0.283845  1.72226 255 255 255
0.672637 0.268649  1.73975 255 255 255
0.920825 0.188275  1.64852 255 255 255
 0.77377 0.381266   1.6665 255 255 255
   0.196656 -0.00343986     2.06495 255 255 255
  0.891517 0.00975051    1.74088 255 255 255
0.793952 0.295381  1.67014 255 255 255
 0.80338 0.163035  1.69711 255 255 255
 0.846049 -0.112535   1.74988 255 255 255
0.587539  0.22142  1.78167 255 255 255
0.428508 0.106996  1.89081 255 255 255
  0.404258 -0.0966557    1.95599 255 255 255
0.368732 0.309985  1.86986 255 255 255
0.777783 0.273292  1.69184 255 255 255
0.326349 0.216527  1.91425 255 255 255
 0.169991 -0.187852   2.03642 255 255 255
 0.62834 0.320054  1.72319 255 255 255
 0.589305 0.0673353    1.8194 255 255 255
0.249843  0.19189  1.96012 255 255 255
 0.430548 -0.088206   1.92447 255 255 255
0.568608  0.30759  1.76527 255 255 255
0.300229 0.321588   1.8912 255 255 255
0.568544 0.318672  1.76314 255 255 255
 0.359358 0.0118806   1.96815 255 255 255
0.924225 0.160816  1.64734 255 255 255
0.102732 0.146515  2.03514 255 255 255
0.485997  0.27922  1.80511 255 255 255
0.549856 0.380169  1.77233 255 255 255
   0.787147 -0.00294902     1.79322 255 255 255
0.660574 0.343969  1.72478 255 255 255
 0.776332 -0.128609   1.77045 255 255 255
0.902105 0.219584  1.64701 255 255 255
0.673795 0.115006  1.76995 255 255 255
 0.896192 0.0539917   1.74144 255 255 255
0.622127 0.313876  1.74908 255 255 255
0.428207 0.317193  1.83823 255 255 255
0.188234 0.136949  2.01827 255 255 255
 0.389292 -0.174868   1.93512 255 255 255
0.483547 0.114533  1.87176 255 255 255
 0.236825 -0.214391   1.99873 255 255 255
0.565046 0.375623   1.7633 255 255 255
  0.49372 0.0795403   1.86732 255 255 255
  0.203531 -0.0465578    2.03513 255 255 255
0.098073 0.166729  2.02823 255 255 255
 0.410698 0.0844753    1.9126 255 255 255
0.0660873  0.219628   2.04476 255 255 255
 0.942041 0.0636184   1.71766 255 255 255
0.591075 0.310929  1.74059 255 255 255
 0.931159 -0.109194   1.69749 255 255 255
0.559832 0.285618  1.77643 255 255 255
0.488618 0.102341  1.87182 255 255 255
 0.79192 0.255841  1.67828 255 255 255
 0.38155 0.102886  1.92816 255 255 255
0.954351 0.119296  1.64962 255 255 255
 0.14162 0.243387  2.00052 255 255 255
 0.373967 -0.126196   1.96092 255 255 255
0.202001 0.308315  1.94502 255 255 255
 0.479789 -0.156029   1.91092 255 255 255
0.865602 0.253583  1.64496 255 255 255
 0.791131 -0.076579   1.77674 255 255 255
0.514233 0.345149  1.78851 255 255 255
0.866112 0.192356   1.6603 255 255 255
  0.915575 -0.0476414    1.72266 255 255 255
0.265209 0.264042  1.93694 255 255 255
0.725396 0.153455  1.73714 255 255 255
0.809679 0.197757  1.68772 255 255 255
 0.258047 -0.050528    2.0363 255 255 255
 0.374028 -0.170857   1.94969 255 255 255
0.767506 0.293644  1.68715 255 255 255
0.179501 0.154412  2.00554 255 255 255
0.0774901  0.165746   2.05888 255 255 255
 0.382995 -0.153841   1.94437 255 255 255
0.620875 0.370201  1.74086 255 255 255
 0.337996 -0.131538   1.98016 255 255 255
  0.803688 -0.0837274    1.76481 255 255 255
0.858781 0.161044  1.68172 255 255 255
0.0810566 0.0412726   2.07196 255 255 255
0.600307 0.300242  1.74779 255 255 255
0.450114 0.315348  1.81781 255 255 255
0.301692 0.313984    1.896 255 255 255
 0.626711 0.0684362   1.81026 255 255 255
0.117716  0.28445  2.00855 255 255 255
0.248158 0.262662  1.92623 255 255 255
0.807062 0.232422  1.68591 255 255 255
0.852751 0.260757  1.64002 255 255 255
0.858541 0.101134  1.69094 255 255 255
0.400969 0.337853  1.85208 255 255 255
0.786486 0.223647  1.68202 255 255 255
0.798932    0.282  1.66904 255 255 255
0.512994 0.222413  1.83006 255 255 255
 0.55789 0.331156  1.76152 255 255 255
0.711969 0.355424  1.69582 255 255 255
0.360024 0.194022      1.9 255 255 255
0.223269 0.155548  1.98821 255 255 255
0.161081  0.27643   1.9773 255 255 255
  0.611798 -0.0708756    1.86354 255 255 255
 0.838621 -0.161266   1.75683 255 255 255
0.245699 0.133918  1.98055 255 255 255
  0.926853 -0.0175267    1.71957 255 255 255
 0.690043 0.0996932   1.76487 255 255 255
  0.446919 0.00566743     1.9453 255 255 255
0.314232 0.292099  1.89435 255 255 255
0.829918 0.232737  1.66111 255 255 255
 0.278934 -0.104957   2.01739 255 255 255
 0.879546 -0.102968   1.72071 255 255 255
  0.882339 -0.0358897    1.73962 255 255 255
0.899729 0.247561  1.63937 255 255 255
 0.633357 0.0464005   1.81124 255 255 255
0.773858 0.295298  1.66777 255 255 255
 0.555844 0.0527725   1.83636 255 255 255
  0.794242 -0.0560202    1.77138 255 255 255
0.648311 0.288341  1.73312 255 255 255
0.338893 0.181296   1.9142 255 255 255
 0.592044 -0.110699   1.86309 255 255 255
0.101095 0.153601   2.0447 255 255 255
0.669061 0.362579  1.71833 255 255 255
0.627326 0.303121   1.7406 255 255 255
   0.470898 -0.00467066     1.92165 255 255 255
  0.27239 -0.109783   2.00422 255 255 255
0.510983 0.360764  1.79056 255 255 255
 0.848622 0.0958339   1.69565 255 255 255
0.749328 0.404094  1.67117 255 255 255
0.634551 0.353264  1.71989 255 255 255
0.415266 0.339852  1.85039 255 255 255
0.712481 0.262131   1.7186 255 255 255
  0.590153 -0.0755271    1.87387 255 255 255
0.387884 0.321234  1.86153 255 255 255
0.178904 0.301561   1.9756 255 255 255
0.805924 0.344811  1.66234 255 255 255
 0.894531 0.0425891   1.74711 255 255 255
 0.764533 -0.104128   1.77658 255 255 255
0.629111 0.284382  1.75077 255 255 255
0.461418 0.175967  1.86116 255 255 255
 0.64008 0.116132  1.79031 255 255 255
0.544651 0.349226  1.77393 255 255 255
 0.261237 0.0923417   1.98559 255 255 255
0.550569 0.317173  1.76696 255 255 255
0.506045 0.304796  1.79696 255 255 255
0.599896 0.279466  1.76388 255 255 255
0.301139 0.293141  1.88345 255 255 255
0.823646 0.292734  1.65615 255 255 255
0.767134 0.193635  1.70862 255 255 255
  0.561286 -0.0121653    1.89449 255 255 255
0.451425 0.308166  1.81751 255 255 255
0.394051 0.303821  1.84523 255 255 255
0.735285  0.27441  1.70055 255 255 255
 0.868149 -0.127056   1.72422 255 255 255
0.861346 0.175449  1.67631 255 255 255
0.373326 0.114281  1.92433 255 255 255
0.382688 0.315987  1.85688 255 255 255
 0.157062 0.0228761   2.05133 255 255 255
   0.38527 -0.0906263    1.96688 255 255 255
 0.10578 0.235708  2.01396 255 255 255
0.84001 0.13236 1.69629 255 255 255
0.264913 0.253255  1.93763 255 255 255
0.575624 0.190031  1.79574 255 255 255
0.256367 0.100174  1.98061 255 255 255
  0.910268 -0.0910078     1.7129 255 255 255
0.0468348  0.178976   2.06677 255 255 255
 0.224297 -0.178716   2.01419 255 255 255
0.702892 0.231185  1.72955 255 255 255
0.636278  0.27915  1.75392 255 255 255
0.670578 0.386422  1.70784 255 255 255
0.530228 0.310263  1.78451 255 255 255
0.907013 0.171831  1.65542 255 255 255
0.819145 0.208189  1.67461 255 255 255
  0.42694 -0.167121    1.9269 255 255 255
 0.305026 0.0645511   1.96133 255 255 255
0.720072 0.217849  1.72014 255 255 255
 0.76341 0.248973   1.7006 255 255 255
  0.917532 -0.0621703    1.71979 255 255 255
0.858012 0.328466  1.64469 255 255 255
 0.517969 -0.148057   1.89648 255 255 255
 0.750634 -0.165765   1.79492 255 255 255
0.523805 0.158773  1.83402 255 255 255
0.518387 0.159643  1.82669 255 255 255
 0.838365 -0.154217   1.75863 255 255 255
 0.354551 -0.154846   1.95629 255 255 255
 0.655019 0.0926474   1.78003 255 255 255
0.0993627   0.19524   2.03645 255 255 255
0.0702238 0.0998147   2.07355 255 255 255
 0.428592 -0.208001   1.91379 255 255 255
0.129722 0.274129  2.00049 255 255 255
0.846078 0.325702  1.65149 255 255 255
 0.048991 0.0530463   2.07194 255 255 255
0.602933  0.36309  1.73879 255 255 255
0.581192 0.199414  1.79125 255 255 255
0.699686  0.29386  1.70425 255 255 255
0.228352 0.264987  1.94612 255 255 255
 0.208967 -0.135744   2.02524 255 255 255
0.382018  0.25375  1.89193 255 255 255
0.244081 0.150158  1.97576 255 255 255
 0.486455 -0.184409   1.87943 255 255 255
0.696098 0.263807  1.73096 255 255 255
0.530395  0.34318  1.77207 255 255 255
0.569975 0.288473   1.7695 255 255 255
 0.72058 0.121742  1.74961 255 255 255
0.236754  0.26295  1.94056 255 255 255
0.623148 0.291708  1.74537 255 255 255
0.0354827  0.231715    2.0618 255 255 255
0.653179 0.140468  1.76108 255 255 255
0.338374 0.334072  1.88456 255 255 255
 0.691099 -0.065927    1.8241 255 255 255
0.261286 0.300264  1.90198 255 255 255
0.342983 0.284829  1.88763 255 255 255
0.573118  0.15054  1.79969 255 255 255
 0.119774 0.0159515   2.05809 255 255 255
 0.615578 -0.147299   1.85618 255 255 255
 0.103513 0.0210518   2.06979 255 255 255
0.386474 0.248259  1.87118 255 255 255
0.115647 0.146451  2.03585 255 255 255
0.443905 0.352542  1.83247 255 255 255
 0.383559 0.0794357    1.9221 255 255 255
 0.615589 -0.132687    1.8461 255 255 255
0.917116 0.149953   1.6536 255 255 255
0.949155 0.133239  1.64524 255 255 255
0.499609 0.205563  1.82373 255 255 255
0.296845  0.19327  1.93079 255 255 255
0.442782 0.308386  1.81426 255 255 255
0.136223 0.102102  2.03132 255 255 255
0.872739 0.189341  1.66687 255 255 255
0.653191 0.293511   1.7319 255 255 255
0.263388 0.124561  1.97107 255 255 255
0.715071   0.1257  1.74695 255 255 255
0.204036 0.317829  1.93372 255 255 255
 0.306407 0.0755538   1.96123 255 255 255
0.624544 0.246995  1.75001 255 255 255
0.754492 0.136075  1.72476 255 255 255
0.222955 0.206151  1.97302 255 255 255
 0.359064 -0.198048   1.95107 255 255 255
 0.467238 -0.177734    1.8945 255 255 255
0.0607763  0.198524   2.05421 255 255 255
0.805409 0.264096  1.66663 255 255 255
 0.510843 0.0065068    1.9039 255 255 255
 0.586791 0.0953531   1.82289 255 255 255
0.366269 0.235398  1.88172 255 255 255
0.599314 0.255349  1.76827 255 255 255
 0.157755 -0.167011   2.04998 255 255 255
 0.471727 0.0437236   1.88869 255 255 255
 0.90552 0.126444  1.66257 255 255 255
0.291642 0.190356  1.93372 255 255 255
0.691961 0.269896  1.72647 255 255 255
0.134531 0.207876  2.01793 255 255 255
0.0574547  0.208427    2.0509 255 255 255
0.269442 0.216007  1.95114 255 255 255
0.610988 0.380025  1.74108 255 255 255
 0.459066 0.0766157   1.88386 255 255 255
0.406018 0.244985  1.86364 255 255 255
0.187224 0.285335  1.96561 255 255 255
 0.918765 0.0484379   1.73564 255 255 255
0.391102 0.283166  1.84667 255 255 255
0.352452 0.198138  1.91562 255 255 255
0.923314 0.178422  1.64836 255 255 255
0.746533 0.261762  1.70271 255 255 255
0.308224 0.107645  1.95729 255 255 255
  0.6122 0.353993  1.72508 255 255 255
 0.419871 0.0956473   1.90634 255 255 255
0.317866 0.131399  1.95296 255 255 255
 0.386079 -0.132208   1.93893 255 255 255
0.208665 0.313632  1.94662 255 255 255
0.639055 0.123124  1.78566 255 255 255
 0.732061 0.0254199   1.81816 255 255 255
0.661167 0.259396  1.74604 255 255 255
 0.70611 0.264073  1.72208 255 255 255
  0.508894 0.00554679    1.91817 255 255 255
0.447819 0.297852  1.81713 255 255 255
0.891745 0.041648  1.74814 255 255 255
 0.19052 0.205075  1.98804 255 255 255
  0.95244 0.0326141    1.7119 255 255 255
0.0941322 -0.183265   2.07845 255 255 255
  0.554932 -0.0626935    1.89304 255 255 255
0.612364 0.118014  1.80421 255 255 255
0.678465 0.321753  1.71442 255 255 255
 0.616852 -0.169101    1.8367 255 255 255
0.268415    0.243  1.93876 255 255 255
0.555507 0.123525  1.83644 255 255 255
 0.531244 0.0942732   1.85212 255 255 255
0.717004 0.269306  1.70991 255 255 255
   0.99359 -0.0866351    1.67844 255 255 255
0.801011 0.259201  1.67371 255 255 255
 0.394421 0.0641141    1.9193 255 255 255
   0.8654 -0.078946   1.73456 255 255 255
 0.481611 0.0945252   1.87391 255 255 255
  0.70308 -0.142121   1.81936 255 255 255
0.442459 0.238275  1.84758 255 255 255
 0.81904 0.205345  1.68848 255 255 255
0.569344 0.280479  1.78466 255 255 255
 0.361384 -0.164528   1.95212 255 255 255
0.835297 0.236053  1.66001 255 255 255
 0.28692 0.306307  1.89125 255 255 255
0.146018 0.124906  2.02939 255 255 255
0.229264 -0.13621   2.0282 255 255 255
  0.23141 0.0918174    1.9949 255 255 255
 0.552195 0.0609045   1.84974 255 255 255
0.877611 0.221179  1.64656 255 255 255
0.943089 0.133795  1.64576 255 255 255
   0.92022 -0.0669955    1.70989 255 255 255
0.674306 0.390017  1.71899 255 255 255
  0.68349 -0.133058   1.81018 255 255 255
 0.691233 -0.136534   1.82372 255 255 255
0.742319  0.36555  1.68602 255 255 255
0.313711 0.214441  1.91299 255 255 255
0.898641 0.213174  1.64897 255 255 255
 0.634946 0.0067216   1.85477 255 255 255
  0.350729 -0.0531446    1.98973 255 255 255
0.448349 0.237135    1.845 255 255 255
 0.5002 0.29117 1.79817 255 255 255
0.0743097  0.161302   2.04383 255 255 255
0.607035 0.256103  1.75565 255 255 255
  0.289214 -0.0150251    2.02296 255 255 255
0.277872 0.320525   1.8996 255 255 255
  0.11978 -0.100492   2.08028 255 255 255
0.867309 0.180494  1.67304 255 255 255
0.590288 0.305192  1.74529 255 255 255
0.822645 0.200252  1.68585 255 255 255
0.240604 0.309185  1.93859 255 255 255
 0.583042 -0.162713   1.85097 255 255 255
 0.246818 0.0668181   1.99004 255 255 255
 0.18775 0.190997  1.99163 255 255 255
0.842959   0.2446   1.6534 255 255 255
0.055882 0.170343   2.0563 255 255 255
 0.207143 0.0549428   2.01296 255 255 255
 0.165814 0.0930561   2.02244 255 255 255
0.219228 0.202936  1.97781 255 255 255
0.410092 0.239857  1.88178 255 255 255
0.236787 0.109421  1.99072 255 255 255
 0.71232 0.345017  1.69931 255 255 255
0.646593 0.260871   1.7437 255 255 255
0.772474 0.243962  1.69104 255 255 255
 0.872396 -0.103512   1.72882 255 255 255
0.699077 0.235468  1.73161 255 255 255
0.653669 0.334571  1.71884 255 255 255
0.266874 0.296618  1.90193 255 255 255
 0.191606 0.0330243    2.0215 255 255 255
 0.845521 0.0859972   1.70916 255 255 255
 0.26056 0.182735  1.96599 255 255 255
 0.57876 0.283195   1.7794 255 255 255
0.124983 0.115725  2.03561 255 255 255
   0.523501 0.000604926     1.89877 255 255 255
