ply
format ascii 1.0
element vertex 1182
property float x
property float y
property float z
property uchar red
property uchar green
property uchar blue
end_header
 0.124961 -0.145774   2.10823 255 255 255
0.125858 -0.11279  2.11615 255 255 255
 0.460179 -0.128761   1.95717 255 255 255
 0.337825 -0.228177   1.98358 255 255 255
0.448103 0.138376  1.90244 255 255 255
   0.38496 -0.0478162    2.00176 255 255 255
 0.277348 0.0397326    2.0096 255 255 255
0.306575 0.177971  1.95021 255 255 255
 0.322593 -0.164489   2.01106 255 255 255
 0.536083 0.0261836   1.86879 255 255 255
0.137447 0.210953  2.03314 255 255 255
0.208877 0.238766   1.9969 255 255 255
  0.512227 -0.0836945    1.88957 255 255 255
0.267911 0.132493  2.00087 255 255 255
 0.154646 0.0225795   2.06985 255 255 255
 0.299507 -0.217012   2.00795 255 255 255
0.089087 0.275773  2.05535 255 255 255
0.272307 0.144368  1.99683 255 255 255
0.118688 0.109861  2.07368 255 255 255
  0.290048 -0.0717741    2.02483 255 255 255
  0.32687 -0.189535   2.00072 255 255 255
 0.485029 -0.202239    1.9036 255 255 255
0.245218 0.139857  2.00929 255 255 255
0.107215 0.258645  2.04738 255 255 255
0.355292 0.148253  1.95208 255 255 255
 0.103225 0.0375294   2.09078 255 255 255
0.147165 0.172598  2.04257 255 255 255
0.249748 0.132969  2.00974 255 255 255
0.366595  0.26362  1.90248 255 255 255
0.295945 0.208716  1.96544 255 255 255
0.389791 0.146513  1.93051 255 255 255
 0.49461 -0.16741  1.90055 255 255 255
 0.289525 0.0622293   2.00138 255 255 255
 0.218494 -0.229301   2.03591 255 255 255
 0.587777 -0.103259   1.90583 255 255 255
  0.266277 -0.0807353    2.07515 255 255 255
0.0218739  0.158172    2.0802 255 255 255
 0.250061 -0.109091   2.04277 255 255 255
 0.265282 0.0372853   2.01599 255 255 255
 0.291468 -0.109404   2.03045 255 255 255
  0.502357 -0.0220414    1.89322 255 255 255
0.0633905  0.266095   2.07453 255 255 255
0.378887 0.021943  1.95785 255 255 255
0.183411 0.245324  2.00872 255 255 255
0.0714221  0.178723   2.06055 255 255 255
0.348812 0.213386  1.93582 255 255 255
0.144494 0.264483  2.02548 255 255 255
0.400303 0.203167  1.91506 255 255 255
0.201013 0.235061   2.0019 255 255 255
  0.31607 0.0665472   1.99244 255 255 255
0.142946 -0.19373  2.08709 255 255 255
0.262093 0.106825  2.00839 255 255 255
 0.257445 0.0805003   2.01674 255 255 255
0.152591 0.197596  2.03521 255 255 255
0.167879 -0.16784  2.06932 255 255 255
 0.224923 0.0354638   2.03949 255 255 255
 0.271593 0.0202242   2.01451 255 255 255
  0.578055 -0.0309879    1.91185 255 255 255
  0.40984 0.0914683   1.92946 255 255 255
 0.456476 -0.182352   1.92347 255 255 255
0.329012 0.155355  1.96394 255 255 255
0.381891 0.141072  1.93465 255 255 255
  0.467732 -0.0351174    1.91597 255 255 255
0.237439 0.176722  2.00108 255 255 255
 0.17824 0.292022  2.00878 255 255 255
0.427848 0.200258  1.89953 255 255 255
0.282476 0.252824  1.96223 255 255 255
  0.318422 -0.0548245    2.04843 255 255 255
 0.464851 -0.221967    1.9286 255 255 255
0.288022 0.132464   1.9905 255 255 255
 0.257651 0.0279477   2.02026 255 255 255
0.149157 0.293866  2.01965 255 255 255
 0.358789 0.0165023   1.97449 255 255 255
 0.267646 -0.137856   2.03967 255 255 255
  0.35204 -0.222358   1.97677 255 255 255
0.539268 0.101242  1.86142 255 255 255
 0.259098 0.0457656   2.01853 255 255 255
  0.49276 0.0624653   1.89161 255 255 255
0.0627217 0.0438527   2.10606 255 255 255
 0.27923 0.155698  1.98537 255 255 255
 0.238244 -0.174172   2.04537 255 255 255
  0.554645 -0.0722059    1.92426 255 255 255
0.184543 0.184787  2.02382 255 255 255
0.561904 0.119785  1.83666 255 255 255
0.353219 0.141826  1.94983 255 255 255
  0.344751 -0.0249699    1.99353 255 255 255
 0.297803 -0.126289   2.02515 255 255 255
  0.548195 -0.0168653    1.92229 255 255 255
  0.23069 -0.239958   2.03171 255 255 255
 0.367693 0.0342169    1.9643 255 255 255
0.333339 -0.15483   2.0066 255 255 255
  0.28312 -0.200802   2.02122 255 255 255
 0.398561 0.0375233   1.95213 255 255 255
0.270851 0.162556  1.98896 255 255 255
 0.215662 0.0441133    2.0399 255 255 255
0.194942  0.23722  2.00268 255 255 255
  0.509582 -0.0723131    1.94636 255 255 255
 0.466855 0.0743756   1.90572 255 255 255
0.363536  0.17346  1.93413 255 255 255
 0.371934 0.0133023   1.96916 255 255 255
0.257507 0.279735  1.96375 255 255 255
0.521743 -0.15061  1.88309 255 255 255
0.296023 0.047865   1.9993 255 255 255
 0.556063 0.0469631   1.85626 255 255 255
  0.567948 -0.0171093    1.85615 255 255 255
  0.544315 -0.0174411    1.87018 255 255 255
  0.234081 -0.0341239    2.05195 255 255 255
 0.45653 0.141074  1.89696 255 255 255
 0.498661 -0.147532   1.89848 255 255 255
 0.270974 0.0696447   2.01011 255 255 255
 0.309376 0.0980929   1.98428 255 255 255
 0.342435 0.0602747   1.97949 255 255 255
 0.197552 -0.119925   2.06444 255 255 255
0.188265 0.100283  2.04708 255 255 255
0.337366 0.133605  1.95964 255 255 255
 0.294785 0.0222988   2.00464 255 255 255
  0.369576 -0.0215618    2.00409 255 255 255
0.323754 0.242652  1.94539 255 255 255
 0.307068 0.0162428   1.99536 255 255 255
0.173435 0.103555   2.0493 255 255 255
0.136662 0.185798  2.04107 255 255 255
0.467016 0.111051  1.89668 255 255 255
 0.541618 0.0757474   1.86106 255 255 255
0.480509 0.152926   1.8807 255 255 255
0.146862 0.283097  2.01769 255 255 255
0.0939481  0.244402   2.03487 255 255 255
 0.498159 0.0627461   1.88917 255 255 255
0.538452 0.136809  1.84436 255 255 255
0.203085 0.267417  1.98668 255 255 255
 0.538732 0.0397471   1.87385 255 255 255
0.0468767  0.221995   2.05521 255 255 255
0.394906 0.146245  1.93307 255 255 255
 0.488994 -0.146177   1.90471 255 255 255
 0.258199 -0.207645   2.03287 255 255 255
0.342735  0.28423  1.92186 255 255 255
 0.143221 0.0930199   2.06091 255 255 255
0.226402 0.151209  2.01504 255 255 255
0.0651567  0.246161   2.04279 255 255 255
 0.382686 -0.158843   1.97347 255 255 255
0.262297 0.164663  1.99122 255 255 255
 0.292766 0.0327594   2.00249 255 255 255
0.553546  0.10076  1.85339 255 255 255
0.405831 0.188818  1.91678 255 255 255
0.253121 -0.23287  2.02725 255 255 255
 0.193963 0.0440661   2.04853 255 255 255
 0.311342 -0.102832    2.0134 255 255 255
0.302821 0.156409  1.97273 255 255 255
0.537618  0.13447  1.85234 255 255 255
0.476976  0.19194  1.85672 255 255 255
0.342571 0.140485  1.95673 255 255 255
0.108147 0.191746  2.05883 255 255 255
 0.518612 0.0689798     1.876 255 255 255
 0.310798 -0.230481   1.99771 255 255 255
0.123946 0.136495  2.05938 255 255 255
 0.547847 0.0714047   1.85837 255 255 255
0.237757 0.150453  2.00395 255 255 255
  0.224035 -0.0308526    2.05606 255 255 255
0.535434 0.180655  1.84434 255 255 255
 0.555212 -0.144711   1.86097 255 255 255
0.202945 0.302351  1.97725 255 255 255
0.280103 0.235089  1.96921 255 255 255
  0.544676 -0.0296439    1.92854 255 255 255
0.405863  0.17557  1.90926 255 255 255
 0.137817 0.0873622   2.06425 255 255 255
 0.28569 -0.21105  2.01816 255 255 255
   0.2908 0.0575682   2.00098 255 255 255
 0.12356 0.170918  2.04932 255 255 255
0.283144 0.033955  2.00744 255 255 255
0.545666 -0.12563  1.92013 255 255 255
 0.476347 0.0116132   1.90721 255 255 255
 0.321904 -0.168902   2.00918 255 255 255
0.0639501 -0.174807   2.12154 255 255 255
0.0578987 0.0437253     2.108 255 255 255
 0.17399 0.205408  2.02302 255 255 255
0.252785 0.186406  1.99076 255 255 255
  0.395926 0.00705843    1.95585 255 255 255
0.503821 0.150452  1.86756 255 255 255
0.472492 0.183927  1.84872 255 255 255
  0.412747 -0.0118256    1.94841 255 255 255
0.311412 0.171135  1.97356 255 255 255
0.053217  0.12876  2.07684 255 255 255
 0.227926 0.0519458   2.03513 255 255 255
0.249597 -0.16212  2.04771 255 255 255
  0.522948 -0.0178547    1.88059 255 255 255
0.146046 0.028481  2.07311 255 255 255
  0.360946 -0.0869265    2.01079 255 255 255
 0.555094 0.0739138   1.84827 255 255 255
   0.22837 -0.0348862     2.0888 255 255 255
  0.51215 -0.039666   1.94441 255 255 255
0.344573 0.143999  1.95464 255 255 255
  0.322441 0.00914668    1.99678 255 255 255
 0.326097 -0.210497   1.99579 255 255 255
 0.329567 0.0628507    1.9804 255 255 255
0.257449 0.228884  1.97638 255 255 255
0.556325 0.104053  1.84707 255 255 255
  0.421532 0.00707269    1.93992 255 255 255
0.403866 0.117224  1.92694 255 255 255
0.0671569 0.0480454   2.09662 255 255 255
0.360266 0.156691  1.94204 255 255 255
 0.27618 0.192859  1.97445 255 255 255
 0.355613 -0.181736   1.98732 255 255 255
 0.163386 -0.191645   2.08046 255 255 255
 0.376413 -0.167966    1.9775 255 255 255
0.109699 0.187067  2.05971 255 255 255
 0.340939 0.0557993   1.97555 255 255 255
0.310547 0.138837  1.97826 255 255 255
0.412846  -0.1607  1.95256 255 255 255
  0.332469 -0.0276781    2.00073 255 255 255
0.135433 0.152696  2.04847 255 255 255
0.212703 0.185448  2.01077 255 255 255
0.0567878  0.123163    2.0792 255 255 255
0.145921 0.118532  2.05346 255 255 255
 0.14269 0.124653   2.0537 255 255 255
0.0611899  0.133072   2.07558 255 255 255
0.321126 0.151555  1.96951 255 255 255
0.0829919  0.251461   2.05795 255 255 255
 0.354095 -0.211483    1.9793 255 255 255
0.458463 0.206911  1.87065 255 255 255
0.347004 0.259836  1.91574 255 255 255
  0.3602 0.132547  1.94872 255 255 255
0.258029 0.120649   2.0061 255 255 255
 0.373107 -0.168358   1.98201 255 255 255
 0.568707 0.0630079   1.84591 255 255 255
 0.428755 0.0970171   1.92039 255 255 255
0.344473 0.263057  1.91425 255 255 255
 0.366706 0.0861772   1.95895 255 255 255
0.160165 0.106873   2.0521 255 255 255
0.335704 0.130815   1.9663 255 255 255
0.0284691  0.147826   2.07894 255 255 255
  0.516354 -0.0157899    1.88435 255 255 255
0.325235 0.286704  1.92707 255 255 255
0.398135 0.192934  1.92008 255 255 255
0.381271 0.205441  1.90181 255 255 255
  0.570496 -0.0290224    1.91562 255 255 255
 0.317175 -0.229352   1.99602 255 255 255
0.0762845  0.131453   2.07095 255 255 255
0.276198 0.231807  1.96902 255 255 255
  0.249402 -0.0193604    2.04086 255 255 255
0.301365 0.219335  1.96172 255 255 255
  0.141672 -0.0985782      2.104 255 255 255
 0.254466 -0.118413   2.04413 255 255 255
0.0643798 0.0066562   2.10916 255 255 255
0.395378 0.160607   1.9289 255 255 255
 0.510737 0.0782797   1.87758 255 255 255
0.220497  0.14739  2.01389 255 255 255
0.364271 0.181268  1.92722 255 255 255
  0.406284 -0.0414501    1.95664 255 255 255
0.334918 0.169632  1.96214 255 255 255
0.354668 0.283177  1.90753 255 255 255
 0.371121 0.0419639   1.96188 255 255 255
  0.297237 -0.0492928    2.02032 255 255 255
  0.16839 -0.174176   2.08698 255 255 255
0.274509 0.197173   1.9795 255 255 255
 0.363152 -0.234474   1.97537 255 255 255
  0.189263 -0.0439942     2.0724 255 255 255
 0.366299 0.0811824   1.95852 255 255 255
0.293199 0.136763  1.98637 255 255 255
0.259842 0.303511   1.9436 255 255 255
 0.239753 0.0481924   2.02731 255 255 255
 0.362743 0.0563924   1.96535 255 255 255
0.127708 0.149753  2.05274 255 255 255
 0.249058 -0.218149   2.03371 255 255 255
0.214587 0.276296  1.98073 255 255 255
0.345589 0.285879  1.91951 255 255 255
0.0173032  0.228033   2.06044 255 255 255
0.267836  0.23352  1.97069 255 255 255
0.450206  0.15842  1.88795 255 255 255
 0.162528 -0.176434   2.08389 255 255 255
0.461582 0.074334  1.90816 255 255 255
0.434602  0.11187   1.9129 255 255 255
0.346065 0.208084  1.93462 255 255 255
 0.559592 0.0731769   1.84732 255 255 255
 0.473351 -0.197631   1.91182 255 255 255
 0.290814 0.0828545   1.99742 255 255 255
0.530266  0.17432  1.84323 255 255 255
0.0631151  0.166825   2.06597 255 255 255
0.297654 0.222147  1.95768 255 255 255
0.345423 0.151072  1.95687 255 255 255
0.112504 0.185814  2.05467 255 255 255
0.344225 0.029608   1.9766 255 255 255
 0.542414 0.0873425   1.85205 255 255 255
 0.504931 0.0080827   1.88944 255 255 255
 0.456788 0.0398049   1.91465 255 255 255
0.0861639 -0.180521    2.1194 255 255 255
 0.318259 0.0334094   1.98979 255 255 255
0.140718 0.241594  2.02751 255 255 255
 0.488408 0.0420513    1.8969 255 255 255
 0.186914 -0.208773   2.06093 255 255 255
0.343755 0.289249  1.91787 255 255 255
0.386104 0.087269  1.94752 255 255 255
0.242319 0.159564  2.00431 255 255 255
0.113727 0.154233  2.05592 255 255 255
 0.510424 -0.146014   1.89153 255 255 255
 0.397829 -0.057985   1.96103 255 255 255
0.377395 0.152565  1.93526 255 255 255
0.540186  0.12511  1.85206 255 255 255
 0.214697 0.0847814   2.03406 255 255 255
 0.32012 0.192018  1.95302 255 255 255
0.176681 0.187744  2.02639 255 255 255
 0.51182 0.120023  1.86479 255 255 255
0.444881 0.100668  1.90947 255 255 255
0.184317 0.291951  1.99266 255 255 255
 0.345972 -0.137846   2.00067 255 255 255
0.255615 0.196009  1.98388 255 255 255
 0.223938 0.0969565   2.02921 255 255 255
 0.26466 0.227917  1.97292 255 255 255
0.477661 0.146794  1.88366 255 255 255
0.296054 0.120727  1.98945 255 255 255
0.26689 0.15177 1.99212 255 255 255
0.324007 0.191278  1.95098 255 255 255
0.208504 -0.10805  2.07431 255 255 255
0.198019 0.268957  1.99124 255 255 255
  0.202556 -0.0243922    2.06647 255 255 255
0.178474 0.161456  2.03152 255 255 255
 0.530603 -0.136156    1.8779 255 255 255
0.556051 0.100607  1.84676 255 255 255
 0.16567 0.236717   2.0134 255 255 255
0.148221 0.204985  2.03579 255 255 255
 0.197251 -0.209143   2.05583 255 255 255
 0.377503 -0.247289   1.95786 255 255 255
 0.520736 -0.138644   1.88615 255 255 255
 0.429933 0.0218621   1.93178 255 255 255
0.294756 0.224205  1.95951 255 255 255
  0.35829 -0.157464   1.98928 255 255 255
 0.447171 -0.109882   1.96475 255 255 255
  0.375776 -0.0254799    2.00162 255 255 255
 0.339708 0.0952414   1.97303 255 255 255
 0.250136 0.0557274   2.02156 255 255 255
 0.158892 -0.232976   2.05614 255 255 255
0.306798  0.21766   1.9569 255 255 255
0.272986 0.226116  1.96944 255 255 255
0.286878 0.225644  1.96674 255 255 255
  0.14067 -0.187827   2.07748 255 255 255
0.531632 0.190015  1.83956 255 255 255
 0.19436 0.122871  2.03504 255 255 255
  0.31629 -0.170759   2.01119 255 255 255
 0.132554 0.0199318   2.07953 255 255 255
 0.140278 0.0290602   2.07628 255 255 255
 0.393147 0.0753324   1.94616 255 255 255
 0.23554 0.132062   2.0166 255 255 255
0.398925 0.146749  1.93059 255 255 255
0.0925966  0.152578   2.08534 255 255 255
0.360838 0.205906  1.93695 255 255 255
 0.472895 -0.111921   1.91444 255 255 255
 0.385096 0.0988983   1.94579 255 255 255
  0.549475 -0.0425311    1.86785 255 255 255
0.368686 0.172259  1.93143 255 255 255
0.321022 -0.23503  1.99562 255 255 255
  0.209805 -0.0653694    2.06438 255 255 255
 0.346853 0.0385063   1.97577 255 255 255
0.351847 0.283927  1.91655 255 255 255
0.205479 0.137044  2.02597 255 255 255
0.531374 0.218303  1.82988 255 255 255
  0.427849 -0.0287751    1.94127 255 255 255
0.436307  -0.2134  1.92719 255 255 255
0.371215   0.1025  1.95576 255 255 255
 0.199217 -0.195382   2.05694 255 255 255
0.163581 0.252699  2.00957 255 255 255
 0.290048 -0.207519     2.017 255 255 255
0.298789 0.189439  1.96442 255 255 255
  0.17778 0.0802482   2.04603 255 255 255
0.299282 0.108016  1.98768 255 255 255
0.301216 0.047455  1.99692 255 255 255
 0.227868 -0.174035   2.05317 255 255 255
 0.154619 0.0065385   2.07207 255 255 255
   0.3466 -0.222961   1.97773 255 255 255
0.306207 0.221641  1.95588 255 255 255
0.390001  0.12321  1.93342 255 255 255
 0.25808 0.172631  1.99295 255 255 255
 0.174432 -0.198854   2.07406 255 255 255
 0.287672 -0.159214   2.02897 255 255 255
0.0251814  0.167966   2.07584 255 255 255
 0.363091 -0.156837    1.9865 255 255 255
 0.292149 0.0489652   2.00103 255 255 255
0.149722 0.202089  2.03104 255 255 255
 0.365973 -0.186637   1.98006 255 255 255
  0.394218 -0.0109346    1.95905 255 255 255
0.218758 -0.23745  2.04036 255 255 255
0.289051 0.193119  1.97265 255 255 255
0.185631 0.195715  2.01908 255 255 255
 0.342576 0.0835255   1.97186 255 255 255
 0.38641 0.115646  1.94143 255 255 255
 0.412186 0.0779413   1.93639 255 255 255
  0.22822 0.0144462   2.03998 255 255 255
  0.388548 -0.0198908    1.96379 255 255 255
 0.571733 -0.211094   1.86714 255 255 255
  0.20315 0.0729255   2.03454 255 255 255
0.405084 -0.20774  1.95199 255 255 255
  0.377581 -0.0253629    1.97057 255 255 255
 0.254597 -0.245457   2.03005 255 255 255
 0.403287 0.0688839   1.94033 255 255 255
 0.387926 -0.158228   1.96889 255 255 255
 0.312769 -0.158407   2.01618 255 255 255
0.203092 0.291804  1.97667 255 255 255
0.114276  0.16177  2.06046 255 255 255
 0.450916 -0.227396   1.91545 255 255 255
 0.381287 0.0148402   1.96001 255 255 255
0.364574 0.154132  1.94897 255 255 255
0.514421 0.128099  1.86346 255 255 255
0.0743758 0.0131732   2.10356 255 255 255
  0.30541 0.0460698   1.99444 255 255 255
 0.24955 0.177545   1.9986 255 255 255
0.179894 0.193894   2.0256 255 255 255
0.215005 0.117741  2.02761 255 255 255
0.212999 0.162362  2.01448 255 255 255
0.403226 0.120816  1.92778 255 255 255
0.135911 0.215482  2.03281 255 255 255
 0.481448 0.0774401   1.89366 255 255 255
 0.228116 0.0101839   2.04158 255 255 255
0.0778008  -0.19021   2.11275 255 255 255
 0.292924 -0.215753   2.01302 255 255 255
 0.338455 0.0405958   1.98488 255 255 255
    0.12818 -0.00749252     2.07802 255 255 255
 0.250398 -0.235919   2.02546 255 255 255
 0.151866 -0.207307   2.07248 255 255 255
0.254417 0.132306  2.00877 255 255 255
0.309363 0.195481  1.96384 255 255 255
 0.326752 0.0219206   1.98607 255 255 255
0.234558 0.264639  1.97721 255 255 255
0.0861156  0.146011   2.09198 255 255 255
0.324774  0.18819  1.96175 255 255 255
 0.208177 -0.167649   2.06409 255 255 255
0.105837 0.262647   2.0507 255 255 255
 0.431474 -0.220795   1.93121 255 255 255
0.304768  0.15257  1.97263 255 255 255
0.452816 0.154071  1.87994 255 255 255
 0.319163 -0.186359   2.00622 255 255 255
 0.564462 0.0697996   1.84439 255 255 255
 0.325114 0.0270374   1.98722 255 255 255
  0.490393 -0.0399372    1.94584 255 255 255
0.356422 0.162901  1.95144 255 255 255
 0.340559 -0.214055   1.98625 255 255 255
 0.405927 0.0996507   1.93369 255 255 255
 0.343919 -0.230971   1.97838 255 255 255
 0.352549 0.0821162   1.96681 255 255 255
0.0648983  0.188474   2.06034 255 255 255
0.0429664 0.0427034   2.10927 255 255 255
  0.528754 -0.0459911    1.87989 255 255 255
0.262897 0.187076  1.98472 255 255 255
 0.380389 0.0400251   1.95924 255 255 255
 0.372088 -0.195178   1.97455 255 255 255
 0.431329 0.0188894   1.93041 255 255 255
 0.417149 0.0512671   1.93755 255 255 255
  0.490423 -0.0131384    1.90053 255 255 255
 0.343577 -0.107651   1.99701 255 255 255
 0.411128 -0.172129   1.95701 255 255 255
 0.259418 0.0208535   2.02035 255 255 255
 0.432795 0.0691237   1.92508 255 255 255
 0.360961 0.0254664   1.96874 255 255 255
0.200651 0.126957  2.03127 255 255 255
  0.251333 -0.0371986    2.04123 255 255 255
 0.206183 -0.189951   2.05997 255 255 255
 0.474415 0.0656283    1.9003 255 255 255
0.129523 0.178329  2.04542 255 255 255
0.334748 0.121447  1.96672 255 255 255
 0.325822 0.0660804   1.98181 255 255 255
 0.396984 -0.229925   1.94895 255 255 255
 0.319818 -0.245027   1.99094 255 255 255
0.297484  0.18034   1.9786 255 255 255
  0.34556 -0.155361   1.99971 255 255 255
0.225078 0.118452  2.02325 255 255 255
 0.368025 0.0961574   1.95595 255 255 255
0.150953 0.227432  2.02521 255 255 255
0.493671 0.094897  1.88498 255 255 255
0.343285 0.268467  1.92711 255 255 255
0.176297 0.191791  2.02618 255 255 255
 0.38389 0.096732  1.95018 255 255 255
 0.316437 -0.183052   2.00879 255 255 255
 0.320743 -0.228821   1.99255 255 255 255
0.0887632  0.196809   2.05082 255 255 255
0.503735 0.142641  1.87008 255 255 255
  0.502984 -0.0321107     1.8939 255 255 255
0.295174 0.191332  1.96836 255 255 255
 0.440594 0.0381453   1.92508 255 255 255
0.374925  0.12559  1.94412 255 255 255
 0.450744 -0.219116   1.92834 255 255 255
 0.172664 -0.066749   2.08027 255 255 255
0.336007 0.246776   1.9388 255 255 255
   0.47407 0.00431201    1.90617 255 255 255
 0.445169 0.0147302   1.92267 255 255 255
 0.291871 0.0369273   2.00247 255 255 255
 0.323798 0.0390198   1.98626 255 255 255
 0.326158 0.0942973   1.98031 255 255 255
  0.238109 -0.0319104    2.05022 255 255 255
 0.398976 0.0741477   1.94234 255 255 255
 0.362322 -0.169744   1.98806 255 255 255
 0.317691 -0.235315   1.99819 255 255 255
0.292914 0.244001   1.9609 255 255 255
 0.301777 -0.161599   2.02147 255 255 255
 0.179623 0.0876918   2.04581 255 255 255
0.275007 0.183616  1.98216 255 255 255
 0.265148 0.0205371   2.01905 255 255 255
0.358894 0.170299  1.94782 255 255 255
  0.56592 0.0672112   1.84363 255 255 255
 0.513025 0.0586797     1.878 255 255 255
0.0416492  0.145775   2.07649 255 255 255
 0.340119 -0.233303   1.98859 255 255 255
 0.470892 -0.153572   1.91541 255 255 255
  0.377992 -0.0436529    1.97186 255 255 255
0.449199 0.214605  1.88433 255 255 255
 0.301183 -0.182178   2.01649 255 255 255
 0.267019 -0.113076   2.03871 255 255 255
  0.27124 -0.166423   2.03558 255 255 255
 0.271178 -0.209128   2.02572 255 255 255
  0.276816 -0.0353891    2.02876 255 255 255
0.135487 0.136533  2.05246 255 255 255
 0.288853 -0.220908   2.01327 255 255 255
 0.256107 0.0849654   2.01655 255 255 255
0.241333  0.13824  2.01332 255 255 255
0.390169 0.101277  1.94035 255 255 255
 0.314695 0.0518336   1.98968 255 255 255
0.133415 0.192679  2.04611 255 255 255
0.137725 0.032655  2.07526 255 255 255
0.269221 0.289504  1.94297 255 255 255
0.365919 0.065898  1.96199 255 255 255
 0.275904 0.0728433    2.0079 255 255 255
0.119037 0.235434  2.03115 255 255 255
 0.130048 0.0881898   2.06073 255 255 255
  0.43026 0.0406363   1.92931 255 255 255
0.395664 0.011403  1.95645 255 255 255
0.0881158 -0.150355   2.12472 255 255 255
0.279191  0.17147  1.98143 255 255 255
0.301266 0.176738  1.97397 255 255 255
0.0201542  0.230888   2.05924 255 255 255
0.339084 0.221026  1.94568 255 255 255
   0.38316 -0.0109298    1.96543 255 255 255
0.267147 0.147722  1.99161 255 255 255
 0.231955 0.0473046   2.03177 255 255 255
0.200786 0.196295  2.01375 255 255 255
0.0690601  0.189969   2.05839 255 255 255
  0.438964 -0.0149829    1.93224 255 255 255
 0.385759 0.0382857   1.95414 255 255 255
 0.116532 -0.250914   2.08234 255 255 255
0.376953    0.151  1.94325 255 255 255
   0.312634 -0.00953718     2.00974 255 255 255
 0.419371 0.0907362   1.93022 255 255 255
0.284668  0.16653  1.98281 255 255 255
0.349953 -0.20375  1.98474 255 255 255
 0.158736 0.0272847    2.0671 255 255 255
0.484145  0.10138  1.88628 255 255 255
0.561473 0.116796  1.83623 255 255 255
  0.47435 -0.128357   1.91442 255 255 255
 0.308444 0.0368594   1.99422 255 255 255
  0.237226 -0.0946456    2.04876 255 255 255
 0.135064 0.0296444   2.07899 255 255 255
 0.303966 0.0727726   1.99238 255 255 255
 0.334767 -0.221236   1.98695 255 255 255
0.0264504 0.0860147   2.09272 255 255 255
 0.287542 0.0374235   2.00672 255 255 255
 0.27777 0.268267  1.96027 255 255 255
   0.521376 -0.00318318     1.88074 255 255 255
0.207959 0.161951  2.01912 255 255 255
0.345318 0.104133  1.96858 255 255 255
0.149331 0.241145  2.02429 255 255 255
   0.388548 -0.00715124     1.96163 255 255 255
 0.195391 -0.120152   2.07654 255 255 255
  0.20866 -0.132595   2.06821 255 255 255
  0.201882 -0.0119111    2.05266 255 255 255
0.207717 0.244584  1.99709 255 255 255
 0.309951 0.0191418   1.99578 255 255 255
 0.311793 0.0237389   1.99855 255 255 255
0.485863 0.220156  1.86318 255 255 255
 0.382589 0.0777651   1.95379 255 255 255
 0.315315 0.0470326   1.98977 255 255 255
0.481121 0.106383  1.88955 255 255 255
0.192602 0.214566   2.0121 255 255 255
0.257666 0.193196  1.98066 255 255 255
0.181651 0.241056  2.00769 255 255 255
  0.10319 -0.124199   2.12348 255 255 255
0.0467083  0.193132   2.06367 255 255 255
 0.464272 0.0498963   1.90881 255 255 255
 0.284052 -0.249474   2.01457 255 255 255
  0.279393 -0.0305945    2.02749 255 255 255
  0.298641 -0.0959056    2.01703 255 255 255
0.357267 0.287025   1.9052 255 255 255
0.0190126  0.170109   2.07707 255 255 255
0.0708667  0.170435   2.09107 255 255 255
 0.198729 0.0899704    2.0376 255 255 255
 0.177967 0.0776776   2.05055 255 255 255
0.378056 0.183037  1.93404 255 255 255
0.0421804 0.0339397   2.11015 255 255 255
 0.324973 0.0428401   1.98881 255 255 255
 0.367862 0.0471515   1.96813 255 255 255
0.500227 0.134824  1.86753 255 255 255
0.159336 0.254244  2.01212 255 255 255
0.243769   0.1306  2.01174 255 255 255
0.269459 0.274355  1.95957 255 255 255
   0.401215 -0.00160863     1.95351 255 255 255
0.245725  0.10975  2.01483 255 255 255
0.532671 0.146855  1.85151 255 255 255
0.374193 0.129347  1.94357 255 255 255
0.445812 0.011244  1.92418 255 255 255
 0.160115 -0.072108   2.07196 255 255 255
0.163564 0.205199  2.02798 255 255 255
 0.317008 0.0289174   1.99046 255 255 255
0.334688 0.162504  1.96338 255 255 255
  0.316453 -0.0882835    2.01179 255 255 255
  0.149554 -0.0819206    2.09883 255 255 255
 0.187654 -0.212245   2.05859 255 255 255
 0.420965 0.0368851   1.93704 255 255 255
0.363703 0.261808  1.90471 255 255 255
0.400649 0.106924  1.93836 255 255 255
0.383897 0.205179  1.92471 255 255 255
 0.368845 -0.234109   1.97262 255 255 255
  0.10027 -0.233919   2.08449 255 255 255
0.446826 0.196758  1.89053 255 255 255
0.22711 0.27635 1.97485 255 255 255
0.247949 0.113937  2.01452 255 255 255
  0.28241 -0.196318   2.02195 255 255 255
 0.358078 0.0248525   1.97199 255 255 255
0.272712 0.105413  2.00139 255 255 255
0.231589 0.128675   2.0162 255 255 255
 0.293379 0.0184621   2.00692 255 255 255
0.124894 0.112843  2.06582 255 255 255
0.141761 0.208162  2.03617 255 255 255
0.206157 0.166944  2.01789 255 255 255
0.300797 0.164329  1.97443 255 255 255
0.0625313 0.0386589   2.10242 255 255 255
0.165083 0.243796  2.01287 255 255 255
 0.385258 0.0747793    1.9515 255 255 255
 0.123449 -0.200873   2.09244 255 255 255
0.282829 0.157051  1.98177 255 255 255
0.256418 0.176093  1.99327 255 255 255
0.109067 0.238918  2.03284 255 255 255
 0.354941 0.0497227   1.96922 255 255 255
 0.257322 -0.212821   2.03201 255 255 255
0.538644 0.119719  1.85524 255 255 255
0.446718 0.125847  1.90673 255 255 255
 0.324089 0.0185067   1.98996 255 255 255
   0.2239 -0.175284   2.05768 255 255 255
  0.391115 -0.0945146    1.99146 255 255 255
0.0901969 0.0323932   2.09681 255 255 255
0.109034 0.155055  2.05643 255 255 255
0.275309 0.044309  2.01161 255 255 255
0.287436 0.167277  1.97885 255 255 255
 0.494595 -0.229541   1.89418 255 255 255
0.351047 0.069596   1.9696 255 255 255
  0.117192 0.00551578    2.09283 255 255 255
 0.168187 -0.164138   2.07795 255 255 255
 0.106958 -0.193351   2.10001 255 255 255
 0.336513 -0.121049   2.00063 255 255 255
  0.28568 0.0756971   2.00247 255 255 255
0.211463 0.278111  1.98297 255 255 255
 0.183365 0.0258774    2.0565 255 255 255
0.101389 0.260497   2.0485 255 255 255
0.109689 0.231639   2.0339 255 255 255
0.372334 0.046245  1.96506 255 255 255
0.0688153  0.248005   2.04076 255 255 255
0.152544 0.104319   2.0542 255 255 255
0.147107  0.21205    2.029 255 255 255
0.255345 0.220338  1.98434 255 255 255
 0.456327 -0.121985   1.92551 255 255 255
 0.409423 0.0486339     1.938 255 255 255
  0.240451 -0.0353344    2.04919 255 255 255
   0.4186 -0.130018   1.97968 255 255 255
 0.295358 0.0561827   2.00069 255 255 255
 0.307855 -0.127975    2.0197 255 255 255
 0.290163 0.0527223   2.00192 255 255 255
 0.285434 0.0682685   2.00229 255 255 255
 0.270949 -0.240613   2.02163 255 255 255
 0.418406 0.0177135   1.93954 255 255 255
0.0519052  0.160163   2.07151 255 255 255
  0.255842 0.00481625    2.02915 255 255 255
  0.287186 -0.0343579    2.02405 255 255 255
0.364977 0.125508  1.95505 255 255 255
 0.248411 -0.040486   2.04266 255 255 255
 0.419594 0.0535194   1.93409 255 255 255
 0.221975 0.0693798   2.03337 255 255 255
 0.288466 -0.217309   2.01421 255 255 255
0.253328 0.141821  2.00195 255 255 255
0.245594 0.172087  1.99936 255 255 255
 0.351235 -0.135857   1.99562 255 255 255
0.258719 -0.19818   2.0337 255 255 255
  0.473406 -0.0697117    1.91563 255 255 255
0.143212 0.212641  2.03168 255 255 255
0.211018 0.189107  2.00975 255 255 255
0.482067  0.20646  1.86973 255 255 255
 0.250186 0.0149776   2.02896 255 255 255
 0.259299 -0.237073   2.02063 255 255 255
  0.204271 -0.0594022    2.06174 255 255 255
0.317921 0.153822  1.96817 255 255 255
0.0338496 0.0186027   2.10216 255 255 255
  0.307196 -0.0949347    2.01528 255 255 255
  0.23369 0.0338825   2.03161 255 255 255
  0.210409 0.00331628     2.0474 255 255 255
0.236875 0.181219  1.99999 255 255 255
0.461178 0.211456  1.87859 255 255 255
0.166918 0.246297  2.01058 255 255 255
0.0521983 0.0347859   2.11315 255 255 255
0.122666 0.273036  2.03688 255 255 255
 0.329739 0.0937958   1.97829 255 255 255
 0.339246 0.0142014   1.98286 255 255 255
  0.122567 -0.0380513    2.08194 255 255 255
 0.276916 -0.191842   2.02593 255 255 255
0.252233 0.291977  1.94935 255 255 255
0.451479 0.132178  1.89783 255 255 255
 0.417655 0.0143502   1.94096 255 255 255
 0.332911 -0.174804   2.00218 255 255 255
 0.392281 0.0861656   1.94699 255 255 255
  0.228267 -0.0312866    2.05442 255 255 255
0.279968 0.239965  1.96859 255 255 255
0.204911 0.246956  1.99742 255 255 255
 0.331476 0.0336589   1.98446 255 255 255
0.107879 0.246658  2.04347 255 255 255
 0.252798 -0.162685   2.03803 255 255 255
0.289376 0.148358   1.9847 255 255 255
 0.128022 -0.159097   2.11077 255 255 255
  0.31626 -0.189906   2.00721 255 255 255
0.535128 0.148391   1.8499 255 255 255
0.232868 0.147157  2.00604 255 255 255
 0.308716 -0.191211   2.00972 255 255 255
 0.201197 0.0420008   2.04549 255 255 255
  0.410703 -0.0228917    1.95121 255 255 255
0.166862 0.181556  2.03283 255 255 255
  0.18979 -0.208385    2.0591 255 255 255
  0.22712 0.0473707    2.0329 255 255 255
 0.244436 0.0902351   2.02014 255 255 255
   0.25011 -0.0730479    2.05504 255 255 255
0.266863 0.103546   2.0055 255 255 255
  0.282755 -0.0197923    2.02056 255 255 255
0.150164 0.258473  2.02545 255 255 255
  0.344135 0.00279202    1.98619 255 255 255
0.0766013 -0.194634   2.12252 255 255 255
 0.425791 -0.200033   1.93696 255 255 255
0.158958 0.164152   2.0385 255 255 255
0.338072 0.154297  1.96326 255 255 255
 0.179708 -0.135397    2.0884 255 255 255
0.298057 0.111917  1.98779 255 255 255
0.182367 0.106593  2.04731 255 255 255
0.193984 0.301459  1.97894 255 255 255
0.184253 0.189231  2.02318 255 255 255
0.227431 0.179366   2.0058 255 255 255
 0.386669 0.0216876   1.95654 255 255 255
0.0410411  0.233918    2.0924 255 255 255
 0.320027 -0.218577   1.99903 255 255 255
 0.283578 -0.259156   2.00996 255 255 255
0.564088 0.102997  1.83768 255 255 255
0.106251 0.129973  2.08689 255 255 255
 0.534581 -0.150689   1.87464 255 255 255
0.129203  0.23846  2.03226 255 255 255
 0.393738 -0.127344   1.96834 255 255 255
0.311018 -0.19762  2.00806 255 255 255
   0.115066 -0.00322917      2.0804 255 255 255
0.149058 0.208754  2.02739 255 255 255
0.155381 0.238939  2.02598 255 255 255
0.230174 0.183781  2.00292 255 255 255
 0.177685 -0.130752     2.072 255 255 255
  0.343335 -0.0101254    1.99649 255 255 255
0.304106 -0.17984  2.01417 255 255 255
0.260863 0.168417  1.99249 255 255 255
0.201155 0.186909  2.01577 255 255 255
0.297931 0.160141  1.97708 255 255 255
 0.255768 0.0356577   2.02057 255 255 255
   0.21561 -0.0517775    2.06019 255 255 255
 0.142761 0.0321475   2.07255 255 255 255
 0.129229 0.0293156    2.0762 255 255 255
0.168954 0.233756  2.01848 255 255 255
0.108026 0.144724  2.05956 255 255 255
 0.395741 0.0516745   1.95019 255 255 255
0.141701 0.152173  2.05101 255 255 255
  0.368272 -0.0466565    2.00428 255 255 255
 0.412137 -0.221688   1.94163 255 255 255
  0.30393 -0.186783   2.01265 255 255 255
0.283846 0.188957  1.98068 255 255 255
0.0897213  -0.15834   2.09511 255 255 255
  0.298372 -0.0317678    2.01399 255 255 255
 0.117821 -0.255573   2.07879 255 255 255
  0.18627 0.0150284   2.05702 255 255 255
  0.1911 0.212323  2.01411 255 255 255
0.146144 0.110404  2.05811 255 255 255
  0.34381 -0.182998   1.99482 255 255 255
0.0604487  0.180106   2.06261 255 255 255
  0.285109 -0.0836208    2.02726 255 255 255
  0.238801 -0.0529863    2.04725 255 255 255
 0.17652 0.272509   2.0002 255 255 255
  0.272591 -0.0471205    2.06714 255 255 255
  0.36874 -0.163521   1.98583 255 255 255
0.0607428  0.183777   2.09218 255 255 255
 0.208522 -0.222345   2.04848 255 255 255
 0.27439 0.232182  1.96919 255 255 255
0.300643 0.226075  1.96292 255 255 255
0.0934708 0.0299319   2.09729 255 255 255
 0.314847 0.0366819   1.99723 255 255 255
  0.221637 -0.0922322    2.05757 255 255 255
0.170865 0.127079  2.04355 255 255 255
0.087455 0.164663  2.05869 255 255 255
 0.351653 -0.114404    1.9939 255 255 255
0.0461149  0.233012   2.09106 255 255 255
 0.186243 0.0292272   2.05474 255 255 255
 0.425936 0.0853197   1.92446 255 255 255
 0.268417 -0.191903   2.02725 255 255 255
 0.240999 -0.181627   2.04629 255 255 255
0.093318 0.223993   2.0416 255 255 255
 0.135893 -0.165512    2.1057 255 255 255
0.532474 0.130307  1.85523 255 255 255
 0.131632 0.0062625   2.08387 255 255 255
0.259982 0.226517  1.97453 255 255 255
 0.164362 0.0882712   2.05221 255 255 255
  0.16426 -0.205977   2.07857 255 255 255
0.317848  1.15542  1.71031 255 255 255
0.243953  1.04197  1.54496 255 255 255
0.333831  1.09422  1.65136 255 255 255
0.354179  1.46516  1.64862 255 255 255
0.296416   1.4003  1.61076 255 255 255
0.242457  1.47983  1.72876 255 255 255
0.281536   1.5716  1.73707 255 255 255
0.123442  1.44819  1.80296 255 255 255
0.392527  1.44134  1.62234 255 255 255
 0.1548   1.346 1.62894 255 255 255
0.198275   1.1273  1.64161 255 255 255
0.317302  1.51727  1.68014 255 255 255
0.100434  1.19483  1.73205 255 255 255
0.303628  1.37147  1.60012 255 255 255
0.328481 0.683298  1.71264 255 255 255
0.312239  1.54966  1.70325 255 255 255
0.0357824   1.13531   1.78934 255 255 255
0.411909  1.62155  1.69597 255 255 255
0.392501 0.635383  1.67127 255 255 255
0.232967  1.49877  1.72578 255 255 255
0.19864 1.44975 1.74524 255 255 255
0.447195  1.59277  1.65465 255 255 255
0.418029  0.64625  1.66062 255 255 255
0.309478  1.48555  1.67727 255 255 255
0.274084  1.57262  1.77268 255 255 255
0.260053   1.5545  1.76756 255 255 255
0.363569 0.644813  1.68341 255 255 255
0.0535093   1.15306   1.80584 255 255 255
0.0872255   1.25858   1.80347 255 255 255
0.466519  1.62121  1.64626 255 255 255
0.410904  1.60073  1.67644 255 255 255
0.0398293   1.28164   1.80291 255 255 255
0.0831789   1.22416   1.80973 255 255 255
0.104454  1.19565  1.75716 255 255 255
0.281112  1.57419  1.75723 255 255 255
0.046042  1.20819   1.8449 255 255 255
0.223354  1.49121  1.74925 255 255 255
0.430999  1.62578  1.68342 255 255 255
0.366974 0.705525  1.66589 255 255 255
0.0866823  0.668505   1.77896 255 255 255
0.0286067  0.970376   1.72484 255 255 255
0.207115  1.08706  1.64203 255 255 255
0.234563  1.07389  1.65872 255 255 255
0.0220472   1.10265   1.75873 255 255 255
0.350716 0.708372  1.68427 255 255 255
0.347317  1.55455  1.66868 255 255 255
0.403495 0.621835  1.63677 255 255 255
0.314863 0.712131  1.69323 255 255 255
0.411448  1.57164  1.64394 255 255 255
0.352958  0.68285  1.68256 255 255 255
0.260749 0.683516  1.74082 255 255 255
0.21944 1.47364 1.72514 255 255 255
 0.41229 0.596941  1.64424 255 255 255
0.365983 0.726508  1.66259 255 255 255
-0.0280327   0.977928     1.7612 255 255 255
0.0581598   1.34721   1.70494 255 255 255
0.104291  1.19688   1.7736 255 255 255
0.105432  1.22147   1.7051 255 255 255
0.421076  1.48649  1.61177 255 255 255
0.420525  1.64608  1.67972 255 255 255
0.418294  1.41659  1.60863 255 255 255
0.0840049   1.39693    1.8358 255 255 255
0.370331  1.50379  1.63622 255 255 255
0.215657  1.15651  1.62083 255 255 255
0.340903  1.55915  1.68289 255 255 255
0.153475  1.58999  1.85066 255 255 255
0.392381 0.744892  1.63991 255 255 255
0.0719496  0.689502   1.78466 255 255 255
0.074072  1.39291  1.84272 255 255 255
-0.0389385   0.936925    1.77255 255 255 255
0.416082 0.735273  1.63754 255 255 255
0.402105 0.605854  1.65959 255 255 255
0.366988  1.56699  1.67201 255 255 255
0.418693  0.77114  1.61097 255 255 255
0.138065  1.01957  1.66678 255 255 255
 0.42271 0.684385  1.64044 255 255 255
0.246814  1.19365  1.60445 255 255 255
0.317146  1.52577  1.69272 255 255 255
0.382419  1.56771  1.66197 255 255 255
0.344219 0.646524  1.69986 255 255 255
0.0971528   1.22845   1.80293 255 255 255
0.110567  1.20686  1.78485 255 255 255
0.31357  1.5089  1.6673 255 255 255
0.414441  1.43049   1.6066 255 255 255
0.427708  1.63608  1.67692 255 255 255
0.290877  1.54637  1.73769 255 255 255
0.08301 1.24731 1.80529 255 255 255
0.263004 0.713145  1.71912 255 255 255
0.392442  1.43449  1.62418 255 255 255
0.359917 0.777662  1.65168 255 255 255
0.421663 0.672318  1.63947 255 255 255
0.399223  1.60048  1.68908 255 255 255
0.328933  1.57033  1.71478 255 255 255
0.49672 1.64101 1.63289 255 255 255
0.452188   1.6003  1.65579 255 255 255
0.490493  1.61198  1.62788 255 255 255
0.401387 0.682166  1.65601 255 255 255
0.414997 0.726169  1.63731 255 255 255
0.266185  1.51142  1.72971 255 255 255
0.13602 1.56573 1.87162 255 255 255
0.0737021   1.23833   1.81399 255 255 255
0.292881 0.707674  1.70214 255 255 255
0.315356  1.26471  1.57357 255 255 255
0.37526 1.51075 1.63364 255 255 255
0.329627   1.2723  1.57179 255 255 255
0.217147  1.07283  1.66189 255 255 255
0.295044  1.45486  1.68702 255 255 255
0.141174 0.761483  1.78109 255 255 255
0.296037 0.689001   1.7054 255 255 255
0.0591529   1.26986   1.84507 255 255 255
0.305728  1.46189  1.67244 255 255 255
0.427663  1.53204  1.62562 255 255 255
0.0847353   1.39876   1.82675 255 255 255
0.144112  1.51942  1.86111 255 255 255
-0.000502366       1.0198      1.71365 255 255 255
0.486349  1.64163  1.64027 255 255 255
0.310959  1.51482  1.66026 255 255 255
0.434084  1.60774   1.6676 255 255 255
0.419686 0.691607  1.64261 255 255 255
0.401841 0.694364   1.6511 255 255 255
0.197722 0.709858  1.75408 255 255 255
0.0552807   1.33924   1.70237 255 255 255
0.277028 0.690734  1.71831 255 255 255
0.158714  1.58339  1.84701 255 255 255
0.153187  1.57015  1.85762 255 255 255
0.302925   1.5624  1.74413 255 255 255
0.303742 0.743493  1.68704 255 255 255
0.235133  1.08725  1.64562 255 255 255
0.132601 0.987072   1.6576 255 255 255
0.24431  1.0742 1.63712 255 255 255
0.380492  1.49245  1.62911 255 255 255
0.239289  1.44796  1.72571 255 255 255
0.36264 1.47147   1.626 255 255 255
0.312703 0.720209  1.68613 255 255 255
0.227633  1.08075  1.64648 255 255 255
0.148596  1.33764   1.6428 255 255 255
0.415512 0.761221  1.61533 255 255 255
0.314686  1.53327  1.69106 255 255 255
0.418843  1.41676  1.59966 255 255 255
0.218968   1.1121  1.65056 255 255 255
0.298766 0.729907  1.69345 255 255 255
0.237098 0.882423  1.68854 255 255 255
0.454718  1.62101  1.65445 255 255 255
0.308398 0.663828   1.7226 255 255 255
0.037783  1.10297  1.82402 255 255 255
0.296906 0.678135  1.72271 255 255 255
0.232999  1.09383  1.64047 255 255 255
0.370336  0.63975  1.68183 255 255 255
0.149535  1.33363  1.64971 255 255 255
0.340074  1.45328  1.65953 255 255 255
0.0496856   1.27723   1.70619 255 255 255
0.180813 0.700039   1.7659 255 255 255
0.230539  1.10042  1.64521 255 255 255
0.374023  1.44856  1.63725 255 255 255
0.384861  1.49296   1.6207 255 255 255
0.409143 0.605276  1.64106 255 255 255
0.28249 1.46507 1.70089 255 255 255
0.404393  1.49063   1.6142 255 255 255
0.299179 0.672975  1.71196 255 255 255
0.409541 0.747215   1.6279 255 255 255
0.0889539  0.688455   1.77748 255 255 255
0.425464 0.679263   1.6343 255 255 255
0.415936 0.625141  1.62985 255 255 255
0.380975 0.640611  1.67969 255 255 255
0.108406 0.681972  1.76989 255 255 255
0.366787 0.752145  1.65212 255 255 255
0.319854  0.72474  1.68551 255 255 255
0.142533  1.25275  1.64813 255 255 255
0.396413   1.5819  1.66246 255 255 255
0.369319  1.55861   1.6664 255 255 255
0.328833 0.679722   1.6997 255 255 255
0.0204786   1.30282   1.81703 255 255 255
0.309861  1.54028  1.69383 255 255 255
0.184016 0.696876  1.76186 255 255 255
0.314965  1.54384  1.69172 255 255 255
0.387223  0.64415  1.67534 255 255 255
0.185354  1.13116  1.66012 255 255 255
0.380689  1.00938  1.60229 255 255 255
0.283019  1.45454  1.69725 255 255 255
0.124312 0.636578  1.77448 255 255 255
0.318858 0.718688    1.698 255 255 255
0.265106 0.697799  1.73459 255 255 255
0.127185  1.56331  1.87831 255 255 255
 0.41093 0.617551  1.62883 255 255 255
0.372265 0.741391  1.65244 255 255 255
0.221524  1.47653  1.74391 255 255 255
0.324807  1.55837  1.69512 255 255 255
0.186698 0.713094  1.75539 255 255 255
 0.12791 0.642488  1.77074 255 255 255
0.243617 0.876206  1.68834 255 255 255
0.408659 0.649398  1.63483 255 255 255
0.405733 0.751128  1.63384 255 255 255
0.421412 0.747467  1.63182 255 255 255
0.401297 0.672032  1.66024 255 255 255
0.228228  1.47195  1.74183 255 255 255
0.253908 0.700085  1.73358 255 255 255
0.215931  1.32708  1.60662 255 255 255
0.133497   1.4938  1.85174 255 255 255
0.180397  1.12629  1.67049 255 255 255
0.352714  1.52149  1.64081 255 255 255
0.210292  1.54196  1.80832 255 255 255
0.029833  1.26181  1.71721 255 255 255
0.338374 0.646261   1.7065 255 255 255
0.459289  1.59956  1.64486 255 255 255
0.250696 0.712636   1.7216 255 255 255
0.405397 0.616019  1.68111 255 255 255
0.380029  0.62313  1.70103 255 255 255
0.231857  1.49388  1.74314 255 255 255
0.0287901  0.859055   1.80676 255 255 255
0.407459 0.635712  1.62696 255 255 255
0.367051  1.58863  1.70728 255 255 255
0.392541 0.796076  1.62866 255 255 255
0.413813 0.627208  1.65895 255 255 255
0.389106 0.650327  1.67752 255 255 255
0.384317   1.4504  1.61066 255 255 255
0.280057  1.53153  1.73217 255 255 255
0.347931 0.755939  1.66322 255 255 255
0.078621  1.25284   1.8096 255 255 255
0.406746 0.722593  1.64155 255 255 255
0.398549  0.61913  1.66006 255 255 255
0.226423  1.49031   1.7454 255 255 255
0.345417  1.50118  1.64145 255 255 255
0.395551   1.5051  1.61979 255 255 255
0.228901 0.893893  1.68168 255 255 255
0.337516 0.681407  1.69584 255 255 255
0.369815 0.786033   1.6491 255 255 255
0.100453  1.40027  1.81828 255 255 255
0.130269  0.65272   1.7628 255 255 255
0.417211 0.593701  1.63888 255 255 255
0.403629  1.50718  1.60135 255 255 255
0.333307 0.741041  1.67476 255 255 255
0.27402  1.5775 1.76183 255 255 255
0.338045 0.723514  1.67712 255 255 255
0.411632  1.48757  1.61266 255 255 255
0.240843  1.50922  1.75051 255 255 255
0.333921 0.656263  1.70704 255 255 255
0.270769  1.45469  1.70458 255 255 255
0.234465 0.873384  1.71405 255 255 255
0.406691 0.664503  1.66144 255 255 255
0.400335 0.724829  1.64509 255 255 255
0.14628 1.36613 1.67596 255 255 255
0.0244579   1.19418   1.80178 255 255 255
0.386923  1.56166  1.65296 255 255 255
0.430979 0.587263  1.63613 255 255 255
0.214339 0.861364  1.70577 255 255 255
0.340148 0.762031  1.66703 255 255 255
0.416673 0.662153  1.62969 255 255 255
0.300122 0.682635  1.70798 255 255 255
0.260445  1.56296  1.76777 255 255 255
0.0655243   1.39493   1.85594 255 255 255
0.108893  1.19473  1.75021 255 255 255
0.334465  1.47462  1.63827 255 255 255
0.216981 0.855855  1.70618 255 255 255
0.145149  1.35099  1.65184 255 255 255
0.0397249  0.650546   1.82508 255 255 255
0.248948 0.715154  1.72689 255 255 255
0.053681  0.67748  1.80098 255 255 255
0.0130794   1.09237   1.74175 255 255 255
0.301888 0.664765  1.74492 255 255 255
0.138719  1.40041  1.67559 255 255 255
0.342657  1.45756  1.65734 255 255 255
0.0331684   1.11967   1.73989 255 255 255
0.0117288   1.02684   1.70423 255 255 255
0.228247 0.867873  1.72053 255 255 255
0.345772 0.718277   1.6779 255 255 255
 0.37202 0.736729  1.65393 255 255 255
0.345238  1.48192  1.63591 255 255 255
0.0898585   1.41001    1.8414 255 255 255
0.374694 0.630001  1.68519 255 255 255
0.186541  1.45511  1.75532 255 255 255
0.0392538  0.866389   1.83591 255 255 255
0.0422373   1.12756   1.83141 255 255 255
0.209206  1.60587  1.81177 255 255 255
0.149029  1.40827  1.67777 255 255 255
0.36287 0.69402 1.67705 255 255 255
0.399666 0.614172  1.64917 255 255 255
0.149978    1.325  1.64872 255 255 255
0.503437  1.64846  1.63316 255 255 255
0.381059 0.610305  1.68737 255 255 255
0.413753 0.587006  1.64972 255 255 255
0.162792  1.57827  1.85009 255 255 255
0.0541683   1.26417   1.70801 255 255 255
0.386145 0.609348   1.6849 255 255 255
0.361314  0.66469  1.69861 255 255 255
0.351156  1.50736  1.64335 255 255 255
0.394981 0.676483  1.66481 255 255 255
0.027121   1.1103  1.76473 255 255 255
0.177317   1.1079  1.66624 255 255 255
0.101717 0.832863  1.71394 255 255 255
0.368877 0.688248  1.67556 255 255 255
0.127706 0.648219  1.76702 255 255 255
0.318535  1.26409  1.57186 255 255 255
0.0359391  0.640319   1.82745 255 255 255
0.0721317   1.40308    1.8519 255 255 255
0.240635 0.869195  1.69011 255 255 255
0.13308 1.24349 1.65106 255 255 255
0.322602  1.56875  1.72065 255 255 255
0.232511 0.867807  1.71683 255 255 255
0.384792 0.735525  1.64848 255 255 255
0.259875  1.45958  1.71149 255 255 255
0.416623 0.592947  1.66262 255 255 255
0.059175  1.27583  1.69229 255 255 255
0.301147 0.694606  1.70012 255 255 255
0.305826  1.54238  1.70448 255 255 255
 0.4413 1.62309 1.66709 255 255 255
0.249983 0.716562  1.71877 255 255 255
0.402081 0.782728  1.62294 255 255 255
0.0479861   1.34549   1.70801 255 255 255
 0.33923 0.741288  1.67081 255 255 255
0.374189 0.616611  1.69196 255 255 255
0.120673   1.4407   1.8171 255 255 255
0.103348 0.836766  1.71622 255 255 255
0.0535373   1.20882   1.83989 255 255 255
0.145224  1.50375  1.85337 255 255 255
0.309087  1.46288  1.68437 255 255 255
0.187982   1.1145    1.666 255 255 255
0.292712  1.03026  1.63321 255 255 255
0.383649 0.739794  1.64836 255 255 255
0.0824056   1.38141   1.83902 255 255 255
0.347893  0.72695  1.67261 255 255 255
0.103625  1.17955  1.77508 255 255 255
0.395337 0.669338  1.66781 255 255 255
 0.42654 0.583488  1.64249 255 255 255
0.406998  1.49299  1.60391 255 255 255
0.318881 0.669482  1.71211 255 255 255
0.165842  1.10843  1.67391 255 255 255
0.0528538   1.21447   1.83896 255 255 255
0.0696449   1.39461   1.84744 255 255 255
0.395525 0.799775  1.62587 255 255 255
0.354333 0.725183  1.66701 255 255 255
0.39356 1.48923 1.61641 255 255 255
0.400302 0.587101  1.67119 255 255 255
0.368421  1.46276  1.62772 255 255 255
0.375148 0.625046  1.68706 255 255 255
0.373162 0.721287  1.64972 255 255 255
0.354619 0.701711  1.66951 255 255 255
0.40641 1.41848 1.61223 255 255 255
0.253415  1.61764  1.78612 255 255 255
0.342659 0.692781  1.68775 255 255 255
 0.36629 0.633616  1.68452 255 255 255
0.104254  1.19851  1.75004 255 255 255
0.375261 0.662257  1.67925 255 255 255
0.147037  1.57236   1.8616 255 255 255
0.219333  1.47294  1.75284 255 255 255
0.213398 0.850817  1.70428 255 255 255
0.0830204   1.41151   1.84301 255 255 255
0.421104  1.63631  1.67785 255 255 255
0.274049  1.44594  1.70064 255 255 255
0.406492 0.659442  1.66139 255 255 255
0.0842016   1.39939   1.83882 255 255 255
0.100957  1.16446  1.77839 255 255 255
0.317956 0.675928  1.71024 255 255 255
0.0785303   1.22739   1.81172 255 255 255
0.203746  1.12871  1.65322 255 255 255
0.406329 0.712203  1.64503 255 255 255
0.423739 0.732615  1.63013 255 255 255
0.372685 0.794268  1.64137 255 255 255
0.00614732      1.076    1.74121 255 255 255
0.303669  1.47778  1.66051 255 255 255
0.276453  1.04132  1.64525 255 255 255
0.144276  1.57176  1.86414 255 255 255
0.419332  1.48374  1.60142 255 255 255
0.344278 0.761277  1.66379 255 255 255
0.302307 0.677832  1.71102 255 255 255
0.468797  1.61535  1.64299 255 255 255
0.20944 1.61331 1.82083 255 255 255
0.410343 0.586717  1.67147 255 255 255
0.400655 0.710582  1.64755 255 255 255
0.150612  1.32569  1.64243 255 255 255
0.18661 1.13497 1.66393 255 255 255
0.221861  1.47824  1.74998 255 255 255
0.343759   1.4738  1.63307 255 255 255
0.292711 0.677138  1.72713 255 255 255
0.352995 0.654504  1.69372 255 255 255
0.386407   1.6019  1.69974 255 255 255
0.368175 0.627097  1.69911 255 255 255
0.419776  1.65135  1.68392 255 255 255
0.0483545   1.22064   1.83547 255 255 255
0.368962 0.740181  1.65584 255 255 255
0.296628 0.858722  1.60591 255 255 255
0.323105  1.53599  1.68621 255 255 255
  0.3991 0.686998  1.65902 255 255 255
0.0829805  0.809785   1.77994 255 255 255
