ply
format ascii 1.0
element vertex 1142
property float x
property float y
property float z
property uchar red
property uchar green
property uchar blue
end_header
-0.179547  -1.05258   5.01922 255 255 255
-0.315942 -0.952328   4.60023 255 255 255
-0.315403 -0.902425   5.29446 255 255 255
-0.397655 -0.862172   4.58761 255 255 255
-0.647199 -0.566168   4.50594 255 255 255
-0.212319  -1.07225    4.9779 255 255 255
-0.232497  -1.00368   4.15796 255 255 255
-0.551247 -0.724028    4.1312 255 255 255
-0.599181   -0.6527   4.50351 255 255 255
-0.12386 -1.15204  4.73772 255 255 255
-0.501289 -0.649962   4.14568 255 255 255
-0.549107 -0.784867   4.57963 255 255 255
-0.197238 -0.983419   4.11762 255 255 255
-0.523306 -0.848347   4.23656 255 255 255
-0.657768 -0.630142   4.61196 255 255 255
-0.190198  -1.02871   5.05009 255 255 255
-0.607626 -0.614843   4.49842 255 255 255
-0.405764 -0.823103   4.41092 255 255 255
-0.656142 -0.605931   4.62194 255 255 255
 -0.61981 -0.604699   4.66131 255 255 255
-0.405102   -0.8406   4.32628 255 255 255
-0.576609 -0.909893   4.09241 255 255 255
-0.0844186   -1.13505    5.25883 255 255 255
-0.263672  -1.04161   4.46172 255 255 255
-0.243871  -1.00098   4.49771 255 255 255
-0.325475 -0.939443   4.49109 255 255 255
-0.366753 -0.860209   4.87868 255 255 255
-0.509131 -0.718411   4.49151 255 255 255
-0.509709 -0.704901   4.43911 255 255 255
0.251871 -1.19215  4.35706 255 255 255
-0.535793 -0.747135    4.2477 255 255 255
-0.581905 -0.633719   5.15499 255 255 255
-0.547056 -0.769611   5.13292 255 255 255
-0.519949 -0.723364    4.2377 255 255 255
 -0.34153 -0.894492   4.77911 255 255 255
-0.302414  -0.91743   5.13906 255 255 255
-0.0783245   -1.20499    4.29031 255 255 255
-0.267352 -0.945913   5.29348 255 255 255
-0.0875158   -1.07184    5.35941 255 255 255
-0.650474 -0.512824     4.285 255 255 255
 -0.52408 -0.770595   4.76218 255 255 255
-0.280417 -0.916868   5.28587 255 255 255
-0.287251 -0.919666     5.285 255 255 255
-0.497499 -0.775246   4.78515 255 255 255
-0.157175  -1.17817   4.36807 255 255 255
-0.0827457    -1.0352    5.38674 255 255 255
-0.145487  -1.20738   4.21046 255 255 255
-0.0938145   -1.18801    5.00168 255 255 255
-0.496477 -0.747873   4.72903 255 255 255
-0.0849674   -1.13668    5.23485 255 255 255
-0.314684  -0.88947   5.36854 255 255 255
-0.405603 -0.826532   5.19626 255 255 255
-0.217767  -1.01858   4.85893 255 255 255
-0.484092 -0.615714   4.04517 255 255 255
-0.375293 -0.892352    4.3824 255 255 255
-0.170266  -1.08529    4.9136 255 255 255
-0.406325 -0.779055   5.42893 255 255 255
 -0.50656 -0.836186   4.23149 255 255 255
-0.610965 -0.614708   4.51913 255 255 255
-0.315202 -0.928061   4.99985 255 255 255
  -0.5035 -0.725889   4.53542 255 255 255
-0.16429 -1.07803  4.97967 255 255 255
-0.143889  -1.08896   5.06817 255 255 255
-0.224995  -1.01804   4.85526 255 255 255
-0.156495  -1.13111   4.89925 255 255 255
-0.0984223   -1.19271    4.60514 255 255 255
-0.523267 -0.564315   4.13285 255 255 255
-0.501973 -0.677931   5.38206 255 255 255
-0.212564  -1.07619   4.18283 255 255 255
-0.114746  -1.17395   4.52599 255 255 255
-0.578942 -0.671503   4.92153 255 255 255
-0.317206 -0.915078    4.9979 255 255 255
-0.47257 -0.65979  4.12949 255 255 255
-0.545548  -0.68962   5.05176 255 255 255
-0.601753 -0.576177   4.73577 255 255 255
-0.491649 -0.765003    4.2473 255 255 255
-0.146088 -0.998081   5.36633 255 255 255
-0.579233 -0.570997   4.37839 255 255 255
-0.468584 -0.787477   4.77386 255 255 255
-0.408777 -0.860878   4.37713 255 255 255
-0.236882 -0.954622   4.25266 255 255 255
-0.507622 -0.733104   4.53719 255 255 255
-0.116843  -1.18012   4.92382 255 255 255
-0.523555 -0.784714   4.63046 255 255 255
 -0.60922 -0.488512   4.30863 255 255 255
-0.0956128   -1.07789    5.41735 255 255 255
-0.454452 -0.792929   4.36029 255 255 255
-0.581296 -0.938316   4.18033 255 255 255
-0.578749 -0.726901   4.95273 255 255 255
-0.145071  -1.00489   5.35241 255 255 255
-0.525917 -0.753078   4.78623 255 255 255
-0.413768 -0.805488   4.31606 255 255 255
-0.0290827   -1.09893    5.20239 255 255 255
-0.236377  -1.00395   4.40703 255 255 255
-0.206224  -1.11745   4.60232 255 255 255
-0.445355 -0.775671    5.3245 255 255 255
-0.427595 -0.855386   4.79274 255 255 255
-0.483005 -0.796202   4.72141 255 255 255
-0.085047 -0.994228   3.97672 255 255 255
-0.542293  -0.61293   4.02994 255 255 255
-0.369246 -0.902931   4.54587 255 255 255
-0.538761 -0.648388   5.36519 255 255 255
-0.475404 -0.886704   5.12617 255 255 255
-0.499516 -0.705952   5.22847 255 255 255
-0.620195 -0.562949   4.42347 255 255 255
0.230698 -1.18926  4.46642 255 255 255
-0.588197  -0.61439   4.37859 255 255 255
-0.191528  -1.13024   4.44504 255 255 255
-0.153348  -1.06978    4.9817 255 255 255
-0.513477  -0.67115   4.28301 255 255 255
-0.539066 -0.554406   4.17727 255 255 255
-0.13534  -1.0818  5.07365 255 255 255
-0.143473  -1.22142   4.20637 255 255 255
-0.524791 -0.666147   5.38571 255 255 255
-0.242104  -0.99866   4.22242 255 255 255
-0.559809 -0.933844   4.12578 255 255 255
-0.438057 -0.830798   5.10884 255 255 255
-0.401935 -0.779778   5.43537 255 255 255
-0.141998  -1.10579   4.20808 255 255 255
-0.551553  -0.49794   4.03252 255 255 255
-0.468648  -0.95169    4.1583 255 255 255
-0.385319 -0.860042   4.86772 255 255 255
-0.162968  -1.06709   4.94246 255 255 255
-0.202276  -1.09372   4.82765 255 255 255
-0.214853  -1.09724   4.82812 255 255 255
-0.578922 -0.555307   4.27234 255 255 255
-0.147865   -1.1339   5.04542 255 255 255
-0.180353  -0.95387   4.07683 255 255 255
 -0.45244 -0.766184   4.29259 255 255 255
-0.429218 -0.785144   4.32211 255 255 255
-0.429467 -0.885964   4.30263 255 255 255
  -0.4962 -0.718082   4.24991 255 255 255
 -0.52816 -0.724254   5.03804 255 255 255
-0.597932 -0.616156   4.44221 255 255 255
 -0.48374 -0.942355   4.24529 255 255 255
-0.189266  -1.04294   4.86896 255 255 255
-0.477367 -0.835834   4.49644 255 255 255
 -0.52362 -0.669919    4.3074 255 255 255
-0.490206 -0.678023   5.41575 255 255 255
-0.511236  -0.71352   5.00986 255 255 255
-0.502187 -0.736064   4.69497 255 255 255
-0.459736 -0.782539   4.79076 255 255 255
-0.237395 -0.982785   5.39721 255 255 255
-0.214071  -1.06012   4.08534 255 255 255
-0.330186 -0.941484   5.05621 255 255 255
 -0.3379 -0.92684  4.94681 255 255 255
-0.513315 -0.728703   4.25515 255 255 255
-0.662089 -0.630339   4.58056 255 255 255
-0.201849  -1.08667   4.29206 255 255 255
-0.198799  -1.05555   4.76357 255 255 255
-0.249404 -0.974931   5.38914 255 255 255
-0.154078 -0.949634   3.93803 255 255 255
-0.585166 -0.554566   4.36566 255 255 255
-0.616658 -0.602467   4.52326 255 255 255
-0.463526 -0.981732    4.1734 255 255 255
-0.455839 -0.965892   4.15896 255 255 255
-0.357327 -0.930625    4.3763 255 255 255
-0.467002 -0.778631   4.66477 255 255 255
-0.693625 -0.613351   4.76607 255 255 255
 -0.12962 -0.989312   5.44309 255 255 255
-0.159394  -1.07691   4.98622 255 255 255
-0.633519  -0.80658   4.21995 255 255 255
-0.602087 -0.663106   4.46089 255 255 255
-0.240598 -0.993144   4.40126 255 255 255
-0.622884 -0.584898   4.50694 255 255 255
-0.249801  -1.01715   4.28605 255 255 255
-0.127724  -1.21188   4.55476 255 255 255
-0.318287 -0.878274   5.35695 255 255 255
-0.503618 -0.797573    4.8824 255 255 255
-0.243292  -1.00266   4.84021 255 255 255
-0.593914 -0.767444   4.08703 255 255 255
-0.417679 -0.835589   4.65734 255 255 255
-0.499661 -0.710779   4.24802 255 255 255
0.254616 -1.22676  4.81595 255 255 255
 -0.48906 -0.704827   5.18086 255 255 255
0.230951 -1.15733   5.3287 255 255 255
-0.518854 -0.699422   4.24795 255 255 255
-0.533321 -0.693306   5.10573 255 255 255
-0.0220422   -1.12529    5.12921 255 255 255
0.292046  -1.2187  5.18543 255 255 255
-0.517046 -0.680073   4.30526 255 255 255
-0.154095  -1.07086   4.98962 255 255 255
-0.247352 -0.998632   4.56395 255 255 255
-0.18896 -1.00437  5.12365 255 255 255
-0.585586 -0.554452   4.37497 255 255 255
-0.373356 -0.872453   4.98606 255 255 255
-0.638775  -0.93242   4.26601 255 255 255
-0.457912 -0.834388   5.29129 255 255 255
-0.454955 -0.842547   4.73726 255 255 255
-0.289049 -0.978222   4.90642 255 255 255
-0.246939 -0.873441   3.95107 255 255 255
-0.0806234   -1.12523    5.24974 255 255 255
-0.241537 -0.961848   4.28429 255 255 255
-0.243919   -1.1012   4.36541 255 255 255
-0.139242  -1.10774   4.96817 255 255 255
-0.368092 -0.874492   4.92117 255 255 255
-0.538481 -0.695068   4.93766 255 255 255
-0.234409  -1.06062   4.28122 255 255 255
-0.196397  -1.10713   4.23452 255 255 255
-0.111018  -1.20884   4.83426 255 255 255
-0.20361 -1.03537  4.77226 255 255 255
-0.219718  -1.00335   4.19483 255 255 255
0.289902 -1.23288  5.18258 255 255 255
-0.513189 -0.655073   4.18276 255 255 255
-0.224406  -1.08592   4.41068 255 255 255
-0.422919 -0.832241   4.58192 255 255 255
-0.160153     -1.06   5.19921 255 255 255
-0.535053 -0.717605   4.65407 255 255 255
 -0.60129 -0.675078   4.43648 255 255 255
 -0.55501 -0.729192   4.12381 255 255 255
0.178298 -1.21054  4.33845 255 255 255
-0.133892  -1.09459   5.13744 255 255 255
-0.137149  -1.09562   5.13702 255 255 255
-0.256429  -1.00414   4.64318 255 255 255
0.221017 -1.23324  4.62057 255 255 255
-0.526536 -0.833817   4.22655 255 255 255
-0.512093 -0.708996   4.41142 255 255 255
-0.193543  -1.06054   4.86543 255 255 255
-0.223224 -0.985238   4.29373 255 255 255
-0.0538671   -1.18276    4.72657 255 255 255
-0.328231 -0.913189    5.2519 255 255 255
-0.242601 -0.965963   4.26141 255 255 255
-0.493593 -0.751879   4.25983 255 255 255
-0.341748 -0.903009   5.05229 255 255 255
-0.427928 -0.834977   5.10705 255 255 255
-0.261892  -1.01869   4.86367 255 255 255
-0.0430712   -1.03199    5.33368 255 255 255
-0.550215 -0.698734   4.87262 255 255 255
-0.587346 -0.534761   4.32758 255 255 255
-0.145881  -1.10613   4.93967 255 255 255
-0.531293 -0.665825   5.35046 255 255 255
-0.309946  -0.95506   4.69548 255 255 255
-0.236324  -1.00386   4.88702 255 255 255
-0.522948 -0.867408   4.07885 255 255 255
-0.162408  -1.13693   4.51598 255 255 255
-0.320901 -0.912516   4.29482 255 255 255
-0.508801 -0.688562   4.29912 255 255 255
 -0.46864 -0.779079   4.49728 255 255 255
-0.645872 -0.625022   4.86977 255 255 255
-0.152255 -0.990562   5.28232 255 255 255
-0.187103  -1.05233   4.89532 255 255 255
-0.684737 -0.647404   4.82804 255 255 255
 -0.35431 -0.916447   4.54067 255 255 255
-0.248635 -0.990622   4.63574 255 255 255
-0.435355 -0.878176   5.12916 255 255 255
-0.510661 -0.638449   4.13493 255 255 255
-0.415653 -0.821118   4.27248 255 255 255
-0.448129 -0.871969   4.66733 255 255 255
-0.151106 -0.970229   4.03687 255 255 255
 -0.20987 -0.968465   4.15656 255 255 255
-0.524191 -0.696369   4.42762 255 255 255
-0.0283485   -1.18899    5.10852 255 255 255
-0.460095 -0.760445   4.29251 255 255 255
-0.532103 -0.729943   4.33711 255 255 255
-0.383758 -0.893154   4.62748 255 255 255
-0.160026  -1.13149   5.03587 255 255 255
-0.214056  -1.00658   4.98807 255 255 255
-0.133761  -1.15737   4.95722 255 255 255
-0.142604  -1.00072   5.33137 255 255 255
-0.524268 -0.679065   4.33489 255 255 255
-0.213254  -1.14214   4.58272 255 255 255
-0.468108 -0.914433   4.31128 255 255 255
-0.544461 -0.703957   4.76745 255 255 255
-0.597771 -0.610701   4.25299 255 255 255
-0.494232 -0.957393   4.19082 255 255 255
-0.157663  -1.08269   4.18962 255 255 255
-0.599576 -0.618495   4.49822 255 255 255
-0.433795  -0.83084   4.88133 255 255 255
0.0116292  -1.22683   4.82015 255 255 255
-0.42565 -0.80659  4.41287 255 255 255
-0.149586  -1.02249   5.26988 255 255 255
-0.248362  -1.00473   4.60542 255 255 255
 -0.36939 -0.935382    4.5742 255 255 255
-0.235771   -1.0926   4.57075 255 255 255
-0.637826 -0.561195   4.51113 255 255 255
-0.0634369   -1.18746    4.87898 255 255 255
-0.181155  -1.08742   4.29292 255 255 255
-0.493918 -0.744197   4.65068 255 255 255
-0.531786 -0.657114   4.30318 255 255 255
-0.475405 -0.959915   4.16829 255 255 255
-0.145368     -1.11   4.88542 255 255 255
-0.136332  -1.08831   5.13881 255 255 255
-0.197634  -1.05673   4.86883 255 255 255
-0.249191 -0.985509   4.42896 255 255 255
-0.0959203    -1.2054    4.58099 255 255 255
-0.161104  -1.12775   4.92926 255 255 255
-0.605261 -0.573808   4.54411 255 255 255
  0.1688 -1.12994  5.31337 255 255 255
-0.100015  -1.08298   5.40845 255 255 255
 -0.53839 -0.722614   4.33939 255 255 255
-0.0908934   -1.12024    5.26514 255 255 255
 -0.53605 -0.689819   5.10608 255 255 255
-0.142389  -1.13091   5.06983 255 255 255
-0.437451 -0.898617   4.30351 255 255 255
0.285837  -1.1997  5.19366 255 255 255
-0.129537 -0.993239   5.39749 255 255 255
-0.591406 -0.628591   4.66817 255 255 255
-0.219026 -0.893192   3.96973 255 255 255
-0.303553 -0.971777   4.78055 255 255 255
0.277936 -1.26103  4.99417 255 255 255
-0.313509 -0.932269   4.75855 255 255 255
-0.221588  -1.08382   4.37799 255 255 255
-0.0879437   -1.08108    5.39069 255 255 255
-0.17553 -1.13375  4.85361 255 255 255
-0.233014  -1.00389   4.48259 255 255 255
-0.430033 -0.819546    4.2741 255 255 255
-0.00207615    -1.21401     4.99399 255 255 255
-0.0947646   -1.17713    4.55044 255 255 255
-0.502778 -0.727502   5.13879 255 255 255
-0.735232 -0.522566   4.05538 255 255 255
-0.249518  -1.00153   4.23069 255 255 255
-0.422254 -0.822511   5.19804 255 255 255
-0.560047 -0.638463   5.15621 255 255 255
-0.338219 -0.943289   4.98396 255 255 255
-0.377202  -0.87628   4.97991 255 255 255
-0.582636 -0.928157   4.15152 255 255 255
-0.565869  -0.59886   4.38943 255 255 255
-0.10179 -0.97695  3.89112 255 255 255
-0.436305 -0.797406   4.79241 255 255 255
-0.460518 -0.809951   4.39895 255 255 255
-0.0141608   -1.11054    4.76918 255 255 255
-0.476462 -0.938148   4.10177 255 255 255
-0.623383 -0.613146   4.66303 255 255 255
-0.271396  -1.02731    4.2958 255 255 255
-0.24133 -1.07634  4.14074 255 255 255
-0.505803 -0.725876   4.65181 255 255 255
-0.179149 -0.947195   4.01761 255 255 255
-0.0935434   -1.06793    5.40317 255 255 255
-0.15757 -1.08466  5.00756 255 255 255
-0.541915 -0.768388   5.26073 255 255 255
 -0.48999 -0.720142    4.3044 255 255 255
-0.264271 -0.960035   4.28308 255 255 255
-0.122299   -1.1116   5.11487 255 255 255
-0.165336  -1.02482   5.17719 255 255 255
-0.193221 -0.983139   4.23393 255 255 255
0.295343 -1.26069   5.0011 255 255 255
-0.376677 -0.904101   4.67373 255 255 255
-0.559746 -0.564913   4.28127 255 255 255
-0.595751 -0.649162   4.65622 255 255 255
-0.301121 -0.896727   5.28971 255 255 255
-0.406909  -0.88815   4.92696 255 255 255
-0.065066  -1.17626   5.15409 255 255 255
-0.201293  -1.05762   4.09673 255 255 255
-0.499365 -0.780532   5.07533 255 255 255
-0.522902 -0.909233   4.10843 255 255 255
0.115904 -1.17522  4.35649 255 255 255
-0.22944 -1.01575  4.55901 255 255 255
-0.490653 -0.753667   4.66455 255 255 255
-0.227637  -1.01091   4.17918 255 255 255
-0.469275 -0.778527   4.27394 255 255 255
0.157272 -1.16999  5.31382 255 255 255
-0.132331  -1.19532   4.63679 255 255 255
-0.564128 -0.547175   4.17621 255 255 255
-0.0806792    -1.1782    5.03691 255 255 255
 -0.23552 -0.999565   4.32352 255 255 255
-0.172292  -1.14097   4.79644 255 255 255
-0.175141  -1.02996   5.15192 255 255 255
-0.103197  -1.14394    4.3707 255 255 255
-0.373387 -0.895642   4.96758 255 255 255
-0.618044 -0.546733   4.53217 255 255 255
-0.0837449   -1.11673    5.23589 255 255 255
-0.162341  -1.12152   4.47517 255 255 255
-0.154644   -1.1407   5.01894 255 255 255
-0.207083 -0.976725     4.238 255 255 255
-0.181544   -1.1462   4.59948 255 255 255
-0.223676  -1.01051   4.91565 255 255 255
-0.143022  -1.20118   4.23709 255 255 255
0.173947 -1.13459  5.31606 255 255 255
-0.345198 -0.911055   4.87112 255 255 255
-0.0984528  -0.953473    3.87797 255 255 255
-0.573918  -0.76407   4.21294 255 255 255
-0.13799 -1.15079  4.18071 255 255 255
-0.0846099   -1.19197    4.84372 255 255 255
-0.362096 -0.969208   5.10079 255 255 255
-0.497606 -0.944514    4.2066 255 255 255
-0.141499  -1.11889   4.98918 255 255 255
-0.629811 -0.625059    4.5321 255 255 255
0.153947 -1.19928  4.33766 255 255 255
-0.0988033   -1.18388    4.18565 255 255 255
-0.484584 -0.632777   4.11889 255 255 255
-0.605087 -0.801222   4.17148 255 255 255
-0.211368  -1.02302   4.84275 255 255 255
-0.141071  -1.14593   4.96602 255 255 255
-0.543277  -0.60586   4.30916 255 255 255
 -0.36419 -0.894881   4.84472 255 255 255
-0.506896 -0.627944   4.17543 255 255 255
-0.652438 -0.629958   4.86486 255 255 255
-0.444016 -0.867838    4.5888 255 255 255
-0.494148 -0.604745   4.06689 255 255 255
-0.519893 -0.587763   4.14009 255 255 255
-0.260887  -1.00218   4.78093 255 255 255
-0.319059 -0.885211   5.22829 255 255 255
-0.360106 -0.938928   4.96207 255 255 255
0.107433 -1.08549  4.04962 255 255 255
-0.22927 -1.10823  4.54981 255 255 255
-0.183154 -0.941616   4.03884 255 255 255
-0.301641 -0.962068   4.77968 255 255 255
-0.0968547   -1.19909    4.53387 255 255 255
-0.416552 -0.883433   4.38669 255 255 255
-0.112205  -1.15724   4.53018 255 255 255
-0.249272   -1.0016    4.6938 255 255 255
0.195134 -1.15545  5.27935 255 255 255
-0.208467   -1.1468   4.96424 255 255 255
-0.06631 -1.18167  5.04106 255 255 255
-0.122926  -1.14868   4.50419 255 255 255
-0.331075 -0.909269   4.87031 255 255 255
-0.15117 -1.11035   4.1865 255 255 255
0.00929779   -1.20491     5.1418 255 255 255
-0.0650166   -1.00079    5.34126 255 255 255
 -0.18653 -0.988855   4.10079 255 255 255
-0.0492313   -1.22777    4.70228 255 255 255
-0.108529  -1.15639   4.74605 255 255 255
-0.488224 -0.786024   4.39655 255 255 255
0.0140693  -1.22342   5.05319 255 255 255
-0.475018  -0.76197   4.50683 255 255 255
-0.187044 -0.995416     4.184 255 255 255
-0.0449018     -1.084    4.03887 255 255 255
0.166309  -1.1877  5.35341 255 255 255
-0.344329 -0.939451   4.80462 255 255 255
-0.136873  -1.02882   5.27372 255 255 255
0.0158882  -1.23872   4.97184 255 255 255
-0.12113 -1.17589  4.33037 255 255 255
0.120232 -1.19607  5.20494 255 255 255
0.145211 -1.24923   4.8378 255 255 255
0.219412 -1.17128  4.38418 255 255 255
-0.078358  -1.00181   3.90732 255 255 255
-0.348349 -0.917267   5.12155 255 255 255
0.0547173  -1.16651    4.3996 255 255 255
0.357067 -1.15257  3.95293 255 255 255
-0.506704 -0.988739   4.22899 255 255 255
-0.310282 -0.939924   4.76565 255 255 255
0.178683  -1.1775  5.31547 255 255 255
-0.156928  -1.09482   4.89614 255 255 255
0.073096 -1.09903  3.96011 255 255 255
-0.0834114   -1.00016    3.85435 255 255 255
-0.119868 -0.961896   3.88204 255 255 255
0.169482 -1.23231  5.33606 255 255 255
-0.236963  -1.03775   4.78346 255 255 255
-0.447894 -0.846917   4.83317 255 255 255
-0.593028 -0.775976   4.24665 255 255 255
-0.411304 -0.878346   4.97031 255 255 255
0.0636899  -1.17945   4.44208 255 255 255
0.130163  -1.1819  4.24938 255 255 255
-0.490932  -0.81344   5.23034 255 255 255
-0.548428 -0.724051   4.74051 255 255 255
-0.119304  -1.05917   5.09058 255 255 255
0.198569 -1.23411  4.98169 255 255 255
-0.488285 -0.803711   5.25987 255 255 255
-0.256448 -0.872154   3.97641 255 255 255
-0.188004  -1.05114   4.83068 255 255 255
-0.347446 -0.907341   4.36937 255 255 255
0.230246 -1.24218   5.2542 255 255 255
-0.0454779   -1.13873    5.29367 255 255 255
0.129019 -1.16977  5.22989 255 255 255
0.107575 -1.19324  4.64228 255 255 255
-0.139509  -1.00911   5.32198 255 255 255
-0.0870489   -1.11188      5.333 255 255 255
-0.395097 -0.911526    5.1685 255 255 255
0.365335 -1.14676  4.02726 255 255 255
-0.529957 -0.819165   4.55473 255 255 255
-0.176133 -0.960591   4.07422 255 255 255
-0.303815 -0.929161   4.73791 255 255 255
-0.161829  -1.06831   4.85364 255 255 255
0.0689487   -1.1767   4.22662 255 255 255
 0.14785 -1.13983  5.26077 255 255 255
0.210046 -1.21491  5.31953 255 255 255
-0.07522 -1.18472  4.53385 255 255 255
 -0.38144 -0.870444   5.32597 255 255 255
 -0.48589 -0.674012   4.00226 255 255 255
-0.479719 -0.796996   4.72503 255 255 255
 0.27722 -1.23162  5.31991 255 255 255
0.547378 -1.23106  4.46654 255 255 255
 0.18548 -1.21164  5.35565 255 255 255
-0.0702259   -1.04477    5.34679 255 255 255
0.227522 -1.20045  5.34433 255 255 255
-0.348485 -0.916691   4.67382 255 255 255
-0.180842  -1.06653   4.87303 255 255 255
0.206739 -1.21417  5.29635 255 255 255
 -0.53903 -0.738745   4.34512 255 255 255
-0.0479244   -1.17911    5.05956 255 255 255
-0.537314 -0.760305   4.71385 255 255 255
0.331228 -1.16456  4.37134 255 255 255
-0.609263 -0.684661   4.24956 255 255 255
-0.515483 -0.791295   4.40634 255 255 255
-0.531774 -0.761226   4.25724 255 255 255
0.0473038  -1.23798   5.06068 255 255 255
-0.0122609   -1.22135    5.01938 255 255 255
-0.194335  -1.07619   4.37469 255 255 255
-0.104572 -0.987078   3.93303 255 255 255
-0.287166 -0.967611   5.20186 255 255 255
-0.528231 -0.746379   4.33113 255 255 255
-0.193325  -1.09261   4.30878 255 255 255
-0.218142 -0.884599   3.92369 255 255 255
-0.463882 -0.902863   4.25505 255 255 255
-0.054456  -1.19928   4.91729 255 255 255
-0.213842 -0.964185   4.21065 255 255 255
-0.351538 -0.907641    5.0356 255 255 255
-0.157795  -1.07564    4.9933 255 255 255
-0.52085 -0.74716  5.02999 255 255 255
-0.0719882   -1.08808    5.23194 255 255 255
-0.495266 -0.702898   4.27582 255 255 255
-0.106435  -1.08112   5.18991 255 255 255
0.279318 -1.23594  5.27728 255 255 255
0.00804561   -1.21061     5.1283 255 255 255
-0.508307 -0.792409   5.06339 255 255 255
-0.521672 -0.766334   4.67183 255 255 255
-0.535539 -0.747319   4.68251 255 255 255
-0.386489 -0.917709   4.46984 255 255 255
-0.142323   -1.0162   5.29663 255 255 255
-0.0504252   -1.18258    5.06127 255 255 255
-0.381592 -0.890806   5.09438 255 255 255
-0.0325945   -1.16541    5.07549 255 255 255
-0.524287 -0.781726   4.42861 255 255 255
-0.467686 -0.892823   4.27454 255 255 255
-0.162755  -1.01163   4.12071 255 255 255
0.090924 -1.16206  4.37058 255 255 255
-0.202724  -1.08352   4.49781 255 255 255
-0.351782  -0.91659   4.50665 255 255 255
-0.137952  -1.02533   4.15347 255 255 255
0.0146983  -1.21712   5.14299 255 255 255
-0.122591   -1.0091   4.04793 255 255 255
-0.564541 -0.720608   4.76293 255 255 255
-0.195871  -0.93794   4.08214 255 255 255
-0.0718009    -1.0673    5.34021 255 255 255
 -0.44005 -0.811332   4.37652 255 255 255
-0.605872 -0.842709   4.10373 255 255 255
-0.544401 -0.774454   4.77967 255 255 255
-0.296555 -0.931208   4.31822 255 255 255
-0.212275  -1.07993    4.1396 255 255 255
-0.220252  -1.01276   5.19015 255 255 255
-0.149425  -1.10665   5.01103 255 255 255
-0.467645 -0.816208   5.08035 255 255 255
-0.178398   -1.0086   4.33619 255 255 255
0.322299 -1.22693  5.17291 255 255 255
-0.0780951   -1.22163    4.81646 255 255 255
-0.181296  -1.10194   4.12763 255 255 255
 -0.64495 -0.832992   4.16728 255 255 255
0.200204 -1.20574   5.2793 255 255 255
-0.00591106    -1.09442     5.18522 255 255 255
-0.197967  -1.11865   4.60652 255 255 255
0.193673 -1.19518   5.3484 255 255 255
-0.131511  -1.01264   4.16407 255 255 255
-0.482041 -0.787349   4.46829 255 255 255
-0.544054 -0.710304   4.45857 255 255 255
-0.23901 -1.00222  4.66356 255 255 255
-0.066197  -1.03209   5.36886 255 255 255
-0.226957  -1.04006   4.70527 255 255 255
-0.472903 -0.975811   4.17318 255 255 255
-0.145433  -1.02309   5.21859 255 255 255
-0.560671 -0.739898   4.78631 255 255 255
-0.458499 -0.822373   4.54729 255 255 255
-0.514964 -0.726525   4.71428 255 255 255
-0.290721 -0.959801   5.21507 255 255 255
-0.540371 -0.673961    4.3057 255 255 255
-0.483121 -0.975731   4.12898 255 255 255
-0.669152 -0.806871   4.19691 255 255 255
0.207799  -1.2343  5.35193 255 255 255
0.308449  -1.2478  5.25265 255 255 255
0.160312 -1.18131  5.30084 255 255 255
 -0.17205 -0.990833   5.27466 255 255 255
0.000927041    -1.19774     5.18703 255 255 255
-0.438347 -0.878215   4.60262 255 255 255
-0.521629 -0.791954   5.14586 255 255 255
 -0.16284 -0.919721   3.86054 255 255 255
-0.629625  -0.83197    4.1414 255 255 255
0.0073163  -1.21239   5.11595 255 255 255
-0.539684 -0.710711   4.40294 255 255 255
-0.0946343   -1.20527    4.64493 255 255 255
-0.590205  -0.75642   4.62917 255 255 255
-0.281652 -0.969817   5.12188 255 255 255
0.271067 -1.24965  4.94895 255 255 255
-0.207444  -1.09226   4.19744 255 255 255
-0.517153 -0.660884   4.01778 255 255 255
-0.176229  -1.01807   5.14378 255 255 255
-0.199359  -1.12092   4.50556 255 255 255
-0.21348 -1.03016  4.47079 255 255 255
0.0925349   -1.1116   3.96594 255 255 255
0.363604 -1.28031  4.60344 255 255 255
0.000771897    -1.20736     4.97995 255 255 255
-0.338975 -0.931914   5.04615 255 255 255
0.0269255  -1.22857   5.10668 255 255 255
 0.19339 -1.22892  5.26072 255 255 255
-0.284456 -0.960849   4.89154 255 255 255
-0.277263 -0.915691   4.26091 255 255 255
0.211679 -1.25489  5.04349 255 255 255
 -0.55786 -0.675775    4.3435 255 255 255
-0.0595524   -1.10089    4.68934 255 255 255
-0.335957 -0.909019   4.36035 255 255 255
-0.371203 -0.897917   4.62514 255 255 255
-0.514548  -0.82828    4.5509 255 255 255
-0.562059 -0.726652   4.78039 255 255 255
-0.18139 -1.03011  4.95007 255 255 255
-0.239589  -1.03217   4.51007 255 255 255
-0.656421 -0.822267   4.20404 255 255 255
0.249968 -1.19607   4.4833 255 255 255
 -0.39435 -0.869744   5.08783 255 255 255
0.151365 -1.17149   5.2778 255 255 255
-0.406165 -0.831086    4.4079 255 255 255
-0.202987  -1.10781   4.81132 255 255 255
-0.544902 -0.742856   4.54614 255 255 255
0.298969 -1.25211  5.27715 255 255 255
-0.357103 -0.937737   4.62892 255 255 255
-0.00223377    -1.16031     5.19448 255 255 255
0.00688649   -1.20847    4.86129 255 255 255
0.202398 -1.20871  5.36903 255 255 255
-0.201007 -0.931288   4.00479 255 255 255
-0.470229  -0.82037   5.24082 255 255 255
-0.541642 -0.669428   4.35132 255 255 255
0.270574 -1.20402  5.26354 255 255 255
-0.0656373   -1.05549    5.35986 255 255 255
-0.569865 -0.716329   4.80613 255 255 255
-0.570433 -0.822756   4.99431 255 255 255
-0.583992 -0.834374   4.06748 255 255 255
-0.209355  -1.04951   4.71737 255 255 255
0.0920088  -1.17998   4.28962 255 255 255
 -0.26612 -0.971926   5.04363 255 255 255
-0.164182   -1.0306   4.22103 255 255 255
-0.254866 -0.977191    5.0455 255 255 255
-0.516998 -0.783851   4.37535 255 255 255
0.203324 -1.25902  4.95098 255 255 255
-0.00618854    -1.22033     5.00357 255 255 255
-0.140985  -1.17787   4.58256 255 255 255
0.259009 -1.18771  4.88809 255 255 255
-0.196878  -1.01056   5.07393 255 255 255
-0.0566061   -1.04348    5.28625 255 255 255
0.191187  -1.2275  5.16869 255 255 255
0.110366 -1.18741  4.42521 255 255 255
-0.462573 -0.990852   4.19826 255 255 255
  -0.4483 -0.843384   4.39614 255 255 255
0.295155 -1.14448   4.1609 255 255 255
 0.16454 -1.18681   5.2908 255 255 255
-0.140772  -1.11441   4.92642 255 255 255
0.482119 -1.20436  4.78954 255 255 255
-0.509622 -0.773615   4.41543 255 255 255
-0.0875268   -1.19797    4.92638 255 255 255
-0.300474 -0.938059   4.59033 255 255 255
-0.198781  -1.06551   4.31579 255 255 255
-0.154745   -1.0137   5.24222 255 255 255
-0.399336 -0.845813   4.92988 255 255 255
-0.169692  -1.10185   4.42469 255 255 255
-0.412712 -0.831736    4.8648 255 255 255
0.290638 -1.19067  4.73266 255 255 255
0.125636 -1.15616  5.29552 255 255 255
0.210378  -1.2048  5.34694 255 255 255
 -0.12384 -0.947892    3.8462 255 255 255
-0.239973  -1.01269   4.69569 255 255 255
-0.243535 -0.995486   4.46393 255 255 255
-0.558892 -0.661131   4.19478 255 255 255
-0.533568 -0.643962   4.08045 255 255 255
-0.459425 -0.895971    4.2639 255 255 255
0.195807 -1.22454  5.30685 255 255 255
-0.269736 -0.859562   3.92436 255 255 255
0.0401328  -1.23961   5.09318 255 255 255
-0.0983916    -1.1695    5.00274 255 255 255
 3.40471 0.921818  5.94767 255 255 255
-0.438343 -0.854174   5.20465 255 255 255
-0.174063  -1.11951   4.41436 255 255 255
-0.437043 -0.825456    4.5751 255 255 255
-0.519818 -0.700671   4.42606 255 255 255
-0.584125 -0.777362   4.60459 255 255 255
-0.499824 -0.802319    4.7834 255 255 255
0.150027 -1.17636  5.24097 255 255 255
-0.412479 -0.880043   5.20797 255 255 255
0.265924 -1.23234  5.20118 255 255 255
 -0.23064 -0.965794   5.25406 255 255 255
 -0.40852 -0.903052   4.46869 255 255 255
-0.239751  -1.00581   4.39035 255 255 255
-0.361614 -0.893932   4.78219 255 255 255
-0.237632 -0.868935   3.91701 255 255 255
-0.19251 -1.00184  5.15613 255 255 255
-0.213853  -1.13024   4.53044 255 255 255
-0.327356 -0.947165   5.02429 255 255 255
-0.209305  -1.04423   4.73357 255 255 255
-0.268956 -0.848059   3.90622 255 255 255
-0.385455 -0.897902   4.91245 255 255 255
-0.280838 -0.974161   4.98444 255 255 255
-0.355035 -0.893615   5.27803 255 255 255
-0.0941158    -1.1805    4.91655 255 255 255
-0.294579 -0.944813   4.59791 255 255 255
-0.453631 -0.837717   4.63542 255 255 255
-0.327102 -0.964572   4.85706 255 255 255
0.563192 -1.22252  4.74338 255 255 255
-0.639458 -0.854649   4.13662 255 255 255
-0.233521 -0.972494   4.32703 255 255 255
-0.459789 -0.881383   3.96477 255 255 255
0.00384689   -1.22776    4.80128 255 255 255
-0.0286951   -1.19397    4.97891 255 255 255
0.117462 -1.16625  4.31731 255 255 255
0.528732 -1.21224  4.77843 255 255 255
-0.474469 -0.668485   4.02115 255 255 255
-0.361769 -0.897206   5.07192 255 255 255
-0.162547  -1.07536   4.88732 255 255 255
-0.0871941  -0.975282    3.82469 255 255 255
0.0239812    -1.147   4.21622 255 255 255
-0.446827 -0.872274   4.53999 255 255 255
-0.251511  -1.00733   4.58415 255 255 255
-0.116842  -1.12964   4.24479 255 255 255
-0.272426  -1.00204    4.7199 255 255 255
0.183205 -1.24528   4.5831 255 255 255
-0.471922 -0.783796   4.42689 255 255 255
-0.474549  -0.78999   5.09903 255 255 255
-0.0885991   -1.01544    3.87037 255 255 255
-0.483287 -0.812565   4.80529 255 255 255
 -0.53018 -0.657192   4.04341 255 255 255
0.631368 -1.23677  4.63567 255 255 255
-0.235003 -0.997486   4.27921 255 255 255
-0.171633  -1.12672   5.07412 255 255 255
-0.0983956   -1.15648    4.94275 255 255 255
-0.216243 -0.966614   5.24015 255 255 255
-0.0080719   -1.14377    5.13755 255 255 255
-0.0272063   -1.14972    5.13468 255 255 255
0.196258 -1.25519  4.86242 255 255 255
-0.207773 -0.960907   4.12365 255 255 255
-0.243416  -1.05719   4.62915 255 255 255
-0.426625 -0.846494   4.60753 255 255 255
 -0.50081 -0.766632   4.43475 255 255 255
 -0.51671 -0.784435   4.79284 255 255 255
0.203345 -1.21084  5.33646 255 255 255
-0.204275  -1.10656   4.62542 255 255 255
-0.42718 -0.85579  4.56808 255 255 255
-0.230328 -0.949496   4.19676 255 255 255
-0.418645 -0.844341   4.63266 255 255 255
-0.158758   -1.0608   4.98454 255 255 255
0.163099 -1.24775  5.08069 255 255 255
0.522393 -1.11925  3.81811 255 255 255
-0.593281 -0.831846   4.93544 255 255 255
-0.605571 -0.796372   4.96851 255 255 255
-0.565075 -0.676945   4.34286 255 255 255
-0.139093  -1.15573   4.98582 255 255 255
0.265688 -1.21993  5.30844 255 255 255
-0.0858266   -1.00911    3.87738 255 255 255
-0.153562  -1.11351   4.23677 255 255 255
0.0411457  -1.23788    5.0699 255 255 255
0.204666 -1.26608  4.93669 255 255 255
 -0.48868 -0.756934   4.49828 255 255 255
-0.496106  -0.74378   4.30956 255 255 255
-0.549812 -0.760592   4.76961 255 255 255
-0.615258 -0.793377    4.8664 255 255 255
-0.0753312   -1.16916    4.64977 255 255 255
-0.425928 -0.901482   4.31034 255 255 255
0.152392 -1.16876  5.33503 255 255 255
-0.0979472   -1.03588      5.312 255 255 255
-0.150879  -1.02649   4.23621 255 255 255
0.156604 -1.20248  5.29894 255 255 255
-0.156976  -1.06973   4.91969 255 255 255
-0.0841038   -1.13128    4.34388 255 255 255
-0.484972 -0.977942   4.19481 255 255 255
 0.19625 -1.21361  5.28826 255 255 255
-0.18929 -1.10026   4.4515 255 255 255
-0.256323 -0.973765   4.33632 255 255 255
-0.197719   -1.0424   4.99817 255 255 255
0.261998 -1.23377  5.10037 255 255 255
-0.0724186   -1.15307    4.31859 255 255 255
-0.00697145    -1.22524     4.68356 255 255 255
0.0380725  -1.11876   4.00702 255 255 255
-0.298042 -0.941992   5.29814 255 255 255
-0.539658 -0.660569   4.03854 255 255 255
-0.383533 -0.873424   5.31946 255 255 255
-0.517562 -0.887616   4.07318 255 255 255
  -0.5144 -0.782152   4.77961 255 255 255
-0.198719  -1.01808   5.09296 255 255 255
-0.0143953   -1.18339    4.20686 255 255 255
-0.267726  -0.85003   3.92332 255 255 255
-0.379845 -0.908825   4.47543 255 255 255
-0.138939  -1.17653   4.68198 255 255 255
 -0.42935 -0.911906   4.44608 255 255 255
-0.255572 -0.976016   5.13508 255 255 255
-0.460444 -0.910955   4.01175 255 255 255
0.0104057  -1.24423   4.72574 255 255 255
-0.045414  -1.13917   5.29899 255 255 255
0.164791 -1.18137  5.37598 255 255 255
-0.618379 -0.855104   4.10935 255 255 255
-0.230047 -0.998161   4.82786 255 255 255
-0.519542 -0.782391   4.41113 255 255 255
-0.0164063   -1.15595    4.20653 255 255 255
-0.463785 -0.671021   4.02524 255 255 255
-0.147938  -1.13925   4.88785 255 255 255
-0.506983  -0.73401   4.54425 255 255 255
-0.485544 -0.711504   4.25844 255 255 255
 -0.20332 -0.957967   4.15871 255 255 255
-0.0805064   -1.17677    4.70168 255 255 255
-0.364894 -0.888846   4.77572 255 255 255
-0.378321 -0.895002   4.77567 255 255 255
-0.432494 -0.893117   4.31488 255 255 255
-0.372302 -0.921606   4.86811 255 255 255
-0.112152  -1.18332   4.62585 255 255 255
-0.196226  -1.12563   4.64168 255 255 255
0.322064 -1.18829  4.46675 255 255 255
-0.502049 -0.892586   4.00904 255 255 255
-0.208671  -1.04924   4.74622 255 255 255
-0.524311 -0.752022   5.01712 255 255 255
-0.0489753   -1.08264    5.21938 255 255 255
-0.384144 -0.871134    4.8642 255 255 255
-0.242164 -0.871664   3.90889 255 255 255
-0.474579 -0.832514   5.09234 255 255 255
-0.331513 -0.904453   4.72528 255 255 255
-0.160467  -1.07799   4.33839 255 255 255
-0.325963 -0.923439   5.30741 255 255 255
-0.23257 -1.00077  4.80299 255 255 255
-0.0920727   -1.19671    4.76517 255 255 255
-0.528486 -0.733968   4.53812 255 255 255
-0.546534 -0.793642    4.9057 255 255 255
-0.504028 -0.806982   5.18712 255 255 255
-0.249277  -0.94864   5.24228 255 255 255
0.307166 -1.15394  4.30463 255 255 255
-0.209205  -1.02056   4.67076 255 255 255
-0.19168 -1.08982  4.69942 255 255 255
-0.176102   -1.0009   4.09989 255 255 255
-0.0274932   -1.15723    5.12922 255 255 255
 -0.23411 -0.877753   3.91995 255 255 255
-0.0434092   -1.16858     5.1381 255 255 255
-0.518714 -0.796678   4.40137 255 255 255
0.258206  -1.2129  4.79746 255 255 255
-0.16158 -1.12265   4.9225 255 255 255
0.220455  -1.2825  5.21764 255 255 255
-0.497373  -0.83671   5.35308 255 255 255
-0.17111 -1.14364  4.55528 255 255 255
 -0.20413 -0.953658   5.36841 255 255 255
-0.351896 -0.960362   4.91475 255 255 255
-0.0394849   -1.18396    5.12835 255 255 255
-0.468794 -0.862584   4.54452 255 255 255
-0.494446 -0.937965   4.19503 255 255 255
-0.538483 -0.750643   4.77545 255 255 255
-0.0967768   -1.13467    4.29093 255 255 255
 0.16667 -1.20379  4.29134 255 255 255
-0.524521 -0.981795   4.17717 255 255 255
-0.185011 -0.989909   4.08889 255 255 255
-0.132896  -1.08478   5.14445 255 255 255
0.136119 -1.13606  4.26322 255 255 255
 -0.61363 -0.857055   4.13877 255 255 255
-0.329326 -0.940232   4.99188 255 255 255
-0.0970502   -1.11975     5.3483 255 255 255
-0.657862  -0.82031    4.2182 255 255 255
0.176904 -1.21476  4.31015 255 255 255
-0.270501 -0.965261   4.99091 255 255 255
-0.477138 -0.796649    4.7135 255 255 255
-0.441386  -0.90945    4.0086 255 255 255
-0.178245  -1.03834   4.31297 255 255 255
-0.355238 -0.913963   4.64804 255 255 255
-0.139604 -0.959982   3.88447 255 255 255
0.235954 -1.18117  4.30304 255 255 255
0.141894 -1.23734  4.52723 255 255 255
-0.545839 -0.739368   4.72546 255 255 255
  -0.2535 -0.856034   3.93848 255 255 255
 0.15091 -1.24091  4.53198 255 255 255
0.172836 -1.24765   5.0212 255 255 255
-0.567635 -0.720203   4.77769 255 255 255
0.0933494  -1.07323   4.05004 255 255 255
-0.353984 -0.923696   4.48638 255 255 255
-0.366595 -0.944518   4.94294 255 255 255
-0.468175  -0.96539   4.15489 255 255 255
-0.285398 -0.960055   4.85504 255 255 255
-0.266291 -0.860789   3.93121 255 255 255
-0.231475  -1.03274   4.45736 255 255 255
-0.19503 -1.00817  4.14795 255 255 255
-0.528836 -0.757669   4.66943 255 255 255
-0.346214 -0.942425   4.54714 255 255 255
-0.527721 -0.660071   4.30987 255 255 255
-0.0201898   -1.22024    4.75022 255 255 255
-0.504869 -0.807624   5.17867 255 255 255
-0.590135 -0.793076   4.61772 255 255 255
-0.239484 -0.990836    4.3938 255 255 255
-0.0865169   -1.18853    4.73798 255 255 255
0.0496667  -1.16322   4.24726 255 255 255
0.22347 -1.2243 5.28182 255 255 255
-0.274876 -0.976724   4.99619 255 255 255
-0.0648579   -1.14975    4.27433 255 255 255
-0.516649 -0.784748   4.78612 255 255 255
-0.496904 -0.783622   4.71745 255 255 255
-0.15464 -1.13999  4.82236 255 255 255
-0.0275313   -1.22239    4.77043 255 255 255
0.104457 -1.16246  4.37599 255 255 255
-0.0248305   -1.15443    5.12248 255 255 255
0.0391083  -1.23901   5.02834 255 255 255
-0.00642985    -1.22748     4.76718 255 255 255
0.194495 -1.20069   5.3579 255 255 255
-0.581915 -0.831937   4.95342 255 255 255
-0.49033 -0.80802  4.45349 255 255 255
-0.169808  -1.07827   4.22262 255 255 255
0.0166337  -1.15874   5.21193 255 255 255
0.241503 -1.23748    4.562 255 255 255
-0.0561189   -1.20184    4.68465 255 255 255
0.203808 -1.21414  5.34855 255 255 255
-0.616357 -0.855956   4.11822 255 255 255
-0.239233 -0.966272   4.36585 255 255 255
-0.407409 -0.888481   4.96656 255 255 255
-0.364331 -0.973453   4.86436 255 255 255
-0.127555  -1.02215   4.13419 255 255 255
-0.257502 -0.850783   3.90671 255 255 255
-0.197815  -1.02428   5.26561 255 255 255
-0.0554864   -1.02804     5.3879 255 255 255
-0.537073 -0.681666   4.28976 255 255 255
-0.461275 -0.685837   3.98519 255 255 255
-0.0781853    -1.0693    5.35915 255 255 255
-0.478991 -0.724312   4.30344 255 255 255
-0.236808 -0.992387   4.40027 255 255 255
0.171394 -1.19405  4.28864 255 255 255
-0.217682 -0.973306   5.18796 255 255 255
0.0830734  -1.15867   5.23857 255 255 255
-0.338909 -0.922829   4.46227 255 255 255
 0.15815 -1.22631  4.58179 255 255 255
-0.170285  -1.07459   4.20621 255 255 255
-0.0766063  -0.985704    3.86169 255 255 255
-0.383663 -0.897873   4.65383 255 255 255
-0.0864341   -1.00004    3.84295 255 255 255
0.158618 -1.20257  5.32404 255 255 255
-0.276246 -0.972335     5.026 255 255 255
-0.204944  -1.05045   5.00486 255 255 255
0.00326372   -1.23212    4.73319 255 255 255
-0.0591164   -1.11062    5.22331 255 255 255
-0.419432 -0.876554   5.07906 255 255 255
-0.129391  -1.14447    4.6227 255 255 255
-0.461143  -0.79811   4.76625 255 255 255
 -0.56959 -0.793993   4.89625 255 255 255
0.155838 -1.13347  5.30637 255 255 255
-0.546129 -0.681031   4.35043 255 255 255
-0.360841 -0.937704   4.96893 255 255 255
0.0128576  -1.10684   4.02334 255 255 255
-0.178744  -1.10665   5.03062 255 255 255
-0.126984   -1.1004   4.20759 255 255 255
-0.0695358   -1.09651    5.22597 255 255 255
-0.599155 -0.790712   4.98912 255 255 255
-0.466351 -0.803277   4.72145 255 255 255
0.00551874   -1.04494    3.84341 255 255 255
-0.468512 -0.776549   5.21219 255 255 255
-0.0716589   -1.00964    3.82033 255 255 255
-0.104356  -1.09701   5.10216 255 255 255
-0.555263 -0.704467   4.28946 255 255 255
0.207351 -1.22621  5.19134 255 255 255
-0.223438 -0.953925   4.19436 255 255 255
 0.24759 -1.24047  4.76148 255 255 255
-0.416727 -0.886693   4.27418 255 255 255
 -0.51779 -0.939879    4.2422 255 255 255
-0.481385 -0.957247   4.14699 255 255 255
-0.558037 -0.885184   4.22868 255 255 255
0.146842 -1.20464  4.42966 255 255 255
-0.245208 -0.867743   3.90208 255 255 255
0.183864 -1.18921   5.3516 255 255 255
-0.552143 -0.698636   4.38381 255 255 255
0.162647 -1.18474  4.11478 255 255 255
-0.471717 -0.960565   4.17313 255 255 255
-0.079282  -1.12165   5.26005 255 255 255
0.192596  -1.1961  5.33393 255 255 255
0.218021 -1.24533  5.10323 255 255 255
-0.444482  -0.98524   4.17307 255 255 255
-0.121804  -1.08286    4.9417 255 255 255
0.242912 -1.24651  5.02682 255 255 255
-0.391005 -0.908293    4.9393 255 255 255
-0.423251  -0.87175   4.95834 255 255 255
-0.267289 -0.860317   3.93714 255 255 255
-0.372201  -0.85959   5.28255 255 255 255
 -0.41853 -0.877288   4.98398 255 255 255
-0.422111 -0.934936   4.08578 255 255 255
-0.161891 -0.915442   3.85083 255 255 255
0.0132336  -1.18524   5.17839 255 255 255
-0.0854673    -1.0069    3.84543 255 255 255
-0.560193 -0.873701   4.09982 255 255 255
-0.551976  -0.74567   4.24932 255 255 255
-0.10039 -1.00567  3.89906 255 255 255
-0.0939511  -0.992817     3.9208 255 255 255
-0.336159 -0.911678   5.14729 255 255 255
0.120636 -1.13187  4.01788 255 255 255
-0.226981  -1.01465   4.31512 255 255 255
-0.567095  -0.75825   4.40181 255 255 255
-0.16613 -1.01642  5.18283 255 255 255
-0.528554 -0.681065   4.39215 255 255 255
-0.0466079   -1.20754    4.74003 255 255 255
-0.573357 -0.737943   4.24913 255 255 255
-0.439037 -0.855656   4.88917 255 255 255
-0.247598 -0.882353   3.98701 255 255 255
-0.222711  -1.02849   4.86096 255 255 255
-0.378056 -0.858018   5.26738 255 255 255
-0.541714 -0.860697   4.07876 255 255 255
-0.0968582   -1.10748    5.34828 255 255 255
-0.16431  -1.0748  4.79139 255 255 255
-0.457962 -0.774108   4.30993 255 255 255
-0.0741301    -1.1156    5.29662 255 255 255
-0.248125 -0.867194     3.924 255 255 255
-0.0644805   -1.02497     3.9388 255 255 255
-0.525106 -0.693603   4.29927 255 255 255
-0.471237 -0.789817   5.13981 255 255 255
0.155527 -1.18697  5.33215 255 255 255
 -0.59046 -0.826592   4.97343 255 255 255
-0.101574   -1.1706   4.53382 255 255 255
-0.436032 -0.908314   4.01213 255 255 255
-0.204708  -1.01695   4.85286 255 255 255
0.142524 -1.18698  5.28116 255 255 255
-0.00672324    -1.09358     5.20271 255 255 255
-0.474142 -0.828108   5.07789 255 255 255
-0.603789 -0.839675   4.20369 255 255 255
 -0.17972 -0.958151   4.08656 255 255 255
-0.123841  -1.00915   5.36356 255 255 255
-0.222554  -1.08356   4.59001 255 255 255
-0.347908 -0.933403   5.10399 255 255 255
-0.0762279   -1.13828     5.2776 255 255 255
-0.0838656   -1.00624    3.83464 255 255 255
-0.544428  -1.00708   4.21967 255 255 255
-0.599187 -0.802744   4.12596 255 255 255
-0.574125 -0.884687   4.18297 255 255 255
-0.540158 -0.706036   4.42561 255 255 255
-0.447118 -0.834769   4.74565 255 255 255
0.146004 -1.16039  5.35349 255 255 255
-0.453131 -0.689183    3.9848 255 255 255
-0.211963 -0.996198   4.96177 255 255 255
-0.505381 -0.940458   4.22512 255 255 255
-0.551654 -0.627648   4.08021 255 255 255
0.108161 -1.14345  5.30754 255 255 255
-0.231273  -1.02225    4.9037 255 255 255
-0.0954133   -1.19222    4.18386 255 255 255
-0.102101 -0.963384   3.85862 255 255 255
-0.586065 -0.817068   4.61219 255 255 255
-0.0658361   -1.04467    5.31106 255 255 255
-0.00369339    -1.21553     5.08712 255 255 255
-0.561144 -0.766803   4.45584 255 255 255
0.276707 -1.18985  4.96003 255 255 255
-0.474059  -0.80914   4.74725 255 255 255
-0.431587 -0.883482   5.03056 255 255 255
0.212853 -1.21884  5.35631 255 255 255
-0.275223 -0.960325   4.71288 255 255 255
0.223809 -1.25152  4.99675 255 255 255
-0.352244 -0.905436   4.88416 255 255 255
-0.441499 -0.840218   4.87291 255 255 255
-0.630582 -0.856869   4.16918 255 255 255
-0.376637 -0.843237   5.33193 255 255 255
-0.220743  -1.02193   4.96528 255 255 255
0.288386 -1.08153  3.98733 255 255 255
-0.419018  -0.87598   4.99268 255 255 255
-0.42021 -0.87772   4.9151 255 255 255
-0.245145  -1.00453   4.58981 255 255 255
0.503706 -1.10571  3.73969 255 255 255
0.399052 -1.13113  3.92307 255 255 255
-0.0837153    -1.0753    5.37341 255 255 255
-0.164706  -1.06302   5.13575 255 255 255
-0.563035 -0.710081   4.76871 255 255 255
-0.414561 -0.901262   4.31659 255 255 255
-0.0579155   -1.04112    5.35421 255 255 255
-0.170924   -1.1023   4.43253 255 255 255
-0.599546 -0.783946   4.99324 255 255 255
0.138436 -1.16607  5.26504 255 255 255
-0.318793 -0.904821   5.27806 255 255 255
 -0.53465 -0.717409   4.25495 255 255 255
 -0.33365 -0.900034   5.24296 255 255 255
-0.595833 -0.799748   4.99183 255 255 255
-0.0230153   -1.21406    4.63319 255 255 255
-0.498688    -0.812   4.26314 255 255 255
0.159039 -1.21506  4.89781 255 255 255
 -0.46928 -0.674267   3.99335 255 255 255
0.297948 -1.19616  5.12145 255 255 255
-0.00315642    -1.22999     4.84634 255 255 255
-0.433649 -0.808543   4.41985 255 255 255
-0.197941  -1.01187   4.16801 255 255 255
0.0410812  -1.23887    5.0841 255 255 255
-0.543557 -0.706648   4.43101 255 255 255
-0.0851612   -1.18055    4.55137 255 255 255
-0.105518  -1.08511    5.0994 255 255 255
-0.500957 -0.944259   4.21775 255 255 255
0.151988 -1.20012  4.43908 255 255 255
-0.455315 -0.837955   4.66279 255 255 255
-0.549979  -0.72475   4.74256 255 255 255
-0.355825 -0.933302   4.51379 255 255 255
-0.540494 -0.658522   4.18546 255 255 255
-0.306831 -0.945369   5.22305 255 255 255
0.408207 -1.28981   4.8411 255 255 255
-0.498924 -0.800542   4.78049 255 255 255
-0.517003 -0.980849   4.21063 255 255 255
0.113566 -1.16461  4.34448 255 255 255
-0.470262 -0.861473   4.55131 255 255 255
0.123811 -1.15317  5.29098 255 255 255
-0.598245 -0.794958   4.23102 255 255 255
-0.194583  -1.09535   4.19996 255 255 255
-0.252096 -0.870247    3.9166 255 255 255
-0.195651  -1.07932   4.83113 255 255 255
0.155708  -1.2543  4.94411 255 255 255
-0.477048 -0.858081   4.55148 255 255 255
-0.361365 -0.884255   4.49784 255 255 255
-0.389106 -0.881877    5.0849 255 255 255
-0.358098 -0.901839    4.6265 255 255 255
-0.419749 -0.865324    4.9868 255 255 255
-0.0708802   -1.16339    4.33556 255 255 255
-0.395004 -0.854278   5.21685 255 255 255
-0.372433 -0.863153    4.3436 255 255 255
-0.115048  -1.15175   4.95621 255 255 255
-0.329362 -0.939123   4.66611 255 255 255
-0.523706  -0.75528   4.68282 255 255 255
-0.202607  -1.01569   5.03126 255 255 255
-0.559355 -0.721553   4.64037 255 255 255
-0.475863  -0.78286   4.44409 255 255 255
-0.547076 -0.635616   4.11726 255 255 255
-0.509698 -0.645447    4.1492 255 255 255
-0.418879 -0.852502   5.33795 255 255 255
-0.186655  -1.01671   5.18663 255 255 255
0.0511546 -0.305851   5.04395 255 255 255
0.143502 -1.19966  4.46412 255 255 255
0.142442 -1.19452  4.42037 255 255 255
 -0.49976 -0.886542   4.46526 255 255 255
-0.213251 -0.996631   4.47951 255 255 255
-0.158415  -1.12853   4.95571 255 255 255
 -0.48342 -0.791541   4.80718 255 255 255
-0.245191 -0.952797   4.21335 255 255 255
0.0661358  -1.10796   4.45523 255 255 255
-0.649364  -0.83073   4.11795 255 255 255
-0.490559 -0.865955   4.46955 255 255 255
-0.458287 -0.846732   5.10603 255 255 255
-0.249019 -0.861842   3.89839 255 255 255
0.160194 -1.17472  5.33274 255 255 255
-0.425497 -0.860951   5.34654 255 255 255
-0.106525 -0.971169   3.86171 255 255 255
-0.171618 -0.930512   3.85533 255 255 255
0.157677 -1.17618  5.28362 255 255 255
-0.457291  -0.78708   4.26719 255 255 255
-0.236747 -0.943278   4.19083 255 255 255
-0.624959 -0.855597   4.11671 255 255 255
-0.189748  -1.07764   4.82027 255 255 255
-0.0830116   -1.12647    5.28169 255 255 255
-0.178811  -1.08751   4.68288 255 255 255
 -0.28527 -0.944841   4.57752 255 255 255
-0.245901 -0.956261   5.37265 255 255 255
-0.596162 -0.816551   4.95132 255 255 255
-0.0662024   -1.00459    3.88465 255 255 255
-0.196278 -0.968066   4.17585 255 255 255
-0.536642 -0.650438    4.1286 255 255 255
0.0190597   -1.1364   5.20439 255 255 255
-0.551169 -0.663368   4.31099 255 255 255
-0.0217043   -1.20952    4.51925 255 255 255
-0.153659  -1.07577   4.99206 255 255 255
-0.215774  -1.02929     4.371 255 255 255
0.505891 -1.12082  3.82268 255 255 255
-0.558558 -0.768617   4.76486 255 255 255
0.168437 -1.21889  4.40646 255 255 255
-0.189416   -1.1198   4.80367 255 255 255
-0.495032 -0.787109   4.66975 255 255 255
-0.356515 -0.943236   4.97734 255 255 255
-0.0802343  -0.963192    3.95543 255 255 255
-0.0211691    -1.1423    5.12366 255 255 255
0.252033 -1.13668  4.37343 255 255 255
-0.573603 -0.684685   4.52049 255 255 255
-0.106994  -1.01376   3.91112 255 255 255
-0.166299  -1.12651   4.43346 255 255 255
-0.287409  -0.94015     4.567 255 255 255
-0.0829289  -0.988558    3.87624 255 255 255
-0.184264  -1.05205   4.89555 255 255 255
-0.221001 -0.963517    4.2505 255 255 255
