ply
format ascii 1.0
element vertex 1146
property float x
property float y
property float z
property uchar red
property uchar green
property uchar blue
end_header
 0.323134 -0.111278   2.00683 255 255 255
  0.305453 -0.0635335    2.01054 255 255 255
  0.324451 -0.0699979    2.04879 255 255 255
0.146226 0.247906  2.02999 255 255 255
  0.2601 -0.20569  2.02992 255 255 255
  0.821083 -0.0286921     1.8044 255 255 255
 0.400585 0.0444461   1.94417 255 255 255
 0.392667 -0.176332   1.96105 255 255 255
  0.340511 -0.0976548    1.99489 255 255 255
 0.418507 0.0650007   1.93528 255 255 255
 0.800564 -0.117451   1.79887 255 255 255
  0.761551 -0.0669745    1.82512 255 255 255
 0.337363 0.0561062   1.98008 255 255 255
   1.01298 -0.0399627    1.70214 255 255 255
0.784682  0.28599  1.68971 255 255 255
 0.294113 0.0690628   1.99996 255 255 255
 0.49569 0.284229  1.81339 255 255 255
  0.915068 -0.0216391    1.75778 255 255 255
  0.869728 -0.0620022    1.76909 255 255 255
  0.706223 -0.0904479    1.84941 255 255 255
0.593469 0.294651  1.76406 255 255 255
  0.199884 -0.0751414    2.10427 255 255 255
0.244838 0.117349  2.01525 255 255 255
  0.746919 -0.0911462    1.82859 255 255 255
0.670936 0.177861  1.76764 255 255 255
0.185423  0.26187  2.00322 255 255 255
0.211654 0.181115   2.0144 255 255 255
0.165859 0.141757  2.04104 255 255 255
 0.630869 -0.132204   1.87835 255 255 255
0.190547 0.254004  1.99863 255 255 255
 0.69304 -0.19532  1.82047 255 255 255
  0.708282 -0.0573155    1.85644 255 255 255
 0.180546 0.0955837    2.0447 255 255 255
0.163744 0.238589  2.01964 255 255 255
 0.281985 -0.102845   2.05049 255 255 255
 0.211684 0.0136708   2.03219 255 255 255
 0.23948 0.155869  2.00036 255 255 255
0.499164 0.262393  1.83484 255 255 255
 0.443609 -0.139969   1.93054 255 255 255
   0.568481 0.000599788     1.84876 255 255 255
  0.450547 -0.0758995    1.92692 255 255 255
  0.624558 -0.0104542    1.80478 255 255 255
  0.165907 0.00240122    2.07809 255 255 255
0.420104 0.118124  1.92092 255 255 255
0.281997 -0.10057  2.06252 255 255 255
 0.679807 -0.187662   1.83023 255 255 255
0.596063 0.102206  1.82038 255 255 255
  0.831973 -0.0277284    1.79861 255 255 255
 0.118105 0.0386161    2.0791 255 255 255
  0.35805 -0.213102   1.98054 255 255 255
 0.250144 -0.187613   2.04115 255 255 255
  0.275642 -0.0223333    2.02223 255 255 255
  0.399505 0.00747074    1.95293 255 255 255
 0.413838 0.0364571   1.94078 255 255 255
0.516326 0.152842  1.85698 255 255 255
 0.292736 -0.198624   2.01912 255 255 255
 0.338632 -0.238279   1.98137 255 255 255
 0.30137 0.160832  1.97657 255 255 255
  0.372921 0.00940113     1.9681 255 255 255
 0.129417 0.0850611   2.06143 255 255 255
  0.330044 0.00445108    1.99098 255 255 255
  0.493572 -0.0282549    1.90164 255 255 255
0.778699 0.043244  1.75594 255 255 255
 0.247449 -0.196463   2.03971 255 255 255
   0.73223 -0.0655103    1.83998 255 255 255
 0.0741691 -0.0676495    2.17946 255 255 255
 0.588651 0.0865047   1.84314 255 255 255
 0.257396 0.0024411   2.02839 255 255 255
  0.865664 -0.0343043    1.78001 255 255 255
   0.30801 0.00397373    2.00498 255 255 255
  0.29262 -0.118924    2.0444 255 255 255
 0.225357 -0.115553   2.09123 255 255 255
  0.676612 -0.0949933    1.86315 255 255 255
 0.479483 -0.232262    1.9037 255 255 255
 0.619948 -0.129186   1.88341 255 255 255
 0.19476 0.165106  2.01868 255 255 255
 0.22145 0.165217  2.01179 255 255 255
0.542558 0.124514   1.8564 255 255 255
0.293662 0.125683  1.99175 255 255 255
 0.900481 -0.056691   1.75511 255 255 255
 0.471862 0.0330131    1.9067 255 255 255
  0.319579 -0.0990064    2.00556 255 255 255
  0.320126 -0.0990549    2.00857 255 255 255
  0.492026 -0.0447707    1.94628 255 255 255
  0.40445 0.0917848   1.93738 255 255 255
  0.549155 -0.0319044     1.9252 255 255 255
0.189608 0.212349  2.01346 255 255 255
  0.888868 -0.0597414    1.75841 255 255 255
  0.100244 -0.0680514    2.15984 255 255 255
0.0757059 0.0459316   2.10835 255 255 255
0.194603 0.104374  2.04038 255 255 255
0.299588 -0.13414  2.02419 255 255 255
  0.240406 -0.0468553    2.04042 255 255 255
0.723385 0.287398  1.71245 255 255 255
0.473915 0.182491  1.87608 255 255 255
0.813979 0.244325  1.67531 255 255 255
 0.304986 -0.202216   2.01085 255 255 255
 0.521114 -0.168193   1.88303 255 255 255
  0.340578 -0.0155208     1.9896 255 255 255
 0.257289 0.0351998   2.01589 255 255 255
  0.411538 -0.0132017    1.94789 255 255 255
  0.66926 -0.215977   1.81763 255 255 255
 0.628954 -0.162617   1.86677 255 255 255
 0.822461 -0.105284   1.79173 255 255 255
  0.41148 -0.173827   1.94963 255 255 255
 0.358521 -0.100054   1.98449 255 255 255
0.877076 0.292837  1.65062 255 255 255
  0.360909 0.00159366    1.97677 255 255 255
0.421772 0.173759  1.91178 255 255 255
0.506802 0.278624  1.80596 255 255 255
0.278038 0.135726  1.99858 255 255 255
  0.494019 -0.0816521     1.9006 255 255 255
  0.937779 -0.0685994    1.73279 255 255 255
0.236554 0.173151  1.99905 255 255 255
0.122052 0.125126  2.07464 255 255 255
 0.51199 0.329904  1.82387 255 255 255
 0.344957 0.0860977   1.97358 255 255 255
 0.358203 -0.115883   1.98434 255 255 255
 0.323158 0.0317933   1.99394 255 255 255
0.233649 0.205482  1.99866 255 255 255
  0.467455 -0.0584566    1.91678 255 255 255
 0.171511 -0.202626   2.08434 255 255 255
0.202406 0.271722  1.99087 255 255 255
0.570376 0.250198   1.8065 255 255 255
0.362661 0.196293  1.93277 255 255 255
0.363173 0.196149  1.93357 255 255 255
0.286453 0.224034  1.96019 255 255 255
 0.387369 0.0585103   1.95024 255 255 255
  0.417896 -0.0167361    1.94513 255 255 255
 0.424787 -0.162775    1.9677 255 255 255
0.249185 0.226683  1.98189 255 255 255
   0.571052 0.000612213     1.84601 255 255 255
 0.221143 -0.206248   2.05643 255 255 255
0.812749 0.320246  1.67044 255 255 255
0.269053 0.146282  1.98507 255 255 255
0.608527 0.217918  1.78102 255 255 255
  0.232092 -0.0594377    2.08983 255 255 255
0.211465 0.217882  1.99897 255 255 255
0.576916 0.190585  1.81336 255 255 255
0.419691 -0.18996  1.94299 255 255 255
0.307103 0.024988  2.00188 255 255 255
0.530442 0.208095   1.8371 255 255 255
 0.116462 0.0245137    2.0926 255 255 255
0.796173 0.292256  1.67929 255 255 255
0.117409 0.153434  2.05257 255 255 255
  0.30633 0.0935259   1.99078 255 255 255
0.288941 0.189141  1.96337 255 255 255
0.402675 0.269104  1.89414 255 255 255
0.352689 0.239719  1.92985 255 255 255
0.504756 0.272011  1.83625 255 255 255
 0.983301 -0.107474   1.70355 255 255 255
 0.480023 -0.163283   1.93978 255 255 255
0.605019 0.143311  1.81185 255 255 255
0.0905782  0.229577   2.06451 255 255 255
   0.42658 0.00433102    1.93803 255 255 255
  0.36535 0.0380669   1.96882 255 255 255
 0.217807 -0.234293   2.03404 255 255 255
0.866377 0.280895  1.65785 255 255 255
 0.604095 -0.181053   1.82809 255 255 255
  0.357653 0.00598902    1.97814 255 255 255
  0.379036 -0.0132499    1.96728 255 255 255
  0.204191 -0.0651327    2.10307 255 255 255
   0.360246 -0.00872036     1.97748 255 255 255
 0.487855 -0.132234   1.94257 255 255 255
0.204937 0.029636  2.04246 255 255 255
0.445933 0.125329  1.90686 255 255 255
  0.157798 -0.0117876    2.07073 255 255 255
0.587674 0.312162  1.77202 255 255 255
0.473805  0.12938  1.88697 255 255 255
 0.129812 -0.211932   2.10102 255 255 255
0.488477 0.179713  1.86404 255 255 255
 0.185106 -0.161122    2.0923 255 255 255
0.602719   0.2019  1.78848 255 255 255
  0.360587 0.00474552     1.9753 255 255 255
  0.83681 -0.108288    1.7748 255 255 255
 0.172556 0.0417189   2.05768 255 255 255
0.519893 0.168128  1.85587 255 255 255
 0.323305 -0.220337   2.00172 255 255 255
   0.521618 -0.00391898     1.88235 255 255 255
 0.239921 0.0882148   2.02437 255 255 255
0.189077 0.176563  2.02422 255 255 255
0.396604 0.100448   1.9404 255 255 255
0.347842 0.204697  1.94424 255 255 255
0.582236 0.102696  1.82782 255 255 255
0.0557738  0.170098   2.06734 255 255 255
0.788991 0.302792  1.68645 255 255 255
0.455287 0.210045  1.88235 255 255 255
 0.469684 0.0113679   1.91094 255 255 255
0.235747 0.211228  1.99725 255 255 255
-0.0597913    0.69849    1.87414 255 255 255
-0.0908976   0.903829    1.91816 255 255 255
0.202855 0.999257  1.68991 255 255 255
0.0552376   1.31743   1.80985 255 255 255
0.0241376   1.44263   1.88306 255 255 255
-0.0916676     1.0962    1.93686 255 255 255
-0.130009  0.949786   1.98121 255 255 255
-0.240348  0.672286   2.15795 255 255 255
-0.225496  0.621836   1.99297 255 255 255
0.273935  1.58677  1.79982 255 255 255
0.103671  1.41325  1.82053 255 255 255
0.124783  1.18705  1.75608 255 255 255
-0.0734518   0.588011    1.90017 255 255 255
-0.123381   1.03065   1.84567 255 255 255
0.0532873  0.785433   1.79736 255 255 255
0.0943959  0.668647   1.76519 255 255 255
-0.132272  0.977013   1.84889 255 255 255
0.148852  1.42614  1.78338 255 255 255
-0.0686251   0.933671     1.8843 255 255 255
0.157746  1.04634  1.67977 255 255 255
0.0251753  0.715907   1.78299 255 255 255
0.0936187  0.633159   1.78588 255 255 255
0.0737076   1.31653   1.85885 255 255 255
0.0882651  0.831784   1.73602 255 255 255
0.0128228  0.888031   1.76085 255 255 255
-0.194322   1.08766   2.03354 255 255 255
-0.272861  0.723239   1.97585 255 255 255
-0.152599   1.05956   1.86375 255 255 255
-0.139051   1.36761   1.95891 255 255 255
-0.04803 0.942727  1.78894 255 255 255
-0.0125646    0.65479    1.82503 255 255 255
-0.163962  0.601355   2.09003 255 255 255
-0.0793131   0.604134    1.83183 255 255 255
0.0900207  0.809783    1.7126 255 255 255
-0.0883942   0.668986     1.8924 255 255 255
-0.0565161    0.84202    1.88297 255 255 255
-0.0632715    1.56114    2.06675 255 255 255
0.147994 0.741908  1.74735 255 255 255
0.0777532   1.25397   1.71521 255 255 255
0.0738849    1.3586   1.82667 255 255 255
0.0556709   0.59855    1.7998 255 255 255
0.167488  1.58897  1.86024 255 255 255
-0.0616649    1.45827    2.04317 255 255 255
0.0648074  0.829085   1.76347 255 255 255
0.0394875   1.18978   1.83138 255 255 255
-0.173136   1.50811   2.18055 255 255 255
-0.101785  0.986279    1.9565 255 255 255
0.203047  0.76042  1.75438 255 255 255
-0.0819265   0.828787    1.94501 255 255 255
0.101236  1.38891  1.82547 255 255 255
-0.206997  0.643007   1.97431 255 255 255
0.104754  1.23671  1.79815 255 255 255
-0.107821   1.24813   1.97331 255 255 255
-0.101686   1.24838   1.97598 255 255 255
0.0131006  0.844589   1.80115 255 255 255
-0.154887   1.06683   1.90672 255 255 255
-0.0301809   0.761399    1.89651 255 255 255
-0.0295346   0.761175    1.89662 255 255 255
-0.200124   1.27893   2.01535 255 255 255
0.342136  1.57963   1.7186 255 255 255
0.15795 1.51792 1.84153 255 255 255
0.0105727  0.794905   1.82135 255 255 255
0.0373788    1.2989   1.79203 255 255 255
-0.0750644    1.26292    1.92836 255 255 255
-0.0417899     1.6108    2.08108 255 255 255
-0.107848  0.994873   1.83434 255 255 255
0.0278523   1.62245    1.9452 255 255 255
-0.145627  0.603954   1.92149 255 255 255
0.167062    1.214  1.67221 255 255 255
-0.0110139   0.828444    1.86804 255 255 255
-0.0232765    1.66103     1.9963 255 255 255
-0.205471  0.797526   2.07989 255 255 255
0.0210891   1.14468   1.84507 255 255 255
0.0247283   1.48826   1.94764 255 255 255
-0.112497  0.848825   1.97099 255 255 255
-0.247035  0.648984   2.01795 255 255 255
-0.216442  0.757184   2.11218 255 255 255
0.198716  1.41395   1.7407 255 255 255
-0.111811   1.07808   1.83117 255 255 255
-0.160428   1.07669   2.02163 255 255 255
-0.0273625   0.954975    1.76374 255 255 255
0.0165962   1.40906   1.88035 255 255 255
0.016789  1.31665  1.78726 255 255 255
0.121851  1.21072  1.72311 255 255 255
0.0078818   1.27771   1.87256 255 255 255
-0.137693   1.28516   1.99653 255 255 255
-0.198066  0.737022   2.10087 255 255 255
-0.208887   1.37956   2.01784 255 255 255
-0.0496111    1.13513     1.8819 255 255 255
-0.179988  0.910993   2.04246 255 255 255
0.00866918   0.776799    1.82704 255 255 255
-0.100048   1.47094    2.0899 255 255 255
0.140912 0.530521  1.82318 255 255 255
0.0458207   1.61335   1.97336 255 255 255
0.126959  1.38643  1.78546 255 255 255
-0.0768277    1.58632     2.0703 255 255 255
0.0721977   1.14058   1.75079 255 255 255
-0.482743   1.23682   2.07739 255 255 255
-0.135477  0.851645     1.983 255 255 255
0.210446 0.849612  1.71164 255 255 255
-0.102211  0.807986   1.92998 255 255 255
-0.182848   1.32044   1.96164 255 255 255
0.160518  1.63824  1.87515 255 255 255
-0.0495851   0.862534    1.90383 255 255 255
-0.134747   1.12014   1.98079 255 255 255
-0.0407949   0.755916    1.91428 255 255 255
0.166858  1.49112  1.80875 255 255 255
0.227883  1.54411  1.79365 255 255 255
0.0472175   1.16535    1.8025 255 255 255
-0.18655  1.47901  2.22812 255 255 255
-0.0787889   0.786082    1.90023 255 255 255
0.178712  0.92924  1.67705 255 255 255
0.218264  1.54887  1.80985 255 255 255
0.0331085  0.676737   1.79215 255 255 255
0.0380982   1.29798   1.86842 255 255 255
0.0626058   1.30516   1.73844 255 255 255
-0.111405   1.36239   1.94131 255 255 255
-0.180935  0.626471   2.12546 255 255 255
0.253202 0.883409  1.68247 255 255 255
-0.200825  0.928546   2.05874 255 255 255
-0.122276  0.989029   1.97891 255 255 255
-0.0960032   0.788951    1.95646 255 255 255
0.130291  1.56527   1.8899 255 255 255
-0.18031    1.128  2.04211 255 255 255
0.223982  1.08428  1.67199 255 255 255
-0.0947221   0.778439    1.94759 255 255 255
0.105996   1.6666  1.93555 255 255 255
-0.106479   1.50256   2.09638 255 255 255
-0.111674   1.08387   1.97807 255 255 255
-0.129159  0.883812   1.99583 255 255 255
-0.10352  0.78611  1.96921 255 255 255
0.101061  1.23032  1.69745 255 255 255
0.0586509   1.13362   1.82966 255 255 255
0.0598698   1.33979   1.84227 255 255 255
-0.160853   1.10507   2.01214 255 255 255
-0.0583954   0.634233    1.85628 255 255 255
-0.0560637    0.93298    1.83586 255 255 255
0.186168 0.567971  1.77869 255 255 255
0.0609915   1.27953   1.79249 255 255 255
0.308435  1.68775  1.76358 255 255 255
-0.144547  0.619688   1.91623 255 255 255
-0.124789   1.51297   2.13674 255 255 255
-0.470087   1.26803   2.06694 255 255 255
0.142271  1.56899  1.87117 255 255 255
-0.0210175   0.842333    1.87308 255 255 255
-0.16781  1.62787  2.20731 255 255 255
0.0736209   0.68378   1.76457 255 255 255
0.366692  1.57855  1.69562 255 255 255
0.00330249    1.63112    1.94918 255 255 255
-0.0975805   0.881018    1.91427 255 255 255
-0.173566   1.17884   1.99587 255 255 255
0.292193 0.675319  1.71309 255 255 255
-0.090584  0.909697   1.88224 255 255 255
-0.079043  0.879491   1.87725 255 255 255
-0.0672188   0.600596    1.88011 255 255 255
0.0108521   1.54931   1.99938 255 255 255
-0.118938   1.13907   1.95594 255 255 255
0.00772915   0.733875    1.89306 255 255 255
-0.134695  0.910322   1.91825 255 255 255
0.0993834   1.38454   1.81527 255 255 255
0.279659  1.58495  1.75173 255 255 255
0.0296845   1.47725      1.96 255 255 255
-0.151324   1.38982   1.97925 255 255 255
0.326156  1.56694  1.72664 255 255 255
-0.130205  0.563231    2.0914 255 255 255
-0.403537   1.28297   2.01661 255 255 255
-0.473571   1.04486   2.05407 255 255 255
-0.0390868    1.26421    1.88369 255 255 255
0.222695  1.61488  1.81324 255 255 255
0.266691 0.684475  1.72304 255 255 255
0.323788  1.45607  1.68616 255 255 255
-0.189992   1.34751   2.00352 255 255 255
0.0444052   1.62997   1.93388 255 255 255
0.0511718   1.63213   1.93582 255 255 255
0.122575  1.05818  1.68963 255 255 255
0.117024  1.38978  1.80478 255 255 255
0.0835633   1.47667   1.87761 255 255 255
0.0631502  0.758458   1.79024 255 255 255
-0.0214583    1.49994    2.01061 255 255 255
-0.197331  0.996092   1.98319 255 255 255
-0.163482   1.31939   1.98497 255 255 255
-0.00461398     0.70367     1.79254 255 255 255
0.121522  1.39597   1.7982 255 255 255
-0.130701  0.648568   1.89883 255 255 255
-0.122392   0.64778   1.90208 255 255 255
0.124934  1.50823  1.86768 255 255 255
-0.201929  0.608362    1.9769 255 255 255
-0.184467  0.883795   2.05776 255 255 255
-0.47842  1.03321  2.04771 255 255 255
-0.124109  0.595948   1.91605 255 255 255
0.135426  1.68928  1.91304 255 255 255
-0.0501973   0.875304    1.86139 255 255 255
0.0117899  0.782634   1.84628 255 255 255
0.160662 0.787071  1.74338 255 255 255
0.0127104  0.874069   1.78016 255 255 255
0.0609285   1.09451   1.72678 255 255 255
-0.00990809    0.740176     1.91124 255 255 255
-0.167068  0.863059   2.03463 255 255 255
-0.138471  0.587511   1.88391 255 255 255
-0.0335688   0.807621    1.87953 255 255 255
0.068491  1.50775  1.92876 255 255 255
-0.114095    0.9138   1.98418 255 255 255
0.0858903   1.45629   1.81856 255 255 255
-0.135114  0.633665   1.90777 255 255 255
-0.0316344   0.811299    1.89965 255 255 255
0.0220422   1.06236    1.7688 255 255 255
-0.173674   1.33219    1.9891 255 255 255
-0.0970552    1.16017    1.95814 255 255 255
0.241106  1.41324  1.66796 255 255 255
0.154577   1.5285   1.8387 255 255 255
0.00637558   0.809242    1.87645 255 255 255
-0.0379513    1.13611     1.9092 255 255 255
-0.135603  0.904863   1.93202 255 255 255
-0.227518  0.628275   1.99021 255 255 255
-0.130496  0.544687   2.08922 255 255 255
0.237348  1.08563  1.65848 255 255 255
0.201657  1.16986  1.69191 255 255 255
-0.171223   1.03179   2.01907 255 255 255
-0.185622   1.02954    2.0349 255 255 255
0.0148244   1.26218   1.87205 255 255 255
-0.0157684     1.6347    2.04529 255 255 255
-0.163833  0.820403   1.97746 255 255 255
-0.151535    1.0674   2.00536 255 255 255
-0.16562  1.03966  1.85059 255 255 255
-0.107039   1.17619   1.97018 255 255 255
0.0794598   1.65275   1.93866 255 255 255
0.180555  1.64073   1.8681 255 255 255
0.136012 0.727108  1.75904 255 255 255
-0.128591   1.66656   2.17825 255 255 255
-0.0832788   0.683576    1.83293 255 255 255
-0.0342782    1.39075    1.91542 255 255 255
0.261966  1.62796  1.79324 255 255 255
-0.0333039   0.706538    1.81653 255 255 255
0.122487 0.750639  1.70967 255 255 255
-0.0643405   0.957164    1.79245 255 255 255
-0.0543505   0.946882    1.79724 255 255 255
-0.0150265   0.926693    1.76797 255 255 255
0.0234457   1.17083   1.85147 255 255 255
0.0419058   1.17861   1.78057 255 255 255
-0.124039   0.70569   1.91391 255 255 255
0.0410428  0.882615   1.74376 255 255 255
-0.0136226   0.826238    1.84327 255 255 255
-0.138873   1.03687   1.99135 255 255 255
-0.210982   0.74546   2.02429 255 255 255
0.130488  1.68531  1.92252 255 255 255
-0.225367  0.731871   2.03049 255 255 255
-0.0279717    1.65684    1.94182 255 255 255
0.0253423  0.655918   1.80554 255 255 255
0.03478 0.80936 1.79793 255 255 255
0.043178  1.47582  1.93927 255 255 255
0.0573412    1.2052   1.83517 255 255 255
-0.112654   1.35718   1.95236 255 255 255
-0.0688477   0.949067    1.93271 255 255 255
-0.208513   1.38777   2.03511 255 255 255
0.0267174    1.2606    1.8602 255 255 255
-0.016358  0.822904   1.85163 255 255 255
-0.108555   0.76386   1.97472 255 255 255
-0.158506   1.37146   1.97512 255 255 255
0.0618682   1.65973   1.94767 255 255 255
0.0446736   1.27495   1.76126 255 255 255
-0.254479  0.708433   1.96569 255 255 255
-0.241598  0.723171   2.02396 255 255 255
0.162955   1.4963  1.82366 255 255 255
0.00684729   0.771917    1.88117 255 255 255
-0.187848   1.39357    2.0134 255 255 255
-0.240774  0.748231   2.00375 255 255 255
-0.160518  0.911472   2.03136 255 255 255
-0.219997   1.35669   2.03245 255 255 255
-0.00742007    0.812227     1.82278 255 255 255
0.183433  1.67766  1.86447 255 255 255
0.0832549   1.26741   1.79619 255 255 255
0.0683084  0.815063   1.77825 255 255 255
-0.0412185    1.63078    2.06434 255 255 255
-0.0465511    1.38094    1.92352 255 255 255
-0.247167  0.702601   2.04093 255 255 255
0.166449  1.40727  1.78339 255 255 255
0.0956515  0.943496   1.70342 255 255 255
0.0614147   1.27464   1.78116 255 255 255
0.30618 1.63902 1.75286 255 255 255
0.257931  1.69672  1.80964 255 255 255
-0.0933103    1.46289    2.08094 255 255 255
-0.154221   0.93568   2.01142 255 255 255
0.0641519   1.38706    1.8535 255 255 255
0.0987096  0.808154    1.7643 255 255 255
-0.0604651   0.949381    1.91534 255 255 255
0.197662  1.17148   1.6492 255 255 255
0.232956  1.55073  1.78362 255 255 255
-0.0571019   0.936774    1.91742 255 255 255
0.146853 0.554894  1.78712 255 255 255
-0.0759892   0.887582    1.86596 255 255 255
-0.00832707     1.47381     1.97756 255 255 255
-0.0643495   0.911476    1.84578 255 255 255
-0.178708  0.970433   2.02817 255 255 255
-0.110871   0.96147   1.83081 255 255 255
-0.0819313    1.68308    2.06192 255 255 255
-0.186885   1.37263   2.00809 255 255 255
-0.18209 0.971611  2.03788 255 255 255
0.283108  1.70255  1.77422 255 255 255
0.053343  1.35605  1.78337 255 255 255
-0.0029604    1.05137     1.7471 255 255 255
0.0513776   1.34141   1.85715 255 255 255
0.049723  1.34213  1.85658 255 255 255
0.196663  1.30081  1.64223 255 255 255
0.00486103   0.777655    1.79995 255 255 255
0.250492   1.5354   1.7757 255 255 255
-0.149068  0.609564   1.93309 255 255 255
0.287837  1.52764  1.71625 255 255 255
0.247948 0.599044  1.69678 255 255 255
-0.0130293   0.826697       1.89 255 255 255
-0.12763  1.06435  1.97632 255 255 255
0.0902228   1.34671   1.71765 255 255 255
0.0751604   1.36671   1.84359 255 255 255
0.105579 0.800567  1.76275 255 255 255
0.0252364   1.18361       1.8 255 255 255
-0.130319  0.916619   1.91587 255 255 255
0.00982951   0.626554    1.82517 255 255 255
-0.10092  1.66308  2.02628 255 255 255
-0.0305605    1.31527    1.92204 255 255 255
0.248391 0.878242  1.68298 255 255 255
-0.0998607     0.8928    1.88895 255 255 255
0.171842  1.50102  1.80096 255 255 255
0.349033  1.58132  1.70006 255 255 255
0.153571  1.68711  1.90263 255 255 255
-0.0529209   0.746167    1.93183 255 255 255
-0.0860173    1.24563    1.92673 255 255 255
0.168653  1.52631  1.81363 255 255 255
-0.135551  0.586746   2.08592 255 255 255
-0.185579  0.923161   2.04554 255 255 255
-0.170951   1.38276   1.99649 255 255 255
-0.00890858    0.886252     1.77295 255 255 255
-0.104253   1.67548   2.08844 255 255 255
0.0403127   1.10062   1.77818 255 255 255
-0.00479891    0.893761     1.77642 255 255 255
-0.0269949   0.955662    1.74204 255 255 255
0.00947691   0.884134    1.82562 255 255 255
0.0333741    1.1719      1.82 255 255 255
0.0388636   1.08416   1.76644 255 255 255
-0.16671   0.8182  2.00205 255 255 255
-0.150071   1.00096   1.90122 255 255 255
-0.165213  0.796116   2.07806 255 255 255
-0.0578885    1.20431    1.92761 255 255 255
-0.153853  0.590793   1.93595 255 255 255
0.291384  1.54067  1.73279 255 255 255
-0.176281  0.626464   2.11574 255 255 255
-0.0398426   0.871233    1.83299 255 255 255
-0.094886   1.47605   2.07681 255 255 255
0.23336 1.19195 1.67365 255 255 255
0.0200192   1.23843   1.87012 255 255 255
0.239001  1.51667  1.75695 255 255 255
-0.0509843   0.624806    1.85423 255 255 255
-0.0764709   0.890134    1.84174 255 255 255
-0.0443577     1.3943     1.9164 255 255 255
0.21404 1.17007 1.68344 255 255 255
-0.507052   1.03686   2.08041 255 255 255
0.259988 0.697613  1.70171 255 255 255
-0.011399   1.56863   2.00377 255 255 255
0.110982  1.23163  1.77766 255 255 255
-0.460414   1.31906   2.06293 255 255 255
-0.109551   1.31275   1.98289 255 255 255
-0.110385   1.10995   1.96173 255 255 255
-0.0488197   0.742756    1.92591 255 255 255
-0.376155   1.33135   2.00965 255 255 255
0.241344 0.705674  1.70364 255 255 255
-0.236136  0.734733   1.95638 255 255 255
-0.129297   1.16605   1.94792 255 255 255
-0.00761077     1.46786     1.99956 255 255 255
0.164295 0.546894  1.79581 255 255 255
-0.0605877     1.2505    1.92802 255 255 255
0.274849  1.57321  1.76858 255 255 255
-0.0923098    1.27437    1.96547 255 255 255
0.0414786   1.07817    1.7423 255 255 255
0.100616  1.23615  1.81286 255 255 255
0.0441939   1.11053   1.78971 255 255 255
0.234885  1.51882  1.74597 255 255 255
0.0803589   1.25518   1.82367 255 255 255
0.250451  1.50518  1.74572 255 255 255
0.205709   1.1699  1.66987 255 255 255
0.192752  1.09561  1.68626 255 255 255
-0.207997  0.667336   2.13794 255 255 255
-0.0860832     1.2524    1.95912 255 255 255
-0.0549613   0.946573    1.90956 255 255 255
0.137319  1.57463  1.88145 255 255 255
-0.189338  0.781001    2.0534 255 255 255
0.165599  1.12747    1.732 255 255 255
-0.00669749     1.04322     1.75293 255 255 255
0.224316  1.17791  1.67074 255 255 255
0.081559  1.24252  1.69865 255 255 255
-0.068835  0.682793   1.82492 255 255 255
-0.215532  0.769179   2.00176 255 255 255
-0.0571802    0.92056    1.84186 255 255 255
0.129446 0.534496  1.82531 255 255 255
0.180305 0.566972  1.78183 255 255 255
-0.0554409   0.937786    1.80138 255 255 255
-0.0202078   0.921813    1.82706 255 255 255
-0.0190851    1.56469    1.99038 255 255 255
-0.0675364    1.41908    1.97334 255 255 255
-0.115257   1.64342   2.17657 255 255 255
-0.128903   1.08805    1.9336 255 255 255
-0.127593   1.07449   1.83582 255 255 255
-0.125206   1.08841   1.94264 255 255 255
-0.232206  0.654724   1.98981 255 255 255
0.11529 1.65899  1.9174 255 255 255
0.121262  1.45001  1.76187 255 255 255
0.0411533  0.540642   1.82454 255 255 255
0.0585097  0.880878   1.74077 255 255 255
0.227003  1.69375  1.82849 255 255 255
-0.0203499    1.64293    2.05266 255 255 255
0.227478  1.67166  1.81874 255 255 255
0.0120021  0.906126   1.82301 255 255 255
0.0153655   1.23168   1.87144 255 255 255
-0.235856   0.72192   1.96662 255 255 255
0.0725642  0.799725   1.77584 255 255 255
0.0244758   1.28475   1.86636 255 255 255
0.0253757   1.28452   1.86667 255 255 255
-0.134994  0.583386   1.94524 255 255 255
-0.0201502    1.64171    2.01607 255 255 255
-0.124224   1.08117   1.89285 255 255 255
0.214894  1.69433  1.84794 255 255 255
0.0091871  0.908974   1.79213 255 255 255
-0.158924   1.09419   2.01838 255 255 255
-0.193691  0.848459   2.06171 255 255 255
-0.172059  0.848603   2.07007 255 255 255
-0.203805  0.960248   2.06505 255 255 255
0.0262948  0.578054   1.81953 255 255 255
0.0693546   1.48491   1.90959 255 255 255
-0.260244    0.6824   1.99626 255 255 255
0.149367  1.13328  1.73241 255 255 255
-0.164189   1.06016   1.89764 255 255 255
0.135392  1.49977  1.85777 255 255 255
-0.186214  0.849394   2.08459 255 255 255
0.0381125  0.971852   1.74523 255 255 255
-0.474778  0.909038   2.07885 255 255 255
-0.157553    1.1162   2.00487 255 255 255
-0.0535549    1.34744    1.94281 255 255 255
-0.153916  0.825442   1.96297 255 255 255
-0.486663   1.07785   2.05756 255 255 255
-0.106301   1.09736   1.89062 255 255 255
0.278943  1.68163   1.7879 255 255 255
-0.142038   1.14446   1.99242 255 255 255
0.115206  1.21804  1.78777 255 255 255
0.00172175    1.42334    1.90649 255 255 255
0.296604  1.49184  1.70746 255 255 255
0.258355  1.46002  1.72739 255 255 255
0.0329104   1.16962   1.84675 255 255 255
-0.113719  0.843763   1.97809 255 255 255
0.0515816   1.12742   1.76613 255 255 255
-0.082635   1.63843   2.09541 255 255 255
-0.0117265    1.32095      1.892 255 255 255
0.123096  1.65973  1.91941 255 255 255
-0.0853702   0.904309    1.87583 255 255 255
-0.117572   0.85962   1.92599 255 255 255
-0.134415   0.58913   1.93305 255 255 255
0.0883244   1.46525   1.82113 255 255 255
-0.120225   1.15974    1.9805 255 255 255
-0.0551642    1.38589    1.92423 255 255 255
-0.117175   1.09915   1.97676 255 255 255
-0.236866  0.740421   2.00283 255 255 255
0.0222484  0.916312   1.75938 255 255 255
0.0130737   0.73995   1.78803 255 255 255
-0.170684  0.786553   2.07947 255 255 255
-0.0186063    1.38376    1.89259 255 255 255
0.088235  1.37619  1.83219 255 255 255
-0.105778   1.54886   2.12291 255 255 255
0.0590149  0.569059   1.80548 255 255 255
-0.204808   1.39518   2.04326 255 255 255
-0.113339   1.12971   1.96283 255 255 255
0.0605069   1.21017   1.82833 255 255 255
-0.0781547   0.876737    1.88346 255 255 255
0.0710054  0.861058   1.73839 255 255 255
-0.133546   1.39711   1.97228 255 255 255
0.117491   1.4927  1.86277 255 255 255
-0.0324318    1.31081    1.90997 255 255 255
0.0653813   1.62064   1.95772 255 255 255
-0.0794514   0.870786    1.89258 255 255 255
-0.0379453    1.37733    1.92016 255 255 255
0.0373036   1.06651   1.74899 255 255 255
0.217286  1.67886  1.83817 255 255 255
-0.122513  0.778074   1.98201 255 255 255
-0.149136   1.04904   1.89366 255 255 255
0.0224416   1.05478   1.74537 255 255 255
0.184448 0.528181  1.78477 255 255 255
-0.0919399    1.54543     2.1023 255 255 255
-0.0550383    1.29909    1.94065 255 255 255
0.0134755   1.16492   1.86503 255 255 255
0.120971  1.69565  1.91273 255 255 255
0.0933297   1.63066   1.93803 255 255 255
0.0720274  0.626304   1.78637 255 255 255
-0.00247614     1.22076     1.87921 255 255 255
0.0740504  0.696892   1.76586 255 255 255
-0.112702   1.54994   2.13345 255 255 255
0.0518583   1.12584    1.8285 255 255 255
-0.0949366   0.973754    1.83108 255 255 255
-0.229353  0.754098    2.0106 255 255 255
-0.155991   1.18807   2.00949 255 255 255
0.00805101   0.877548    1.77062 255 255 255
0.285614 0.746303  1.68072 255 255 255
0.245954  1.47801  1.74442 255 255 255
0.041371 0.599714  1.80697 255 255 255
-0.160377  0.614792   1.93452 255 255 255
0.0824053   1.26765   1.71571 255 255 255
0.0872683   0.63663   1.76924 255 255 255
-0.0743106    1.57093    2.04525 255 255 255
0.326709  1.53551  1.69645 255 255 255
-0.135535   1.30941   2.00867 255 255 255
0.0624899   1.31815    1.7491 255 255 255
-0.105577    1.5732   2.11822 255 255 255
-0.148362   0.92185    2.0086 255 255 255
-0.0672417   0.934464    1.90066 255 255 255
0.37109 1.67874 1.70733 255 255 255
0.112171  1.64729  1.90639 255 255 255
0.0325718   1.35631    1.8707 255 255 255
-0.0839841    1.34433    1.96713 255 255 255
0.0205815   1.17671   1.85914 255 255 255
0.0341324   1.32778   1.86004 255 255 255
0.110316 0.676109  1.75871 255 255 255
0.0853329   1.25353   1.81827 255 255 255
0.197956   1.1019  1.67766 255 255 255
-0.0245433   0.942307    1.75231 255 255 255
-0.274183  0.725269     1.986 255 255 255
-0.0938616   0.962986    1.95845 255 255 255
0.0588751  0.626559   1.78973 255 255 255
-0.154757  0.892467    2.0215 255 255 255
0.0231218   1.57349   1.98176 255 255 255
-0.127488  0.892576   1.99173 255 255 255
-0.120627  0.598608   1.90769 255 255 255
0.225481  1.19786  1.65638 255 255 255
0.0588937  0.560201   1.81178 255 255 255
0.0380276   1.49665   1.95354 255 255 255
0.0500297   1.27788   1.75711 255 255 255
-0.167895   1.00067   1.86479 255 255 255
0.0847674   1.27556   1.71021 255 255 255
-0.0106809   0.762145    1.91865 255 255 255
0.153625  1.52377  1.85443 255 255 255
0.153181  1.50025  1.82547 255 255 255
-0.236047   1.39041   2.03865 255 255 255
0.144737 0.536285  1.81853 255 255 255
0.0486669  0.549749   1.81908 255 255 255
0.0407167   1.11743   1.84129 255 255 255
0.0206321   1.45644   1.92123 255 255 255
0.0203084  0.902032   1.79615 255 255 255
0.162298  1.48241  1.79632 255 255 255
-0.0313847   0.797745    1.90168 255 255 255
-0.176513    1.0592   2.03454 255 255 255
0.21453 1.09793 1.67052 255 255 255
0.0339643   1.17138   1.83732 255 255 255
0.0196215   1.54932   1.98529 255 255 255
-0.0965141    1.54846    2.11284 255 255 255
0.321236  1.48638  1.67119 255 255 255
0.0496961   1.56773    1.9489 255 255 255
-0.0284219    1.29276    1.90648 255 255 255
0.261523 0.899903  1.66647 255 255 255
0.346238  1.65667  1.73039 255 255 255
0.0283194  0.672317   1.79663 255 255 255
0.133972  1.57864  1.87562 255 255 255
0.144993  1.44285  1.80707 255 255 255
-0.139754  0.812042   1.95503 255 255 255
-0.017939   1.56114   2.02178 255 255 255
0.0585028   1.12295   1.82163 255 255 255
0.213241   1.5232   1.7878 255 255 255
0.0159664   1.64799   1.95994 255 255 255
0.125033  0.75706  1.77567 255 255 255
0.125369 0.768558  1.76826 255 255 255
-0.127902  0.533858   2.06982 255 255 255
0.253214  1.47672  1.71883 255 255 255
0.066887 0.706858  1.76727 255 255 255
-0.0390265    1.54604    2.04699 255 255 255
0.0793879  0.609324   1.78115 255 255 255
0.27475 1.57989 1.74286 255 255 255
-0.207346  0.773728   2.09643 255 255 255
-0.19491 0.946908  2.05945 255 255 255
0.063091  1.28617  1.76198 255 255 255
0.0615428  0.714505   1.77277 255 255 255
-0.0116396   0.944182    1.74317 255 255 255
0.0824386   1.39982   1.84963 255 255 255
0.0847032   1.65036   1.92054 255 255 255
-0.255579  0.653356   2.16074 255 255 255
0.155789  1.21261  1.69423 255 255 255
-0.0478174     1.5457    2.05601 255 255 255
0.169502 0.701678  1.75965 255 255 255
-0.0760679   0.885984    1.85787 255 255 255
-0.0271537   0.766138    1.87521 255 255 255
-0.059723     1.452   2.05213 255 255 255
 0.14916 0.557534  1.80921 255 255 255
0.224224   1.6521  1.83012 255 255 255
0.317624  1.70697   1.7636 255 255 255
0.198088  1.67763  1.85657 255 255 255
-0.125634  0.910607   1.89891 255 255 255
-0.198224  0.600728   2.14879 255 255 255
0.0630525   1.29469   1.73203 255 255 255
-0.116127  0.516938   2.08202 255 255 255
-0.12097 0.985149  1.97237 255 255 255
-0.090518   1.30848    1.9704 255 255 255
0.284942 0.510715  1.70336 255 255 255
-0.0112074    1.30738    1.89027 255 255 255
0.0755947    0.7906   1.78252 255 255 255
0.122683 0.665126   1.7557 255 255 255
-0.138849  0.962253   1.99437 255 255 255
-0.119469  0.847144   1.92171 255 255 255
-0.157415   0.89168   1.94791 255 255 255
-0.0737852    1.54535    2.08421 255 255 255
0.0134538   1.42724   1.90295 255 255 255
0.0985036   1.63054    1.9238 255 255 255
-0.0375969    1.40933    1.91194 255 255 255
-0.205898   0.72843   2.05488 255 255 255
0.195315  1.29671  1.64604 255 255 255
-0.163156  0.803382   2.00915 255 255 255
-0.0948515   0.938417    1.95306 255 255 255
-0.157243   0.93111    2.0053 255 255 255
0.0440953  0.611461   1.79946 255 255 255
-0.091698   1.14678   1.97545 255 255 255
0.179509  1.41928  1.73769 255 255 255
0.161139  1.47796  1.81147 255 255 255
-0.0833851    1.57701    2.10411 255 255 255
-0.10235  0.77692  1.93332 255 255 255
-0.0445564    1.46412     2.0255 255 255 255
-0.0110715   0.709642    1.79249 255 255 255
-0.202192  0.598509   2.16167 255 255 255
-0.0723199    1.64787    2.11447 255 255 255
0.082485 0.692262  1.76439 255 255 255
-0.153271   1.04075   2.01207 255 255 255
-0.155927  0.758459   2.06569 255 255 255
0.189403  0.62525  1.76152 255 255 255
-0.00780457     1.31406     1.89075 255 255 255
0.16997 1.64818 1.86521 255 255 255
0.0721579   1.23529   1.71177 255 255 255
0.0408966   1.19958   1.85279 255 255 255
-0.0679447    1.56568    2.07384 255 255 255
0.013818 0.807333  1.83834 255 255 255
0.273108 0.890076   1.6747 255 255 255
-0.185682  0.850263   2.07342 255 255 255
0.0883857   1.24799   1.80933 255 255 255
0.118073  1.11647  1.67909 255 255 255
0.103673  1.23177  1.76708 255 255 255
-0.0411163   0.719463    1.92773 255 255 255
-0.122559  0.531714   2.08598 255 255 255
-0.00120259     1.42365     1.86789 255 255 255
0.0905698  0.648165   1.77671 255 255 255
-0.121831    1.2602   1.98523 255 255 255
0.0499404   1.50266   1.92489 255 255 255
0.155096  1.44491  1.79839 255 255 255
0.0165487   1.17194   1.86309 255 255 255
-0.0908225    1.13474    1.95479 255 255 255
0.0326959  0.779372   1.85858 255 255 255
-0.484786   1.08403   2.05684 255 255 255
-0.462317    1.1199   2.05442 255 255 255
0.0283519   1.18437   1.85178 255 255 255
0.0136651   1.15968   1.86142 255 255 255
0.0650767   1.14762   1.81577 255 255 255
-0.0117328   0.923996    1.78416 255 255 255
0.139188 0.619393  1.70477 255 255 255
0.0432741   1.28118   1.81185 255 255 255
0.226068  1.68634  1.83002 255 255 255
-0.0933581   0.842861    1.95652 255 255 255
-0.0707036    1.64405    2.10868 255 255 255
0.185278   1.4201  1.77207 255 255 255
-0.212551   1.00378   1.99994 255 255 255
-0.0943421    1.10332    1.95966 255 255 255
-0.137491  0.599211   1.91684 255 255 255
0.0403713  0.845932   1.78247 255 255 255
-0.0579442   0.822764    1.92479 255 255 255
0.0436948   1.09405   1.77157 255 255 255
0.146106  1.21875  1.69683 255 255 255
0.39181 1.69094 1.69624 255 255 255
-0.141109   1.02413   1.99272 255 255 255
-0.51537  1.17457  2.06034 255 255 255
-0.153187  0.600258   1.92634 255 255 255
-0.217897   1.35188   2.01277 255 255 255
-0.102764   1.16636   1.94938 255 255 255
-0.0412851   0.853814    1.91221 255 255 255
0.120034 0.531987  1.82866 255 255 255
-0.0153652    1.56132    1.99691 255 255 255
0.171989   1.4872  1.78789 255 255 255
-0.126013   1.27151   1.99005 255 255 255
-0.125568   1.06826   1.83108 255 255 255
0.0873044   1.31112   1.71139 255 255 255
-0.0819654   0.947428    1.94817 255 255 255
-0.408714   1.26645   2.00632 255 255 255
-0.0824107    1.54526    2.09329 255 255 255
-0.0521601     1.6505    2.08878 255 255 255
0.226356  1.66836  1.82666 255 255 255
-0.0695412    1.64184     2.0393 255 255 255
0.0216792   1.42209   1.88582 255 255 255
0.0860653   1.31781   1.71558 255 255 255
0.159569  1.50021  1.78087 255 255 255
-0.228069  0.598311   2.19788 255 255 255
-0.125039  0.839607     2.003 255 255 255
-0.103989   1.42028   1.99295 255 255 255
-0.24214 0.700804  1.97048 255 255 255
0.292399 0.713265  1.68585 255 255 255
-0.0815692   0.894684    1.86223 255 255 255
0.298411  1.56755  1.75091 255 255 255
0.180329  1.25152  1.66279 255 255 255
-0.128167  0.602192   1.91868 255 255 255
-0.144138  0.621809   1.91165 255 255 255
0.255373 0.918237  1.67308 255 255 255
0.0375458   1.33539   1.74062 255 255 255
0.0485795   1.13181    1.7786 255 255 255
0.0353213   1.05353   1.73417 255 255 255
0.129399 0.591313  1.78585 255 255 255
0.0600208   1.47643   1.90552 255 255 255
0.0939131   1.50708   1.88532 255 255 255
0.23532 1.19733 1.66966 255 255 255
-0.166345   1.00699   1.86622 255 255 255
-0.170297  0.861867   2.04278 255 255 255
-0.14024  1.04993  1.85452 255 255 255
0.311288  1.53807  1.69285 255 255 255
0.119356  1.47434  1.84603 255 255 255
0.33098 1.64843 1.73752 255 255 255
0.284914 0.503633  1.72285 255 255 255
0.0171032   1.03268   1.73688 255 255 255
-0.112697  0.772238   1.98431 255 255 255
-0.0966395   0.879082    1.89394 255 255 255
-0.0951912    1.10907    1.94511 255 255 255
-0.048714   1.29728   1.93242 255 255 255
0.299052  1.54415  1.72352 255 255 255
-0.199989   1.11937   2.04958 255 255 255
0.00270895    1.14906    1.86837 255 255 255
-0.189061  0.611844   1.97376 255 255 255
-0.0375208    1.36734    1.88615 255 255 255
0.221203  1.69375   1.8344 255 255 255
0.193941 0.940042  1.66701 255 255 255
-0.0531372    1.36616    1.91332 255 255 255
0.351029  1.66896   1.7246 255 255 255
-0.192409   1.34186   1.99665 255 255 255
-0.0885469   0.934921    1.95122 255 255 255
-0.206206   1.11044   2.02788 255 255 255
-0.0307409    1.32509    1.91586 255 255 255
-0.167416   1.00718   1.85826 255 255 255
0.061678   1.3353   1.7217 255 255 255
0.209763   1.5439  1.80314 255 255 255
0.0168042   1.63028   1.99961 255 255 255
0.194536  0.86297  1.70821 255 255 255
-0.200266  0.999519   2.00384 255 255 255
0.0197474  0.875173   1.79451 255 255 255
0.0198923  0.739207   1.86918 255 255 255
0.268147  1.63666  1.77926 255 255 255
-0.219371   1.39144   2.02206 255 255 255
0.191809  1.67176  1.85147 255 255 255
0.0318777  0.786513   1.80553 255 255 255
0.107137 0.630618  1.77177 255 255 255
-0.101303    1.1269   1.95735 255 255 255
0.203274  1.64534  1.84183 255 255 255
0.112435  1.45265  1.76573 255 255 255
0.0638413   1.21388   1.83295 255 255 255
0.178259  1.63757  1.85205 255 255 255
-0.0495634   0.980221    1.77859 255 255 255
0.175113  1.09297  1.69861 255 255 255
-0.164516  0.900585   2.03603 255 255 255
0.0713008    1.1273   1.73797 255 255 255
-0.189545   1.33765    1.9856 255 255 255
0.118459  1.20276   1.7205 255 255 255
-0.12016 0.615554  1.90057 255 255 255
-0.146226  0.901136   1.94332 255 255 255
-0.184562   1.49764   2.18054 255 255 255
0.169791 0.790022  1.73873 255 255 255
-0.272127  0.581745   2.16898 255 255 255
0.0044225   1.40036   1.89104 255 255 255
0.0461201  0.540918    1.8319 255 255 255
0.0801774   1.29731   1.75712 255 255 255
-0.0581051   0.637177      1.831 255 255 255
0.033848  1.07051  1.73343 255 255 255
0.0322739   1.33014   1.85502 255 255 255
-0.0288667    1.64108    2.02575 255 255 255
-0.147875  0.863006   2.01415 255 255 255
0.0979172  0.616486   1.74647 255 255 255
0.079937 0.616883  1.77859 255 255 255
-0.109145   0.76288   1.98786 255 255 255
-0.251927  0.686773    2.0001 255 255 255
0.0543051   1.21644   1.83528 255 255 255
0.323856  1.53862   1.6718 255 255 255
-0.00596095     1.01659     1.75067 255 255 255
-0.042179  0.811105   1.87085 255 255 255
0.27916 1.64498 1.79642 255 255 255
0.125853  1.10943   1.6812 255 255 255
0.123771  1.14816  1.68766 255 255 255
0.119728  1.38951  1.79133 255 255 255
0.0849152   1.14945   1.75414 255 255 255
-0.166868   1.03797   1.85715 255 255 255
0.0534466   1.33354   1.75896 255 255 255
0.119897  1.50344  1.87305 255 255 255
 -0.1373 0.631494  1.90542 255 255 255
-0.143502   1.13994   1.98616 255 255 255
0.075925 0.657224  1.77317 255 255 255
0.00582737    1.61664    1.97068 255 255 255
0.195647  1.09498  1.67948 255 255 255
0.132862 0.539816  1.82336 255 255 255
-0.152618  0.604105   1.93099 255 255 255
-0.168783   1.32178   2.01477 255 255 255
-0.0301395    1.64556    1.99603 255 255 255
0.277425 0.736691  1.68313 255 255 255
-0.137358  0.905927   1.94033 255 255 255
0.0292543  0.674483   1.78548 255 255 255
0.233547   1.1896  1.67364 255 255 255
0.010095 0.821169  1.79721 255 255 255
-0.16868 0.997109  1.88996 255 255 255
0.0446517   1.11465   1.77914 255 255 255
0.0824631   1.25611   1.81481 255 255 255
-0.107222   0.98806   1.82962 255 255 255
-0.0478334   0.861122    1.83043 255 255 255
-0.112042    1.2487   1.98471 255 255 255
0.0340924   1.09559   1.76353 255 255 255
0.137887  1.21708  1.73286 255 255 255
0.240429  1.45026  1.73725 255 255 255
-0.00393041     1.30098     1.89905 255 255 255
0.212137  1.14007  1.65505 255 255 255
0.202923  1.30721  1.64889 255 255 255
-0.047452   1.36367   1.90974 255 255 255
-0.0617129   0.738088    1.96183 255 255 255
0.0284283   1.18379   1.81695 255 255 255
-0.149732  0.629009   1.91834 255 255 255
-0.0122526   0.829582    1.85074 255 255 255
-0.154994  0.534352   2.13495 255 255 255
-0.00859033    0.822301     1.88184 255 255 255
-0.126158  0.649036   1.89656 255 255 255
-0.0415357   0.731462    1.92285 255 255 255
-0.0531403    1.46628    2.03027 255 255 255
-0.118391   1.16331   1.98596 255 255 255
0.057072  1.32077  1.73257 255 255 255
-0.139006  0.834872   2.01288 255 255 255
0.145145  1.59325  1.86996 255 255 255
0.0810398   1.38892   1.83835 255 255 255
-0.0338834    1.30908    1.92955 255 255 255
0.147444  1.10601  1.68283 255 255 255
0.139351 0.557193  1.79431 255 255 255
-0.0420015    1.64241    2.03435 255 255 255
0.055537   1.3561  1.79893 255 255 255
-0.039343   1.39519   1.93024 255 255 255
0.170235 0.711309  1.76002 255 255 255
-0.270819  0.725509   2.19581 255 255 255
-0.162582   1.11789   2.01086 255 255 255
-0.144081   1.08541   1.87509 255 255 255
0.0665096   1.07795   1.71783 255 255 255
-0.25706 0.679987  1.98384 255 255 255
-0.221479  0.684487   1.95839 255 255 255
-0.118547   1.35418   1.92935 255 255 255
0.293827  1.53756  1.72838 255 255 255
-0.129433  0.928101    1.9867 255 255 255
0.147213  1.07224  1.67753 255 255 255
-0.151138  0.606366     1.928 255 255 255
-0.117926   1.56789   2.13528 255 255 255
0.0661731   1.07068   1.72232 255 255 255
0.281142  1.64787  1.78192 255 255 255
0.26379 1.70992 1.81332 255 255 255
-0.12953 0.999764   1.8349 255 255 255
-0.134067   1.01009   1.84256 255 255 255
0.171569   0.7194  1.75797 255 255 255
0.0903082   1.55895   1.91939 255 255 255
-0.0376458   0.991181    1.76468 255 255 255
-0.110451  0.997126   1.83609 255 255 255
-0.132175   1.00485   1.83863 255 255 255
0.129844  1.17157  1.76543 255 255 255
-0.032877    1.3545   1.92847 255 255 255
-0.0629531   0.936679    1.92064 255 255 255
0.0910499  0.627634    1.7717 255 255 255
0.0469089   1.05151   1.72653 255 255 255
-0.0526741   0.966308    1.77989 255 255 255
0.137971 0.624515  1.70635 255 255 255
0.00648261    1.24519    1.87455 255 255 255
0.0500307   1.42444   1.83934 255 255 255
-0.130487  0.642057   1.89934 255 255 255
0.0297114   1.00785   1.71454 255 255 255
-0.100812  0.933052   1.96341 255 255 255
-0.111615  0.948627   1.96744 255 255 255
-0.150785  0.592787   1.93183 255 255 255
0.289995 0.506624  1.71571 255 255 255
0.217062  1.62189  1.82927 255 255 255
0.177218  1.41384  1.74948 255 255 255
0.207295 0.960521  1.65701 255 255 255
-0.127775  0.993915   1.97999 255 255 255
-0.00368071    0.842884     1.81864 255 255 255
0.282572  1.70872  1.79262 255 255 255
-0.145651   1.07802    1.8808 255 255 255
0.0338018   1.18304   1.85829 255 255 255
-0.109175  0.992816   1.83305 255 255 255
-0.135714  0.997638    1.8407 255 255 255
0.301238  1.44675  1.70292 255 255 255
0.0240506    1.3026   1.80162 255 255 255
-0.0300983   0.571642    1.85898 255 255 255
0.125392 0.761961  1.77742 255 255 255
 0.01572 0.860621  1.78722 255 255 255
-0.141634  0.897993   2.01002 255 255 255
-0.136435   1.00454   1.98632 255 255 255
0.314756  1.56132  1.73281 255 255 255
-0.0699313   0.946069    1.78984 255 255 255
0.0439999   1.16628    1.7972 255 255 255
0.254012  1.63295  1.79444 255 255 255
-0.0082692    1.50129    1.96802 255 255 255
0.14748 1.40954 1.79069 255 255 255
-0.18505  1.30883   2.0588 255 255 255
-0.159005  0.608212   1.93316 255 255 255
-0.142842  0.635073   1.90831 255 255 255
-0.145171  0.827494    2.0257 255 255 255
-0.0970955    1.42401    2.01132 255 255 255
0.110328   1.6387  1.90701 255 255 255
-0.259196  0.684179   1.98739 255 255 255
0.00977017   0.642722     1.8193 255 255 255
-0.210013  0.820484   2.08356 255 255 255
0.108228  1.23393   1.7798 255 255 255
-0.211555   1.00434   2.00993 255 255 255
-0.123282  0.987831   1.83553 255 255 255
0.0133155  0.999203   1.73269 255 255 255
0.000977399    0.607673     1.83835 255 255 255
0.175946  1.09749   1.6874 255 255 255
0.25742  1.2119 1.66599 255 255 255
0.120623  1.19677  1.72099 255 255 255
0.0819834    1.3249   1.71972 255 255 255
0.0817045   1.64669   1.92813 255 255 255
-0.105488   1.06096   1.95273 255 255 255
0.0467253  0.852272   1.78922 255 255 255
0.117533  1.05256  1.68874 255 255 255
0.119316 0.807702  1.76256 255 255 255
-0.170211   1.56465   2.22225 255 255 255
-0.0760895    1.14239     1.9409 255 255 255
-0.0637995    1.54566    2.07551 255 255 255
0.0546462   1.13195   1.77002 255 255 255
-0.0154432    1.29783    1.90116 255 255 255
0.250767  1.71205  1.82183 255 255 255
0.140659 0.752496  1.69058 255 255 255
0.141134  1.49496  1.83952 255 255 255
0.0425564   1.03973   1.72418 255 255 255
-0.136403  0.905651   1.92707 255 255 255
0.140102  1.49567  1.84907 255 255 255
-0.124069  0.910108   1.92715 255 255 255
0.177855   1.6564  1.87013 255 255 255
-0.160501   1.26644    2.0175 255 255 255
-0.120297  0.998841   1.98501 255 255 255
-0.150326  0.927135   2.01013 255 255 255
-0.0282229   0.981786    1.77674 255 255 255
-0.0583674   0.960271    1.78154 255 255 255
0.15327 1.67877 1.89612 255 255 255
0.0632932   1.26769   1.83868 255 255 255
-0.214754   1.20785   2.04711 255 255 255
0.0247014  0.658474   1.81043 255 255 255
-0.178843  0.688369     1.923 255 255 255
-0.120177   0.97802   1.97296 255 255 255
0.149736 0.754018  1.75817 255 255 255
-0.161581    1.0518   1.84571 255 255 255
0.010766  1.43789  1.90424 255 255 255
0.143029 0.782697  1.75162 255 255 255
-0.133562  0.546716   2.10082 255 255 255
-0.00915807    0.987347     1.76269 255 255 255
0.0108522   1.55049   1.98981 255 255 255
0.0611098   1.27547   1.83035 255 255 255
-0.163061    1.0192   1.85629 255 255 255
0.0942991  0.650892   1.77515 255 255 255
0.190559  1.08836  1.68204 255 255 255
-0.11292  0.97513  1.82694 255 255 255
0.183401  1.42004  1.77638 255 255 255
-0.10736  1.35706  1.94095 255 255 255
-0.00234092    0.837247     1.82415 255 255 255
-0.0395911    1.35799    1.89408 255 255 255
-0.170209  0.801416   2.07681 255 255 255
-0.168179   1.02408   1.85029 255 255 255
0.0606768  0.575654    1.8065 255 255 255
0.00482148    1.43584    1.87511 255 255 255
0.101694  1.25361  1.70547 255 255 255
-0.0961726    1.03404    1.92175 255 255 255
