ply
format ascii 1.0
element vertex 1203
property float x
property float y
property float z
property uchar red
property uchar green
property uchar blue
end_header
0.021039 0.861251  1.78945 255 255 255
-0.140302  0.897987   2.01048 255 255 255
-0.134186    1.0047   1.98708 255 255 255
0.31131 1.56169 1.73137 255 255 255
-0.0687291   0.946166    1.78994 255 255 255
0.0447285   1.16644    1.7972 255 255 255
0.247234  1.63281   1.7922 255 255 255
-0.0115053    1.50084    1.96706 255 255 255
0.145759  1.41116  1.78961 255 255 255
-0.183505   1.30971   2.05972 255 255 255
-0.158482  0.607586   1.93325 255 255 255
-0.142226  0.634526   1.90837 255 255 255
-0.143747   0.82737   2.02644 255 255 255
-0.104276   1.42245   2.00972 255 255 255
0.109586  1.64007  1.90669 255 255 255
-0.257744  0.684062   1.98833 255 255 255
0.00973958    0.64237    1.81901 255 255 255
-0.212426  0.820403   2.08283 255 255 255
0.110114  1.23347  1.78024 255 255 255
-0.203042   1.00483   2.01373 255 255 255
-0.119728  0.988021   1.83646 255 255 255
0.0140441  0.999302   1.73261 255 255 255
-0.000539692     0.607363      1.83755 255 255 255
0.172262  1.09729  1.68619 255 255 255
0.254537  1.21172  1.66487 255 255 255
0.119225  1.19675  1.72032 255 255 255
0.0817857   1.32526   1.71927 255 255 255
0.0815841   1.64827   1.92809 255 255 255
-0.103037    1.0612    1.9535 255 255 255
0.0388535  0.851251   1.78761 255 255 255
0.115246  1.05248  1.68786 255 255 255
 0.11604 0.807732  1.76134 255 255 255
-0.176459   1.56333   2.22056 255 255 255
-0.0762777    1.14236    1.94063 255 255 255
-0.0634747    1.54714    2.07609 255 255 255
0.0540213   1.13273   1.76979 255 255 255
-0.0118506    1.29837    1.90242 255 255 255
0.248222  1.71293  1.82078 255 255 255
0.135703 0.752566  1.68888 255 255 255
0.14031  1.4948 1.83888 255 255 255
0.0361643    1.0397   1.72271 255 255 255
-0.133846  0.905682   1.92783 255 255 255
0.138875  1.49635  1.84848 255 255 255
-0.121664  0.910145   1.92786 255 255 255
0.176195  1.65753  1.86943 255 255 255
-0.158437   1.26718   2.01844 255 255 255
-0.123447  0.998611    1.9844 255 255 255
-0.149875   0.92701   2.01044 255 255 255
-0.034357  0.981287   1.77527 255 255 255
-0.0571698   0.960377    1.78164 255 255 255
0.14998 1.67875 1.89475 255 255 255
0.0629967   1.26792    1.8384 255 255 255
-0.212601   1.20849   2.04816 255 255 255
0.0316469  0.657442   1.81167 255 255 255
-0.177505  0.687911   1.92337 255 255 255
-0.118037   0.97814   1.97365 255 255 255
0.149874 0.753987  1.75744 255 255 255
-0.160177   1.05202   1.84595 255 255 255
0.0115583   1.43885   1.90443 255 255 255
0.138708 0.782759  1.75011 255 255 255
-0.00801192    0.987435     1.76276 255 255 255
0.00864624    1.55091    1.98905 255 255 255
0.0608564   1.27571   1.83007 255 255 255
-0.158814   1.01948   1.85751 255 255 255
0.091926  0.65076  1.77396 255 255 255
0.186393  1.08814  1.68072 255 255 255
-0.109637   0.97529   1.82776 255 255 255
0.18133 1.41903 1.77559 255 255 255
-0.104934    1.3581   1.94184 255 255 255
-0.000673733     0.836897      1.82442 255 255 255
-0.0376787    1.35885    1.89463 255 255 255
-0.170403  0.801246   2.07683 255 255 255
-0.166859   1.02426    1.8505 255 255 255
0.056905 0.575514  1.80498 255 255 255
0.00593078    1.43686    1.87534 255 255 255
0.100751  1.25371  1.70486 255 255 255
-0.093855   1.03426   1.92289 255 255 255
-0.10513 0.697492  1.84574 255 255 255
-0.185861    1.3977   2.01953 255 255 255
-0.0976693   0.792737    1.96415 255 255 255
0.0443892   1.50523   1.95347 255 255 255
0.0868316   1.37824   1.83418 255 255 255
-0.177281  0.923156   2.04507 255 255 255
0.235531  1.12187   1.6493 255 255 255
-0.0142277   0.833863    1.84661 255 255 255
0.105249  1.25357  1.69244 255 255 255
-0.0268554   0.997313    1.77283 255 255 255
-0.177424   1.04102   2.02821 255 255 255
-0.077646   0.93466   1.93999 255 255 255
-0.14525  1.03511  1.92934 255 255 255
 0.1649 1.39894 1.76454 255 255 255
0.0940333  0.622884   1.77281 255 255 255
-0.182136  0.800359   2.07737 255 255 255
-0.15647 0.825643  1.98083 255 255 255
-0.213793  0.826687   2.08439 255 255 255
0.118943  1.15886   1.6962 255 255 255
-0.140418   1.64366   2.16686 255 255 255
-0.161172   1.55658   2.18198 255 255 255
0.254221 0.926327  1.66787 255 255 255
0.129822  1.40703   1.8007 255 255 255
-0.207286   1.00697   1.99393 255 255 255
-0.173977   1.27393   2.01716 255 255 255
0.0216409   1.61217   1.99727 255 255 255
0.140232  1.40939  1.79598 255 255 255
0.227973  1.46761  1.72352 255 255 255
-0.124777     1.179   1.95196 255 255 255
0.017341 0.741995  1.87246 255 255 255
0.00332621    1.62513    1.97958 255 255 255
0.0542065   1.20171   1.84251 255 255 255
0.143834  1.59754  1.87629 255 255 255
0.115161  1.58332  1.87542 255 255 255
0.0763193  0.698342   1.75972 255 255 255
0.162053  1.67269  1.88267 255 255 255
0.182349 0.526493   1.7901 255 255 255
-0.465772   1.36828   2.07701 255 255 255
-0.125367    1.0275   1.88375 255 255 255
0.160253   1.6805  1.88614 255 255 255
0.371239  1.67232  1.70342 255 255 255
-0.0530549   0.946579    1.82383 255 255 255
0.00623506   0.894399    1.78522 255 255 255
-0.0205563    1.57216    2.02273 255 255 255
0.111463   1.4478   1.7691 255 255 255
0.0788881   1.27338   1.71393 255 255 255
-0.134968   1.06642   1.91011 255 255 255
0.0501904  0.728484   1.77084 255 255 255
-0.0541798     1.4716    2.02804 255 255 255
-0.0610882    1.42958    1.96548 255 255 255
-0.0914951    1.49126    2.07094 255 255 255
-0.0482366   0.972412    1.78504 255 255 255
-0.0551589    1.36627    1.90645 255 255 255
-0.0347799     1.1671    1.91369 255 255 255
0.0897055   1.40992   1.84104 255 255 255
0.161232  1.65402  1.87764 255 255 255
-0.131014  0.599912   1.92218 255 255 255
-0.104999   1.46179   2.08894 255 255 255
-0.0555222    1.24634    1.93013 255 255 255
-0.0654075    1.10308    1.92706 255 255 255
-0.0668274   0.940406    1.79525 255 255 255
0.014083  1.63473  2.00363 255 255 255
-0.107023  0.978239    1.8222 255 255 255
-0.287425  0.689783   2.01459 255 255 255
0.0687634    1.2656   1.83523 255 255 255
0.0237955   1.27922   1.73274 255 255 255
-0.194438   1.34595   1.99512 255 255 255
0.371526  1.60594  1.70939 255 255 255
-0.0627415   0.965462    1.92878 255 255 255
0.0499939   1.11952   1.78244 255 255 255
-0.181994  0.869165   2.07441 255 255 255
0.121476 0.577603  1.69118 255 255 255
0.204625  1.67986  1.83964 255 255 255
0.264491  1.55146  1.77243 255 255 255
-0.25701 0.718176  1.98204 255 255 255
0.132238  1.22435  1.76711 255 255 255
0.102288  1.59003  1.91346 255 255 255
0.0921096  0.693974   1.76079 255 255 255
0.0535474    1.1263   1.82307 255 255 255
-0.133719  0.617561    1.9119 255 255 255
-0.158976  0.881016   2.03186 255 255 255
-0.106366  0.763181   1.98318 255 255 255
0.0941431   1.62784   1.92743 255 255 255
-0.146593   1.05296   1.84331 255 255 255
 0.15698 0.566034  1.78618 255 255 255
-0.0507194    1.38832    1.93557 255 255 255
0.0565249   1.27498   1.72378 255 255 255
-0.155111   0.79746   2.02256 255 255 255
0.0820884    1.2854   1.71017 255 255 255
0.0870156   1.28078     1.708 255 255 255
0.0804887   1.55778   1.92647 255 255 255
-0.0849589    1.24669    1.95494 255 255 255
-0.132376  0.864894   1.99716 255 255 255
0.0169888   1.56526   1.95615 255 255 255
-0.110866   1.02524   1.82173 255 255 255
-0.14315 0.848152  2.02264 255 255 255
0.299325  1.55704  1.73921 255 255 255
0.188912  1.52503  1.80588 255 255 255
0.0309881   1.49196   1.95571 255 255 255
0.310483  1.55688  1.71889 255 255 255
0.162023  1.59606  1.84914 255 255 255
0.133949  1.17976  1.75734 255 255 255
0.00282235    0.80175    1.81066 255 255 255
-0.0829024    1.26654    1.95549 255 255 255
-0.263504   0.70793   2.15108 255 255 255
-0.138951   1.27992   2.00645 255 255 255
0.0408777   1.09112   1.74837 255 255 255
0.141366 0.762496   1.7548 255 255 255
-0.130276    1.1114   1.98095 255 255 255
0.288231  1.64482  1.77555 255 255 255
-0.0913334     1.2216      1.962 255 255 255
0.0702197   1.55935   1.93512 255 255 255
-0.119195   1.26832   1.98408 255 255 255
0.084411  1.14511  1.75001 255 255 255
0.19543 1.15245 1.65378 255 255 255
0.112678  1.48675  1.85936 255 255 255
-0.134124  0.897952   1.90488 255 255 255
-0.151586  0.810544   2.05057 255 255 255
0.0302696  0.682853   1.79559 255 255 255
-0.201334  0.995924   2.00076 255 255 255
-0.205235   1.00009   2.01166 255 255 255
-0.145018  0.652931   1.90839 255 255 255
-0.10499 0.626282  1.89444 255 255 255
0.0262229   1.12981   1.85733 255 255 255
0.0208294  0.986112   1.75058 255 255 255
 0.1836 1.36884 1.66994 255 255 255
0.316779  1.53434  1.66633 255 255 255
-0.0211068    1.05378     1.7711 255 255 255
0.0321555  0.675922   1.79768 255 255 255
-0.0732604     1.4769    2.05697 255 255 255
0.233456  1.49399  1.74155 255 255 255
-0.0614728    1.43703    1.96801 255 255 255
0.113824  1.21954  1.78528 255 255 255
-0.091875  0.965586   1.95119 255 255 255
-0.0211148    1.03476    1.75949 255 255 255
0.190018  1.53614  1.81241 255 255 255
0.0348528   1.18189   1.80083 255 255 255
0.0185778  0.797396   1.83681 255 255 255
0.0564748   1.56381    1.9429 255 255 255
-0.0551609   0.965177    1.79428 255 255 255
-0.0421657    1.35554    1.92948 255 255 255
-0.0645003   0.952132    1.79525 255 255 255
0.204711  1.10826  1.66854 255 255 255
-0.258504  0.722502    1.9871 255 255 255
0.0180087   1.24457   1.86737 255 255 255
-0.0703155   0.970216    1.79326 255 255 255
-0.197431   1.23964   2.03294 255 255 255
0.0332507   1.18852   1.85617 255 255 255
0.157794  1.67396  1.88481 255 255 255
-0.131486  0.824375   1.94833 255 255 255
-0.203456   1.28084   2.06244 255 255 255
0.0962795   1.50027   1.89383 255 255 255
0.289537  1.53608  1.73138 255 255 255
-0.016553   1.61694   2.03187 255 255 255
-0.0824854   0.959895    1.80525 255 255 255
-0.0931419    1.03184    1.91982 255 255 255
0.22925 1.10234 1.65612 255 255 255
0.0146567   1.00823   1.73976 255 255 255
-0.104989   1.49662   2.10303 255 255 255
 0.2476 1.70895   1.821 255 255 255
-0.0769009    1.44682    2.07473 255 255 255
0.146411  1.22521  1.67129 255 255 255
0.158302  1.20064  1.68611 255 255 255
-0.0816607    1.47038    2.07252 255 255 255
-0.0263362   0.967225    1.76078 255 255 255
-0.143927  0.907468   2.00691 255 255 255
0.180301  1.25567  1.65812 255 255 255
-0.0470434    1.43501    1.95547 255 255 255
-0.145793   1.05012   2.00246 255 255 255
-0.0861277   0.907873    1.87078 255 255 255
0.0599992  0.719648   1.76759 255 255 255
-0.115697  0.574388   1.96559 255 255 255
-0.147685   1.11726   1.95785 255 255 255
0.285219  1.58296  1.76238 255 255 255
0.05097 1.47862 1.89635 255 255 255
-0.0434647   0.738764    1.94153 255 255 255
-0.219328   0.71643   2.00064 255 255 255
-0.051555  0.823806   1.93529 255 255 255
 0.27417 0.539725   1.7025 255 255 255
0.0771901  0.804733   1.77399 255 255 255
0.328259  1.55596  1.69317 255 255 255
-0.0450735   0.858866    1.91456 255 255 255
-0.107178  0.768728   1.97986 255 255 255
-0.0914837   0.960841    1.95395 255 255 255
-0.0124314   0.746308    1.90805 255 255 255
0.286416 0.746487   1.6736 255 255 255
-0.0628491   0.968023    1.80076 255 255 255
0.0627703   1.58564   1.93787 255 255 255
-0.116425  0.764612   1.99042 255 255 255
0.11247 1.22387 1.78401 255 255 255
-0.0609921    1.47357    2.04741 255 255 255
-0.0715986   0.868912    1.88265 255 255 255
 -0.1406 0.972075  1.99827 255 255 255
0.0752615   1.55989   1.92552 255 255 255
0.0144458   1.15832   1.86992 255 255 255
-0.187048   1.01274    2.0408 255 255 255
-0.187266  0.963228   2.05325 255 255 255
-0.190762  0.868527   2.06635 255 255 255
-0.0737186    1.46935    2.07104 255 255 255
0.119459 0.539643  1.82331 255 255 255
-0.0477526   0.725695    1.94664 255 255 255
0.0272996   1.48944   1.95718 255 255 255
-0.0351403   0.662053    1.83421 255 255 255
-0.0811941    1.09758    1.91563 255 255 255
0.0287225   1.16243   1.84981 255 255 255
0.0545068  0.834342   1.77695 255 255 255
-0.159059   1.03597   2.01172 255 255 255
0.072834  1.40383  1.85223 255 255 255
-0.142111   0.84177   2.02678 255 255 255
0.0505405    1.2853   1.79618 255 255 255
0.00881731   0.796363    1.80507 255 255 255
0.0660374   1.28567   1.72668 255 255 255
0.073763  1.48056  1.87269 255 255 255
-0.0268811    1.64951    1.96554 255 255 255
0.0336421   1.31457   1.86628 255 255 255
0.0986009   1.41138   1.83114 255 255 255
-0.17671  1.08717  2.00129 255 255 255
-0.117396   0.76645   1.96522 255 255 255
0.111036  1.45324     1.77 255 255 255
0.0431158   1.12793   1.78162 255 255 255
0.182293  1.58768  1.84249 255 255 255
0.072289 0.808778  1.77628 255 255 255
0.0239959  0.930374   1.74287 255 255 255
-0.0776602   0.949104    1.94535 255 255 255
-0.171051    0.7978   2.07771 255 255 255
-0.0858593   0.888284    1.87827 255 255 255
0.113207 0.660722  1.75836 255 255 255
0.0323599   1.01877   1.71303 255 255 255
-0.160838   1.03963   2.01238 255 255 255
-0.0869883   0.998025    1.82016 255 255 255
-0.154773  0.881546   2.02396 255 255 255
-0.152862  0.841731   2.01864 255 255 255
0.198493  1.61274  1.83704 255 255 255
0.254249   1.4448  1.72395 255 255 255
0.226295  1.70338  1.83211 255 255 255
-0.0584477    1.40538    1.93353 255 255 255
0.117417   1.6833   1.9301 255 255 255
-0.00937965    0.825792     1.84953 255 255 255
-0.128811  0.843316    1.9958 255 255 255
-0.0752632   0.876264    1.86695 255 255 255
-0.101187  0.875253   1.91485 255 255 255
0.0639657   1.48594   1.91555 255 255 255
-0.0408617    1.64758    2.00654 255 255 255
0.0472602  0.840274    1.7758 255 255 255
-0.0755083    1.49315    2.06775 255 255 255
0.305355  1.70705  1.76814 255 255 255
-0.156939   1.05471   1.89039 255 255 255
-0.226608  0.765964   1.98934 255 255 255
0.616485  1.43265  1.53595 255 255 255
0.650092 0.695367  1.51161 255 255 255
0.656067 0.763449  1.47315 255 255 255
0.691743  1.27496  1.47278 255 255 255
0.694347  1.49684   1.5207 255 255 255
0.675429  1.40659  1.50185 255 255 255
0.462363 0.950237  1.43633 255 255 255
0.503096 0.741071  1.54613 255 255 255
0.751546  0.79193  1.45984 255 255 255
0.497553  1.27013  1.54562 255 255 255
0.670614  1.43999  1.51298 255 255 255
0.290122  1.23606  1.38519 255 255 255
0.742428 0.664297  1.46732 255 255 255
0.832307  1.42117  1.45286 255 255 255
0.566134  1.38823  1.53594 255 255 255
0.442086  1.16971  1.55843 255 255 255
0.679294  0.67129  1.48593 255 255 255
0.727444  1.29855  1.45968 255 255 255
0.240109  1.29981  1.27989 255 255 255
0.674956 0.844145  1.47169 255 255 255
 0.42964 0.842827  1.55035 255 255 255
0.750003  1.45011  1.49162 255 255 255
0.694647 0.765975  1.47229 255 255 255
0.395824  1.04568   1.5664 255 255 255
0.737721 0.726696  1.45953 255 255 255
0.710962  1.41565  1.48907 255 255 255
0.508787  1.23371  1.52574 255 255 255
0.708235  1.03984  1.43651 255 255 255
0.818115  1.09954  1.41887 255 255 255
0.821498  1.30704  1.44355 255 255 255
0.665792  1.45991  1.51184 255 255 255
0.657021 0.856055  1.47641 255 255 255
0.763417 0.896789  1.44156 255 255 255
0.489759  1.10813  1.44114 255 255 255
0.69529 1.24427 1.45464 255 255 255
0.809129  1.00514  1.42663 255 255 255
0.840671  1.39866  1.44402 255 255 255
0.536095 0.839694  1.48054 255 255 255
0.212104   1.3513   1.1927 255 255 255
0.822666 0.988551  1.41618 255 255 255
0.545172  1.12235  1.40868 255 255 255
0.483118  1.44624  1.57572 255 255 255
0.412473  1.14577  1.59624 255 255 255
0.77864  1.0959 1.42584 255 255 255
0.655324   0.6427  1.50801 255 255 255
0.765261  1.15205  1.44146 255 255 255
0.736006  1.37007  1.47417 255 255 255
0.698974  1.50796  1.52226 255 255 255
0.71412 1.39539  1.4912 255 255 255
0.469379  1.46842  1.57167 255 255 255
0.845185   1.3661  1.43683 255 255 255
0.529121  0.71583   1.5407 255 255 255
0.627959  1.51135  1.54842 255 255 255
0.831377  1.41049  1.44704 255 255 255
0.297721  1.26897  1.33562 255 255 255
0.443591 0.757307  1.57022 255 255 255
0.668693 0.811756  1.46716 255 255 255
0.829934  1.36778  1.43914 255 255 255
0.461969 0.696445  1.57109 255 255 255
0.714803 0.637723  1.48106 255 255 255
0.385882  0.94231  1.54602 255 255 255
0.736142 0.764719  1.45342 255 255 255
 0.5544 1.32313 1.53296 255 255 255
0.502176  1.42345  1.56529 255 255 255
0.776118 0.994236  1.42854 255 255 255
0.826261  1.20415  1.42681 255 255 255
0.826261  1.20415  1.42681 255 255 255
0.78131 1.20332 1.43642 255 255 255
0.520689  1.39903   1.5532 255 255 255
0.778319  1.32704  1.46029 255 255 255
0.781771  1.06018  1.42672 255 255 255
0.457057  1.11412   1.5546 255 255 255
0.575785  1.44053  1.54106 255 255 255
 0.67825 0.677423   1.4933 255 255 255
0.700778 0.798553  1.46181 255 255 255
0.711063  1.48137  1.50584 255 255 255
0.278831      1.3  1.30469 255 255 255
 0.63694 0.844922  1.48353 255 255 255
0.588386 0.811949  1.51471 255 255 255
0.234837  1.30652  1.27737 255 255 255
0.49947 1.25532 1.54992 255 255 255
0.771909 0.792574  1.44794 255 255 255
0.672253  1.38721  1.49277 255 255 255
0.46149 0.68794 1.57659 255 255 255
0.647062 0.783958  1.47624 255 255 255
0.819646 0.922665  1.41874 255 255 255
0.687525  1.15168  1.46342 255 255 255
0.785955  1.31871  1.45239 255 255 255
0.724893   1.1795   1.4537 255 255 255
0.727001 0.649939  1.48892 255 255 255
0.555054  1.13986  1.40797 255 255 255
0.723157  1.30213   1.4744 255 255 255
0.406576  1.27994  1.56762 255 255 255
0.441368  1.42299  1.57794 255 255 255
0.737071  1.04837  1.43277 255 255 255
0.835198   1.3478   1.4431 255 255 255
0.436255  1.21301  1.61827 255 255 255
0.247865  1.29381  1.29204 255 255 255
0.605689   1.4776  1.53753 255 255 255
0.618497  1.49566  1.53482 255 255 255
0.784023  1.44992  1.47398 255 255 255
0.619822 0.761246  1.49087 255 255 255
0.577352 0.798604  1.51316 255 255 255
0.610614  1.25571  1.50692 255 255 255
0.777032 0.659896  1.46699 255 255 255
0.638642  1.48635  1.53696 255 255 255
0.491924  1.44251  1.56114 255 255 255
0.778261  1.44048  1.47117 255 255 255
0.467236  1.45101  1.58055 255 255 255
0.571436 0.782873  1.51787 255 255 255
0.766771 0.750658  1.44806 255 255 255
0.241312  1.30165  1.27559 255 255 255
0.478883   1.3777  1.56244 255 255 255
 0.6893 1.25925 1.46627 255 255 255
0.529266  1.46384  1.56804 255 255 255
0.463043  1.36679  1.57912 255 255 255
0.746577  1.37783  1.46553 255 255 255
0.447947  1.37379  1.58406 255 255 255
0.681465  1.19985  1.46494 255 255 255
0.602496  1.49469  1.54007 255 255 255
0.262354   1.2644    1.357 255 255 255
0.703224 0.951898  1.45182 255 255 255
0.432317  1.06231   1.5351 255 255 255
0.776735  1.34992  1.46213 255 255 255
0.812633  1.35708  1.45057 255 255 255
0.514659  1.37217  1.54592 255 255 255
0.697016  1.12901  1.45246 255 255 255
0.423622 0.708979  1.60187 255 255 255
0.777546  1.34221  1.46018 255 255 255
0.574241  1.48359  1.54837 255 255 255
0.805162 0.647081  1.46321 255 255 255
0.825691 0.756557  1.43951 255 255 255
0.672766  1.37805  1.49391 255 255 255
0.805276 0.660526  1.45782 255 255 255
0.330524  1.19061  1.41675 255 255 255
0.433242  1.19719   1.6087 255 255 255
0.711877  1.10059  1.44541 255 255 255
0.688771  1.39986  1.49324 255 255 255
0.469833  0.95315  1.42622 255 255 255
0.82147 1.39517 1.45089 255 255 255
0.713251  1.21191  1.45289 255 255 255
0.700582 0.641133  1.48877 255 255 255
0.601587  1.52007  1.55394 255 255 255
0.657429 0.638279  1.51148 255 255 255
0.58714 1.47633 1.55089 255 255 255
0.38718 0.97098 1.52923 255 255 255
0.80639 1.40542 1.46147 255 255 255
0.777149  1.45387  1.47713 255 255 255
0.684715  1.51723  1.53761 255 255 255
0.806303  1.41156  1.46207 255 255 255
0.777198 0.730652  1.45476 255 255 255
 0.68458 0.855991  1.46648 255 255 255
0.654307 0.832399  1.47283 255 255 255
0.505717 0.789218  1.53759 255 255 255
0.733774  1.37014  1.46898 255 255 255
0.673199  1.45343  1.50594 255 255 255
0.453471  1.44403  1.58041 255 255 255
0.597014   1.4755  1.54071 255 255 255
0.652808 0.793285  1.47888 255 255 255
0.707198  1.15697  1.45254 255 255 255
 0.52245 0.704744  1.53296 255 255 255
0.525752 0.661189  1.54877 255 255 255
0.729732 0.789073  1.45327 255 255 255
0.693113  1.41177  1.49363 255 255 255
0.787171 0.786905  1.44603 255 255 255
0.482009  1.28919  1.55778 255 255 255
0.248654    1.285  1.33536 255 255 255
 0.49409 0.668334  1.56583 255 255 255
0.491877 0.669156   1.5638 255 255 255
0.493983   1.2182   1.5416 255 255 255
0.831676  1.26858  1.42637 255 255 255
0.525086  1.02614  1.41757 255 255 255
0.616363  1.47107  1.52829 255 255 255
0.454478 0.804517  1.54387 255 255 255
0.619981  0.81166  1.48536 255 255 255
0.464108  1.14018  1.40518 255 255 255
0.516062  1.04226  1.41674 255 255 255
0.451976  1.39858  1.57125 255 255 255
0.494926  1.35886  1.55523 255 255 255
0.677721 0.860083  1.47009 255 255 255
0.787099  1.46685  1.47573 255 255 255
0.848825  1.32038  1.43494 255 255 255
0.433708 0.733102  1.59376 255 255 255
0.541954 0.703386  1.53465 255 255 255
0.616626  1.51457  1.55135 255 255 255
0.664602  1.35964   1.4956 255 255 255
0.721611  1.10804   1.4354 255 255 255
 0.37014 0.948887   1.5523 255 255 255
0.774266 0.812646  1.44857 255 255 255
0.625222 0.802835  1.48374 255 255 255
0.204428  1.35426  1.19194 255 255 255
0.775912  1.46544  1.47848 255 255 255
0.718903  1.14183  1.44599 255 255 255
0.218573  1.37677  1.23789 255 255 255
0.525068  1.39496  1.54538 255 255 255
0.49257 0.98875 1.43086 255 255 255
0.470509  1.45923  1.58376 255 255 255
0.825832  1.46943   1.4626 255 255 255
0.484893  1.28959  1.55259 255 255 255
0.414773 0.707578  1.64564 255 255 255
0.551619  1.11429  1.41182 255 255 255
0.259141  1.29051  1.29191 255 255 255
0.472571  1.14946  1.58758 255 255 255
0.461205 0.886229  1.44823 255 255 255
0.754622  1.16016  1.44193 255 255 255
0.730045  1.28591  1.45964 255 255 255
0.30502  1.2861 1.32224 255 255 255
0.702064  0.64794  1.49202 255 255 255
0.667623 0.730229  1.48052 255 255 255
0.305781  1.25988  1.34708 255 255 255
0.790047 0.721647  1.44674 255 255 255
0.823902  1.39023   1.4466 255 255 255
0.240996  1.29269  1.33019 255 255 255
0.420344 0.835963  1.55117 255 255 255
0.594572 0.701972  1.51368 255 255 255
0.723404 0.822848  1.45435 255 255 255
0.770335  1.40016  1.47094 255 255 255
0.784325 0.800454  1.44748 255 255 255
0.767448 0.736871  1.44943 255 255 255
0.55931 1.30212 1.52251 255 255 255
 0.48648 0.672566   1.5661 255 255 255
0.500588  1.32245  1.54022 255 255 255
0.56906 1.46592 1.54733 255 255 255
0.768221  1.40779  1.46814 255 255 255
0.538159  1.44677  1.55838 255 255 255
0.673634 0.718772  1.48023 255 255 255
0.738218  1.36395  1.47228 255 255 255
0.741426   1.3788  1.47007 255 255 255
0.328994  1.20432  1.40984 255 255 255
0.595243 0.802856   1.5085 255 255 255
0.698128  1.13663  1.45519 255 255 255
 0.45885 0.808514  1.54483 255 255 255
0.546143  1.50406  1.56952 255 255 255
0.820554  1.02954  1.41398 255 255 255
0.495906 0.866922  1.52483 255 255 255
0.681426 0.818665  1.46389 255 255 255
0.70708 1.14197 1.44548 255 255 255
0.569701   1.3581  1.52635 255 255 255
0.465001 0.733305  1.56277 255 255 255
0.736002  1.40707  1.47792 255 255 255
0.50592 1.31652 1.54612 255 255 255
0.559146  1.49774  1.55985 255 255 255
0.608917 0.640005  1.52751 255 255 255
0.681868  1.33268  1.48462 255 255 255
0.688268 0.636578  1.49438 255 255 255
0.735581   1.3895  1.47487 255 255 255
0.823785 0.708944  1.44056 255 255 255
0.190613  1.35922  1.18862 255 255 255
0.663788 0.854032  1.47287 255 255 255
 0.53086 0.711652  1.54337 255 255 255
0.670031  1.21224  1.46861 255 255 255
0.588955 0.699448   1.5144 255 255 255
0.488399  1.25775  1.54987 255 255 255
0.371428 0.912963  1.56053 255 255 255
0.553058 0.939912  1.41658 255 255 255
0.560384  1.35483  1.53272 255 255 255
0.63858  0.6432 1.51858 255 255 255
0.27441 1.29062 1.32207 255 255 255
0.820161  1.44293  1.45813 255 255 255
0.571742  1.28569  1.51783 255 255 255
0.22904  1.3385 1.21519 255 255 255
0.635682  0.84898  1.48291 255 255 255
0.486761  1.46264  1.57234 255 255 255
0.811599 0.667291  1.44527 255 255 255
0.745011 0.923683  1.44347 255 255 255
0.486231  1.45148  1.56718 255 255 255
0.734362  0.96279  1.44304 255 255 255
0.296522  1.25132  1.36294 255 255 255
0.790112  1.37203  1.46299 255 255 255
0.817538  1.39306  1.45471 255 255 255
0.697021   1.2665  1.46551 255 255 255
 0.40968 0.750492  1.62947 255 255 255
0.442665 0.684978  1.58811 255 255 255
0.421681 0.697364  1.61069 255 255 255
0.656894 0.850687  1.47566 255 255 255
0.538156  1.37186  1.54006 255 255 255
0.661497  1.50595   1.5348 255 255 255
0.223313  1.35723  1.26061 255 255 255
0.744651  1.46483  1.49183 255 255 255
0.777763 0.767241  1.45016 255 255 255
0.810992 0.654748  1.46045 255 255 255
0.443978  1.37674  1.58674 255 255 255
0.519089  1.51828  1.58959 255 255 255
  0.7285 0.668973  1.47633 255 255 255
0.469496  1.41683  1.56855 255 255 255
0.698184 0.642672   1.4952 255 255 255
0.565734  1.48625  1.55231 255 255 255
0.758815 0.723995  1.45845 255 255 255
0.689022  1.49754   1.5306 255 255 255
0.689681   1.2662   1.4663 255 255 255
0.549507  1.39328  1.53997 255 255 255
0.536526  1.44219  1.56012 255 255 255
0.510451  1.41804  1.55387 255 255 255
0.708051  1.35603  1.47431 255 255 255
0.598555 0.762417  1.50309 255 255 255
0.521796  1.36959  1.54585 255 255 255
0.454928  1.04132  1.43258 255 255 255
0.430511 0.756587  1.60874 255 255 255
0.600711  1.49165  1.54348 255 255 255
0.722913  1.38457  1.48005 255 255 255
0.679111  1.40961  1.50427 255 255 255
0.794522  1.42639  1.46909 255 255 255
0.817803  1.39994  1.45515 255 255 255
0.529544 0.784599  1.50997 255 255 255
0.766389 0.777851  1.44807 255 255 255
0.402219  1.05319  1.55345 255 255 255
 0.61085 0.760638  1.49394 255 255 255
0.694866 0.650194  1.49194 255 255 255
0.801546 0.728966  1.44185 255 255 255
0.724871 0.715446  1.46622 255 255 255
0.48884 1.23709 1.55062 255 255 255
0.516093  1.48591  1.58205 255 255 255
0.579367  1.40545   1.5352 255 255 255
0.812316  1.38558  1.45666 255 255 255
0.686986  1.48419  1.51471 255 255 255
0.846817  1.38844  1.44508 255 255 255
0.719909 0.832505  1.45213 255 255 255
0.699698  1.12046   1.4528 255 255 255
0.82045 1.43713 1.46056 255 255 255
0.226389  1.34321   1.2053 255 255 255
0.382483 0.987157  1.57663 255 255 255
0.477326  1.01829  1.48428 255 255 255
0.688146 0.804418  1.45763 255 255 255
0.749793  1.38008  1.46149 255 255 255
0.518283  1.02668  1.42099 255 255 255
0.678185  1.32906  1.48563 255 255 255
0.411337 0.849848  1.55642 255 255 255
0.609021 0.691842  1.51289 255 255 255
0.337366  1.10175  1.50296 255 255 255
0.533983 0.726854  1.53408 255 255 255
0.711883  1.35689  1.47213 255 255 255
0.820951  1.45078    1.457 255 255 255
0.832306  1.39495  1.44431 255 255 255
0.830896  1.43439  1.45253 255 255 255
0.548519  1.34452  1.52851 255 255 255
0.601755  1.47276  1.54271 255 255 255
0.677826  1.23749  1.46715 255 255 255
0.671649  1.45749  1.50992 255 255 255
0.585048 0.661746  1.52836 255 255 255
0.582513  1.51272  1.55626 255 255 255
0.711868  1.37849  1.48083 255 255 255
0.298709  1.27783  1.31133 255 255 255
0.656354  1.38445  1.49815 255 255 255
0.228848  1.36953  1.24041 255 255 255
0.48585 1.44787 1.56382 255 255 255
0.498048 0.970965   1.4195 255 255 255
0.696346  1.15336  1.45667 255 255 255
0.705123  1.39882  1.48618 255 255 255
0.246784  1.30717  1.26476 255 255 255
 0.53283 0.657419   1.5478 255 255 255
0.442332 0.944585  1.43535 255 255 255
0.635716  1.52169   1.5491 255 255 255
0.809546 0.667821  1.45117 255 255 255
0.484793 0.804111   1.5445 255 255 255
0.750338  1.42841  1.47445 255 255 255
0.572715    1.492  1.55634 255 255 255
0.81119 1.37029 1.45219 255 255 255
0.803843 0.899381  1.43286 255 255 255
 0.41999 0.921105  1.52348 255 255 255
0.523309  1.49812  1.59713 255 255 255
0.764921  1.39157  1.45939 255 255 255
0.485977  1.46706  1.57541 255 255 255
0.773949   1.2612  1.45007 255 255 255
0.547989  1.46643   1.5559 255 255 255
0.823363  1.41691  1.45117 255 255 255
0.654464 0.806806  1.47303 255 255 255
0.531058  1.51884  1.58595 255 255 255
0.71877 1.36318 1.46876 255 255 255
0.515942 0.670434  1.54734 255 255 255
0.675257 0.639928  1.50404 255 255 255
0.761594  1.39086  1.47117 255 255 255
0.530226 0.710819  1.53945 255 255 255
0.613537  1.35186  1.50119 255 255 255
0.553629   1.0144  1.41918 255 255 255
0.777658  1.17888  1.43675 255 255 255
0.722108  0.85031  1.45579 255 255 255
0.754923  1.40606  1.47062 255 255 255
0.850998  1.28608   1.4362 255 255 255
0.676537 0.662105  1.48818 255 255 255
0.861501  1.40385  1.43617 255 255 255
0.387029  1.20584  1.54452 255 255 255
0.402862 0.741176  1.64167 255 255 255
0.481934  1.05289  1.41932 255 255 255
 0.5599  1.4211 1.54498 255 255 255
0.71856 1.28594 1.46222 255 255 255
0.550301  1.34885  1.53155 255 255 255
0.270875  1.29712  1.31928 255 255 255
0.645647  1.52107  1.54541 255 255 255
0.574782  1.45879  1.54612 255 255 255
0.705109  1.35684  1.48258 255 255 255
0.629265 0.769962  1.48388 255 255 255
0.518574  1.40297  1.55231 255 255 255
0.489382  1.25136  1.55233 255 255 255
0.348962  1.19844  1.40154 255 255 255
0.814064  1.32691  1.44281 255 255 255
0.754288  1.18971  1.44389 255 255 255
0.651874   1.2171  1.49301 255 255 255
0.69157 1.43497 1.50137 255 255 255
0.549067  1.37833  1.54196 255 255 255
0.44665 1.39156 1.57264 255 255 255
0.853525  1.41561  1.44225 255 255 255
0.617214  1.48687  1.53328 255 255 255
0.779919  1.42123  1.47163 255 255 255
0.561092 0.999898  1.40769 255 255 255
0.724211 0.671997  1.47703 255 255 255
0.746955  1.32422  1.47048 255 255 255
0.745285  1.32422  1.46932 255 255 255
0.696926  1.48529  1.50942 255 255 255
0.444211 0.855192  1.44873 255 255 255
0.492133 0.683332  1.56265 255 255 255
0.496606 0.696935  1.55147 255 255 255
0.658725  1.51784  1.54194 255 255 255
0.431332 0.727101  1.62326 255 255 255
0.820635  1.34596   1.4454 255 255 255
0.665208  1.38475  1.49797 255 255 255
0.82824 1.06341 1.41276 255 255 255
0.746525  1.42321  1.48602 255 255 255
0.449965  1.20254  1.60855 255 255 255
0.494673 0.705237  1.55333 255 255 255
0.557632  1.37852  1.53999 255 255 255
0.48793  1.2787 1.55368 255 255 255
0.18929 1.36316 1.18156 255 255 255
0.295166  1.27278  1.33549 255 255 255
0.287578  1.26219  1.34796 255 255 255
0.73393 0.84608 1.44887 255 255 255
0.56016 1.00082 1.41663 255 255 255
0.482247 0.703048  1.56086 255 255 255
0.697703  1.52413  1.52912 255 255 255
0.414631  0.95877  1.45468 255 255 255
0.627539  1.00046  1.40406 255 255 255
0.440232  1.22039  1.62531 255 255 255
0.445829 0.733217  1.57431 255 255 255
0.210421  1.35073  1.19895 255 255 255
0.70954 1.35363    1.48 255 255 255
0.753998  0.64413  1.47487 255 255 255
0.753998  0.64413  1.47487 255 255 255
0.703826  1.04842  1.43922 255 255 255
0.370517 0.907006  1.56168 255 255 255
0.415348 0.744697  1.63112 255 255 255
0.274669  1.29415  1.28853 255 255 255
 0.39027 0.899614  1.54502 255 255 255
0.713246  1.17059  1.45361 255 255 255
0.271983  1.29773  1.27369 255 255 255
0.535058  1.47732  1.57396 255 255 255
0.632405  1.37934  1.50959 255 255 255
0.495405   1.4622  1.56339 255 255 255
0.735909  1.36782  1.47518 255 255 255
0.729634  1.31307  1.47327 255 255 255
0.377127 0.943642  1.54308 255 255 255
0.588748 0.763372  1.51351 255 255 255
0.466125 0.725534  1.56763 255 255 255
0.47819 1.20444 1.61037 255 255 255
0.648209  1.50262  1.54302 255 255 255
0.246953  1.30968  1.26292 255 255 255
0.252772  1.28245  1.33931 255 255 255
 0.57293 0.654072  1.53027 255 255 255
0.551893 0.742091  1.53506 255 255 255
0.227108  1.35905   1.2574 255 255 255
0.54043 1.40197 1.54625 255 255 255
0.457614   1.0002  1.44044 255 255 255
0.750071  1.28917  1.45659 255 255 255
0.830959  1.32381  1.44236 255 255 255
0.448416  1.16531   1.5966 255 255 255
0.27601 1.25497 1.36336 255 255 255
0.685296  1.51714  1.53449 255 255 255
0.255782  1.28192  1.33698 255 255 255
0.691368  1.27663  1.47075 255 255 255
0.675149  1.32483  1.49125 255 255 255
0.863573  1.36042  1.43386 255 255 255
0.789828  1.46382  1.47122 255 255 255
0.707979  1.38301  1.48203 255 255 255
0.445489 0.711956  1.57842 255 255 255
0.63795 1.45789 1.52697 255 255 255
0.447978 0.856786  1.44774 255 255 255
0.83361 1.16634 1.42083 255 255 255
0.210725  1.36005  1.17888 255 255 255
0.816199  1.44444  1.46088 255 255 255
0.559312 0.700311   1.5184 255 255 255
0.577802 0.999644  1.41074 255 255 255
0.48264 1.05038 1.41577 255 255 255
0.783798  1.21575  1.44281 255 255 255
0.818385  1.40576  1.45315 255 255 255
0.614479  1.36956  1.51654 255 255 255
0.491077 0.687799  1.55828 255 255 255
0.531675   1.0054  1.42293 255 255 255
0.641108  1.50635  1.54558 255 255 255
0.777043  1.28934  1.45462 255 255 255
0.520552 0.982758  1.41812 255 255 255
0.862955  1.35808  1.43746 255 255 255
0.565943   1.3538  1.52648 255 255 255
0.821383 0.993839  1.42432 255 255 255
0.783375   1.2677  1.44916 255 255 255
0.719867   1.5098  1.50883 255 255 255
0.57644 1.03442 1.41141 255 255 255
0.690514  1.22953  1.46278 255 255 255
0.734057  1.17431  1.45157 255 255 255
 0.2155 1.34688 1.20314 255 255 255
0.657945  1.40723  1.50499 255 255 255
0.493744  1.46969  1.56956 255 255 255
0.517156  1.03503  1.42386 255 255 255
0.853126  1.30085  1.43244 255 255 255
0.661829  1.52467  1.54295 255 255 255
0.564711  1.11025  1.41155 255 255 255
0.701018  1.05222  1.44932 255 255 255
 0.4981 1.32649 1.54878 255 255 255
0.45019 1.11107 1.55054 255 255 255
0.693004  1.40787  1.49201 255 255 255
0.719313  1.24602   1.4558 255 255 255
0.535442 0.658579  1.54275 255 255 255
0.538283 0.657776  1.54542 255 255 255
0.671516  1.33574  1.48807 255 255 255
0.381798 0.912475  1.54514 255 255 255
0.450765 0.726382  1.57037 255 255 255
0.466736 0.989438  1.43481 255 255 255
0.504423  1.30234  1.54566 255 255 255
0.744198  1.03172  1.43562 255 255 255
0.230546  1.33001  1.23184 255 255 255
0.230647  1.34162  1.20819 255 255 255
0.656468  1.39338  1.50427 255 255 255
0.582981 0.682387  1.52468 255 255 255
0.389163  1.16464  1.57929 255 255 255
0.645812 0.837994  1.48029 255 255 255
0.525605  1.41214  1.55256 255 255 255
0.657063  1.06585  1.46615 255 255 255
0.433876 0.684868  1.59373 255 255 255
0.81302 1.38152  1.4547 255 255 255
0.825689  1.31102  1.44277 255 255 255
0.781257  1.19125  1.43855 255 255 255
0.570263  1.33962  1.52715 255 255 255
0.202133  1.37714  1.23659 255 255 255
0.819839  1.20502  1.43246 255 255 255
0.547111 0.994226  1.41572 255 255 255
0.457616 0.700113  1.57648 255 255 255
0.565738  1.39228  1.53759 255 255 255
0.444091  1.19031  1.60613 255 255 255
0.808997  1.21909  1.43416 255 255 255
0.521888  1.05214  1.41685 255 255 255
0.208733  1.37188  1.23141 255 255 255
0.759542  1.38929  1.46388 255 255 255
0.524447 0.666753  1.54885 255 255 255
0.859339  1.37856  1.43583 255 255 255
0.847271  1.39352  1.43935 255 255 255
0.288762  1.25994  1.33654 255 255 255
0.742788 0.786894  1.45128 255 255 255
0.725307 0.982045  1.44196 255 255 255
0.587909  1.44875  1.53741 255 255 255
0.539767  1.46449  1.55935 255 255 255
0.720072  1.36176  1.47381 255 255 255
0.442778  1.20166  1.60817 255 255 255
0.578845  1.27516  1.51524 255 255 255
0.56814 1.39614 1.53774 255 255 255
0.45454 1.37219 1.57855 255 255 255
0.245409  1.31801  1.30331 255 255 255
 0.5842 1.36841 1.52955 255 255 255
0.313085  1.18266  1.43101 255 255 255
0.735731  1.39238  1.48231 255 255 255
0.584339 0.739913  1.51137 255 255 255
0.754599  1.39226  1.47669 255 255 255
0.490472  0.72588  1.55462 255 255 255
0.607555  1.37295  1.51861 255 255 255
0.488511  1.46871  1.56954 255 255 255
0.478247  1.03464   1.4277 255 255 255
0.745049  1.17227  1.44381 255 255 255
0.513559  1.37786  1.55385 255 255 255
 0.42791 0.872634  1.46039 255 255 255
0.455916  1.01174  1.43568 255 255 255
0.484962  1.24012   1.5496 255 255 255
0.264168  1.35103  1.25727 255 255 255
0.456106 0.755565  1.56097 255 255 255
0.831104  1.31083  1.44166 255 255 255
0.397052 0.775927  1.63021 255 255 255
0.477322   1.0426   1.4466 255 255 255
0.755509 0.705383  1.45966 255 255 255
0.702333 0.835492  1.45791 255 255 255
0.53241 1.40622 1.54363 255 255 255
0.419613  0.71661  1.63735 255 255 255
0.54882 1.50968 1.57201 255 255 255
0.83295 1.10761 1.41636 255 255 255
0.698328 0.626615  1.49861 255 255 255
0.69221 1.49117 1.51124 255 255 255
0.808514  1.05931  1.41916 255 255 255
0.178345  1.37665  1.15763 255 255 255
0.652099 0.856981  1.47958 255 255 255
0.455972  1.13219  1.58361 255 255 255
0.572185  1.45964  1.54824 255 255 255
0.455481 0.989606   1.4397 255 255 255
0.404961  0.90471  1.54306 255 255 255
0.775429  1.27104  1.45262 255 255 255
0.419848  1.17538  1.61551 255 255 255
0.503247  1.21161  1.53671 255 255 255
0.686873  1.36159   1.4871 255 255 255
 0.38798 0.948268  1.52864 255 255 255
0.635644  1.32162  1.50226 255 255 255
0.551486  1.47611  1.55964 255 255 255
0.450708 0.729249  1.57226 255 255 255
0.419928 0.749395  1.62278 255 255 255
0.426427  1.01157  1.47666 255 255 255
0.410783 0.714168   1.6432 255 255 255
0.637194  1.52493  1.54827 255 255 255
0.711736  1.24174  1.45769 255 255 255
0.226257  1.33287  1.22974 255 255 255
0.449875 0.738082  1.57126 255 255 255
0.649342 0.828068   1.4764 255 255 255
0.370669 0.983364  1.58021 255 255 255
 0.40348 0.991994  1.50316 255 255 255
0.500237  1.31802  1.55259 255 255 255
0.406683 0.777468  1.62179 255 255 255
0.677867 0.749967  1.47164 255 255 255
0.447133  1.46381  1.58547 255 255 255
0.721013 0.814237  1.45089 255 255 255
0.659939 0.644304  1.51044 255 255 255
0.805908 0.940567  1.42843 255 255 255
0.604476  1.33429  1.51659 255 255 255
0.535538 0.660908  1.54018 255 255 255
0.397447 0.941759  1.48463 255 255 255
0.649911 0.641546  1.51296 255 255 255
0.695593 0.776725  1.46499 255 255 255
0.815282  1.45678  1.45593 255 255 255
0.421779 0.737157  1.63346 255 255 255
0.420695 0.737507  1.63267 255 255 255
0.408944 0.769185  1.61971 255 255 255
0.289293  1.29285   1.2988 255 255 255
0.453644   1.4625  1.58819 255 255 255
0.434019 0.855401  1.45134 255 255 255
0.544558  1.47583  1.56602 255 255 255
0.421434 0.676913  1.63382 255 255 255
0.514807 0.678012  1.54541 255 255 255
0.325478  1.26871  1.33551 255 255 255
0.632926 0.652866  1.51039 255 255 255
 0.48219 0.982254  1.43225 255 255 255
0.771025  1.35851  1.46547 255 255 255
0.393778  1.00743  1.53249 255 255 255
0.751044  1.38079  1.47381 255 255 255
0.586987 0.647862  1.53413 255 255 255
0.406833 0.702787  1.63394 255 255 255
0.830525  1.34135  1.44466 255 255 255
0.428101  1.20578  1.62225 255 255 255
0.21794  1.3481 1.20278 255 255 255
0.289447  1.27587   1.3343 255 255 255
0.203345  1.36536   1.1706 255 255 255
0.360452 0.950482  1.56787 255 255 255
 0.42332 0.706099   1.6283 255 255 255
0.789861 0.698302  1.44513 255 255 255
0.760112  1.48159  1.48767 255 255 255
0.775612   1.3807  1.46701 255 255 255
0.788394 0.768181   1.4472 255 255 255
0.403357 0.765036  1.62552 255 255 255
0.713471  1.13905  1.44788 255 255 255
0.78358 1.31392 1.45341 255 255 255
0.731148  1.16297  1.44436 255 255 255
0.552299  1.37098  1.53425 255 255 255
0.833486  1.41188  1.45252 255 255 255
0.828335  1.04739  1.41557 255 255 255
0.706107 0.629893   1.4932 255 255 255
0.419217  1.00621  1.46719 255 255 255
0.572763   1.4439  1.54661 255 255 255
0.447735  1.09296  1.44233 255 255 255
0.515819  1.42731  1.55346 255 255 255
0.438096  1.07159  1.55061 255 255 255
 0.59918 0.740438  1.50442 255 255 255
0.220712  1.34365  1.20843 255 255 255
0.425849    1.172  1.61485 255 255 255
0.219359  1.34442  1.20461 255 255 255
0.818367  1.23366  1.42384 255 255 255
0.555747  1.13336  1.41122 255 255 255
0.809736 0.902653  1.42484 255 255 255
0.603247 0.658985  1.51807 255 255 255
0.429669 0.714692  1.58921 255 255 255
0.369815  1.15098  1.44501 255 255 255
0.486163  1.46845  1.57172 255 255 255
0.520334 0.705232  1.53874 255 255 255
0.292342  1.26247  1.32203 255 255 255
0.810626  1.20625  1.43412 255 255 255
0.684695 0.710559  1.47797 255 255 255
0.483704 0.878361  1.52671 255 255 255
0.626036  1.52587  1.55503 255 255 255
0.484765 0.988647  1.43241 255 255 255
0.479999 0.977337  1.44941 255 255 255
0.248474  1.30126  1.27894 255 255 255
0.680367 0.730827  1.47872 255 255 255
0.231618   1.3384  1.28179 255 255 255
0.361636 0.962836  1.55567 255 255 255
0.378303 0.910357   1.5637 255 255 255
0.717219  1.16886  1.45163 255 255 255
0.519758 0.717821  1.54086 255 255 255
0.486176  1.28086  1.55497 255 255 255
0.65574 1.06424 1.46945 255 255 255
 0.38083 0.998235  1.58629 255 255 255
0.776201 0.670622  1.46135 255 255 255
0.689656 0.796048  1.46318 255 255 255
0.574471   1.4869  1.55403 255 255 255
0.279583  1.29863  1.30916 255 255 255
0.519227  1.39949  1.55561 255 255 255
0.713103 0.813992  1.45561 255 255 255
0.688677  1.25093  1.46551 255 255 255
0.825329  1.01099  1.41658 255 255 255
0.385694 0.924027  1.53523 255 255 255
0.391027 0.963291   1.4464 255 255 255
0.471409 0.671427  1.57707 255 255 255
0.493633 0.726806  1.55286 255 255 255
0.448325 0.679264   1.5864 255 255 255
0.420189 0.988899  1.44955 255 255 255
 0.59633 0.732339  1.50831 255 255 255
0.680053 0.932671  1.46041 255 255 255
0.542077  1.38614  1.53902 255 255 255
0.544921 0.996646  1.41621 255 255 255
0.698012  1.07151  1.45028 255 255 255
0.427007  0.68606  1.60453 255 255 255
 0.42508 0.917883  1.54603 255 255 255
0.463792  1.08745  1.43253 255 255 255
0.399354  1.03797  1.56183 255 255 255
0.416258  1.00743  1.51606 255 255 255
0.750942 0.663157  1.47641 255 255 255
0.759677 0.922657  1.44346 255 255 255
0.601147 0.815908  1.50664 255 255 255
0.442639  1.13136  1.42644 255 255 255
0.622199 0.758144  1.48697 255 255 255
0.682149  0.93402   1.4577 255 255 255
 0.39873 0.783271  1.62691 255 255 255
0.193587  1.36957  1.16782 255 255 255
0.267403  1.29603  1.31829 255 255 255
0.457816 0.942149  1.43176 255 255 255
0.713066  1.17826  1.45412 255 255 255
0.751753 0.780219  1.45165 255 255 255
0.392564  1.04836  1.57831 255 255 255
0.411976 0.873997  1.55242 255 255 255
0.557937  0.70318  1.52493 255 255 255
0.705649  1.51583  1.51753 255 255 255
0.493209  1.10287  1.44628 255 255 255
0.501577 0.681646  1.55309 255 255 255
0.643103  1.50361  1.54454 255 255 255
0.678456  1.34743  1.49125 255 255 255
0.820746  1.33893  1.44923 255 255 255
0.410083 0.682357  1.62374 255 255 255
0.39751 1.03835  1.5747 255 255 255
 0.82241 0.714088  1.44171 255 255 255
 0.81885 0.872463  1.41798 255 255 255
0.838614  1.09971  1.41363 255 255 255
0.394223 0.892742  1.55115 255 255 255
0.435883 0.726319  1.58395 255 255 255
 0.58845 0.814946  1.50457 255 255 255
0.424131 0.725183  1.63256 255 255 255
0.507764 0.726257  1.54707 255 255 255
0.49456 1.46033 1.56572 255 255 255
0.528505 0.700172  1.53674 255 255 255
0.193693  1.36543  1.17652 255 255 255
0.197825  1.37281  1.15957 255 255 255
0.512587 0.713416  1.54518 255 255 255
0.515225 0.696957  1.54309 255 255 255
0.457233  0.73585  1.56655 255 255 255
0.484416 0.784142  1.55914 255 255 255
0.392434   1.1649   1.4143 255 255 255
0.579606 0.771798  1.51825 255 255 255
 0.51187 0.706474  1.54308 255 255 255
0.733455 0.845918   1.4601 255 255 255
 0.51369 0.727331  1.54367 255 255 255
0.231346  1.33749  1.28411 255 255 255
0.479993 0.963155  1.43426 255 255 255
0.465263 0.729795  1.56414 255 255 255
 0.56886 0.780431  1.51083 255 255 255
0.723097  1.08502  1.42661 255 255 255
0.377578 0.940011  1.54222 255 255 255
0.806173 0.908809  1.42981 255 255 255
0.550755  1.42966   1.5484 255 255 255
0.190764  1.37672  1.15193 255 255 255
0.710946  1.23576  1.45783 255 255 255
0.576446 0.783143  1.51959 255 255 255
0.806751 0.898852  1.42887 255 255 255
0.501475  1.11869  1.43898 255 255 255
0.820892  1.13534  1.41922 255 255 255
0.769977  1.15583  1.43676 255 255 255
0.561783  1.35821   1.5348 255 255 255
0.448759 0.703685  1.58194 255 255 255
0.497631 0.685333  1.55576 255 255 255
0.749023  1.38562   1.4777 255 255 255
0.707063  1.23387  1.46103 255 255 255
-0.461795  0.818141   2.37787 255 255 255
-0.565923  0.946311   2.61777 255 255 255
-0.578296  0.732308   2.66555 255 255 255
-0.386109   1.38584   2.55735 255 255 255
-0.235832   1.66088   2.54023 255 255 255
-0.393091   1.36462   2.23389 255 255 255
-0.446475   1.21533   2.56127 255 255 255
-0.225756   1.68392   2.58577 255 255 255
-0.0990773     1.6037    2.17812 255 255 255
-0.570633  0.516834   2.29399 255 255 255
-0.159279   1.62007   2.18543 255 255 255
-0.490582   1.14784   2.32927 255 255 255
-0.554454  0.798057   2.63966 255 255 255
-0.510135  0.827252   2.53994 255 255 255
-0.470884   1.21339   2.42245 255 255 255
-0.214029   1.52778   2.32662 255 255 255
-0.414382    1.2566   2.55754 255 255 255
-0.335858   1.33143    2.3712 255 255 255
-0.51463 0.694368  2.67274 255 255 255
-0.387247  0.775954   2.35191 255 255 255
-0.104189   1.73326   2.31924 255 255 255
-0.475454   1.17615   2.60535 255 255 255
-0.465252    1.1299   2.56055 255 255 255
-0.322395   1.51303   2.59573 255 255 255
-0.236653   1.65291   2.55597 255 255 255
-0.45907  1.26296  2.60043 255 255 255
-0.459391   1.14332   2.30839 255 255 255
-0.513265  0.788983   2.54849 255 255 255
-0.277177   1.67689   2.18825 255 255 255
-0.454199   1.16239   2.55091 255 255 255
-0.549568  0.973474   2.47609 255 255 255
-0.274819   1.58989   2.53219 255 255 255
-0.503837   1.16978   2.65851 255 255 255
-0.460828   1.06587   2.23568 255 255 255
-0.310315   1.68271   2.31879 255 255 255
-0.461177    1.2636   2.60694 255 255 255
-0.530822  0.479412   2.33515 255 255 255
-0.570976  0.466317   2.37339 255 255 255
-0.561462   0.85006   2.14854 255 255 255
-0.521789  0.643344   2.75861 255 255 255
-0.252638   1.58882     2.466 255 255 255
-0.427048  0.655843   2.32236 255 255 255
-0.329613   1.47882   2.36289 255 255 255
-0.527112  0.413258   2.36832 255 255 255
0.149738  1.10141  1.67138 255 255 255
0.364338  0.99202  1.59692 255 255 255
  0.927536 -0.0877314    1.71009 255 255 255
 0.29891 0.293555  1.90265 255 255 255
0.398584 0.308782  1.86303 255 255 255
   0.934966 -0.00564889     1.72329 255 255 255
0.829495 0.361947  1.65848 255 255 255
0.832288 0.303111  1.66702 255 255 255
 0.151784 0.0542829    2.0696 255 255 255
  0.994867 -0.0664775     1.7084 255 255 255
 0.45331 0.238875  1.85519 255 255 255
 0.586302 0.0868583   1.80842 255 255 255
 0.890184 0.0908813   1.66415 255 255 255
0.54146  0.1719 1.82954 255 255 255
0.248566 0.209268  1.98471 255 255 255
0.550872 0.297449  1.78694 255 255 255
0.550301 0.255925  1.78363 255 255 255
0.760648 0.298271   1.6973 255 255 255
0.598379 0.311339  1.78054 255 255 255
0.621424 0.195401  1.78539 255 255 255
 0.725118 0.0459383   1.76691 255 255 255
0.412638 0.234043  1.87294 255 255 255
  0.443733 -0.0753897    1.97387 255 255 255
 0.698347 -0.110276   1.85248 255 255 255
 0.0839738 -0.0514429    2.15939 255 255 255
0.543916 0.340132  1.78144 255 255 255
0.496374 0.368216  1.80743 255 255 255
 0.60217 0.359793  1.76869 255 255 255
 0.48582 0.340296  1.81475 255 255 255
0.512628 0.306233  1.82104 255 255 255
0.723581 0.386101  1.73337 255 255 255
 0.288987 0.0530557   1.99448 255 255 255
0.816461 0.287931  1.67829 255 255 255
  0.117129 0.00208111    2.11597 255 255 255
0.253765 0.318565  1.93182 255 255 255
  0.393578 -0.0315555    1.99759 255 255 255
0.553847 0.362027  1.78082 255 255 255
0.280253 0.339653  1.89866 255 255 255
0.801432 0.367405  1.75366 255 255 255
0.705445 0.372792  1.73953 255 255 255
0.282353 0.248183  1.93098 255 255 255
0.524764 0.329268  1.81285 255 255 255
0.385656 -0.07673  1.99887 255 255 255
0.784723 0.124678  1.71302 255 255 255
0.366163 0.319506  1.89448 255 255 255
0.455278  0.33651  1.84391 255 255 255
0.435552 0.319146  1.86206 255 255 255
0.196458 0.186424   2.0104 255 255 255
0.677902 0.372476   1.7445 255 255 255
0.704867 0.312316  1.73037 255 255 255
0.426241 0.322769  1.84849 255 255 255
0.0759967  0.261832   2.05931 255 255 255
0.633153 0.216302  1.75661 255 255 255
 0.892734 -0.181566   1.74741 255 255 255
0.725852 0.107772  1.75304 255 255 255
0.699273 0.345032  1.73079 255 255 255
  0.899073 -0.0458577    1.75954 255 255 255
 0.833246 0.0288779   1.74387 255 255 255
