ply
format ascii 1.0
element vertex 1149
property float x
property float y
property float z
property uchar red
property uchar green
property uchar blue
end_header
 0.297337 0.0243524   1.80924 255 255 255
0.176604 0.360324  1.85965 255 255 255
-0.0515541   0.178585    1.97146 255 255 255
0.297485 0.250192  1.80084 255 255 255
0.138827  -0.2334  1.90402 255 255 255
  0.47055 -0.303089   1.75699 255 255 255
0.271717 0.200602  1.82168 255 255 255
0.495898  0.21809  1.70845 255 255 255
 0.296548 -0.253238   1.83298 255 255 255
 0.294975 0.0310025   1.81082 255 255 255
  0.506636 -0.0483133    1.71627 255 255 255
0.342976 0.217395  1.78225 255 255 255
 0.333155 -0.292061   1.81865 255 255 255
0.0190585 -0.341321   1.96852 255 255 255
0.334559 0.106009   1.7904 255 255 255
0.579469 0.344565  1.65215 255 255 255
-0.0687034   0.239742    1.97604 255 255 255
-0.100947 0.0341377   1.99565 255 255 255
  0.604958 -0.0542812    1.67707 255 255 255
0.210837 0.245445  1.84216 255 255 255
 0.370621 0.0513049   1.76356 255 255 255
 0.374438 -0.265247   1.79762 255 255 255
 0.449559 0.0265986   1.74467 255 255 255
 0.554217 -0.236847   1.71326 255 255 255
 0.426641 0.0690976   1.74721 255 255 255
  0.54124 -0.011713    1.7015 255 255 255
0.324365 -0.14717  1.81281 255 255 255
 0.428027 -0.233655   1.77131 255 255 255
 0.20701 0.018847  1.85909 255 255 255
0.428561  0.26919  1.73797 255 255 255
0.450798 0.094508  1.73463 255 255 255
 0.347445 0.0310774   1.78883 255 255 255
0.120331 0.156586  1.88798 255 255 255
  0.192808 -0.0600219    1.87147 255 255 255
-0.0517316 -0.0870775    1.98631 255 255 255
  0.14301 -0.267527    1.9115 255 255 255
  0.51284 0.0934553   1.70266 255 255 255
0.022745 0.227849   1.9361 255 255 255
0.309777 0.158477  1.79885 255 255 255
 0.295735 0.0825683   1.80803 255 255 255
 0.420826 -0.315289   1.78152 255 255 255
  0.30945 -0.336787   1.83355 255 255 255
0.257391 0.236709   1.8212 255 255 255
 0.329933 -0.211273   1.81684 255 255 255
 0.607291 -0.245453   1.68927 255 255 255
0.154089 0.146397  1.87242 255 255 255
0.356248 0.125943  1.77719 255 255 255
0.052811 0.300194  1.91897 255 255 255
0.542213 0.135246  1.68488 255 255 255
0.334771 0.373525  1.78151 255 255 255
0.0883482  0.248187    1.9042 255 255 255
0.0306427 -0.156684   1.95013 255 255 255
0.378758 0.127871  1.76767 255 255 255
 0.295283 -0.250568   1.83877 255 255 255
 0.308452 -0.313592   1.83148 255 255 255
-0.0345952   0.252059    1.95956 255 255 255
0.568149 0.205454  1.67728 255 255 255
 0.562313 -0.036859    1.6938 255 255 255
0.260653 0.255618  1.82533 255 255 255
  0.46186 0.0533529   1.73145 255 255 255
0.368526 0.167451  1.76957 255 255 255
0.0827806 -0.102871   1.92023 255 255 255
0.321377 0.339185  1.78993 255 255 255
 0.512598 0.0104806   1.70679 255 255 255
 0.468977 0.0216947   1.72956 255 255 255
 0.248598 0.0419391   1.83272 255 255 255
0.295056 0.046687  1.81285 255 255 255
0.294944 0.120233   1.8064 255 255 255
 0.571614 -0.298507   1.70469 255 255 255
  0.173674 -0.0541238    1.87991 255 255 255
0.400573 0.098642  1.75745 255 255 255
 0.525316 -0.241615   1.72341 255 255 255
  0.35705 -0.230429    1.8073 255 255 255
0.278779 0.380505  1.80895 255 255 255
 0.302242 -0.319615   1.83611 255 255 255
 0.25832 0.331499  1.82112 255 255 255
 0.270317 -0.221818   1.84817 255 255 255
0.0924299  0.102699   1.90464 255 255 255
0.228092  0.24106  1.83502 255 255 255
 0.213547 0.0185204    1.8553 255 255 255
0.347126 0.228141  1.77938 255 255 255
 0.571934 0.0874029   1.67347 255 255 255
-0.103329  0.179594   1.98808 255 255 255
 0.337856 -0.320788   1.82453 255 255 255
 0.522358 -0.204564   1.72424 255 255 255
0.301677 0.371159  1.79515 255 255 255
  0.370535 -0.0597566    1.78309 255 255 255
0.485716 0.302441  1.70508 255 255 255
 0.273602 -0.250036   1.84839 255 255 255
 0.228642 -0.230252   1.86814 255 255 255
 0.236196 -0.289256   1.86831 255 255 255
  0.224079 -0.0553117    1.84964 255 255 255
0.0306921  0.167294   1.93162 255 255 255
0.260857 -0.30219   1.8536 255 255 255
0.196401 0.102975  1.85419 255 255 255
0.177742 0.174557  1.86048 255 255 255
 0.38957 0.135047  1.76103 255 255 255
 0.279544 0.0630286   1.81561 255 255 255
0.0249299   0.24737   1.93342 255 255 255
0.0346174 0.0270045    1.9373 255 255 255
0.232094 0.403292  1.83008 255 255 255
 0.352842 0.0849919   1.78144 255 255 255
 0.224579 0.0880922   1.84068 255 255 255
0.00757679   0.311738    1.93745 255 255 255
0.0244268  0.101409   1.93511 255 255 255
 0.447066 0.0560355   1.73898 255 255 255
 0.394472 0.0143326   1.76629 255 255 255
-0.0258589  -0.106425    1.97482 255 255 255
-0.0310383   -0.22386    1.98182 255 255 255
0.234414 0.223937  1.83214 255 255 255
 0.2636 0.23249 1.81744 255 255 255
-0.137985  0.303788   1.99289 255 255 255
0.323207 0.300585  1.79082 255 255 255
-0.0351381 -0.0501432    1.97505 255 255 255
  0.376026 -0.0159017    1.77542 255 255 255
0.219257 0.191277  1.84441 255 255 255
 0.166875 0.0516281   1.87556 255 255 255
0.122394 0.254117  1.88461 255 255 255
0.00135481  -0.111722    1.96158 255 255 255
-0.0624303   0.242116    1.97334 255 255 255
  0.460094 -0.0177129    1.73727 255 255 255
 0.381109 0.0496367   1.76938 255 255 255
 0.020841 -0.364925   1.97187 255 255 255
0.371282  0.20233  1.76806 255 255 255
 0.275369 -0.019943   1.82766 255 255 255
0.431545 0.123279  1.74478 255 255 255
 0.346706 -0.278974   1.81493 255 255 255
-0.00411094   -0.080772     1.96157 255 255 255
 0.40552 0.389321  1.74333 255 255 255
0.0663276 0.0205543   1.92636 255 255 255
 0.524588 -0.169542   1.72098 255 255 255
 0.274134 0.0429404   1.82395 255 255 255
 0.173385 -0.135015   1.87977 255 255 255
0.0322948 0.0225362   1.94196 255 255 255
-0.123647 0.0944473   2.00008 255 255 255
 0.244487 0.0425598   1.84015 255 255 255
0.239384 0.368273  1.83123 255 255 255
  0.584304 0.00390418    1.67279 255 255 255
0.134285 0.207509  1.88532 255 255 255
0.322515 0.134438  1.79162 255 255 255
0.0472517  0.316742   1.91805 255 255 255
-0.143713  0.281883   1.99599 255 255 255
   0.38496 -0.0108216    1.77228 255 255 255
 0.114888 -0.171173   1.91037 255 255 255
0.397969 0.252732  1.75222 255 255 255
 0.135073 -0.186951    1.9015 255 255 255
  0.123355 -0.0282314    1.89581 255 255 255
0.135051   0.3277  1.88002 255 255 255
 0.276564 0.0195018   1.82393 255 255 255
0.273827 0.025543  1.82048 255 255 255
-0.0437974   0.157223    1.96748 255 255 255
0.548344 0.317483  1.68128 255 255 255
0.375517 0.101908   1.7689 255 255 255
 0.283307 0.0568447    1.8184 255 255 255
0.528915  0.15113  1.69695 255 255 255
 0.11092 0.279677  1.88851 255 255 255
0.209206 0.256424  1.84772 255 255 255
0.0973759  0.319372   1.89484 255 255 255
-0.0130538  -0.186685    1.97466 255 255 255
-0.097171  0.248511   1.98281 255 255 255
 0.499211 0.0713297   1.71385 255 255 255
  0.25597 -0.340154   1.85735 255 255 255
  0.227442 -0.0488113    1.84767 255 255 255
 0.259279 -0.132693   1.83935 255 255 255
0.360368 0.404801  1.76623 255 255 255
-0.137522  0.214266   1.99939 255 255 255
-0.0744797   0.211536    1.98005 255 255 255
0.121372 0.107449  1.89462 255 255 255
0.0892265 0.0887613   1.90729 255 255 255
0.375521    0.248  1.76346 255 255 255
-0.101619 0.0220879   1.99606 255 255 255
 0.295044 0.0515235   1.81324 255 255 255
0.352847 0.059771  1.78211 255 255 255
0.564682  0.19425    1.679 255 255 255
0.066023 0.341383  1.91215 255 255 255
0.181212 0.163991  1.85214 255 255 255
 0.22568 0.374666  1.83104 255 255 255
   0.402879 -0.00265277     1.76223 255 255 255
0.187043 0.136833  1.86432 255 255 255
0.369781 0.173682  1.77788 255 255 255
 0.469756 0.0177175   1.72882 255 255 255
0.0716458 -0.112108   1.93136 255 255 255
0.0690371  0.264764   1.91048 255 255 255
0.312003 0.215968  1.80521 255 255 255
 0.282427 -0.122235   1.82782 255 255 255
0.0504221 -0.123958   1.93769 255 255 255
 0.120718 -0.301099   1.92288 255 255 255
 0.432163 0.0501337   1.74538 255 255 255
0.369243 0.367871  1.76396 255 255 255
0.404763 0.143917  1.75901 255 255 255
0.386704   0.2808  1.75722 255 255 255
 0.379712 -0.320908   1.80395 255 255 255
-0.00321797   -0.342104     1.97527 255 255 255
0.483247 0.276591  1.71251 255 255 255
0.16681  0.3792 1.86392 255 255 255
0.188349 0.142293  1.86106 255 255 255
 0.342119 0.0299539   1.79068 255 255 255
  0.1674 0.162113  1.87124 255 255 255
0.0160785  0.134766   1.94415 255 255 255
0.037427 0.267982  1.92526 255 255 255
0.131966 0.214413  1.88627 255 255 255
0.263655 0.215402  1.81833 255 255 255
-0.071441 0.0300351   1.98535 255 255 255
0.0746423  0.325738   1.90922 255 255 255
 0.380624 0.0983559   1.76795 255 255 255
0.0262945 -0.290369   1.96188 255 255 255
 0.20294 0.229872  1.85013 255 255 255
-0.00592184    0.314806      1.9442 255 255 255
 0.337865 0.0625522   1.79087 255 255 255
0.473773 0.174047  1.71798 255 255 255
 0.295214 0.0195136   1.81494 255 255 255
  0.16413 -0.245531   1.89864 255 255 255
  0.441724 -0.0464214    1.74748 255 255 255
 0.376716 -0.125322   1.78595 255 255 255
 0.548813 -0.228637   1.71119 255 255 255
-0.0318114  0.0237325    1.97054 255 255 255
-0.00565933    0.194348     1.94952 255 255 255
 0.223868 0.0504551   1.84247 255 255 255
0.248056 0.219895  1.83044 255 255 255
 0.571259 -0.312585   1.70655 255 255 255
 0.330732 0.0889869   1.79054 255 255 255
0.00492531 -0.0111934    1.95346 255 255 255
0.0226385 -0.125856   1.95488 255 255 255
0.00191977  -0.281635    1.97143 255 255 255
 0.313774 -0.164411   1.81707 255 255 255
 0.238092 0.0926266   1.83438 255 255 255
0.143989  0.38049  1.87397 255 255 255
 0.101011 0.0205181   1.91105 255 255 255
-0.0309404   0.347484    1.95163 255 255 255
-0.11034 0.206496  1.99576 255 255 255
-0.00489654    0.303792      1.9432 255 255 255
 0.360489 0.0588624   1.77953 255 255 255
  0.129776 -0.0389383    1.89911 255 255 255
-0.0654118   0.330795     1.9662 255 255 255
0.0561212  0.124201   1.92435 255 255 255
0.257846 0.362525  1.81469 255 255 255
0.0478902   0.27537   1.92053 255 255 255
0.203364 0.293921  1.84891 255 255 255
0.494911  -0.1611  1.73277 255 255 255
 0.417126 0.0652149   1.75279 255 255 255
  0.173592 -0.0574234    1.87401 255 255 255
 0.414708 -0.169698   1.76869 255 255 255
  0.27198 -0.174856    1.8374 255 255 255
 0.245304 0.0626343    1.8321 255 255 255
0.241081 0.083098  1.83763 255 255 255
-0.0890348   0.200424    1.98226 255 255 255
   0.199042 -0.00359741     1.86302 255 255 255
  0.238431 -0.0532713    1.84292 255 255 255
0.351784 0.165471  1.77774 255 255 255
  0.188857 -0.0644174    1.87366 255 255 255
  0.15265 0.0805442   1.88067 255 255 255
 0.259252 -0.297145   1.85314 255 255 255
0.185005 0.222165  1.85498 255 255 255
0.334406 -0.18375  1.80857 255 255 255
 0.213679 -0.271972   1.87286 255 255 255
  0.514651 -0.0892051    1.71682 255 255 255
0.0410692  0.275444   1.92389 255 255 255
0.138835  0.24591  1.87914 255 255 255
0.534814 0.294389  1.68223 255 255 255
 0.192442 0.0101109   1.86648 255 255 255
 0.224077 -0.326796   1.87288 255 255 255
-0.0469531 -0.0901779    1.98353 255 255 255
  0.129684 -0.0926647    1.90329 255 255 255
0.287348 0.201863  1.80654 255 255 255
 -0.107289 0.00253035    2.00799 255 255 255
 0.270395 -0.131123   1.83428 255 255 255
 0.167596 0.0345305   1.87122 255 255 255
   0.134259 -0.00791072     1.88839 255 255 255
0.173399 0.234549  1.85985 255 255 255
 0.50798 0.300781  1.70034 255 255 255
0.0776409  0.329665   1.90719 255 255 255
-0.0337713  -0.129938    1.97842 255 255 255
-0.0894572  0.0233244    1.99217 255 255 255
 0.141835 -0.109243   1.89769 255 255 255
0.300012 0.119917  1.80345 255 255 255
 0.0178636 -0.0692178     1.9518 255 255 255
 0.238093 -0.262352   1.86047 255 255 255
 0.20633 0.403957  1.83962 255 255 255
 0.427117 0.0197554   1.74851 255 255 255
 0.316023 -0.238401   1.82607 255 255 255
0.390729 0.114199  1.76236 255 255 255
  0.156774 -0.0530853    1.88177 255 255 255
0.239237 0.324579  1.83086 255 255 255
0.132609 0.331839  1.88194 255 255 255
 0.302976 0.0400091     1.806 255 255 255
 0.200772 -0.224267   1.87343 255 255 255
 0.24656 0.192281  1.82831 255 255 255
 0.296196 -0.260092   1.83876 255 255 255
0.171875 0.188886  1.86777 255 255 255
 0.286288 -0.262338   1.84353 255 255 255
 0.125116 0.0434202   1.89565 255 255 255
 0.417103 -0.030121   1.75828 255 255 255
0.0732586  0.230956   1.90843 255 255 255
 0.121421 -0.295801    1.9218 255 255 255
 0.157954 0.0516083   1.87431 255 255 255
0.180293 0.109231  1.86044 255 255 255
 0.184915 -0.106472   1.87232 255 255 255
0.215559 0.129558  1.84791 255 255 255
  0.236848 -0.0342694    1.84845 255 255 255
0.0451328  0.346364    1.9207 255 255 255
    0.319194 -0.000408857      1.80101 255 255 255
-0.0429334  -0.285458    1.98968 255 255 255
 0.459353 -0.272022   1.75813 255 255 255
0.0649898   0.20861   1.91794 255 255 255
0.315809 0.203775  1.79584 255 255 255
0.0962429 -0.195528    1.9256 255 255 255
0.259498 0.142825  1.82608 255 255 255
0.0927572  0.127304   1.90258 255 255 255
0.100372 0.244963  1.89921 255 255 255
0.162066 0.233013  1.87011 255 255 255
-0.105241 0.0295419   1.99752 255 255 255
-0.129083  0.304555    1.9902 255 255 255
 0.308547 -0.300592   1.83875 255 255 255
-0.0212813   0.157111    1.95815 255 255 255
-0.0303037 -0.0657252    1.97426 255 255 255
 0.515341 -0.285323   1.73234 255 255 255
 0.618953 -0.198807   1.67053 255 255 255
0.0194665  0.315619   1.93415 255 255 255
 0.290008 -0.271828   1.84207 255 255 255
0.00658941 -0.0230335    1.95397 255 255 255
0.0516419   0.27299    1.9188 255 255 255
-0.0119501  -0.354942     1.9833 255 255 255
0.163911 0.237779   1.8645 255 255 255
 0.095595 -0.187199   1.92232 255 255 255
0.206902 0.218077  1.84473 255 255 255
 0.12509 0.242657  1.88805 255 255 255
-0.0193993  -0.136613    1.97342 255 255 255
 0.26152 0.210303   1.8238 255 255 255
  0.19799 0.0380988   1.85613 255 255 255
  0.144079 -0.0819925    1.89533 255 255 255
0.0417645 0.0263255   1.93353 255 255 255
0.0233736  0.021702   1.94256 255 255 255
0.0758482  0.307256   1.90622 255 255 255
-0.0069125   0.179688    1.95137 255 255 255
0.0364471 -0.354232   1.95929 255 255 255
 0.393335 0.0678646   1.75593 255 255 255
0.0391554   0.19023   1.93082 255 255 255
  0.338426 -0.0636223    1.79032 255 255 255
 0.275505 -0.254375   1.84277 255 255 255
0.240041 0.249159  1.83079 255 255 255
-0.0232675  -0.236098    1.97962 255 255 255
  0.258918 -0.0491324    1.83887 255 255 255
0.0253888 -0.372517   1.97172 255 255 255
  0.104492 0.00578769    1.91044 255 255 255
0.108159 0.276501   1.8904 255 255 255
0.0464298  0.132269   1.92964 255 255 255
 0.330536 -0.247646   1.81704 255 255 255
-0.0746226   0.227463    1.97835 255 255 255
 0.240962 -0.118807   1.85084 255 255 255
  0.173097 -0.0805006     1.8761 255 255 255
0.0897361  0.366588   1.89613 255 255 255
 0.365037 -0.221865   1.80234 255 255 255
-0.0899601   0.230242    1.98598 255 255 255
 0.153768 -0.313516   1.91078 255 255 255
0.232351 0.313414  1.83543 255 255 255
0.267768 0.305005  1.81708 255 255 255
-0.0281142  0.0203423    1.96813 255 255 255
 0.277427 0.0421571   1.81809 255 255 255
-0.0990188   0.131287    1.99678 255 255 255
0.0818425  0.156951    1.9131 255 255 255
-0.0366495   0.207624    1.96018 255 255 255
-0.121728  0.303335   1.98772 255 255 255
 0.104282 0.0248653   1.90911 255 255 255
 0.185946 -0.250207   1.88352 255 255 255
-0.0291645   0.295104     1.9537 255 255 255
-0.0653022   0.177196    1.97968 255 255 255
0.212713 0.304381  1.84457 255 255 255
0.0713917  0.102792   1.91472 255 255 255
0.279105 0.362621  1.81008 255 255 255
0.0846881 -0.291566   1.93782 255 255 255
0.0616869  0.248702    1.9117 255 255 255
0.686021 0.262432  1.60118 255 255 255
0.0184622  0.319613   1.93473 255 255 255
 0.283093 -0.198797   1.83884 255 255 255
0.697825 0.209643  1.59462 255 255 255
  0.49824 -0.220116   1.73562 255 255 255
 0.692345 0.0235461    1.6129 255 255 255
0.453339 0.170783   1.7293 255 255 255
  0.65347 -0.318568   1.66137 255 255 255
0.456507 -0.22179   1.7581 255 255 255
 0.334916 -0.135917   1.80437 255 255 255
0.0907637 -0.168696   1.92251 255 255 255
 0.708083 -0.218031   1.62205 255 255 255
 0.671192 0.0525888   1.62326 255 255 255
 0.17876 0.323071  1.85463 255 255 255
 0.389108 0.0368201   1.76647 255 255 255
0.351942 0.338657  1.77126 255 255 255
 0.688587 -0.319379   1.64771 255 255 255
 0.724661 -0.145823   1.60896 255 255 255
  0.48245 -0.240537   1.74603 255 255 255
0.0887265 -0.220306   1.92487 255 255 255
-0.0264421  -0.187394    1.98114 255 255 255
0.00349833  0.0873567    1.94686 255 255 255
 0.749662 -0.186231   1.59701 255 255 255
 0.734375 0.0824347   1.58216 255 255 255
  0.76678 -0.222981   1.58845 255 255 255
 0.694838 -0.225813   1.63122 255 255 255
 0.355874 -0.132663   1.79538 255 255 255
 0.497846 -0.124498   1.72789 255 255 255
0.422014 -0.21787  1.77348 255 255 255
 0.16246 0.333949  1.86228 255 255 255
0.041058 0.232127  1.92837 255 255 255
 0.483858 0.0980171   1.71864 255 255 255
 0.726491 -0.175854   1.60747 255 255 255
 0.0105678 -0.0875736    1.95739 255 255 255
0.724212 0.130443  1.58706 255 255 255
   0.5943 -0.173506    1.6815 255 255 255
0.724477 0.329329  1.56794 255 255 255
 0.113728 -0.104651   1.90594 255 255 255
 0.725394 -0.256879   1.61898 255 255 255
0.323845  -0.1038  1.81245 255 255 255
0.680716  0.35046  1.59122 255 255 255
0.718275 0.087089  1.59276 255 255 255
0.696045 -0.17811  1.62902 255 255 255
 0.465594 0.0610566   1.72837 255 255 255
0.0136691 -0.283572   1.96721 255 255 255
  0.25041 -0.136512    1.8508 255 255 255
0.639301 -0.32795  1.68355 255 255 255
 0.681484 -0.144614   1.63418 255 255 255
 0.165682 -0.130777    1.8878 255 255 255
0.490915 -0.28518  1.74317 255 255 255
 0.405726 -0.109035    1.7718 255 255 255
0.0193609  0.107999   1.94326 255 255 255
0.624663 0.297714  1.63308 255 255 255
0.724119 0.238625  1.57409 255 255 255
 0.544537 0.0536973   1.69616 255 255 255
0.338934 -0.16703  1.80691 255 255 255
0.160899 0.139412  1.86948 255 255 255
 0.176902 -0.294343   1.89269 255 255 255
 0.125683 -0.238782   1.91059 255 255 255
 0.604682 -0.150942   1.67898 255 255 255
 0.697552 -0.116669    1.6226 255 255 255
 0.542505 -0.281792   1.71521 255 255 255
 0.69466 0.112318  1.60556 255 255 255
0.357791 -0.16598  1.79654 255 255 255
 0.288129 -0.114361   1.82262 255 255 255
0.00963764    0.27094    1.93758 255 255 255
0.00642361    0.26039     1.9401 255 255 255
 0.137441 -0.178847   1.90078 255 255 255
 0.238042 -0.291287   1.86777 255 255 255
 0.306194 -0.107177   1.82017 255 255 255
  0.76703 -0.157596   1.58353 255 255 255
 0.343521 -0.126163   1.79882 255 255 255
 0.372305 -0.162882   1.78855 255 255 255
0.366832  0.34575  1.76441 255 255 255
 0.667038 -0.147104   1.63904 255 255 255
0.440719 0.032038  1.74484 255 255 255
  0.52537 0.0441106   1.70397 255 255 255
 0.162131 -0.227973   1.89219 255 255 255
  0.39401 -0.230901   1.78482 255 255 255
 0.447152 0.0245152   1.73835 255 255 255
 0.279659 0.0900094   1.81945 255 255 255
0.317583 0.149114  1.79679 255 255 255
  0.213445 -0.0529484    1.86036 255 255 255
  0.51303 -0.313202   1.73776 255 255 255
 0.268211 0.0618302   1.82108 255 255 255
0.731162 0.231509  1.56871 255 255 255
 0.486221 0.0630965   1.72169 255 255 255
0.0639978 -0.199925   1.93822 255 255 255
0.213292 0.108158  1.84502 255 255 255
 0.671304 -0.218143   1.64541 255 255 255
 0.406872 -0.253636   1.78423 255 255 255
 0.0416715 -0.0605752    1.93779 255 255 255
0.364866 -0.23272  1.79856 255 255 255
 0.703032 -0.238675   1.62977 255 255 255
-0.0400006  0.0229868    1.97252 255 255 255
 0.276066 -0.288055   1.84639 255 255 255
 0.532042 0.0538978    1.7006 255 255 255
 0.400658 -0.161626   1.77968 255 255 255
 0.130561 0.0245361   1.88903 255 255 255
0.621901 0.239388  1.63618 255 255 255
  0.33455 -0.241203   1.81437 255 255 255
 0.233075 -0.136964   1.85136 255 255 255
-0.0114212 -0.0881675    1.96648 255 255 255
0.0887773  -0.24269   1.92729 255 255 255
 0.368187 -0.182256    1.7939 255 255 255
0.504538 0.257109  1.69777 255 255 255
 0.342337 -0.271823   1.81673 255 255 255
  0.58855 -0.111901    1.6869 255 255 255
0.0347578   -0.2784   1.95835 255 255 255
-0.00775847   -0.141369     1.96931 255 255 255
-0.0265397 -0.0962029     1.9731 255 255 255
 0.490337 0.0613651   1.71817 255 255 255
 0.303825 -0.172126   1.82317 255 255 255
 0.089094 -0.342712   1.93628 255 255 255
0.72054 0.20073  1.5812 255 255 255
  0.21628 -0.133904   1.86558 255 255 255
 0.267279 -0.128458   1.83686 255 255 255
0.723078 0.309172  1.57111 255 255 255
 0.420433 -0.233297   1.77466 255 255 255
 0.580232 -0.216387   1.69961 255 255 255
 0.705943 0.0352115   1.60539 255 255 255
 0.699897 0.0272647    1.6083 255 255 255
 0.757289 -0.250113   1.59828 255 255 255
0.449692 0.271676  1.72313 255 255 255
 0.134228 -0.204106   1.91016 255 255 255
0.0182523 -0.347654   1.96864 255 255 255
 0.564587 -0.126426   1.69273 255 255 255
 0.490697 -0.310129   1.74776 255 255 255
 0.648549 -0.311697   1.67074 255 255 255
 0.22835 0.201885   1.8388 255 255 255
  0.108784 -0.0602004    1.90509 255 255 255
 0.480665 0.0621411   1.72001 255 255 255
-0.0237545  0.0277087    1.96531 255 255 255
0.632269 0.089301  1.64208 255 255 255
0.0610105 -0.282411   1.94629 255 255 255
 0.322458 -0.287777   1.82315 255 255 255
  0.146182 -0.0933914    1.88869 255 255 255
 0.762151 -0.233633   1.59987 255 255 255
 0.695504 0.0481828   1.61208 255 255 255
 0.753014 -0.217207   1.59582 255 255 255
 0.706908 -0.209672   1.62591 255 255 255
0.554572 0.326027  1.67654 255 255 255
 0.531487 -0.127378   1.71422 255 255 255
 0.261635 -0.202533   1.84489 255 255 255
 0.447315 -0.267815   1.76417 255 255 255
  0.74616 -0.203031   1.60107 255 255 255
  0.131795 -0.0642486    1.89311 255 255 255
  0.334394 -0.0445538    1.79992 255 255 255
0.756644 -0.22551  1.59593 255 255 255
 0.702665 -0.169678     1.623 255 255 255
 0.695353 0.0572706   1.60962 255 255 255
 0.288765 0.0723797   1.81463 255 255 255
 0.685027 0.0568388   1.61943 255 255 255
  0.334733 -0.0356251    1.79907 255 255 255
 0.568722 -0.295417   1.71244 255 255 255
  0.19118 -0.106238   1.86965 255 255 255
0.0941762  0.236138   1.89985 255 255 255
0.359872 0.288352  1.76979 255 255 255
-0.0331737  -0.122328    1.97893 255 255 255
0.0477219 -0.286287   1.95389 255 255 255
0.0788499 -0.179444   1.93363 255 255 255
 0.738956 -0.233786   1.60683 255 255 255
0.708696 0.214902  1.58665 255 255 255
0.718755 0.296107  1.57774 255 255 255
0.0283952 -0.327022   1.96434 255 255 255
  0.230945 -0.0841184    1.85325 255 255 255
 0.701238 -0.130278   1.62047 255 255 255
 0.555921 -0.206223   1.70335 255 255 255
 0.550705 -0.119875   1.70465 255 255 255
  0.66307 -0.275304   1.66406 255 255 255
  0.200303 -0.0727608    1.86254 255 255 255
0.0795716 -0.277199   1.93787 255 255 255
0.0901455  0.329999   1.90044 255 255 255
0.0800793 -0.269337   1.93595 255 255 255
 0.189576 0.0352066   1.86794 255 255 255
 0.547769 -0.224404   1.71772 255 255 255
0.700437 -0.32409  1.63612 255 255 255
 0.692799 -0.214373   1.63557 255 255 255
 0.397869 -0.224458   1.78247 255 255 255
 0.315164 -0.314846   1.83186 255 255 255
0.293735  0.17453  1.80625 255 255 255
 0.536165 -0.311461   1.72701 255 255 255
 0.201122 0.0281856   1.85525 255 255 255
0.101039 0.238713  1.89957 255 255 255
 0.702147 -0.254125    1.6288 255 255 255
 0.727457 -0.237013   1.61332 255 255 255
 0.25263 0.205772  1.82408 255 255 255
0.254234  0.20628  1.82603 255 255 255
0.705229  0.22472  1.58774 255 255 255
 0.197489 -0.278048    1.8881 255 255 255
 0.114111 -0.275327   1.92031 255 255 255
0.0751797 -0.150784   1.92879 255 255 255
 0.0172053 -0.0679521    1.95097 255 255 255
  0.557537 -0.0419572     1.6964 255 255 255
 0.295897 -0.336974   1.84514 255 255 255
 0.294097 0.0780754   1.81185 255 255 255
  0.446269 -0.0819849    1.74753 255 255 255
0.742333 0.265572  1.56045 255 255 255
 0.387982 -0.152537   1.78433 255 255 255
  0.141967 -0.0993464    1.89111 255 255 255
0.694764 0.202202   1.5972 255 255 255
 0.138927 -0.239431   1.90582 255 255 255
 0.615007 -0.239899   1.68685 255 255 255
 0.248199 -0.274323   1.85693 255 255 255
 0.270198 0.0327257    1.8261 255 255 255
0.715053  0.23954  1.58141 255 255 255
0.223244 0.212096  1.84223 255 255 255
 0.197859 -0.237737   1.88252 255 255 255
0.362524 0.240293  1.76933 255 255 255
0.048281  -0.2738  1.95114 255 255 255
 0.204883 -0.299921   1.88013 255 255 255
  0.31753 -0.081276   1.80808 255 255 255
0.081925 0.122914  1.90827 255 255 255
0.28734 0.39228 1.80142 255 255 255
  0.367326 -0.0602747     1.7838 255 255 255
  0.45947 0.0721391   1.73076 255 255 255
 0.103586 -0.207922   1.92663 255 255 255
 0.239331 0.0376512   1.84192 255 255 255
0.719524 -0.18845   1.6164 255 255 255
 0.107869 -0.242394   1.91703 255 255 255
   0.70584 -0.0438029    1.60967 255 255 255
0.262434 0.189305  1.82322 255 255 255
  0.222436 -0.0425825    1.85046 255 255 255
0.0504229 -0.123972   1.93769 255 255 255
0.675561 0.385243  1.59295 255 255 255
-0.0940875   0.107338     1.9952 255 255 255
0.361308 0.246723  1.77015 255 255 255
-0.000775197    -0.248272      1.97243 255 255 255
 0.717792 -0.206481   1.61724 255 255 255
  0.221025 -0.0489131    1.85694 255 255 255
0.208688 0.194473  1.84355 255 255 255
-0.0176768   -0.10035     1.9713 255 255 255
  0.38201 -0.149515   1.78686 255 255 255
0.299099 0.250943  1.80271 255 255 255
0.679626  0.20434  1.60457 255 255 255
0.0352929  0.225943   1.92756 255 255 255
-0.0373641  0.0440157    1.97083 255 255 255
 0.16369 0.343198  1.86251 255 255 255
 0.625357 -0.228274   1.67788 255 255 255
0.701851 0.281126  1.58494 255 255 255
 0.160195 -0.153923   1.88839 255 255 255
0.00211315  -0.107755    1.96277 255 255 255
0.0637007 -0.110438   1.93392 255 255 255
 0.020039 -0.322102   1.96838 255 255 255
0.696237 0.380317  1.57868 255 255 255
0.534046 0.251463  1.68169 255 255 255
-0.0249699  -0.130815    1.97439 255 255 255
0.703435 0.142447  1.59725 255 255 255
0.537058 0.136097  1.68756 255 255 255
 0.503251 -0.245077   1.73589 255 255 255
  0.18142 -0.254514   1.88756 255 255 255
  0.73706 0.0979322    1.5789 255 255 255
   0.41261 -0.0719465    1.76327 255 255 255
 0.625889 -0.239293   1.68115 255 255 255
0.0844949 -0.251597   1.93231 255 255 255
 0.711736 -0.185657   1.62048 255 255 255
0.0897075  0.215254   1.90519 255 255 255
 0.749044 -0.269458   1.60397 255 255 255
  0.34785 -0.212715   1.80555 255 255 255
 0.715163 -0.246525   1.62063 255 255 255
 0.374541 -0.247591   1.80008 255 255 255
 0.37068 0.057071  1.77443 255 255 255
-0.00993787    0.347721     1.94504 255 255 255
  0.59035 0.0599946   1.67993 255 255 255
   0.14234 0.00829238    1.88531 255 255 255
0.0434384  0.114831   1.93066 255 255 255
 0.727053 -0.205604   1.61219 255 255 255
0.0416405  0.322355   1.92095 255 255 255
 0.576586 -0.198928   1.69948 255 255 255
  0.20742 -0.138592   1.86412 255 255 255
 0.214185 -0.310358   1.87721 255 255 255
 0.597636 -0.216384   1.69117 255 255 255
 0.259055 -0.108966   1.83751 255 255 255
 0.191739 -0.279075   1.88336 255 255 255
0.696505 0.218203  1.59313 255 255 255
0.116714 0.349658  1.88497 255 255 255
  0.148111 -0.0868669    1.88877 255 255 255
 0.431497 -0.216643   1.76748 255 255 255
 0.590343 -0.197086   1.69208 255 255 255
0.118645 0.239915  1.88987 255 255 255
 0.394103 0.0209406   1.76228 255 255 255
 0.255061 -0.282956   1.85877 255 255 255
-0.01493 0.295112  1.94871 255 255 255
  0.455931 -0.0333718    1.73832 255 255 255
 0.469736 -0.184773   1.74561 255 255 255
0.195492 0.221285  1.85007 255 255 255
 0.480961 0.0900919   1.71913 255 255 255
 0.328662 -0.243137   1.82098 255 255 255
 0.683366 -0.140527   1.63133 255 255 255
 0.185343 -0.277907   1.89217 255 255 255
0.327681 0.191335  1.79215 255 255 255
 0.694602 -0.300521   1.63826 255 255 255
  0.65855 0.0487323   1.63111 255 255 255
 0.674936 -0.188718   1.64008 255 255 255
 0.0954927 -0.0715089    1.91765 255 255 255
 0.557097 -0.227843   1.70518 255 255 255
0.0265877 0.0356856   1.94088 255 255 255
 0.510547 0.0492786   1.71011 255 255 255
 0.201315 -0.320287   1.88204 255 255 255
 0.453306 -0.235198    1.7586 255 255 255
 0.227382 0.0506627   1.84686 255 255 255
  0.126692 -0.0380152     1.8949 255 255 255
  0.270127 -0.0492837    1.82662 255 255 255
0.120451 -0.27615  1.91922 255 255 255
 0.408471 -0.163617   1.77478 255 255 255
0.287145 0.265496  1.80495 255 255 255
  0.74088 -0.213013   1.60327 255 255 255
 0.214932 0.0892314   1.84478 255 255 255
0.568842 -0.13349  1.68974 255 255 255
 0.525436 -0.307951   1.73236 255 255 255
0.429797 0.285264  1.73495 255 255 255
 0.269636 -0.296406   1.84908 255 255 255
0.0666727 -0.118058   1.93442 255 255 255
 0.313774 -0.164412   1.81707 255 255 255
0.261654 0.247322  1.81888 255 255 255
 0.712538 -0.218441   1.61926 255 255 255
 0.717461 -0.227109   1.61979 255 255 255
0.00938784  -0.282136     1.9699 255 255 255
 0.144062 -0.272922    1.9045 255 255 255
 0.297336 0.0243533   1.80924 255 255 255
0.0832854  0.204449   1.90398 255 255 255
 0.374438 -0.265241   1.79762 255 255 255
  0.40718 -0.219334   1.77777 255 255 255
 0.461996 -0.250292   1.75628 255 255 255
  0.368244 -0.0801635    1.78652 255 255 255
0.00571999  -0.342779    1.97611 255 255 255
 0.198513 0.0331689   1.85595 255 255 255
  0.41587 -0.208349   1.77231 255 255 255
 0.191634 -0.264527    1.8825 255 255 255
0.134765 0.010594  1.88783 255 255 255
 0.368596 -0.212446   1.79456 255 255 255
0.270147 0.199656  1.81577 255 255 255
0.533397 0.293355  1.69113 255 255 255
  0.713693 -0.0763248    1.60918 255 255 255
 0.751091 -0.223174   1.59981 255 255 255
  0.220898 -0.0642182     1.8565 255 255 255
0.450622 0.196352  1.72996 255 255 255
 0.738179 -0.247186   1.60837 255 255 255
  0.169947 -0.0628942    1.88271 255 255 255
 0.702252 -0.148047    1.6212 255 255 255
 0.695759 -0.158024   1.62817 255 255 255
 0.711079 -0.160576   1.61649 255 255 255
   0.32462 -0.0370523    1.80012 255 255 255
0.203341 -0.13948  1.87167 255 255 255
 0.245304 0.0626332    1.8321 255 255 255
 0.110137 -0.234253   1.92225 255 255 255
0.0245302 0.0403346   1.94348 255 255 255
 0.720197 -0.267008   1.62085 255 255 255
0.112892 0.246287  1.88875 255 255 255
 0.173592 -0.057425   1.87401 255 255 255
0.341565 0.217043  1.77812 255 255 255
0.368604 0.367141  1.76329 255 255 255
 0.411597 -0.246879   1.77844 255 255 255
-0.0192126  -0.134054    1.97437 255 255 255
0.0695653  -0.33322   1.94489 255 255 255
 0.382377 0.0418136   1.76909 255 255 255
0.420747 -0.24448  1.77404 255 255 255
   0.69574 -0.0601271    1.61758 255 255 255
0.489316 -0.17246  1.73692 255 255 255
 0.417817 -0.261356   1.77636 255 255 255
0.650371 -0.19247  1.66471 255 255 255
  0.276822 -0.0555375    1.82525 255 255 255
0.181945 -0.13554  1.87584 255 255 255
 0.319963 -0.238008   1.82032 255 255 255
   0.17703 -0.0534159    1.87233 255 255 255
 0.246141 -0.212299   1.85255 255 255 255
  0.397033 -0.0686028    1.77116 255 255 255
0.438113 0.057311  1.74202 255 255 255
 0.236638 0.0210519   1.83855 255 255 255
0.0515005  0.294526   1.91897 255 255 255
 0.161606 -0.308023   1.90491 255 255 255
 0.182547 0.0253459   1.86414 255 255 255
 0.492583 -0.281879   1.74377 255 255 255
0.627633 -0.27584  1.68392 255 255 255
0.00888911  -0.069734    1.95655 255 255 255
 0.173097 -0.080505    1.8761 255 255 255
  0.72876 -0.186531   1.60821 255 255 255
-0.0550738  0.0570202     1.9801 255 255 255
0.440173 0.287217  1.73178 255 255 255
0.384803 0.185379  1.76329 255 255 255
 0.172841 -0.345035   1.89833 255 255 255
  0.50575 -0.281694   1.73696 255 255 255
0.138242 -0.30301  1.91196 255 255 255
 0.746901 -0.209706   1.60006 255 255 255
 0.371952 -0.278262    1.7998 255 255 255
0.711426 0.138288  1.59217 255 255 255
0.370431 0.147921  1.77113 255 255 255
 0.718073 -0.104358   1.60837 255 255 255
 0.204655 0.0372616   1.85326 255 255 255
  0.674612 -0.0437215    1.62875 255 255 255
 0.402871 -0.170974   1.77598 255 255 255
  0.296712 -0.0455941    1.81469 255 255 255
 0.469278 -0.250201   1.75331 255 255 255
0.0946256 -0.149239   1.92224 255 255 255
 0.438632 -0.170367   1.75952 255 255 255
  0.676741 -0.0309165    1.62749 255 255 255
0.432185 -0.19539  1.76414 255 255 255
 0.527675 -0.242174   1.72551 255 255 255
  0.348104 -0.0847534    1.79422 255 255 255
0.227465 0.106332  1.83963 255 255 255
 0.391164 -0.150928   1.77925 255 255 255
  0.658775 -0.0431377    1.64984 255 255 255
 0.556209 0.0873501   1.68915 255 255 255
0.271843 -0.22647  1.84684 255 255 255
 0.498053 -0.288471   1.74092 255 255 255
 0.480099 0.0495593   1.72976 255 255 255
 0.283849 0.0559359   1.82337 255 255 255
 0.386465 -0.307556   1.79783 255 255 255
0.204294 0.281766  1.85329 255 255 255
   0.110748 -0.00823961     1.89594 255 255 255
0.551213 -0.25038   1.7139 255 255 255
-0.035701  0.145865    1.9658 255 255 255
0.00151542   0.119452    1.95016 255 255 255
0.514158 -0.32732  1.74115 255 255 255
0.407228 0.180883  1.75021 255 255 255
0.292461 0.194826  1.80381 255 255 255
0.270205 0.169123  1.81813 255 255 255
 0.550671 0.0322511   1.69996 255 255 255
 0.366314 -0.302339   1.80153 255 255 255
0.276454 0.115296   1.8185 255 255 255
 0.471478 -0.335309   1.76097 255 255 255
  0.111355 -0.0312302    1.90982 255 255 255
0.569428 0.180631  1.67823 255 255 255
0.544374 0.157467   1.6855 255 255 255
0.0901226  0.351416   1.89477 255 255 255
0.706522 0.346673  1.57457 255 255 255
0.163706 0.245288  1.86376 255 255 255
  0.3158 0.278057  1.78912 255 255 255
0.635607 0.131945   1.6515 255 255 255
0.253325 -0.31542  1.86244 255 255 255
 0.088205 -0.135902     1.924 255 255 255
0.127588 0.286421  1.87992 255 255 255
 0.306215 -0.344459   1.84036 255 255 255
0.643575 0.151153   1.6293 255 255 255
0.668368 0.171138  1.61599 255 255 255
0.194397 0.137471  1.85287 255 255 255
-0.0329011   0.225265    1.95603 255 255 255
 0.70046 0.181626   1.5966 255 255 255
  0.13646 -0.105492   1.89588 255 255 255
0.378386  0.16335  1.76581 255 255 255
0.596939 0.389924  1.63889 255 255 255
0.096753 0.254122  1.89943 255 255 255
0.587368 0.137425   1.6725 255 255 255
0.731803 0.299012  1.56606 255 255 255
-0.0729895  0.0257935    1.99031 255 255 255
0.245723 0.319567   1.8272 255 255 255
0.650349 0.220472  1.62151 255 255 255
0.221214  0.13779  1.84269 255 255 255
0.411997 0.127637  1.75086 255 255 255
0.654555   0.1689  1.62428 255 255 255
 0.419373 -0.169504   1.76849 255 255 255
0.405167 0.109465   1.7559 255 255 255
 0.480023 -0.177652   1.74292 255 255 255
0.0937138 -0.138227   1.91667 255 255 255
 0.582661 -0.326153   1.70675 255 255 255
0.216499 0.350871  1.83659 255 255 255
0.569879 0.152387  1.66997 255 255 255
-0.0272206  -0.073642     1.9728 255 255 255
 0.670063 -0.247244   1.64527 255 255 255
-0.0714128 -0.0403941    1.99322 255 255 255
0.510955 0.211861  1.70154 255 255 255
 0.721025 0.0737389   1.59006 255 255 255
-0.0830529 -0.0280771    1.99676 255 255 255
 0.733465 0.0614856   1.58553 255 255 255
0.364255 0.385604  1.76469 255 255 255
 0.593703 0.0114166    1.6686 255 255 255
 0.348027 0.0992411   1.78307 255 255 255
0.714823 0.373052  1.56791 255 255 255
0.707023 0.106318  1.60042 255 255 255
0.493052 0.292122   1.6989 255 255 255
0.0598055  0.130767   1.91556 255 255 255
0.666206 0.281973   1.6104 255 255 255
 0.173546 -0.317164   1.89376 255 255 255
0.0603947   0.11844   1.92319 255 255 255
0.568097 0.041485  1.68337 255 255 255
0.533731 0.083957  1.70281 255 255 255
0.0329696 -0.117708    1.9505 255 255 255
0.376829 0.413678  1.75714 255 255 255
-0.0801742   0.292715    1.97814 255 255 255
    0.691671 -0.000833294      1.62271 255 255 255
0.328564 0.382786  1.78994 255 255 255
  0.0957694 -0.00983605     1.91397 255 255 255
0.0660947 0.0313271   1.92688 255 255 255
0.289065 0.327098  1.80351 255 255 255
-0.0980597  0.0139393    1.99586 255 255 255
  0.470765 -0.0638157    1.73665 255 255 255
 0.155019 0.0783132   1.87518 255 255 255
 0.144737 -0.169588   1.89731 255 255 255
 0.355746 0.0806568   1.78175 255 255 255
 0.593651 0.0223519   1.67772 255 255 255
 0.534792 -0.197314   1.71334 255 255 255
  0.238268 -0.0933479    1.85432 255 255 255
-0.0311887  -0.354708     1.9908 255 255 255
  0.673896 0.00990734    1.62539 255 255 255
  0.72541 0.0501287   1.59311 255 255 255
 0.680665 0.0900688   1.61449 255 255 255
0.339863 0.378763  1.77682 255 255 255
  0.65552 0.0373663    1.6312 255 255 255
-0.0951096  0.0880091    1.99041 255 255 255
 0.595944 -0.321145   1.69404 255 255 255
 0.33074 0.323176  1.78294 255 255 255
 0.19532 0.123744  1.85336 255 255 255
0.737379 0.248905  1.56175 255 255 255
 0.174774 0.0609094   1.86588 255 255 255
 0.137896 0.0968587   1.88183 255 255 255
  0.029881 -0.0720347    1.94847 255 255 255
-0.0720745   0.271712    1.97676 255 255 255
0.698355 0.162428  1.59749 255 255 255
0.733116 0.264563  1.56339 255 255 255
0.653196 0.153528  1.62499 255 255 255
0.545057 0.042712  1.69545 255 255 255
0.247106  0.19541  1.82692 255 255 255
0.130724 0.343835  1.87698 255 255 255
0.705635 0.087706   1.6007 255 255 255
0.541236 0.353665  1.67254 255 255 255
0.263713 0.364784  1.81488 255 255 255
0.617864 0.273559  1.63603 255 255 255
 0.351797 -0.101664   1.79372 255 255 255
0.176653 0.117081  1.86755 255 255 255
-0.0939075   0.241944    1.98681 255 255 255
-0.0276129   0.239455    1.95622 255 255 255
0.537035 -0.16055  1.71044 255 255 255
-0.126127  0.257809   2.00164 255 255 255
 0.373688 -0.341182   1.80194 255 255 255
 0.764037 -0.119591    1.5799 255 255 255
 0.761459 -0.131244   1.58516 255 255 255
0.581016 0.031917  1.67147 255 255 255
0.443751 0.398566  1.72537 255 255 255
0.192779 0.352531  1.85029 255 255 255
0.256844 0.369597  1.82256 255 255 255
-0.0774743  0.0155235    1.99308 255 255 255
  0.541072 -0.0585005    1.69723 255 255 255
-0.0713552 -0.0597545    1.99301 255 255 255
0.524343 0.399444  1.68016 255 255 255
0.711456 0.272479  1.57972 255 255 255
 0.66073 0.348679  1.60484 255 255 255
 0.270408 0.0845742   1.82362 255 255 255
 0.15755 0.170804  1.87516 255 255 255
   0.40418 -0.0710279    1.76675 255 255 255
 0.200136 -0.157561   1.86705 255 255 255
0.186194  0.29419  1.85301 255 255 255
 0.397461 -0.206979   1.78258 255 255 255
0.163795 0.129162  1.86859 255 255 255
 0.476625 -0.225402   1.74696 255 255 255
0.641355 0.104319    1.636 255 255 255
-0.0609632 -0.0759823     1.9876 255 255 255
0.321343 0.332539  1.78843 255 255 255
0.121774 0.147958    1.885 255 255 255
0.0835258  0.180276   1.90453 255 255 255
0.680581 0.115218  1.61383 255 255 255
0.0134849  0.144172   1.94098 255 255 255
0.663036 0.104667  1.62371 255 255 255
0.513966 0.169324  1.70248 255 255 255
0.591307 0.402812   1.6424 255 255 255
0.0820503  0.166821   1.90505 255 255 255
 0.669221 0.0968408   1.61938 255 255 255
 0.519371 0.0541988   1.70693 255 255 255
-0.0982298   0.223265    1.98421 255 255 255
-0.0924167   0.147669    1.98447 255 255 255
 0.747561 0.0176743    1.5842 255 255 255
  0.12079 0.0110263   1.90117 255 255 255
  0.185588 -0.0928303    1.87029 255 255 255
  0.553491 -0.0151981    1.69581 255 255 255
-0.0383187 -0.0801475    1.97811 255 255 255
  0.469479 -0.0151951    1.73318 255 255 255
0.393142 0.054411  1.76573 255 255 255
-0.0444224   0.130153    1.96991 255 255 255
0.380889 0.422395  1.75552 255 255 255
0.515112 0.391073  1.68604 255 255 255
  0.132364 -0.0265302    1.89209 255 255 255
 0.334666 -0.147666   1.81044 255 255 255
 0.66315 0.362512  1.60329 255 255 255
0.488387 0.409952  1.69966 255 255 255
0.0728264  0.152026   1.91177 255 255 255
0.0855105 -0.124649   1.92169 255 255 255
0.468344  0.39847  1.71129 255 255 255
0.712295 0.206354  1.58436 255 255 255
  0.345782 -0.0518021    1.79527 255 255 255
 0.492226 0.0718109   1.71724 255 255 255
0.441143 0.019505  1.74366 255 255 255
0.327985 0.155364  1.78407 255 255 255
 0.528506 0.0336522   1.70568 255 255 255
0.714902 0.262336  1.57841 255 255 255
 0.127575 -0.314136   1.91701 255 255 255
 0.518025 -0.273014    1.7278 255 255 255
0.268333 0.144044  1.81752 255 255 255
 0.670307 0.0599265   1.62334 255 255 255
-0.0485917  0.0627122    1.97673 255 255 255
  0.703867 -0.0292246    1.61064 255 255 255
-0.0721277 -0.0886317    1.99644 255 255 255
  0.200921 -0.0815225    1.86779 255 255 255
0.487729 0.377269  1.70903 255 255 255
0.531346 0.101254  1.69417 255 255 255
 0.55682 0.405239  1.66326 255 255 255
 0.697376 0.0387379   1.61027 255 255 255
  0.486308 -0.0907127    1.72954 255 255 255
0.663408 0.375087  1.60234 255 255 255
0.0868681  0.284073   1.89745 255 255 255
  0.34254 0.0736898   1.78943 255 255 255
0.344958 0.346122  1.77802 255 255 255
0.251906   0.0653  1.82836 255 255 255
0.419596  0.17213  1.74678 255 255 255
 0.657302 0.0567493   1.62934 255 255 255
0.575222 0.329639  1.66734 255 255 255
0.142734 0.267429  1.87379 255 255 255
-0.0345766 -0.0703868    1.97641 255 255 255
  0.23807 -0.297936   1.86375 255 255 255
 0.237572 -0.297705   1.86316 255 255 255
 0.578505 -0.225586    1.6998 255 255 255
 0.417916 -0.184032   1.77221 255 255 255
 0.015265 -0.269627   1.96727 255 255 255
0.0637385  0.206533   1.91815 255 255 255
 0.22554 0.295918   1.8348 255 255 255
0.375405 0.384111  1.76022 255 255 255
0.698717 0.101383    1.603 255 255 255
0.523006  0.12436  1.70109 255 255 255
0.355405 0.246195  1.77556 255 255 255
0.699074 0.132085  1.59843 255 255 255
0.686936  0.16942  1.60463 255 255 255
0.723114 0.224671  1.57841 255 255 255
  0.572336 -0.0920108    1.69416 255 255 255
0.0409381  0.140779   1.93241 255 255 255
0.0759593 -0.310351    1.9407 255 255 255
0.673439 0.104962  1.61839 255 255 255
 0.313608 -0.173233   1.81904 255 255 255
-0.0604345  -0.015773    1.98662 255 255 255
 0.408694 0.0199353    1.7586 255 255 255
0.285061 0.135019  1.81388 255 255 255
-0.125669  0.104778   2.00822 255 255 255
0.400393 0.219367  1.75219 255 255 255
 0.114441 -0.353252   1.92605 255 255 255
0.531795 0.126982  1.69511 255 255 255
0.426471 0.121989  1.74444 255 255 255
 0.332721 -0.275991    1.8192 255 255 255
 0.332161 0.0237799   1.79779 255 255 255
0.0806365  0.292244   1.90279 255 255 255
  0.550198 -0.0601226    1.70127 255 255 255
0.290189 0.404219  1.79857 255 255 255
0.284299 0.349145  1.80384 255 255 255
-0.00165997    -0.01772     1.95785 255 255 255
0.329064 0.297279  1.78561 255 255 255
0.0400512 -0.298743   1.95427 255 255 255
 0.719882 -0.234769   1.61827 255 255 255
0.687349 0.237033  1.59782 255 255 255
-0.0401771   0.193685    1.96477 255 255 255
 0.695353 0.0572706   1.60962 255 255 255
0.645243 0.159373   1.6441 255 255 255
0.0673704   0.31974   1.90889 255 255 255
-0.0596226   0.106824     1.9789 255 255 255
 0.659906 0.0398243   1.63017 255 255 255
0.669247 0.149992  1.61657 255 255 255
0.536034 0.317289  1.68813 255 255 255
  0.412686 -0.0789114    1.76359 255 255 255
 0.705314 0.0131061   1.60885 255 255 255
0.122674 0.372134  1.88256 255 255 255
0.0803761 0.0207336     1.919 255 255 255
0.578738 0.391252  1.64975 255 255 255
0.102777 0.230401  1.89354 255 255 255
 0.571479 -0.319176   1.70861 255 255 255
0.303562 0.308443  1.79339 255 255 255
   0.146667 -0.00569594     1.88413 255 255 255
 0.0637866 -0.0412418    1.93051 255 255 255
0.0855509 -0.237946   1.93022 255 255 255
0.168443 0.108796  1.87294 255 255 255
0.371128 0.140414  1.76629 255 255 255
0.459538 0.314261  1.72222 255 255 255
 0.171326 0.0849813   1.86668 255 255 255
0.431459 0.318652  1.73528 255 255 255
0.0223154  0.291456   1.93185 255 255 255
0.655568 0.398232  1.60333 255 255 255
0.684044 0.145685  1.60791 255 255 255
-0.0689821  -0.144385    1.99206 255 255 255
0.688537 0.188474  1.60362 255 255 255
 0.723256 -0.291649   1.62109 255 255 255
 0.223636 0.0303647   1.84547 255 255 255
 0.61706 0.306441  1.64862 255 255 255
-0.0574977  0.0868023    1.97911 255 255 255
0.0139953 -0.226797   1.96451 255 255 255
0.306008 0.255619  1.79752 255 255 255
0.468962 0.313183  1.71752 255 255 255
 0.0414829 -0.0827401    1.93892 255 255 255
0.607431 0.300605  1.65142 255 255 255
 0.13177 0.253584   1.8787 255 255 255
0.441211 0.317223  1.73109 255 255 255
 0.47505 0.310854  1.70999 255 255 255
   0.623639 -0.00159069     1.66338 255 255 255
0.638115 0.358688  1.61933 255 255 255
 0.689419 0.0911657   1.60779 255 255 255
0.184637 0.358797  1.85149 255 255 255
0.00213748   0.212828    1.94553 255 255 255
 0.719537 -0.158787   1.60925 255 255 255
 0.370652 0.0697554   1.77345 255 255 255
0.661237 0.291617  1.60898 255 255 255
0.00247822 -0.0609019    1.95984 255 255 255
0.461306 0.208038  1.72463 255 255 255
0.422068 0.320321  1.73949 255 255 255
 0.44007 0.157283  1.73425 255 255 255
-0.0661892 -0.0494725    1.99056 255 255 255
0.220515 0.367128  1.83732 255 255 255
  0.190381 -0.0401469     1.8638 255 255 255
 0.772757 -0.166994    1.5827 255 255 255
 0.18953 0.374093  1.85333 255 255 255
0.692087 0.128415  1.60487 255 255 255
 0.564384 -0.273313   1.71198 255 255 255
0.614251 0.141328  1.64673 255 255 255
 0.073308 0.0423759   1.91414 255 255 255
-0.0112403   0.123268    1.95362 255 255 255
  0.5362 0.384701  1.67459 255 255 255
-0.077356  0.176768   1.97975 255 255 255
-0.0283258 -0.0505211     1.9739 255 255 255
 0.738565 -0.265083   1.60923 255 255 255
 0.509376 0.0696892   1.71044 255 255 255
-0.0635743 -0.0867592    1.98714 255 255 255
 0.394233 -0.222805   1.78731 255 255 255
 0.131657 -0.337753   1.91685 255 255 255
  0.2171 0.169283  1.84699 255 255 255
-0.0760997   0.193263    1.98166 255 255 255
0.224369  0.30811  1.83379 255 255 255
-0.0986606    0.16126    1.99346 255 255 255
0.0277254 0.0269561   1.94282 255 255 255
 0.369456 -0.207847   1.79356 255 255 255
0.519589 0.385177  1.69251 255 255 255
 0.205157 0.0739891   1.85132 255 255 255
0.0806247 -0.263352   1.93689 255 255 255
-0.0504417 -0.0493546    1.97949 255 255 255
 0.561622 -0.113807   1.69983 255 255 255
0.598817 0.219832  1.66397 255 255 255
  0.104968 -0.0788536    1.90801 255 255 255
 0.197489 -0.278048    1.8881 255 255 255
-0.0479785   0.185409    1.96771 255 255 255
0.000534978    0.257914     1.94332 255 255 255
-0.0967842   0.235587    1.98148 255 255 255
-0.100469 0.0958071   1.99116 255 255 255
-0.0985895  0.0226718    2.00199 255 255 255
 0.583035 0.0043745   1.68285 255 255 255
   0.57638 0.00470563    1.67727 255 255 255
0.390445  0.42012  1.75118 255 255 255
   0.192565 -0.00871568     1.86089 255 255 255
   0.30717 -0.0199172    1.81141 255 255 255
  0.397741 0.00363789    1.76296 255 255 255
0.248497  0.18708  1.82961 255 255 255
0.744443 0.182399  1.56772 255 255 255
 0.676006 0.0922679   1.61584 255 255 255
 0.315824 0.0127175   1.80211 255 255 255
  0.6766 0.341998  1.59487 255 255 255
 0.498385 0.0206321   1.71771 255 255 255
0.0187074 0.0185468   1.94852 255 255 255
 0.35782 0.424083  1.76757 255 255 255
0.746368 0.256311  1.56128 255 255 255
0.276807 0.249228  1.81154 255 255 255
0.167321 0.227059  1.86347 255 255 255
 -0.0832281 -0.00309642     1.98976 255 255 255
0.205944 0.305487  1.84286 255 255 255
0.0937823 -0.203503   1.92753 255 255 255
0.129222  0.14221  1.88892 255 255 255
-0.0569543   0.144309    1.97462 255 255 255
 0.53019 0.202574  1.69543 255 255 255
 0.749818 0.0581704   1.57619 255 255 255
 0.746105 0.0886938   1.57681 255 255 255
0.307386 0.303046  1.79771 255 255 255
    0.357005 -0.000575347      1.78633 255 255 255
0.724342 0.337721  1.56583 255 255 255
-0.0474803 -0.0605628    1.98355 255 255 255
-0.0602105  0.0216442    1.98233 255 255 255
0.0654114  0.241342    1.9128 255 255 255
0.232488 0.420228  1.82556 255 255 255
0.0466165 -0.147833   1.94358 255 255 255
0.319446 0.146917  1.79389 255 255 255
0.405399 0.165306  1.75537 255 255 255
0.560696 0.259903   1.6786 255 255 255
  0.276822 -0.0555375    1.82525 255 255 255
 0.012701 0.0271609   1.94855 255 255 255
0.357948 0.259807  1.77493 255 255 255
0.00726621 -0.0171642    1.95265 255 255 255
0.0791352 0.0910533   1.91054 255 255 255
-0.0332722  -0.127512     1.9799 255 255 255
   0.533319 -0.00806418     1.69917 255 255 255
0.475166 0.413796  1.70626 255 255 255
