ply
format ascii 1.0
element vertex 1224
property float x
property float y
property float z
property uchar red
property uchar green
property uchar blue
end_header
0.405128  1.28502  1.56558 255 255 255
0.835995  1.18783   1.3774 255 255 255
0.440218   1.4327  1.57643 255 255 255
0.747649  1.04804  1.43196 255 255 255
0.870635  1.36145  1.45987 255 255 255
0.811019 0.990442  1.36204 255 255 255
0.429056  1.21527  1.60852 255 255 255
0.245187  1.29793  1.28652 255 255 255
0.610615  1.49038  1.53683 255 255 255
0.621889  1.50895   1.5328 255 255 255
0.795973   1.4628  1.47246 255 255 255
0.844407  1.10918  1.32546 255 255 255
0.625864 0.755384   1.4902 255 255 255
 0.58178 0.793494  1.51255 255 255 255
0.61585 1.26036  1.5057 255 255 255
0.820326 0.641489  1.49602 255 255 255
0.644676  1.49967  1.53629 255 255 255
0.492723  1.45328  1.56006 255 255 255
0.789772  1.45283  1.46943 255 255 255
0.466974  1.46193  1.57951 255 255 255
0.576057 0.777609   1.5175 255 255 255
0.776939 0.743491  1.44673 255 255 255
0.238699  1.30589  1.27006 255 255 255
0.479432  1.38603  1.56127 255 255 255
0.696984  1.26421   1.4644 255 255 255
0.530822  1.47544  1.56694 255 255 255
0.463427  1.37486  1.57862 255 255 255
0.816554  1.09679  1.36911 255 255 255
0.454235  1.11295  1.57615 255 255 255
0.757062  1.38746  1.46411 255 255 255
0.447766   1.3821  1.58348 255 255 255
0.68897 1.20314  1.4632 255 255 255
0.607169  1.50818  1.53936 255 255 255
 0.78963 0.729006  1.45954 255 255 255
0.27269  1.2708 1.37194 255 255 255
0.711724 0.949535  1.45065 255 255 255
0.427809  1.06262  1.52636 255 255 255
0.850641  1.38938  1.43299 255 255 255
0.825728  1.36631  1.44894 255 255 255
0.516547  1.38036  1.54479 255 255 255
0.705761   1.1306  1.45135 255 255 255
0.423032 0.702629  1.60114 255 255 255
0.788889  1.35054  1.45852 255 255 255
0.577977  1.49653  1.54775 255 255 255
0.838752 0.631658  1.48224 255 255 255
0.680296  1.38717  1.49278 255 255 255
0.833714 0.646851  1.47155 255 255 255
0.333201  1.19367  1.41855 255 255 255
0.42651 1.19916 1.59924 255 255 255
 0.7285 1.10224 1.45031 255 255 255
0.69611 1.40965 1.49134 255 255 255
 0.47039 0.951549  1.42193 255 255 255
0.883735  1.41888  1.49191 255 255 255
0.722489  1.21577  1.45161 255 255 255
0.708416   0.6314  1.48787 255 255 255
0.605956  1.53445  1.55328 255 255 255
0.664012 0.628747  1.51099 255 255 255
0.838115  1.24453   1.4128 255 255 255
0.590972  1.48881     1.55 255 255 255
0.385698 0.969797  1.52615 255 255 255
0.818505  1.41645  1.45937 255 255 255
0.741947 0.847121  1.45275 255 255 255
0.788718  1.46683  1.47558 255 255 255
0.692995  1.53241  1.53759 255 255 255
0.718125 0.988725  1.44967 255 255 255
0.828802  1.28893  1.44829 255 255 255
0.818996  1.42288  1.46039 255 255 255
0.795206 0.721101  1.45987 255 255 255
0.692887 0.851753  1.46599 255 255 255
0.661438 0.827941  1.47211 255 255 255
0.844166  1.18056  1.36654 255 255 255
0.508545 0.784384  1.53707 255 255 255
0.743416  1.37937  1.46744 255 255 255
0.680671  1.46563  1.50492 255 255 255
0.452587  1.45455  1.57899 255 255 255
0.601604  1.48813  1.54002 255 255 255
0.659557 0.787888  1.47797 255 255 255
 0.8381 1.20562 1.38792 255 255 255
0.715689  1.15918  1.45085 255 255 255
0.525249 0.698053  1.53205 255 255 255
0.528142 0.653307  1.54793 255 255 255
0.814003  0.62895  1.50496 255 255 255
0.701617  1.42255  1.49273 255 255 255
0.798474 0.780409  1.44512 255 255 255
0.48354 1.29473 1.55713 255 255 255
0.817791  1.03793  1.34887 255 255 255
0.234393  1.28604  1.31358 255 255 255
0.496302 0.660604  1.56588 255 255 255
0.493398 0.661633  1.56292 255 255 255
0.495783  1.22162  1.54042 255 255 255
0.783605 0.659444  1.46074 255 255 255
0.844786   1.2745  1.42402 255 255 255
0.526532  1.02541  1.41308 255 255 255
0.623946  1.48412  1.52987 255 255 255
0.455755 0.800201  1.54281 255 255 255
0.626023 0.806778  1.48467 255 255 255
0.518082   1.0419  1.41286 255 255 255
0.451324  1.40749  1.56977 255 255 255
0.496221  1.36655  1.55419 255 255 255
0.685841 0.855948  1.46966 255 255 255
0.688982 0.705806  1.46343 255 255 255
0.799248  1.48053  1.47424 255 255 255
0.863608  1.32852   1.4333 255 255 255
0.433768 0.727269  1.59315 255 255 255
0.776441 0.786102   1.4523 255 255 255
0.546088 0.696357  1.53468 255 255 255
0.618976  1.52832  1.54872 255 255 255
0.831095 0.657168  1.47939 255 255 255
0.672285  1.36811  1.49483 255 255 255
0.942531  1.51926  1.51883 255 255 255
0.736943  1.10989  1.43826 255 255 255
 0.36975 0.947297  1.55091 255 255 255
0.795869  0.97697   1.3725 255 255 255
0.431061  1.19128  1.60685 255 255 255
0.777948 0.807595  1.44176 255 255 255
0.631378 0.797753  1.48301 255 255 255
0.202693  1.35966  1.18714 255 255 255
0.787526  1.47893    1.477 255 255 255
0.727823  1.14367  1.44427 255 255 255
0.231695  1.38898  1.25473 255 255 255
0.527473  1.40421  1.54454 255 255 255
0.493888 0.987519  1.42705 255 255 255
0.470971  1.47077  1.58355 255 255 255
0.48648 1.29512  1.5518 255 255 255
0.413744 0.701033  1.64568 255 255 255
0.553288  1.11504  1.40689 255 255 255
0.25665 1.29456 1.28638 255 255 255
0.469489  1.15125  1.58122 255 255 255
  0.462 0.88374 1.44463 255 255 255
0.765944  1.16344  1.44118 255 255 255
0.738503  1.29188  1.45724 255 255 255
0.283874  1.28542  1.29118 255 255 255
0.813925 0.689706  1.46334 255 255 255
0.709868 0.638419  1.49114 255 255 255
0.675141 0.723296  1.47989 255 255 255
0.28999 1.26024 1.32299 255 255 255
0.808086  0.71209   1.4514 255 255 255
0.222341  1.29265  1.30241 255 255 255
0.420993 0.832347  1.55011 255 255 255
0.599239 0.694831  1.51272 255 255 255
0.732709 0.817789  1.45351 255 255 255
0.795593 0.794295  1.44667 255 255 255
0.779904 0.729303   1.4497 255 255 255
0.562976  1.30804  1.52133 255 255 255
0.487732 0.665177  1.56518 255 255 255
0.502068  1.32887  1.53869 255 255 255
0.574351  1.47838  1.54804 255 255 255
0.796247 0.903744   1.3746 255 255 255
0.779103  1.41861  1.46627 255 255 255
0.540051  1.45772  1.55708 255 255 255
0.680911 0.711437  1.47937 255 255 255
0.74789  1.3728 1.47059 255 255 255
0.752099  1.38848  1.46899 255 255 255
0.331669  1.20771  1.41159 255 255 255
0.600742 0.797966  1.50823 255 255 255
0.81007 1.00903 1.35147 255 255 255
0.706419  1.13831  1.45365 255 255 255
0.932345   1.5054  1.51801 255 255 255
  0.4603 0.804299  1.54387 255 255 255
0.546446   1.5164  1.56685 255 255 255
0.833459  1.02856   1.4125 255 255 255
0.494794 0.864188  1.51942 255 255 255
0.689498 0.813743  1.46318 255 255 255
0.889477  1.37005  1.43805 255 255 255
0.716115  1.14396  1.44418 255 255 255
0.573804  1.36604  1.52551 255 255 255
0.465168 0.727578  1.56085 255 255 255
0.746566  1.41788    1.477 255 255 255
0.507698  1.32279  1.54491 255 255 255
0.880768  1.39407  1.47558 255 255 255
0.561863   1.5109  1.55893 255 255 255
0.613795 0.630948  1.52688 255 255 255
0.688881  1.33996  1.48266 255 255 255
0.695666 0.626815   1.4935 255 255 255
0.74609 1.39959  1.4739 255 255 255
0.188961  1.36473  1.18414 255 255 255
0.67165 0.84993 1.47258 255 255 255
0.533949 0.704944  1.54287 255 255 255
0.676607  1.21581  1.46647 255 255 255
0.593405 0.692291  1.51336 255 255 255
0.49036 1.26237 1.54925 255 255 255
0.373341 0.910727  1.56247 255 255 255
0.809536  1.02141  1.35362 255 255 255
 0.55604 0.937936  1.41307 255 255 255
0.56426 1.36264 1.53204 255 255 255
0.644628 0.633943  1.51818 255 255 255
 0.8339  1.4559 1.45648 255 255 255
0.575439  1.29105  1.51631 255 255 255
0.227244   1.3436  1.21015 255 255 255
0.642308 0.844742  1.48239 255 255 255
0.487116  1.47405  1.57126 255 255 255
0.748625 0.920855    1.437 255 255 255
0.812894  1.06933  1.36278 255 255 255
0.486818  1.46257  1.56621 255 255 255
0.744444 0.960578  1.44224 255 255 255
0.282028  1.25187  1.34062 255 255 255
0.801909  1.38159  1.46123 255 255 255
0.730302  1.11237  1.45993 255 255 255
0.704982   1.2717  1.46368 255 255 255
0.409174  0.74493   1.6295 255 255 255
0.442257 0.678148  1.58689 255 255 255
0.420736 0.690774  1.60983 255 255 255
 0.66433 0.846461   1.4752 255 255 255
0.540967  1.38014  1.53912 255 255 255
0.667679  1.52008  1.53357 255 255 255
0.235476  1.36828  1.27665 255 255 255
0.802905  1.00431  1.36543 255 255 255
0.754584  1.47792  1.49028 255 255 255
0.788678 0.760332  1.44924 255 255 255
0.835648 0.641845  1.47062 255 255 255
0.833844 0.653888  1.46674 255 255 255
0.443782  1.38532   1.5864 255 255 255
0.521248  1.53231  1.59009 255 255 255
0.469027  1.42638  1.56676 255 255 255
0.705851 0.633019  1.49435 255 255 255
0.782581 0.762845  1.45694 255 255 255
0.565677  1.49884  1.54992 255 255 255
0.768889 0.716135  1.45742 255 255 255
0.696716   1.5117  1.52982 255 255 255
0.697257  1.27135  1.46431 255 255 255
0.551642  1.40205  1.53812 255 255 255
0.538855  1.45314  1.55941 255 255 255
0.511807   1.4279  1.55263 255 255 255
0.716903  1.36452  1.47291 255 255 255
0.603931 0.756582  1.50257 255 255 255
0.523583  1.37759  1.54438 255 255 255
0.454949  1.04068  1.42818 255 255 255
0.430595 0.751102  1.60854 255 255 255
0.605426  1.50498  1.54289 255 255 255
0.851469  1.32489  1.44481 255 255 255
0.732536  1.39432  1.47894 255 255 255
0.68705 1.41999  1.5034 255 255 255
0.806303  1.43825  1.46719 255 255 255
0.806303  1.43825  1.46719 255 255 255
0.766411 0.836352   1.4356 255 255 255
0.532349 0.779887  1.50829 255 255 255
0.81875 1.19708 1.40632 255 255 255
0.777095 0.771502  1.44716 255 255 255
0.40148 1.05318 1.55117 255 255 255
0.812464  1.08689  1.37322 255 255 255
0.616511 0.754724  1.49324 255 255 255
0.703252  0.64057  1.49161 255 255 255
0.907678  1.44917  1.49344 255 255 255
0.812485 0.720828  1.44017 255 255 255
0.734084 0.707796  1.46537 255 255 255
0.876236  1.34005  1.42777 255 255 255
0.83013 1.23516 1.41176 255 255 255
0.490993  1.24119  1.55015 255 255 255
0.517666  1.49856   1.5818 255 255 255
0.583615   1.4152  1.53451 255 255 255
0.694537  1.49764  1.51345 255 255 255
0.895237  1.40749  1.47223 255 255 255
0.729344  0.82763  1.45146 255 255 255
0.708441   1.1219   1.4517 255 255 255
0.224551  1.34836  1.20012 255 255 255
0.965058  1.55918  1.53488 255 255 255
0.382588 0.986336  1.57598 255 255 255
0.476691  1.01786  1.47941 255 255 255
0.694731 0.799268  1.45522 255 255 255
0.760325   1.3898  1.45989 255 255 255
0.519824  1.02597  1.41671 255 255 255
0.685396  1.33622  1.48391 255 255 255
0.411699 0.846573  1.55517 255 255 255
0.95803 1.53344 1.51805 255 255 255
0.614532 0.684156  1.51248 255 255 255
0.334752  1.10249  1.49882 255 255 255
0.537045 0.720607  1.53326 255 255 255
0.720872  1.36544  1.47069 255 255 255
0.551863  1.35188   1.5275 255 255 255
0.606153  1.48517  1.54172 255 255 255
0.685428  1.24176  1.46552 255 255 255
0.679016  1.46984  1.50893 255 255 255
0.589622 0.653389  1.52791 255 255 255
0.587234  1.52672  1.55671 255 255 255
0.721019  1.38791  1.47968 255 255 255
0.28654 1.27936 1.29233 255 255 255
0.663272  1.39381  1.49703 255 255 255
0.237863  1.37991  1.25123 255 255 255
0.486424  1.45881  1.56274 255 255 255
0.499442 0.969565  1.41551 255 255 255
0.704764   1.1554  1.45526 255 255 255
0.714366  1.40906  1.48528 255 255 255
0.244383  1.31153  1.25924 255 255 255
0.535476 0.649401  1.54692 255 255 255
0.439439 0.943006  1.42778 255 255 255
0.640756  1.53624  1.54798 255 255 255
0.841743  1.31783  1.44831 255 255 255
0.486909 0.799622  1.54382 255 255 255
0.768618  1.44205  1.48003 255 255 255
0.576317  1.50516  1.55583 255 255 255
0.816076 0.895365    1.432 255 255 255
0.420768 0.918999  1.52205 255 255 255
0.525375  1.51148  1.59765 255 255 255
0.784627  1.40385  1.46538 255 255 255
0.486215  1.47861  1.57429 255 255 255
0.785544  1.26666  1.44879 255 255 255
0.550167  1.47817  1.55458 255 255 255
0.796864  0.94683  1.37407 255 255 255
0.661223 0.801704  1.47198 255 255 255
0.533436  1.53265  1.58627 255 255 255
0.767762  1.08755  1.42124 255 255 255
0.727965  1.37199  1.46719 255 255 255
0.518237 0.662856  1.54641 255 255 255
0.682431 0.630315  1.50352 255 255 255
0.772248  1.40095  1.46947 255 255 255
0.533124 0.704176  1.53868 255 255 255
0.797997  1.01009  1.36815 255 255 255
0.825637  1.05487  1.34708 255 255 255
0.618722  1.35952   1.4996 255 255 255
0.556194  1.01356   1.4152 255 255 255
0.836835  1.15921   1.3632 255 255 255
0.787588  1.18217  1.43402 255 255 255
0.732317 0.845587  1.45567 255 255 255
0.773286  1.41863  1.47607 255 255 255
0.856311  1.29127  1.42767 255 255 255
0.834454  1.30016  1.44937 255 255 255
0.684321 0.653028  1.48772 255 255 255
0.385459  1.20886  1.54188 255 255 255
0.880952  1.37607  1.46039 255 255 255
0.401537 0.735458   1.6413 255 255 255
0.481933  1.05236  1.41442 255 255 255
0.563266  1.43134  1.54422 255 255 255
0.727788  1.29189  1.46069 255 255 255
0.553316  1.35623  1.53021 255 255 255
0.281771  1.30504  1.33293 255 255 255
0.650814  1.53564  1.54409 255 255 255
0.578524   1.4706  1.54539 255 255 255
0.713252  1.36514  1.48078 255 255 255
0.635449 0.764165  1.48308 255 255 255
0.520641  1.41242  1.55152 255 255 255
0.491459  1.25585  1.55184 255 255 255
0.352361  1.20168  1.40347 255 255 255
0.843029  1.33836  1.45399 255 255 255
 0.7643 1.19285 1.44208 255 255 255
0.658416  1.22082  1.49177 255 255 255
0.699864  1.44654  1.50043 255 255 255
0.551891  1.38678  1.54076 255 255 255
0.445505  1.40015  1.57069 255 255 255
0.915312  1.43901  1.47965 255 255 255
0.622092  1.49997  1.53221 255 255 255
0.791597   1.4328  1.47008 255 255 255
 0.56357 0.998709  1.40339 255 255 255
 0.73365 0.662989  1.47653 255 255 255
0.756929  1.33167  1.46898 255 255 255
0.755421  1.33172  1.46789 255 255 255
0.841747   1.0989  1.33804 255 255 255
0.828811   1.1742   1.3769 255 255 255
0.704578  1.49877  1.50778 255 255 255
0.444388 0.852407   1.4448 255 255 255
0.494673 0.675877  1.56295 255 255 255
0.498444 0.690137  1.55055 255 255 255
0.667746  1.53326  1.54337 255 255 255
0.431336 0.720875   1.6235 255 255 255
0.861532  1.36069   1.4673 255 255 255
0.672842  1.39415  1.49713 255 255 255
0.841973  1.06334  1.41151 255 255 255
0.834309  1.12447  1.35295 255 255 255
0.756751  1.43458  1.48468 255 255 255
0.775628 0.944329  1.39716 255 255 255
0.439043  1.20482  1.59381 255 255 255
0.803457  0.74101  1.44199 255 255 255
0.79503  1.1061 1.39746 255 255 255
0.496511  0.69862  1.55246 255 255 255
0.560836  1.38704   1.5389 255 255 255
0.489799  1.28396  1.55314 255 255 255
0.187704  1.36873  1.17709 255 255 255
0.278313   1.2731  1.30994 255 255 255
0.808227  1.13288  1.39125 255 255 255
0.292045  1.26744  1.35242 255 255 255
0.742885 0.840877   1.4473 255 255 255
0.563166 0.999666    1.413 255 255 255
0.483525 0.696448  1.55991 255 255 255
0.705944  1.53951  1.52848 255 255 255
0.937372   1.5085  1.51569 255 255 255
0.414465  0.95731  1.45093 255 255 255
0.632509 0.999216  1.40065 255 255 255
0.432752   1.2228  1.61522 255 255 255
0.446497 0.727353  1.57358 255 255 255
0.674288 0.675404  1.45926 255 255 255
0.832823  1.04049  1.33144 255 255 255
0.208577  1.35605    1.194 255 255 255
0.717907  1.36185  1.47823 255 255 255
0.763286 0.634076  1.47359 255 255 255
0.763286 0.634076  1.47359 255 255 255
 0.7127 1.04809 1.43796 255 255 255
0.369407  0.90485  1.55954 255 255 255
0.830367  1.03186  1.33292 255 255 255
0.735217  0.97092  1.43331 255 255 255
0.415043 0.738942  1.63134 255 255 255
0.267561  1.29689  1.27666 255 255 255
0.763401 0.653961  1.47289 255 255 255
0.392731 0.897025  1.54671 255 255 255
0.722007  1.17318  1.45198 255 255 255
0.269697  1.30187   1.2679 255 255 255
0.537283  1.48975  1.57364 255 255 255
0.638166   1.3882  1.50827 255 255 255
0.854914 0.595754  1.49674 255 255 255
0.496015  1.47359   1.5621 255 255 255
0.745426  1.37678  1.47348 255 255 255
0.739043  1.32006   1.4718 255 255 255
0.81132 1.02636 1.35803 255 255 255
0.377562 0.942011  1.54218 255 255 255
0.593945 0.757552  1.51327 255 255 255
0.466313 0.719694   1.5658 255 255 255
0.47159 1.20703 1.60016 255 255 255
0.88602 1.39389 1.47103 255 255 255
0.656805  1.51728  1.54443 255 255 255
0.24473 1.31415 1.25761 255 255 255
0.263462  1.28969  1.35461 255 255 255
0.577176 0.645565   1.5298 255 255 255
 0.55462 0.736306  1.53332 255 255 255
0.235645  1.36895  1.26813 255 255 255
0.542696  1.41122  1.54487 255 255 255
0.457979 0.999296  1.43645 255 255 255
0.764533  1.29639  1.45869 255 255 255
0.85343 1.33335 1.44748 255 255 255
0.443823  1.16728  1.58922 255 255 255
0.947501  1.50163  1.50353 255 255 255
0.288131  1.26149  1.38073 255 255 255
0.692643  1.53205  1.53359 255 255 255
0.263805   1.2886  1.34851 255 255 255
0.699119  1.28214  1.46893 255 255 255
0.682411  1.33188   1.4898 255 255 255
0.879522  1.37021  1.43229 255 255 255
0.716924  1.39257  1.48083 255 255 255
0.445556 0.705663  1.57727 255 255 255
0.643989  1.46997  1.52607 255 255 255
0.448364 0.853849  1.44393 255 255 255
0.846517  1.16903  1.41877 255 255 255
0.209147  1.36554  1.17396 255 255 255
0.829654  1.45741   1.4592 255 255 255
0.563889 0.693321  1.51797 255 255 255
0.580824 0.998419  1.40666 255 255 255
0.482775  1.05005  1.41072 255 255 255
0.794871   1.2198  1.44099 255 255 255
0.619832  1.37797  1.51544 255 255 255
0.849871  1.24404  1.39451 255 255 255
0.492719 0.680755  1.55747 255 255 255
0.534075  1.00437  1.41931 255 255 255
0.646457  1.52035  1.54449 255 255 255
0.788497  1.29581  1.45316 255 255 255
0.522086 0.981389  1.41383 255 255 255
0.879624  1.36793  1.43652 255 255 255
0.569929  1.36156  1.52562 255 255 255
 0.83456 0.991962  1.42336 255 255 255
0.795427  1.27344  1.44793 255 255 255
0.728047  1.52448  1.50697 255 255 255
0.579262  1.03377  1.40714 255 255 255
0.698204  1.23362  1.46087 255 255 255
0.743324  1.17707  1.44986 255 255 255
0.213547  1.35208    1.198 255 255 255
0.664852  1.41739  1.50393 255 255 255
0.494352  1.48139   1.5685 255 255 255
0.755688  1.09582  1.43275 255 255 255
0.518704  1.03448  1.41979 255 255 255
0.870095  1.30826  1.43219 255 255 255
0.668072  1.53964  1.54198 255 255 255
0.566897  1.11095  1.40685 255 255 255
0.709207  1.05193  1.44773 255 255 255
0.499412  1.33302  1.54736 255 255 255
0.448201  1.11197  1.54548 255 255 255
0.70131  1.4183 1.49086 255 255 255
0.728531  1.25072  1.45422 255 255 255
0.538355 0.650504  1.54206 255 255 255
0.540999 0.649739  1.54457 255 255 255
0.974571  1.55411  1.52064 255 255 255
0.679106  1.34331  1.48697 255 255 255
0.382521 0.910333  1.54496 255 255 255
0.450432  0.72057  1.56837 255 255 255
0.467243 0.988274  1.43065 255 255 255
0.506225  1.30816  1.54446 255 255 255
0.754358  1.03094  1.43437 255 255 255
0.228497  1.33491  1.22668 255 255 255
0.228802  1.34674  1.20295 255 255 255
0.662419  1.40274  1.50241 255 255 255
0.587484  0.67465  1.52412 255 255 255
0.40786 1.16947 1.60574 255 255 255
0.652389 0.833531   1.4794 255 255 255
0.527632   1.4219  1.55158 255 255 255
0.663975  1.06582  1.46472 255 255 255
0.433134 0.678071  1.59246 255 255 255
0.825502  1.39166  1.45265 255 255 255
0.845507  1.31979  1.44608 255 255 255
0.79307 1.19457 1.43725 255 255 255
0.573577  1.34665  1.52555 255 255 255
0.21522 1.38882 1.25395 255 255 255
0.832418  1.20883  1.43063 255 255 255
0.549793 0.992979  1.41199 255 255 255
0.458238 0.693476  1.57573 255 255 255
0.569543  1.40146  1.53688 255 255 255
0.893433   1.4378  1.49871 255 255 255
0.438569  1.19247  1.59783 255 255 255
0.816154  1.22289  1.42811 255 255 255
0.523093  1.05181  1.41217 255 255 255
0.811484  1.01582  1.35405 255 255 255
0.225121   1.3851  1.25325 255 255 255
0.697816 0.811077  1.45997 255 255 255
0.837288  1.04837  1.32503 255 255 255
0.770148  1.39952  1.46222 255 255 255
0.528767 0.658482   1.5501 255 255 255
0.936504  1.48885  1.49901 255 255 255
0.875214  1.38909  1.43427 255 255 255
0.280537  1.26202  1.32337 255 255 255
0.760503 0.778786  1.45672 255 255 255
0.734134 0.980023  1.44028 255 255 255
0.592188  1.46033  1.53666 255 255 255
0.777829 0.945705  1.39484 255 255 255
0.542064  1.47629  1.55853 255 255 255
0.728784  1.37033  1.47186 255 255 255
0.431601  1.20392  1.59326 255 255 255
0.583334  1.28039  1.51434 255 255 255
0.57202 1.40548 1.53705 255 255 255
0.809629 0.718925   1.4466 255 255 255
0.818241  1.09136  1.36445 255 255 255
0.453887  1.38025  1.57703 255 255 255
0.255796  1.32676  1.31709 255 255 255
0.588526  1.37668  1.52859 255 255 255
0.317647  1.18582  1.43632 255 255 255
0.746031  1.40244  1.48131 255 255 255
0.589208 0.733641  1.51083 255 255 255
0.765688  1.40245  1.47565 255 255 255
0.492192 0.719768  1.55374 255 255 255
0.613052  1.38161  1.51792 255 255 255
0.488907  1.48033  1.56838 255 255 255
0.478674  1.03409  1.42319 255 255 255
0.755325  1.17492  1.44241 255 255 255
0.515462  1.38626  1.55299 255 255 255
0.427995 0.869972  1.45676 255 255 255
0.455626  1.01102  1.43093 255 255 255
0.486696  1.24421  1.54873 255 255 255
0.27297  1.3604 1.26676 255 255 255
0.455317 0.750554   1.5579 255 255 255
0.850536  1.31947  1.44455 255 255 255
0.396324 0.770959  1.63015 255 255 255
0.477229  1.04255  1.44191 255 255 255
0.766208 0.697262   1.4591 255 255 255
0.710957 0.830808  1.45706 255 255 255
0.534684  1.41567  1.54246 255 255 255
 0.41885 0.710244  1.63731 255 255 255
0.808827  1.04938   1.3589 255 255 255
0.54942 1.52221 1.56939 255 255 255
0.845553  1.10871  1.41425 255 255 255
0.705972 0.616453   1.4978 255 255 255
0.699653  1.50486   1.5096 255 255 255
0.822151  1.05868  1.41857 255 255 255
0.757136  1.16375  1.45031 255 255 255
0.659205 0.853037  1.47897 255 255 255
0.454473  1.13361   1.5795 255 255 255
0.575362  1.47128  1.54704 255 255 255
0.847306  1.25051  1.39943 255 255 255
0.455816 0.988504  1.43559 255 255 255
0.406879 0.902175  1.54398 255 255 255
0.786307  1.27686  1.45086 255 255 255
0.413592  1.17736  1.60722 255 255 255
0.50568 1.21495  1.5359 255 255 255
0.694733  1.37019  1.48582 255 255 255
0.853623  1.34761  1.46536 255 255 255
0.725379 0.966331  1.44781 255 255 255
0.387966 0.946739  1.52681 255 255 255
0.641319  1.32833  1.50066 255 255 255
0.554467   1.4886  1.55921 255 255 255
0.450666 0.723419  1.57059 255 255 255
0.419789 0.743783  1.62284 255 255 255
0.426351  1.01085  1.47321 255 255 255
0.409597 0.707771  1.64301 255 255 255
0.64321 1.54011 1.54805 255 255 255
0.720259  1.24629  1.45581 255 255 255
0.809886 0.735268  1.44237 255 255 255
0.742654 0.936787   1.4368 255 255 255
0.224349  1.33786  1.22484 255 255 255
0.450483 0.732451  1.57027 255 255 255
0.656344 0.823532  1.47575 255 255 255
0.370628 0.982648  1.57958 255 255 255
0.403626 0.990852  1.50024 255 255 255
0.501816  1.32434  1.55147 255 255 255
0.406333 0.772521  1.62174 255 255 255
0.685338 0.743578  1.47053 255 255 255
0.446311  1.47506  1.58446 255 255 255
0.85436 1.13653 1.33182 255 255 255
0.730353 0.809136  1.45008 255 255 255
0.666505 0.634972  1.50984 255 255 255
0.819102 0.937041  1.42814 255 255 255
0.609531  1.34146  1.51553 255 255 255
0.538453 0.652916  1.53942 255 255 255
0.396627 0.940106  1.48072 255 255 255
0.656133 0.632219  1.51234 255 255 255
0.805098  1.03231  1.36696 255 255 255
0.828692  1.24142  1.42025 255 255 255
0.703778 0.770647  1.46419 255 255 255
0.421343 0.731174  1.63356 255 255 255
0.420226 0.731605  1.63271 255 255 255
0.408507 0.764103  1.61947 255 255 255
0.277942  1.29477  1.28102 255 255 255
0.453036  1.47378  1.58734 255 255 255
0.434044 0.852453  1.44744 255 255 255
0.546693  1.48801  1.56505 255 255 255
0.420964 0.669485  1.63428 255 255 255
0.517922 0.670439  1.54542 255 255 255
0.306043  1.26854  1.30678 255 255 255
 0.63912 0.643871  1.50995 255 255 255
0.483135 0.981074  1.42821 255 255 255
0.781545  1.36736  1.46348 255 255 255
0.838504  1.14837  1.35957 255 255 255
0.831604  1.05826  1.33641 255 255 255
0.879653  1.37213  1.45971 255 255 255
0.391674  1.00702  1.52756 255 255 255
0.761283   1.3904  1.47219 255 255 255
0.840408  1.14023  1.35297 255 255 255
0.591264 0.639177  1.53354 255 255 255
0.405125  0.69631  1.63297 255 255 255
0.856887  1.35279  1.45306 255 255 255
0.773083 0.782144  1.45566 255 255 255
0.21619  1.3534 1.19785 255 255 255
0.302249  1.28324  1.35095 255 255 255
0.20186 1.37095 1.16581 255 255 255
0.359891 0.948976  1.56693 255 255 255
0.423744 0.699542   1.6291 255 255 255
0.800641 0.689522   1.4435 255 255 255
0.770247  1.49548  1.48575 255 255 255
0.787589  1.39058  1.46586 255 255 255
0.797102  0.76161  1.44431 255 255 255
0.402831 0.759849  1.62545 255 255 255
0.761238  1.10658  1.42904 255 255 255
0.722213  1.14081  1.44619 255 255 255
0.796085  1.32135  1.45239 255 255 255
0.741223  1.16561  1.44324 255 255 255
0.824641  1.09475  1.35844 255 255 255
0.555685  1.37927  1.53335 255 255 255
0.897594  1.43705  1.49434 255 255 255
0.840676  1.04691  1.41358 255 255 255
0.713942 0.619794  1.49225 255 255 255
0.418423  1.00546    1.463 255 255 255
0.576092  1.45496  1.54549 255 255 255
0.450283  1.09328  1.44103 255 255 255
0.959609  1.53958  1.52096 255 255 255
0.516928  1.43741  1.55179 255 255 255
0.438421   1.0719  1.54815 255 255 255
0.899145  1.44148  1.49293 255 255 255
0.604097 0.733933  1.50364 255 255 255
0.218858  1.34884  1.20339 255 255 255
0.741566  1.00785  1.43351 255 255 255
0.419407   1.1739  1.60611 255 255 255
0.217475  1.34959   1.1995 255 255 255
0.830584  1.23829  1.42129 255 255 255
0.557759  1.13453  1.40643 255 255 255
0.786685 0.902311  1.39273 255 255 255
0.608445 0.650429  1.51759 255 255 255
  0.4288 0.708639  1.58756 255 255 255
0.48179 1.16654 1.58467 255 255 255
0.486362  1.48001  1.57045 255 255 255
0.523169 0.698502  1.53806 255 255 255
0.289105  1.26572   1.3152 255 255 255
0.845586  1.14842  1.34647 255 255 255
0.814519  1.20913  1.42555 255 255 255
0.692503 0.703054  1.47707 255 255 255
0.484146 0.875542  1.52359 255 255 255
0.628996  1.54025  1.55277 255 255 255
0.485635  0.98743  1.42828 255 255 255
0.480644 0.976014  1.44544 255 255 255
0.245442  1.30537  1.27276 255 255 255
0.868127  1.31343  1.42709 255 255 255
0.878101  1.32473  1.42849 255 255 255
0.688181 0.723696  1.47812 255 255 255
0.24295 1.34835 1.29693 255 255 255
0.360899 0.961514  1.55395 255 255 255
0.379266  0.90837   1.5642 255 255 255
0.726405  1.17136  1.45021 255 255 255
0.522211 0.711513  1.53974 255 255 255
0.82407 1.21598 1.41273 255 255 255
0.48792 1.28616 1.55436 255 255 255
0.663267  1.06425  1.46872 255 255 255
0.381052 0.997643  1.58591 255 255 255
0.786781 0.661054  1.46021 255 255 255
0.698111 0.790632  1.46254 255 255 255
0.578143  1.49986  1.55347 255 255 255
0.258718  1.29795  1.27846 255 255 255
0.521138  1.40872  1.55472 255 255 255
0.749265  1.04047  1.43108 255 255 255
0.722145 0.808796  1.45482 255 255 255
0.696752  1.25565  1.46396 255 255 255
0.931888  1.47941  1.49663 255 255 255
0.755305 0.979859  1.41906 255 255 255
0.839465  1.00904  1.41606 255 255 255
0.384825 0.922083  1.53275 255 255 255
0.471991 0.664089  1.57608 255 255 255
0.495509 0.720719  1.55205 255 255 255
0.448163 0.672255  1.58533 255 255 255
0.419813  0.98784  1.44543 255 255 255
0.600811 0.725592  1.50739 255 255 255
0.688105 0.929912  1.45955 255 255 255
0.854722  1.27541  1.41284 255 255 255
0.544888  1.39499  1.53799 255 255 255
0.547537 0.995443  1.41247 255 255 255
0.716887 0.976045  1.45748 255 255 255
0.707041  1.07177  1.44946 255 255 255
0.426218  0.67923  1.60359 255 255 255
0.737809 0.854801  1.45683 255 255 255
0.824699  1.14968  1.37516 255 255 255
0.424779 0.915718   1.5438 255 255 255
0.469704   1.0878   1.4349 255 255 255
0.398269  1.03767  1.55941 255 255 255
0.415681  1.00673  1.51305 255 255 255
0.772932 0.793038   1.4507 255 255 255
0.840846  1.10602  1.34057 255 255 255
0.835162  1.08428  1.33301 255 255 255
0.760815 0.653539  1.47566 255 255 255
0.759026 0.920045  1.43328 255 255 255
 0.80657 0.998204  1.36136 255 255 255
0.606906 0.811247  1.50639 255 255 255
0.446431   1.1329  1.42679 255 255 255
0.627887 0.752195   1.4859 255 255 255
0.689801 0.931363  1.45642 255 255 255
0.398048 0.778486  1.62674 255 255 255
0.791262  1.02962  1.38417 255 255 255
0.192218  1.37526  1.16332 255 255 255
0.932713  1.50416  1.51586 255 255 255
0.798004  1.06017  1.37669 255 255 255
0.247165  1.29546  1.28829 255 255 255
0.458133  0.94042  1.42749 255 255 255
 0.70186 0.944593  1.45291 255 255 255
0.721803  1.18105  1.45247 255 255 255
0.761747 0.773842  1.45069 255 255 255
0.391892  1.04836  1.57672 255 255 255
0.415774 0.870658  1.55556 255 255 255
0.975849  1.55945  1.52479 255 255 255
0.897362  1.43951  1.49812 255 255 255
0.952019  1.51576  1.51124 255 255 255
0.562532 0.696111  1.52484 255 255 255
0.714059  1.53083  1.51647 255 255 255
0.813446 0.702547  1.45736 255 255 255
0.494623  1.10358  1.44262 255 255 255
0.504147 0.674235  1.55301 255 255 255
 0.6486 1.51754 1.54351 255 255 255
0.685893  1.35533  1.48984 255 255 255
0.847325  1.35062  1.45836 255 255 255
0.409626 0.675007    1.624 255 255 255
0.39633 1.03839 1.57194 255 255 255
0.834705 0.705377  1.44037 255 255 255
0.823686  1.04275  1.33949 255 255 255
0.830859  0.86742   1.4164 255 255 255
0.761175 0.826224  1.44519 255 255 255
0.800415  1.11653   1.2798 255 255 255
0.851556  1.10053  1.41157 255 255 255
0.397221 0.889926  1.55362 255 255 255
0.790209  1.20915  1.44219 255 255 255
0.435119 0.720558  1.58209 255 255 255
0.593169 0.810453  1.50348 255 255 255
0.423492 0.719006   1.6324 255 255 255
0.509626 0.720241   1.5457 255 255 255
0.494932  1.47156  1.56424 255 255 255
0.823382 0.694655  1.45892 255 255 255
0.531613  0.69335    1.536 255 255 255
0.192064  1.37097  1.17181 255 255 255
0.836212  1.29566  1.44408 255 255 255
0.858553   1.2622  1.39323 255 255 255
0.196466   1.3785  1.15487 255 255 255
 0.9656 1.53534 1.51369 255 255 255
0.815609  1.03838  1.35074 255 255 255
0.515061 0.706931   1.5444 255 255 255
0.841166  1.21881  1.39362 255 255 255
0.805477 0.764638  1.42731 255 255 255
0.518174 0.689937  1.54276 255 255 255
0.456808 0.730393   1.5641 255 255 255
0.485611 0.779474  1.55757 255 255 255
0.804089 0.775372  1.42647 255 255 255
0.790696  1.20583  1.43984 255 255 255
0.397735  1.16739  1.41768 255 255 255
0.582255 0.766743  1.51538 255 255 255
0.514481 0.699776  1.54241 255 255 255
0.743465 0.841224  1.45973 255 255 255
0.515619 0.721373  1.54213 255 255 255
0.239153  1.34638  1.29437 255 255 255
0.481131 0.961678  1.43059 255 255 255
0.465147 0.724183  1.56179 255 255 255
0.578746 0.773651  1.51669 255 255 255
 0.7315 1.08541 1.42419 255 255 255
0.377948  0.93837  1.54139 255 255 255
0.763132 0.899851  1.41833 255 255 255
0.782465 0.907778   1.3973 255 255 255
0.799123 0.687406  1.48019 255 255 255
0.553208  1.44003  1.54706 255 255 255
0.189608   1.3825   1.1475 255 255 255
0.718908  1.24015  1.45561 255 255 255
0.982618  1.55818  1.52081 255 255 255
0.578773  0.77839  1.51645 255 255 255
0.819379  0.89484  1.42811 255 255 255
0.502198  1.11953  1.43452 255 255 255
0.835406  1.13684  1.41863 255 255 255
0.778898  1.15845  1.43349 255 255 255
0.56527 1.36601 1.53373 255 255 255
0.817585 0.694413  1.46118 255 255 255
0.722433  1.02132  1.45233 255 255 255
0.449152 0.697174  1.58116 255 255 255
0.786162  1.01132  1.38691 255 255 255
0.49997 0.67807 1.55554 255 255 255
0.929953  1.50642  1.52239 255 255 255
0.837482  1.21662  1.39281 255 255 255
0.759158  1.39541  1.47621 255 255 255
0.819392 0.698222   1.4544 255 255 255
0.760542  1.10741  1.43241 255 255 255
0.729334  1.04616  1.44957 255 255 255
0.715412  1.23813  1.45927 255 255 255
1.31825 -1.2597 5.10807 255 255 255
 0.696543 -0.881494   5.62043 255 255 255
0.779638 -1.20735   5.4473 255 255 255
 0.578094 -0.940482   5.42799 255 255 255
 0.707982 -0.799801   5.72439 255 255 255
0.774282 -1.25171  5.08977 255 255 255
 0.541781 -0.760703   5.66612 255 255 255
0.802483 -1.20072  5.38817 255 255 255
0.829857 -1.23154  5.37996 255 255 255
 0.463754 -0.924393    5.3508 255 255 255
 0.424176 -0.971103   5.28921 255 255 255
 0.489852 -0.964828    5.2937 255 255 255
 0.79564 -1.25404   5.1767 255 255 255
 1.04802 -1.18759   4.8864 255 255 255
 1.73868 -1.20328  5.08896 255 255 255
0.604594 -1.24084  5.10277 255 255 255
 0.773501 -0.870697   5.70821 255 255 255
1.49355 -1.1761 5.39277 255 255 255
 1.46589 -1.24116  4.88967 255 255 255
 0.928293 -0.914224   5.76126 255 255 255
 0.719479 -0.998825   5.51851 255 255 255
 0.75207 -1.22403  5.22553 255 255 255
 1.41349 -1.24188  4.88123 255 255 255
0.559279 -1.08214  5.21537 255 255 255
 1.45189 -1.25614  4.80311 255 255 255
 1.15901 -1.23743  4.85326 255 255 255
 0.543948 -0.955044   5.38139 255 255 255
 1.23435 -1.26559  4.84419 255 255 255
 1.79731 -1.13583  5.43396 255 255 255
 1.83412 -1.14411  5.41575 255 255 255
1.12944 -1.2557 4.89261 255 255 255
0.520143 -1.25653    5.057 255 255 255
 1.42988 -1.23385   4.9393 255 255 255
 1.68926 -1.17319  5.33468 255 255 255
0.767878  -1.0631  5.67369 255 255 255
  1.6173 -1.19221  5.18577 255 255 255
  1.4336 -1.25916  4.83121 255 255 255
0.571832 -1.02724  5.33502 255 255 255
 0.348112 -0.722033   5.32369 255 255 255
 1.29212 -1.26325  4.83416 255 255 255
0.971186 -1.22296  5.13093 255 255 255
 1.13698 -1.25873   5.2052 255 255 255
 0.509706 -0.903967   5.33593 255 255 255
 1.13788 -1.26684  5.17209 255 255 255
 0.430826 -0.910078    5.2051 255 255 255
 0.563124 -0.920461   5.45557 255 255 255
 1.11636 -1.25716  5.28997 255 255 255
0.589249 -1.00251  5.42018 255 255 255
 1.39094 -1.20248  5.22326 255 255 255
 1.33544 -1.25543  4.82628 255 255 255
0.518123 -0.86507  5.44679 255 255 255
0.284634 -1.05654  5.15165 255 255 255
0.879078 -1.23785  5.31983 255 255 255
0.537257 -1.25323   5.0852 255 255 255
0.560322 -1.00805  5.31751 255 255 255
 1.59624 -1.19936  5.23037 255 255 255
 1.52835 -1.15552  5.51494 255 255 255
 0.726531 -0.551041   5.89291 255 255 255
 0.306063 -0.958814   5.20599 255 255 255
  1.0898 -1.26915  5.36114 255 255 255
0.755573 -1.19096  5.39075 255 255 255
 0.595084 -0.930301   5.50646 255 255 255
 1.89778 -1.16729  5.22095 255 255 255
 1.30787 -1.33048  5.34101 255 255 255
 1.43022 -1.23389  5.14625 255 255 255
 0.518702 -0.870531   5.40704 255 255 255
 0.434433 -0.865023   5.41649 255 255 255
 0.822299 -0.893073   5.71948 255 255 255
 0.558477 -0.866519   5.75201 255 255 255
 1.31629 -1.29063  5.24336 255 255 255
 1.05271 -1.17042  5.42266 255 255 255
 0.747497 -0.666065   5.82304 255 255 255
 1.01088 -1.21652  5.18636 255 255 255
 1.66374 -1.18462  5.23374 255 255 255
 1.38499 -1.27441  4.82078 255 255 255
 1.44896 -1.22984  5.01071 255 255 255
 1.60465 -1.17744   5.3209 255 255 255
 1.39154 -1.16961  5.52398 255 255 255
0.566746 -1.04192  5.34768 255 255 255
0.378519 -1.03837  5.18116 255 255 255
 0.392416 -0.838891   5.35021 255 255 255
 1.55352 -1.23943  4.88537 255 255 255
 1.77916 -1.14945   5.4493 255 255 255
 0.491015 -0.826858   5.67439 255 255 255
0.816673 -1.23106  5.03271 255 255 255
0.443881  -1.1617  5.10805 255 255 255
  1.5886 -1.21199  5.04561 255 255 255
 1.03647 -1.24548  5.19536 255 255 255
  0.61812 -0.843593   5.61874 255 255 255
 0.514043 -0.965109   5.27486 255 255 255
0.968545 -1.09433  5.72401 255 255 255
 1.52725 -1.22098   5.0448 255 255 255
 1.94499 -1.15695  5.27123 255 255 255
 0.459416 -0.887995   5.30478 255 255 255
 1.64944 -1.23572  5.04766 255 255 255
 0.534527 -0.961403   5.31578 255 255 255
 0.534915 -0.820989   5.58395 255 255 255
 1.24842 -1.25098  4.87199 255 255 255
0.866697 -1.10438  5.60099 255 255 255
 1.31561 -1.25042  4.95078 255 255 255
 1.39572 -1.14259  5.59613 255 255 255
 1.72109 -1.15152  5.41653 255 255 255
 1.58216 -1.19239  5.21658 255 255 255
0.757693 -1.23759  5.24456 255 255 255
 0.346942 -0.736636   5.35093 255 255 255
 1.40387 -1.22251  5.07595 255 255 255
 0.567605 -0.873144   5.54407 255 255 255
0.789422 -1.06594  5.72441 255 255 255
 1.47238 -1.21042  5.06351 255 255 255
  1.7822 -1.17094  5.26283 255 255 255
 0.453698 -0.806911   5.46327 255 255 255
  0.61311 -0.524509   5.82368 255 255 255
0.944198 -1.07411  5.76532 255 255 255
  1.7943 -1.16648  5.20316 255 255 255
 0.496987 -0.811158   5.55784 255 255 255
 1.39062 -1.23687  4.96666 255 255 255
 1.31391 -1.32298   5.4336 255 255 255
 0.511625 -0.806194   5.55602 255 255 255
0.931999 -1.11749  5.58824 255 255 255
 1.54228 -1.22998  4.86963 255 255 255
0.475814 -0.81914  5.77001 255 255 255
 1.65335 -1.17794  5.30797 255 255 255
 1.01893 -1.09054   5.7262 255 255 255
 1.02825 -1.24378  4.98258 255 255 255
 1.65792 -1.23618   4.9623 255 255 255
  1.0222 -1.24606  4.86152 255 255 255
0.888702 -1.22857  5.26266 255 255 255
 1.70624 -1.19577  5.13833 255 255 255
 0.465478 -0.854094   5.36302 255 255 255
0.941044  -1.0958  5.69429 255 255 255
 1.45562 -1.15502  5.55257 255 255 255
 1.96969 -1.13968  5.40244 255 255 255
 1.09219 -1.27498  5.25941 255 255 255
 1.48651 -1.17681  5.35056 255 255 255
 1.88678 -1.17357  5.19933 255 255 255
 1.10935 -1.21984  5.04487 255 255 255
 1.57718 -1.15091  5.53224 255 255 255
 1.39709 -1.27703  4.80595 255 255 255
 1.16959 -1.21528  4.94736 255 255 255
 1.58997 -1.24836  5.11013 255 255 255
 1.58083 -1.18206  5.28923 255 255 255
  0.42227 -0.758681   5.35282 255 255 255
 1.51383 -1.22986    4.965 255 255 255
 0.464554 -0.779294    5.5805 255 255 255
 0.313134 -0.836439   5.24503 255 255 255
 0.437382 -0.855569    5.4067 255 255 255
 0.455135 -0.885921   5.34982 255 255 255
 0.480649 -0.823415   5.64391 255 255 255
 1.97635 -1.13874  5.38525 255 255 255
0.549539 -0.85604  5.55311 255 255 255
 1.24162 -1.25351  4.82702 255 255 255
 1.85486 -1.18569  5.14377 255 255 255
 0.394516 -0.833945   5.43134 255 255 255
0.849298 -1.22826  5.33468 255 255 255
  1.3522 -1.31227   5.4391 255 255 255
 1.33677 -1.24477  4.84474 255 255 255
 0.520821 -0.980509   5.34322 255 255 255
 1.72071 -1.20889  5.04025 255 255 255
 0.603236 -0.916954   5.56651 255 255 255
 1.50887 -1.17485  5.36603 255 255 255
 1.08521 -1.17845  5.41641 255 255 255
  0.49327 -0.819687   5.74353 255 255 255
 1.70263 -1.17906  5.23578 255 255 255
 0.535058 -0.957987    5.3942 255 255 255
 1.35967 -1.32837  5.48813 255 255 255
 1.95565 -1.14531  5.34153 255 255 255
0.426057 -1.06105   5.1047 255 255 255
 2.01706 -1.13607   5.3967 255 255 255
 0.433904 -0.842408   5.35761 255 255 255
 0.523124 -0.847432   5.73479 255 255 255
1.08261 -1.1229 5.68312 255 255 255
 1.55466 -1.22577  4.96049 255 255 255
 1.73569 -1.15904  5.36845 255 255 255
 0.509477 -0.872757   5.46221 255 255 255
0.963145 -1.23922  4.88415 255 255 255
0.854082 -1.24372  5.26184 255 255 255
 1.68137 -1.21875  5.03809 255 255 255
 1.99787 -1.15885  5.30212 255 255 255
  1.8402 -1.14622   5.4446 255 255 255
 1.67267 -1.17049  5.35106 255 255 255
  1.7179 -1.15941  5.31824 255 255 255
 1.74032 -1.17314  5.28882 255 255 255
 0.356301 -0.904734   5.18353 255 255 255
 1.54703 -1.21171  5.07883 255 255 255
 0.560566 -0.875385   5.52577 255 255 255
1.89369 -1.1659 5.27031 255 255 255
 1.82261 -1.16432  5.30696 255 255 255
 0.523201 -0.763344   5.63557 255 255 255
 1.69951 -1.15261  5.46725 255 255 255
0.457206 -0.79137  5.61109 255 255 255
 1.45644 -1.24444  4.84174 255 255 255
 0.502885 -0.762326   5.60161 255 255 255
 1.72826 -1.17981  5.23431 255 255 255
0.895018 -1.24536   5.1939 255 255 255
 1.35818 -1.16869  5.52656 255 255 255
 1.20714 -1.13237   5.6441 255 255 255
0.736404 -1.25757  4.95062 255 255 255
 1.39188 -1.25728  4.86308 255 255 255
0.931879 -1.24149  5.08302 255 255 255
  1.0963 -1.14321  5.57677 255 255 255
0.514352 -1.09634  5.17794 255 255 255
0.634501 -1.09431  5.34677 255 255 255
 1.35426 -1.36079   5.6083 255 255 255
 1.37461 -1.35786  5.59018 255 255 255
 0.60678 -1.26706  5.24225 255 255 255
1.03895 -1.2358 4.85352 255 255 255
 1.04013 -1.15629  5.51028 255 255 255
 1.29044 -1.32753  5.37251 255 255 255
 0.543222 -0.835041   5.57405 255 255 255
0.536281 -1.28168  5.05152 255 255 255
 1.57847 -1.18627  5.23543 255 255 255
 1.49594 -1.21854  5.00448 255 255 255
 1.94285 -1.17452  5.26925 255 255 255
0.852755 -1.06359  5.79937 255 255 255
 1.46145 -1.15731  5.56742 255 255 255
 1.33409 -1.22661   5.1507 255 255 255
 1.77588 -1.19044  5.11667 255 255 255
 0.457622 -0.801356   5.35279 255 255 255
 2.00253 -1.14224  5.37536 255 255 255
0.492584 -1.06286  5.22581 255 255 255
0.866548 -1.25584  5.13635 255 255 255
 0.483247 -0.921961   5.33659 255 255 255
 1.52501 -1.23371  4.99035 255 255 255
 0.591753 -0.998084   5.46746 255 255 255
 0.554675 -0.998611   5.39538 255 255 255
2.06845 -1.1531 5.33418 255 255 255
 1.08658 -1.27949  5.29501 255 255 255
 1.81821 -1.14196  5.44388 255 255 255
 1.69941 -1.20903  5.02236 255 255 255
 1.71643 -1.15018  5.44268 255 255 255
 0.497264 -0.761264   5.61645 255 255 255
 2.01891 -1.15346   5.3348 255 255 255
 1.6999 -1.1894 5.19005 255 255 255
 1.78156 -1.14781  5.41233 255 255 255
0.442636 -1.20435   5.1079 255 255 255
 1.20055 -1.15611  5.53246 255 255 255
 1.15556 -1.17805  5.37927 255 255 255
  1.9656 -1.16619  5.24377 255 255 255
 1.06611 -1.25692  5.30405 255 255 255
0.409137 -0.78384  5.53532 255 255 255
0.884793 -1.24989  5.17647 255 255 255
 2.00641 -1.14734  5.31589 255 255 255
0.676515  -1.0416  5.66341 255 255 255
 1.76928 -1.15767  5.36105 255 255 255
 0.84209 -1.24851  5.22256 255 255 255
 0.586519 -0.842809   5.61964 255 255 255
 1.04782 -1.22604  5.03518 255 255 255
 0.533749 -0.879374   5.46032 255 255 255
 0.535594 -0.811451   5.59106 255 255 255
 0.475285 -0.821922   5.39454 255 255 255
0.964898 -1.07375  5.77247 255 255 255
 1.50609 -1.21621  5.01857 255 255 255
 0.474795 -0.826618   5.77953 255 255 255
 1.85526 -1.14852  5.42175 255 255 255
  0.62127 -0.914236   5.61305 255 255 255
1.12736 -1.1204 5.67662 255 255 255
0.698691 -1.25454  4.96703 255 255 255
 1.38722 -1.34693  5.55598 255 255 255
 1.32544 -1.32492  5.49486 255 255 255
  1.0516 -1.24194  5.15188 255 255 255
0.911786 -1.06831  5.79044 255 255 255
0.411755 -1.01254  5.09729 255 255 255
 0.530603 -0.740943   5.68609 255 255 255
 1.53482 -1.23316  4.89412 255 255 255
 1.18348 -1.16566   5.4738 255 255 255
  1.3991 -1.33216  5.47822 255 255 255
0.752997 -1.00613  5.52965 255 255 255
0.667678 -1.15822  5.37319 255 255 255
 1.65508 -1.21475  4.99615 255 255 255
0.515934 -1.14864  5.25475 255 255 255
 0.585845 -0.881769   5.63029 255 255 255
 1.10106 -1.15316  5.52374 255 255 255
0.692747 -1.25552  4.99912 255 255 255
0.781075 -1.06147  5.67486 255 255 255
 1.53163 -1.15541  5.52549 255 255 255
0.567993 -0.87225  5.64011 255 255 255
0.799134 -1.10344   5.5667 255 255 255
 1.43044 -1.22134  4.96414 255 255 255
0.849949 -1.05821  5.75999 255 255 255
0.454162 -0.85835  5.37506 255 255 255
0.472863 -0.97389  5.23491 255 255 255
 0.407621 -0.964904   5.20403 255 255 255
 1.66876 -1.15643  5.41044 255 255 255
0.887965 -1.23112  5.10647 255 255 255
0.861649 -1.22698  5.20493 255 255 255
1.06223  -1.255 5.22913 255 255 255
 2.01559 -1.16546   5.2981 255 255 255
 1.39798 -1.33932  5.48958 255 255 255
  1.5583 -1.24133  4.84756 255 255 255
 0.620458 -0.998501    5.4128 255 255 255
 0.664174 -0.602458   5.81008 255 255 255
0.862369 -1.19686  4.90394 255 255 255
 1.14287 -1.25513  5.14105 255 255 255
 1.80377 -1.14801  5.39665 255 255 255
0.503658 -1.08418   5.1571 255 255 255
 0.665718 -0.781418   5.66834 255 255 255
 0.538504 -0.930031    5.4408 255 255 255
 1.01346 -1.23661  5.35239 255 255 255
 0.744761 -0.681811   5.79854 255 255 255
 1.61253 -1.27223  5.01947 255 255 255
0.826357 -1.23563  5.08611 255 255 255
 0.316707 -0.883645   5.40284 255 255 255
 1.34264 -1.17941    5.536 255 255 255
 0.342847 -0.962539   5.16103 255 255 255
 1.53289 -1.20519  5.08237 255 255 255
 1.18751 -1.18768  4.88912 255 255 255
 0.587271 -0.956244   5.43386 255 255 255
1.32425 -1.3263 5.50724 255 255 255
 1.11334 -1.20946   4.9176 255 255 255
 0.411638 -0.821846   5.40764 255 255 255
 0.511097 -0.831328   5.74316 255 255 255
 0.535131 -0.962487   5.35821 255 255 255
1.18387 -1.2175 5.02436 255 255 255
   0.4685 -0.975593   5.22266 255 255 255
  0.57054 -0.865326   5.56427 255 255 255
 1.75333 -1.15714  5.38031 255 255 255
 1.04183 -1.23573  5.16665 255 255 255
  1.3884 -1.22904  5.09599 255 255 255
 0.476739 -0.963616   5.25329 255 255 255
 0.87741 -1.24729  5.18705 255 255 255
1.21707 -1.3127 5.24916 255 255 255
  1.0776 -1.16125  5.51254 255 255 255
 1.09578 -1.23723   5.2249 255 255 255
 0.523347 -0.851327    5.5328 255 255 255
 0.297725 -0.943071   5.16583 255 255 255
 0.86214 -1.26157  5.15433 255 255 255
 1.14444 -1.23691  5.16263 255 255 255
 0.460381 -0.973172   5.21537 255 255 255
0.906678 -1.06973  5.75192 255 255 255
0.987395 -1.23031   5.2673 255 255 255
 0.515206 -0.956651   5.32413 255 255 255
 0.323814 -0.961634     5.226 255 255 255
 0.67335 -0.90776   5.5764 255 255 255
 0.532023 -0.806583   5.58427 255 255 255
0.541223 -1.23542  5.25659 255 255 255
 0.65751 -1.00934  5.44176 255 255 255
 0.470976 -0.767273   5.46392 255 255 255
 0.87459 -1.16513  5.50742 255 255 255
 1.39463 -1.18326  5.37919 255 255 255
0.995047 -1.22073  4.99941 255 255 255
1.73429 -1.1634  5.3497 255 255 255
0.875048 -1.18461   5.1467 255 255 255
 1.37434 -1.23614  4.96804 255 255 255
 1.27887 -1.31616  5.44948 255 255 255
0.774114 -1.24604   5.2192 255 255 255
 0.535828 -0.851303   5.53919 255 255 255
0.924845 -1.20033  5.42418 255 255 255
0.835128 -1.23288  5.04533 255 255 255
0.930536 -1.23406   5.0062 255 255 255
 1.53293 -1.23844  5.02347 255 255 255
 1.53668 -1.22062  5.05816 255 255 255
 1.57942 -1.18202  5.27623 255 255 255
 0.600536 -0.918029   5.54422 255 255 255
1.73514 -1.1527 5.44264 255 255 255
 1.53686 -1.22587   4.9777 255 255 255
  0.50419 -0.830901   5.74704 255 255 255
 1.38471 -1.27862  4.78712 255 255 255
 0.639593 -0.539502   5.84066 255 255 255
0.716072 -1.00555  5.49398 255 255 255
 1.35418 -1.27338   4.8449 255 255 255
0.931255 -1.22661  4.99351 255 255 255
 1.36084 -1.31451  5.34835 255 255 255
 2.04662 -1.15529  5.33495 255 255 255
0.967977 -1.22017  5.11326 255 255 255
 0.440822 -0.834705   5.33956 255 255 255
 0.401466 -0.822083   5.46146 255 255 255
0.671773 -1.00409  5.44624 255 255 255
0.785671 -1.06356  5.68946 255 255 255
0.731183 -1.05419  5.68886 255 255 255
 1.54403 -1.20147  5.12759 255 255 255
0.590417 -1.30816  5.20925 255 255 255
 1.56166 -1.22316  4.90399 255 255 255
0.866128 -1.07884  5.72521 255 255 255
0.701859 -1.23385  5.13486 255 255 255
 1.25599 -1.29306  5.27153 255 255 255
0.843898 -1.06001  5.74797 255 255 255
 1.03529 -1.24101  5.21107 255 255 255
0.635487 -0.96897  5.47414 255 255 255
 1.79403 -1.16137   5.2807 255 255 255
 1.96518 -1.16522  5.25848 255 255 255
 1.07739 -1.16999  5.41122 255 255 255
  1.3471 -1.34585  5.54926 255 255 255
 0.536321 -0.938414   5.40034 255 255 255
1.72002 -1.1572 5.39299 255 255 255
0.621746 -1.10477   5.4434 255 255 255
 1.67318 -1.15219  5.47685 255 255 255
0.548106 -0.85718  5.74554 255 255 255
 1.13973 -1.17928  5.38413 255 255 255
0.779203 -1.04989  5.74993 255 255 255
 1.31396 -1.29359  5.20808 255 255 255
0.812726 -1.24915  5.12089 255 255 255
  0.47569 -0.849458   5.44193 255 255 255
  1.3579 -1.33854  5.52202 255 255 255
0.916364 -1.21039  5.37513 255 255 255
 1.12528 -1.20371    5.224 255 255 255
 1.24277 -1.27982  5.12552 255 255 255
0.656973 -1.03165  5.38793 255 255 255
 1.91712 -1.14432  5.34373 255 255 255
0.932266 -1.11839  5.57175 255 255 255
 1.30129 -1.27384  5.14846 255 255 255
 0.474197 -0.822993   5.50165 255 255 255
0.714504 -1.23306  5.16226 255 255 255
0.867518  -0.9934  5.63904 255 255 255
0.973778  -1.2236  5.19219 255 255 255
 1.98263 -1.15862  5.29051 255 255 255
 0.52791 -1.14372  5.28276 255 255 255
 1.15719 -1.18895  5.29581 255 255 255
 1.60302 -1.14786      5.5 255 255 255
0.872384 -1.06102  5.80078 255 255 255
 1.25185 -1.25386  4.91723 255 255 255
 1.36553 -1.32403  5.47655 255 255 255
 0.513803 -0.890436   5.37358 255 255 255
  1.1804 -1.20187   5.2597 255 255 255
 1.25465 -1.30228  5.36906 255 255 255
 0.467128 -0.872394   5.39452 255 255 255
0.992905 -1.25198  4.89316 255 255 255
0.740388  -1.2537  5.09051 255 255 255
 1.05225 -1.26109  4.88201 255 255 255
 1.87552 -1.14165  5.38941 255 255 255
0.770736 -1.08925  5.51779 255 255 255
 0.494312 -0.992554   5.29026 255 255 255
 1.25882 -1.14728  5.44763 255 255 255
