ply
format ascii 1.0
element vertex 1198
property float x
property float y
property float z
property uchar red
property uchar green
property uchar blue
end_header
0.688645 0.854027  1.46724 255 255 255
0.657697 0.830377   1.4734 255 255 255
 0.8389 1.17911 1.36991 255 255 255
0.506678 0.786959  1.53801 255 255 255
0.738529  1.37529  1.46885 255 255 255
0.676812  1.46052  1.50605 255 255 255
0.452031  1.45028  1.58001 255 255 255
0.599063  1.48297  1.54106 255 255 255
0.655887 0.790677  1.47924 255 255 255
0.832917  1.20387  1.39113 255 255 255
0.711722  1.15802  1.45293 255 255 255
0.523272 0.701371  1.53312 255 255 255
0.525956 0.657154  1.54863 255 255 255
0.807633 0.633996   1.5054 255 255 255
0.697384  1.41799  1.49392 255 255 255
0.792413 0.783576  1.44621 255 255 255
0.482595  1.29226  1.55835 255 255 255
0.812632   1.0382  1.35205 255 255 255
0.250923    1.289  1.33906 255 255 255
0.494407 0.664341   1.5664 255 255 255
0.491551 0.665342  1.56349 255 255 255
0.494775  1.21998  1.54184 255 255 255
 0.77775 0.663917  1.46166 255 255 255
0.838964  1.27174   1.4264 255 255 255
0.526073  1.02588   1.4166 255 255 255
0.621014  1.47893  1.53091 255 255 255
 0.45448 0.802534  1.54382 255 255 255
0.622777 0.809348  1.48591 255 255 255
0.517336  1.04216  1.41596 255 255 255
0.450786   1.4038  1.57093 255 255 255
0.495151  1.36326  1.55542 255 255 255
0.681704 0.858178  1.47089 255 255 255
0.685252 0.709319  1.46514 255 255 255
0.793291  1.47474  1.47544 255 255 255
0.856372  1.32478  1.43471 255 255 255
 0.43268 0.730258  1.59368 255 255 255
0.770194 0.789286  1.45284 255 255 255
0.543602 0.699831  1.53539 255 255 255
0.616243  1.52253  1.54968 255 255 255
0.824447 0.661883  1.48006 255 255 255
0.668686  1.36437  1.49621 255 255 255
0.936783  1.51302   1.5219 255 255 255
0.732145   1.1093  1.43999 255 255 255
0.369628 0.948303   1.5523 255 255 255
0.790623 0.977951  1.37509 255 255 255
0.431575  1.19021  1.60891 255 255 255
0.772012 0.810462  1.44275 255 255 255
0.628047  0.80041  1.48424 255 255 255
0.206764  1.35926   1.1946 255 255 255
0.781826  1.47323  1.47822 255 255 255
0.723587  1.14269  1.44633 255 255 255
0.234474  1.38763  1.26033 255 255 255
0.52582 1.40033 1.54561 255 255 255
0.493347 0.988296  1.43005 255 255 255
0.469954  1.46613   1.5842 255 255 255
0.485526  1.29266   1.5531 255 255 255
0.412895 0.704328  1.64569 255 255 255
0.552628  1.11465  1.41054 255 255 255
0.259613  1.29375  1.29243 255 255 255
0.469766  1.15051   1.5836 255 255 255
0.461428 0.885267  1.44726 255 255 255
0.761057  1.16217  1.44317 255 255 255
0.734062  1.28903  1.45911 255 255 255
0.286404   1.2845  1.29681 255 255 255
0.807405 0.693983  1.46405 255 255 255
0.705165 0.642926  1.49191 255 255 255
0.671056 0.726753  1.48092 255 255 255
0.292306  1.25935  1.32825 255 255 255
0.801609 0.716079  1.45218 255 255 255
0.225667  1.29195  1.30872 255 255 255
0.420135 0.834357  1.55121 255 255 255
0.596238 0.698406  1.51365 255 255 255
0.727915 0.820432  1.45484 255 255 255
0.789573 0.797316  1.44775 255 255 255
0.774086 0.732955  1.45072 255 255 255
0.561235  1.30535  1.52295 255 255 255
0.485962 0.668838  1.56574 255 255 255
0.500881    1.326  1.54005 255 255 255
0.572313  1.47346  1.54917 255 255 255
0.790495 0.905558  1.37665 255 255 255
0.773687  1.41388  1.46772 255 255 255
0.538478  1.45318   1.5582 255 255 255
0.676717 0.715039  1.48038 255 255 255
0.74313 1.36882 1.47215 255 255 255
0.747029  1.38424  1.47034 255 255 255
0.332571  1.20672   1.4148 255 255 255
0.597761 0.800603  1.50924 255 255 255
0.804852  1.00964  1.35445 255 255 255
0.702631  1.13742  1.45575 255 255 255
0.926658  1.49939  1.52098 255 255 255
0.459034 0.806604  1.54493 255 255 255
0.544784  1.51105  1.56782 255 255 255
0.826743  1.02894  1.41405 255 255 255
0.493947 0.865954  1.52152 255 255 255
0.685313 0.816341  1.46445 255 255 255
0.883809  1.36605  1.44112 255 255 255
0.711758  1.14297  1.44598 255 255 255
0.571736  1.36259  1.52687 255 255 255
 0.46399 0.730535  1.56192 255 255 255
0.741546  1.41323  1.47824 255 255 255
0.506456  1.31999  1.54619 255 255 255
0.875275  1.38973  1.47834 255 255 255
0.559916  1.50556  1.55989 255 255 255
0.610468  0.63527  1.52753 255 255 255
0.685293  1.33661   1.4844 255 255 255
0.691178 0.631409  1.49429 255 255 255
0.741101   1.3952   1.4752 255 255 255
0.193178  1.36443  1.19176 255 255 255
0.667769 0.852189  1.47385 255 255 255
0.531714 0.708312  1.54362 255 255 255
0.673425  1.21403  1.46861 255 255 255
0.590505  0.69587  1.51433 255 255 255
0.489424  1.26026  1.55062 255 255 255
0.372978 0.912053  1.56346 255 255 255
0.804381  1.02187  1.35665 255 255 255
 0.55486 0.939152   1.4162 255 255 255
0.562339  1.35924  1.53337 255 255 255
 0.64083 0.638337  1.51879 255 255 255
0.827242  1.45035  1.45775 255 255 255
0.573602  1.28853  1.51802 255 255 255
0.230994  1.34304  1.21725 255 255 255
0.638833 0.847011  1.48363 255 255 255
0.486167  1.46944   1.5723 255 255 255
0.743384 0.922495  1.43838 255 255 255
0.807871  1.06924  1.36594 255 255 255
0.485779  1.45808   1.5672 255 255 255
0.739611 0.961791  1.44391 255 255 255
0.284468  1.25103  1.34592 255 255 255
0.79603 1.37729 1.46264 255 255 255
0.725543  1.11172  1.46137 255 255 255
0.701252  1.26918  1.46568 255 255 255
0.408259 0.747806  1.62961 255 255 255
 0.44113 0.681577  1.58751 255 255 255
0.419826 0.694092  1.61025 255 255 255
0.660538 0.848746  1.47645 255 255 255
0.539347   1.3766  1.54042 255 255 255
0.664135   1.5142  1.53453 255 255 255
0.23806 1.36692 1.28194 255 255 255
0.797753  1.00498  1.36827 255 255 255
0.749528  1.47236  1.49147 255 255 255
 0.78279 0.763689   1.4503 255 255 255
 0.82903 0.646715  1.47148 255 255 255
0.827201 0.658614  1.46758 255 255 255
0.443206  1.38182  1.58726 255 255 255
0.519587   1.5267  1.59053 255 255 255
0.468296  1.42243  1.56791 255 255 255
0.701199  0.63758  1.49509 255 255 255
0.776285 0.766273  1.45748 255 255 255
0.563602  1.49365  1.55081 255 255 255
0.763335 0.719912  1.45844 255 255 255
0.692601  1.50579  1.53065 255 255 255
0.693646  1.26885  1.46633 255 255 255
0.54993 1.39823 1.53944 255 255 255
0.537226  1.44863  1.56042 255 255 255
0.510549  1.42382  1.55383 255 255 255
0.712545  1.36073  1.47439 255 255 255
0.600873 0.759573  1.50359 255 255 255
0.522195  1.37413  1.54567 255 255 255
0.455021  1.04099   1.4314 255 255 255
0.429412  0.75393  1.60877 255 255 255
0.602811  1.49956  1.54386 255 255 255
0.845499  1.32141  1.44695 255 255 255
0.72782 1.39005 1.48024 255 255 255
0.683279  1.41552  1.50472 255 255 255
0.800263  1.43309  1.46847 255 255 255
0.800263  1.43309  1.46847 255 255 255
0.760451 0.838936  1.43646 255 255 255
0.530413 0.782457  1.50967 255 255 255
0.813761  1.19544  1.40929 255 255 255
0.771452 0.774697  1.44832 255 255 255
0.401116  1.05327   1.5524 255 255 255
0.807719   1.0861  1.37649 255 255 255
0.613317 0.757742  1.49435 255 255 255
0.698603 0.645051  1.49236 255 255 255
0.90207 1.44402 1.49634 255 255 255
0.806192 0.724656  1.44127 255 255 255
0.729097 0.711561  1.46641 255 255 255
0.870653  1.33649  1.43082 255 255 255
0.824973  1.23301  1.41469 255 255 255
0.490033  1.23932   1.5515 255 255 255
0.516226  1.49347  1.58252 255 255 255
0.581364  1.41109   1.5357 255 255 255
0.690545  1.49203  1.51457 255 255 255
0.889626  1.40295  1.47513 255 255 255
0.724493  0.83018  1.45272 255 255 255
0.704204  1.12117  1.45344 255 255 255
0.228354  1.34782  1.20729 255 255 255
0.959126  1.55231  1.53798 255 255 255
0.382226 0.987005  1.57691 255 255 255
0.475868  1.01834  1.48154 255 255 255
0.690616 0.801995  1.45669 255 255 255
0.755115  1.38553  1.46133 255 255 255
0.519424  1.02643  1.42019 255 255 255
0.68187 1.33292 1.48565 255 255 255
0.410839 0.848462  1.55611 255 255 255
0.952141  1.52699  1.52125 255 255 255
0.611217 0.687901  1.51328 255 255 255
0.335143  1.10221   1.5008 255 255 255
0.534844 0.723781  1.53418 255 255 255
0.716443  1.36162  1.47218 255 255 255
0.550145  1.34867  1.52895 255 255 255
0.603621  1.48004  1.54281 255 255 255
0.682083  1.23964  1.46763 255 255 255
0.675219  1.46468  1.51006 255 255 255
0.586615 0.657405  1.52861 255 255 255
0.58497 1.52108 1.55767 255 255 255
0.716537  1.38377  1.48103 255 255 255
0.289046  1.27847  1.29794 255 255 255
0.659508   1.3897   1.4981 255 255 255
0.240536   1.3786  1.25675 255 255 255
0.485392  1.45438  1.56377 255 255 255
0.498787 0.970475  1.41855 255 255 255
0.701049  1.15429  1.45738 255 255 255
0.709965  1.40464  1.48657 255 255 255
0.247623  1.31079  1.26567 255 255 255
0.533146 0.653323  1.54755 255 255 255
0.438359  0.94412  1.42964 255 255 255
0.637655  1.53022  1.54885 255 255 255
0.835894  1.31446  1.45039 255 255 255
  0.4852 0.802055  1.54462 255 255 255
0.763322  1.43698   1.4813 255 255 255
0.574143  1.49983  1.55675 255 255 255
 0.80966 0.897338  1.43323 255 255 255
 0.42002 0.920299  1.52342 255 255 255
0.523749  1.50612  1.59808 255 255 255
0.779084   1.3993   1.4668 255 255 255
0.485228  1.47393  1.57524 255 255 255
0.780095  1.26399  1.45047 255 255 255
0.548474  1.47334  1.55571 255 255 255
0.791421 0.948151  1.37645 255 255 255
0.657572 0.804361  1.47335 255 255 255
0.531703  1.52703  1.58682 255 255 255
0.762994  1.08724  1.42357 255 255 255
0.723408  1.36807   1.4687 255 255 255
0.516243 0.666558  1.54723 255 255 255
0.678094 0.634856  1.50419 255 255 255
0.766967  1.39649  1.47091 255 255 255
0.530944 0.707507  1.53954 255 255 255
0.792902  1.01069  1.37097 255 255 255
0.820457  1.05495  1.35037 255 255 255
0.616241  1.35612  1.50135 255 255 255
0.55476 1.01412 1.41813 255 255 255
0.831691  1.15804  1.36661 255 255 255
0.782505  1.18066  1.43619 255 255 255
0.727384 0.847964  1.45686 255 255 255
0.767915  1.41389  1.47738 255 255 255
0.85035 1.28828 1.43002 255 255 255
0.829218  1.29713  1.45194 255 255 255
0.680081 0.657261  1.48866 255 255 255
0.385379  1.20749  1.54327 255 255 255
 0.8754 1.37199 1.46324 255 255 255
0.400747  0.73841  1.64134 255 255 255
0.481774  1.05256  1.41776 255 255 255
0.561306  1.42707  1.54536 255 255 255
0.723571  1.28905  1.46258 255 255 255
0.551605  1.35298  1.53165 255 255 255
0.283553  1.30368  1.33727 255 255 255
0.647532  1.52959  1.54497 255 255 255
0.576341  1.46575  1.54646 255 255 255
0.709187  1.36138  1.48241 255 255 255
0.632025 0.767126  1.48426 255 255 255
0.519137  1.40847  1.55256 255 255 255
0.490475  1.25381  1.55315 255 255 255
0.352896  1.20068  1.40644 255 255 255
0.83712 1.33469 1.45598 255 255 255
0.759348  1.19118  1.44399 255 255 255
0.65546 1.21897 1.49363 255 255 255
0.695697  1.44163  1.50158 255 255 255
0.550132  1.38313  1.54202 255 255 255
0.445006  1.39657  1.57182 255 255 255
0.909596    1.434   1.4827 255 255 255
0.619262  1.49458  1.53329 255 255 255
0.785856  1.42778  1.47138 255 255 255
0.562526 0.999432   1.4068 255 255 255
0.728557 0.667288  1.47737 255 255 255
0.752051  1.32822  1.47056 255 255 255
0.75052 1.32826 1.46946 255 255 255
0.836459  1.09846  1.34154 255 255 255
0.823657  1.17283  1.38007 255 255 255
0.700462  1.49311  1.50897 255 255 255
0.443865 0.854109  1.44735 255 255 255
0.492769 0.679474  1.56347 255 255 255
0.496703 0.693518  1.55141 255 255 255
0.664103  1.52714  1.54412 255 255 255
0.430201 0.724006  1.62362 255 255 255
0.85614 1.35683 1.46994 255 255 255
0.669211  1.39008  1.49847 255 255 255
0.837592  1.06263  1.41482 255 255 255
0.829147  1.12371  1.35637 255 255 255
0.751684  1.42965  1.48594 255 255 255
0.770282 0.945694  1.39917 255 255 255
0.439479  1.20365  1.59594 255 255 255
0.797106 0.744645  1.44292 255 255 255
0.790207  1.10557  1.40032 255 255 255
0.494658 0.701964  1.55317 255 255 255
0.558935  1.38335  1.54013 255 255 255
0.488829  1.28163  1.55444 255 255 255
0.191954  1.36845  1.18475 255 255 255
0.280835  1.27221  1.31545 255 255 255
0.803352  1.13204   1.3943 255 255 255
0.293658  1.26627  1.35657 255 255 255
0.737372 0.843362   1.4482 255 255 255
0.561692  1.00037  1.41589 255 255 255
0.481939 0.699762   1.5607 255 255 255
0.70162 1.53315 1.52927 255 255 255
0.931646  1.50244  1.51873 255 255 255
0.414484 0.958254  1.45367 255 255 255
0.629814 0.999939  1.40328 255 255 255
0.433755  1.22155  1.61776 255 255 255
0.445267 0.730336  1.57427 255 255 255
 0.67084 0.679146  1.46111 255 255 255
0.827474  1.04072  1.33477 255 255 255
0.21254 1.35559 1.20133 255 255 255
0.713746  1.35811  1.47985 255 255 255
0.757744 0.638793  1.47442 255 255 255
0.757744 0.638793  1.47442 255 255 255
0.70837 1.04828 1.43977 255 255 255
0.369232 0.906207   1.5608 255 255 255
0.825018  1.03219   1.3362 255 255 255
0.730095 0.972015  1.43468 255 255 255
0.414034 0.741895  1.63138 255 255 255
0.27042 1.29605 1.28266 255 255 255
0.757834 0.658456   1.4737 255 255 255
0.392206 0.898492  1.54784 255 255 255
0.717901  1.17183  1.45401 255 255 255
0.272586  1.30102  1.27398 255 255 255
0.535592  1.48472  1.57442 255 255 255
0.635252  1.38433  1.50976 255 255 255
0.848285 0.601223  1.49762 255 255 255
0.494963  1.46898  1.56323 255 255 255
0.740705  1.37275  1.47502 255 255 255
0.734477   1.3168  1.47341 255 255 255
0.806194  1.02677  1.36108 255 255 255
0.377217 0.943082  1.54342 255 255 255
0.590969 0.760545  1.51416 255 255 255
0.465162 0.722696  1.56688 255 255 255
0.471991  1.20583  1.60258 255 255 255
0.880468  1.38955  1.47386 255 255 255
0.653364  1.51144  1.54523 255 255 255
0.248016  1.31342   1.2641 255 255 255
0.26534 1.28843 1.35882 255 255 255
0.574394 0.649603  1.53057 255 255 255
0.552488 0.739316  1.53455 255 255 255
0.238219  1.36762  1.27345 255 255 255
0.541063  1.40729   1.5461 255 255 255
0.457816 0.999938  1.43944 255 255 255
0.759519  1.29337  1.46037 255 255 255
0.847419  1.32974  1.44957 255 255 255
0.444141  1.16641  1.59132 255 255 255
0.941648  1.49567  1.50673 255 255 255
0.289636  1.26027  1.38449 255 255 255
0.688622  1.52586  1.53442 255 255 255
0.265709  1.28738   1.3528 255 255 255
0.695441  1.27949  1.47087 255 255 255
0.678902  1.32863  1.49146 255 255 255
0.871966  1.36581  1.43368 255 255 255
0.71252 1.38838 1.48218 255 255 255
0.444404 0.708833    1.578 255 255 255
0.640881  1.46493  1.52724 255 255 255
0.447841 0.855563  1.44652 255 255 255
0.839701  1.16754  1.42041 255 255 255
0.213224  1.36516  1.18146 255 255 255
0.823077  1.45185  1.46045 255 255 255
0.561109 0.696868  1.51871 255 255 255
0.579481 0.999153  1.40994 255 255 255
0.482924   1.0503  1.41444 255 255 255
0.789245  1.21773  1.44273 255 255 255
0.617225  1.37429  1.51692 255 255 255
0.844513  1.24178  1.39767 255 255 255
0.490978 0.684244  1.55821 255 255 255
0.53305 1.00501 1.42228 255 255 255
0.643255  1.51453  1.54538 255 255 255
0.782933  1.29274  1.45475 255 255 255
0.521529 0.982242  1.41721 255 255 255
0.871993  1.36356  1.43781 255 255 255
0.567926  1.35818  1.52701 255 255 255
0.827729 0.992806  1.42469 255 255 255
0.789755  1.27065  1.44956 255 255 255
0.723492  1.51833  1.50808 255 255 255
0.578041  1.03417  1.41053 255 255 255
0.694601  1.23158  1.46295 255 255 255
0.73874 1.17564 1.45176 255 255 255
0.217429  1.35159  1.20524 255 255 255
0.66135 1.41303 1.50521 255 255 255
0.493293  1.47667  1.56953 255 255 255
0.750933  1.09541  1.43482 255 255 255
0.517994  1.03485   1.4229 255 255 255
0.862702  1.30479  1.43357 255 255 255
0.664494  1.53345  1.54282 255 255 255
0.566015  1.11059  1.41043 255 255 255
0.705284  1.05209  1.44978 255 255 255
0.498256  1.33012   1.5486 255 255 255
0.448085  1.11157  1.54746 255 255 255
0.697165   1.4138  1.49215 255 255 255
0.724334   1.2484  1.45621 255 255 255
 0.53608 0.654388  1.54284 255 255 255
0.538675 0.653648  1.54529 255 255 255
0.968548  1.54733  1.52395 255 255 255
0.675437  1.33989  1.48845 255 255 255
0.382121  0.91168  1.54614 255 255 255
0.449403 0.723561   1.5694 255 255 255
0.467184 0.989033  1.43388 255 255 255
0.505013  1.30554  1.54575 255 255 255
 0.7494 1.03134  1.4362 255 255 255
0.232112  1.33429  1.23359 255 255 255
0.232543  1.34617  1.21006 255 255 255
0.659131  1.39862  1.50389 255 255 255
0.584581  0.67841  1.52493 255 255 255
0.408478  1.16861  1.60773 255 255 255
0.648833 0.835915   1.4807 255 255 255
0.526134  1.41784  1.55272 255 255 255
0.660999  1.06584  1.46691 255 255 255
0.432106 0.681489  1.59305 255 255 255
0.819125  1.38714  1.45404 255 255 255
0.839626  1.31639  1.44819 255 255 255
0.787423  1.19282  1.43899 255 255 255
0.57165 1.34347 1.52705 255 255 255
0.218107  1.38755  1.25961 255 255 255
0.825951  1.20683  1.43226 255 255 255
0.548523 0.993729  1.41494 255 255 255
 0.45691 0.696789   1.5764 255 255 255
0.567494  1.39756  1.53808 255 255 255
0.887936  1.43282  1.50144 255 255 255
0.438932  1.19137  1.59986 255 255 255
0.810747  1.22084  1.43044 255 255 255
0.52276 1.05204 1.41578 255 255 255
0.806299  1.01635  1.35707 255 255 255
0.227903   1.3838  1.25882 255 255 255
0.693432 0.813731  1.46119 255 255 255
0.831864  1.04851  1.32841 255 255 255
0.764703  1.39507  1.46356 255 255 255
0.526301 0.662361  1.55047 255 255 255
0.930721  1.48309  1.50215 255 255 255
0.867739  1.38443  1.43566 255 255 255
0.282993  1.26116  1.32875 255 255 255
0.754626 0.781969  1.45742 255 255 255
0.729216 0.981006  1.44179 255 255 255
0.589759  1.45558  1.53774 255 255 255
0.772482 0.947054   1.3969 255 255 255
0.540411  1.47148  1.55956 255 255 255
0.724437  1.36647  1.47352 255 255 255
0.432042  1.20276  1.59532 255 255 255
0.581318  1.27796  1.51596 255 255 255
0.569929  1.40152  1.53824 255 255 255
0.803157 0.722832  1.44745 255 255 255
0.813232  1.09101  1.36769 255 255 255
0.453199  1.37683  1.57798 255 255 255
0.257964  1.32541  1.32181 255 255 255
0.586304  1.37307  1.52994 255 255 255
0.318814  1.18503  1.43959 255 255 255
0.741224  1.39803  1.48269 255 255 255
0.586309 0.736815  1.51178 255 255 255
0.760506  1.39798  1.47702 255 255 255
0.490502 0.722884  1.55456 255 255 255
0.610396  1.37786  1.51924 255 255 255
0.487943  1.47565  1.56946 255 255 255
0.478724  1.03448  1.42667 255 255 255
0.75052  1.1735 1.44434 255 255 255
0.51416 1.38267 1.55418 255 255 255
0.427603 0.871557   1.4592 255 255 255
0.455718  1.01157  1.43422 255 255 255
0.48566 1.24231 1.54995 255 255 255
0.275287  1.35901  1.27201 255 255 255
0.454557 0.753205  1.55942 255 255 255
0.844578  1.31606  1.44669 255 255 255
0.395553 0.773578  1.63031 255 255 255
0.476085  1.04282  1.44395 255 255 255
0.760643 0.701244  1.46008 255 255 255
0.706573 0.833288  1.45847 255 255 255
0.533148  1.41171  1.54372 255 255 255
 0.41787 0.713463  1.63734 255 255 255
0.803778  1.04953    1.362 255 255 255
0.547674  1.51675  1.57028 255 255 255
0.838693  1.10803  1.41587 255 255 255
0.701296 0.621216  1.49849 255 255 255
0.695622  1.49913  1.51079 255 255 255
0.815664  1.05869  1.42014 255 255 255
0.752322  1.16245  1.45218 255 255 255
0.655721 0.855236  1.48042 255 255 255
0.454651  1.13301  1.58164 255 255 255
0.573304  1.46646  1.54818 255 255 255
0.841965  1.24817  1.40253 255 255 255
0.455828  0.98925  1.43875 255 255 255
0.406336 0.903596  1.54528 255 255 255
0.780811  1.27405  1.45249 255 255 255
0.414067  1.17642  1.60905 255 255 255
0.504683  1.21338  1.53749 255 255 255
0.690762  1.36637  1.48723 255 255 255
0.848275  1.34392  1.46795 255 255 255
0.720212 0.967482  1.44884 255 255 255
0.387408 0.947788    1.528 255 255 255
0.638501  1.32522  1.50234 255 255 255
0.552439  1.48352  1.55997 255 255 255
0.449659 0.726378  1.57164 255 255 255
0.418746  0.74668  1.62298 255 255 255
0.426215   1.0114  1.47564 255 255 255
0.408713 0.711006    1.643 255 255 255
0.639968  1.53402  1.54883 255 255 255
0.716204  1.24404  1.45781 255 255 255
0.803442 0.738977  1.44329 255 255 255
0.737322 0.938268  1.43801 255 255 255
0.22802 1.33725 1.23179 255 255 255
0.449281 0.735368  1.57107 255 255 255
0.652667 0.826004    1.477 255 255 255
0.370411 0.983341  1.58056 255 255 255
0.403415 0.991492  1.50215 255 255 255
0.50061 1.32153 1.55265 255 255 255
0.405448 0.775135  1.62195 255 255 255
0.681255 0.746821  1.47178 255 255 255
0.445808  1.47052  1.58542 255 255 255
0.848916  1.13562  1.33542 255 255 255
0.725609 0.811839  1.45145 255 255 255
0.662419 0.639405  1.51051 255 255 255
 0.81264 0.938543  1.42946 255 255 255
0.607065  1.33824  1.51703 255 255 255
0.536197 0.656764  1.54024 255 255 255
0.396014 0.941199  1.48229 255 255 255
0.652205 0.636648  1.51302 255 255 255
0.800056  1.03265  1.36995 255 255 255
0.823547  1.23919  1.42309 255 255 255
0.699374  0.77369  1.46541 255 255 255
0.420227 0.734216  1.63353 255 255 255
0.419202 0.734628  1.63275 255 255 255
0.407621 0.766778  1.61972 255 255 255
0.280624  1.29387  1.28684 255 255 255
0.452446  1.46925  1.58824 255 255 255
0.433672 0.854167  1.45003 255 255 255
0.544998  1.48302  1.56602 255 255 255
0.419658 0.673174  1.63393 255 255 255
0.515856 0.674074  1.54617 255 255 255
0.308171  1.26757  1.31198 255 255 255
0.635443 0.648115   1.5107 255 255 255
0.482875 0.981877  1.43142 255 255 255
0.776109  1.36333  1.46497 255 255 255
0.833309  1.14732  1.36298 255 255 255
0.826337  1.05829  1.33978 255 255 255
0.874105   1.3681  1.46255 255 255 255
0.391288  1.00752  1.52893 255 255 255
0.756222  1.38612  1.47364 255 255 255
0.835181  1.13928  1.35642 255 255 255
0.588245 0.643348  1.53419 255 255 255
0.404147 0.699662   1.6329 255 255 255
0.850812  1.34889   1.4551 255 255 255
0.766892 0.785351  1.45618 255 255 255
0.220089  1.35291  1.20511 255 255 255
0.303675   1.2819   1.3549 255 255 255
0.206039  1.37063  1.17343 255 255 255
0.359515 0.949969  1.56766 255 255 255
0.422691  0.70286   1.6292 255 255 255
0.794598 0.693661  1.44463 255 255 255
0.764874  1.48959  1.48693 255 255 255
0.781995   1.3862  1.46727 255 255 255
0.790837 0.765005  1.44522 255 255 255
0.401999 0.762565  1.62565 255 255 255
0.756401  1.10602  1.43114 255 255 255
0.718093  1.13987  1.44827 255 255 255
0.790367  1.31792  1.45394 255 255 255
0.736323  1.16431   1.4449 255 255 255
0.81957 1.09436 1.36176 255 255 255
0.553892  1.37571  1.53469 255 255 255
0.892053  1.43208  1.49714 255 255 255
0.833837  1.04704  1.41512 255 255 255
0.709167 0.624532  1.49299 255 255 255
0.418433  1.00603  1.46562 255 255 255
0.574009  1.45034  1.54663 255 255 255
0.448496  1.09302  1.44189 255 255 255
0.953718  1.53303  1.52415 255 255 255
0.515642  1.43322  1.55303 255 255 255
0.438176  1.07183   1.5499 255 255 255
0.893596  1.43645  1.49575 255 255 255
  0.6011 0.737109  1.50473 255 255 255
0.222697  1.34832  1.21059 255 255 255
0.736612   1.0085  1.43516 255 255 255
0.420103  1.17301  1.60829 255 255 255
0.221345  1.34909  1.20674 255 255 255
0.82497 1.23603 1.42367 255 255 255
0.557049  1.13392  1.41009 255 255 255
 0.78099 0.904155  1.39455 255 255 255
0.605257 0.654492  1.51841 255 255 255
0.427896 0.711745  1.58832 255 255 255
0.482129  1.16566  1.58722 255 255 255
0.485413  1.47534  1.57149 255 255 255
0.521167 0.701835  1.53902 255 255 255
0.291481  1.26483  1.32056 255 255 255
0.840315  1.14739  1.35001 255 255 255
0.809153  1.20726   1.4279 255 255 255
0.688219 0.706748  1.47816 255 255 255
0.483304 0.877228  1.52553 255 255 255
0.626078  1.53423  1.55362 255 255 255
0.48542 0.98821 1.43154 255 255 255
0.479854 0.976914  1.44801 255 255 255
0.248612  1.30461  1.27906 255 255 255
0.862617  1.31024  1.43009 255 255 255
0.872481  1.32136  1.43152 255 255 255
0.683976 0.727177  1.47921 255 255 255
0.245334  1.34699  1.30192 255 255 255
0.360561 0.962422  1.55494 255 255 255
0.378913 0.909738  1.56525 255 255 255
0.722236  1.17002  1.45225 255 255 255
0.520307 0.714701   1.5408 255 255 255
0.81898 1.21408 1.41563 255 255 255
0.486942  1.28379  1.55561 255 255 255
0.659965  1.06428  1.47054 255 255 255
0.380763 0.998206  1.58683 255 255 255
0.780865 0.665521  1.46113 255 255 255
0.693846 0.793456  1.46384 255 255 255
0.575936  1.49459  1.55441 255 255 255
0.261675  1.29714  1.28454 255 255 255
0.519749  1.40485  1.55586 255 255 255
0.744416  1.04073  1.43297 255 255 255
0.717534 0.811501  1.45617 255 255 255
0.693172  1.25334    1.466 255 255 255
0.926181  1.47381  1.49978 255 255 255
0.750215 0.980827  1.42087 255 255 255
0.832577  1.00967  1.41749 255 255 255
0.384322 0.923317  1.53399 255 255 255
0.470506 0.667717   1.5767 255 255 255
0.493781 0.723822  1.55288 255 255 255
0.446952 0.675755  1.58594 255 255 255
0.419968 0.988563  1.44837 255 255 255
0.597843 0.728843  1.50844 255 255 255
0.684355 0.931423  1.46131 255 255 255
0.849322  1.27273  1.41588 255 255 255
0.543184  1.39125  1.53926 255 255 255
0.546307 0.996169  1.41543 255 255 255
0.711783 0.977085  1.45837 255 255 255
0.702758  1.07168  1.45113 255 255 255
0.425238 0.682652  1.60405 255 255 255
0.732085  0.85721  1.45735 255 255 255
0.819683  1.14863  1.37842 255 255 255
 0.42392 0.917067  1.54488 255 255 255
0.46745 1.08758 1.43552 255 255 255
0.397961  1.03789  1.56065 255 255 255
0.415243  1.00729  1.51471 255 255 255
 0.76678 0.796112  1.45131 255 255 255
0.835582  1.10549  1.34406 255 255 255
0.829863  1.08401  1.33644 255 255 255
0.755272 0.658039  1.47644 255 255 255
0.753714 0.921691  1.43476 255 255 255
0.801357 0.998938  1.36422 255 255 255
0.603691 0.813799  1.50724 255 255 255
0.444708  1.13224  1.42781 255 255 255
0.624663 0.755221  1.48717 255 255 255
0.685802 0.932858    1.458 255 255 255
0.397268 0.781028  1.62693 255 255 255
0.786317  1.03001  1.38692 255 255 255
0.196497  1.37501  1.17104 255 255 255
0.927025  1.49816  1.51885 255 255 255
0.793081  1.06019  1.37964 255 255 255
0.250218  1.29467  1.29439 255 255 255
0.457969 0.941528   1.4306 255 255 255
 0.69665 0.946022  1.45349 255 255 255
0.717702  1.17961  1.45449 255 255 255
0.756379 0.776986  1.45186 255 255 255
0.391766   1.0485  1.57795 255 255 255
0.415228 0.872331  1.55688 255 255 255
0.969814  1.55258  1.52806 255 255 255
0.891856   1.4345  1.50091 255 255 255
0.946168  1.50957  1.51444 255 255 255
0.559877 0.699588  1.52565 255 255 255
0.709667  1.52461  1.51744 255 255 255
0.806876 0.706683  1.45807 255 255 255
0.494471  1.10329  1.44587 255 255 255
0.502262 0.677807  1.55374 255 255 255
0.645343  1.51175  1.54439 255 255 255
0.682284  1.35177  1.49145 255 255 255
0.841366  1.34677  1.46029 255 255 255
0.408608 0.678553  1.62404 255 255 255
0.396127  1.03859   1.5732 255 255 255
0.827983  0.70946  1.44139 255 255 255
0.818443  1.04296  1.34274 255 255 255
0.824289 0.869675   1.4178 255 255 255
0.755168 0.828954  1.44584 255 255 255
0.794629   1.1158   1.2826 255 255 255
0.844537  1.09995  1.41316 255 255 255
0.396698 0.891439  1.55477 255 255 255
0.785292   1.2073  1.44451 255 255 255
0.434195 0.723549  1.58295 255 255 255
0.590389 0.812936  1.50466 255 255 255
0.422464 0.722148  1.63247 255 255 255
0.507928 0.723316  1.54679 255 255 255
0.493898  1.46698  1.56535 255 255 255
0.816687 0.698922  1.45962 255 255 255
0.529479 0.696749  1.53692 255 255 255
0.19637 1.37071 1.17956 255 255 255
0.830914  1.29268  1.44665 255 255 255
0.853045  1.25968  1.39637 255 255 255
0.200724  1.37825  1.16258 255 255 255
0.959706  1.52886  1.51704 255 255 255
0.810461  1.03864  1.35389 255 255 255
0.513131 0.710187   1.5453 255 255 255
0.83593 1.21688 1.39677 255 255 255
0.799017  0.76802  1.42829 255 255 255
0.516094   0.6934  1.54352 255 255 255
0.455871 0.733249  1.56537 255 255 255
0.484526 0.781937  1.55906 255 255 255
0.797668 0.778627  1.42748 255 255 255
0.785793  1.20403   1.4422 255 255 255
0.39714 1.16649 1.41957 255 255 255
0.579821 0.769534  1.51673 255 255 255
0.512538 0.703113  1.54329 255 255 255
0.738438 0.843683  1.46094 255 255 255
0.513878 0.724436  1.54328 255 255 255
0.241558  1.34506  1.29939 255 255 255
0.480348 0.962632  1.43321 255 255 255
0.464081 0.727113  1.56301 255 255 255
0.576372 0.776375  1.51806 255 255 255
0.727218  1.08514  1.42644 255 255 255
0.377478 0.939481  1.54247 255 255 255
0.757534 0.901726  1.41971 255 255 255
0.776851 0.909545   1.3991 255 255 255
0.792732 0.691718  1.48064 255 255 255
0.551392  1.43567  1.54821 255 255 255
0.193991  1.38234  1.15535 255 255 255
0.714875  1.23799  1.45762 255 255 255
0.976588  1.55135  1.52424 255 255 255
0.576381 0.781076   1.5178 255 255 255
0.812916 0.896805  1.42938 255 255 255
0.502062  1.11912  1.43792 255 255 255
0.828655  1.13581   1.4202 255 255 255
0.773918  1.15726  1.43566 255 255 255
0.56336 1.36259 1.53507 255 255 255
0.811013 0.698648   1.4619 255 255 255
0.717504  1.02181  1.45355 255 255 255
0.447917  0.70044  1.58179 255 255 255
0.781156  1.01192  1.38951 255 255 255
0.498162 0.681589   1.5563 255 255 255
0.924351  1.50042  1.52537 255 255 255
0.832209   1.2147  1.39587 255 255 255
0.75414 1.39108 1.47762 255 255 255
0.812723 0.702439  1.45511 255 255 255
0.755805  1.10687  1.43458 255 255 255
0.724461  1.04632  1.45097 255 255 255
0.711495  1.23599  1.46129 255 255 255
-0.606693   1.10918   2.66882 255 255 255
-0.530727  0.584774   2.39093 255 255 255
-0.663785  0.928071   2.68939 255 255 255
-0.610279  0.574236   2.66851 255 255 255
-0.445892   1.29527   2.47457 255 255 255
-0.737299  0.615269   2.81619 255 255 255
-0.646046  0.639909   2.73157 255 255 255
-0.458188  0.816782   2.38024 255 255 255
-0.401491   1.25431   2.24046 255 255 255
-0.177586   1.64445       2.2 255 255 255
-0.531419    1.6409   2.66276 255 255 255
-0.420754  0.633353     2.317 255 255 255
-0.42937  1.59058  2.49478 255 255 255
-0.755708  0.846738   2.82182 255 255 255
-0.827709  0.658698   3.01505 255 255 255
-0.765122   0.60818   2.88186 255 255 255
-0.554495   1.07882   2.59371 255 255 255
-0.572437   1.03615   2.64788 255 255 255
-0.405144   1.19943   2.26001 255 255 255
-0.438554   1.28822   2.26938 255 255 255
-0.576623   1.46187   2.67682 255 255 255
-0.672939  0.502006   2.60823 255 255 255
-0.576337  0.945941    2.6188 255 255 255
-0.577589  0.697833   2.68646 255 255 255
-0.386396  0.247198   2.50442 255 255 255
-0.637468  0.899009   2.57908 255 255 255
-0.681844   1.02285   2.71089 255 255 255
-0.568891  0.411627   2.44013 255 255 255
-0.534085   1.48585   2.60854 255 255 255
-0.476136   1.71377   2.58289 255 255 255
-0.520819  0.651304   2.42679 255 255 255
-0.45821   1.0726  2.21868 255 255 255
-0.752336   1.01293   2.78157 255 255 255
-0.583465  0.733123   2.66777 255 255 255
-0.402734    0.8153   2.30225 255 255 255
-0.588771  0.884474   2.61898 255 255 255
-0.495425   1.37523   2.54245 255 255 255
-0.299577   1.59305   2.29142 255 255 255
-0.523415   1.31654   2.59863 255 255 255
-0.407909   1.67642   2.47088 255 255 255
-0.518966   1.67633   2.63302 255 255 255
-0.585528  0.365835   2.82938 255 255 255
-0.696802  0.805248    2.7447 255 255 255
-0.390308   1.35572   2.40971 255 255 255
-0.443159   1.67571    2.5791 255 255 255
-0.555306  0.356737    2.7522 255 255 255
-0.47672  1.47338  2.57894 255 255 255
-0.484881   1.18387   2.37559 255 255 255
-0.688628  0.833992   2.77984 255 255 255
-0.556162  0.351971   2.79775 255 255 255
-0.636619   1.67098   2.84054 255 255 255
-0.663673   1.06163   2.70088 255 255 255
-0.672381   1.06183   2.70018 255 255 255
-0.578369  0.999067   2.46798 255 255 255
-0.526929   1.74364   2.67512 255 255 255
-0.492127  0.337481   2.46828 255 255 255
-0.33942 0.692481  2.26917 255 255 255
-0.360926  0.218727   2.42889 255 255 255
-0.585225   1.76265   2.77436 255 255 255
-0.744489  0.801499   2.83108 255 255 255
-0.561395   1.08872    2.6286 255 255 255
-0.176102   1.66741   2.18381 255 255 255
-0.580707  0.401241   2.80188 255 255 255
-0.524422  0.339689    2.6438 255 255 255
-0.357015  0.312617   2.38581 255 255 255
-0.527187   1.04764    2.4041 255 255 255
-0.589205    0.9884   2.66072 255 255 255
-0.451356   0.26595   2.63287 255 255 255
-0.487282   1.07706   2.28017 255 255 255
-0.14848  1.48714  2.09589 255 255 255
 -0.6795 0.768958   2.8253 255 255 255
-0.285459   1.38742   2.17655 255 255 255
-0.47022 0.324301  2.59551 255 255 255
-0.668373  0.724954   2.77185 255 255 255
-0.660077  0.539195    2.8335 255 255 255
-0.589522   1.40186     2.778 255 255 255
-0.622061  0.734373   2.72027 255 255 255
-0.714977  0.667204   2.77678 255 255 255
-0.489983  0.906292   2.28725 255 255 255
-0.376211   1.52359   2.40816 255 255 255
-0.50393  1.10302  2.29532 255 255 255
-0.818086  0.597821   2.98731 255 255 255
-0.608116   1.45604   2.68842 255 255 255
-0.474411  0.301052    2.5605 255 255 255
-0.812702   0.72374   2.89946 255 255 255
-0.363925  0.215584   2.47743 255 255 255
-0.427548   1.69516   2.49642 255 255 255
-0.718938  0.670929    2.8437 255 255 255
-0.661002   1.01569   2.72386 255 255 255
-0.47753 0.633833  2.39053 255 255 255
-0.686816   1.18752   2.93748 255 255 255
-0.618137  0.475583   2.86296 255 255 255
-0.506291  0.273724   2.71979 255 255 255
-0.65463 0.883945  2.76055 255 255 255
-0.418555   1.32571   2.32139 255 255 255
-0.648311   1.10821   2.82513 255 255 255
-0.431169   1.62875   2.51656 255 255 255
-0.694757   1.16112    2.7114 255 255 255
-0.418915   1.36168   2.28813 255 255 255
-0.539498   1.72095   2.68069 255 255 255
-0.49949  1.72488   2.6293 255 255 255
-0.654094  0.639529    2.8164 255 255 255
-0.661644  0.727686   2.79933 255 255 255
-0.642067   1.47199   2.95056 255 255 255
-0.513873   1.18589    2.4707 255 255 255
-0.591059  0.337902   2.83686 255 255 255
-0.607246  0.427596   2.85308 255 255 255
-0.726627  0.779084   3.05066 255 255 255
-0.671276   1.03021   2.74008 255 255 255
-0.66461  1.04007  2.71675 255 255 255
-0.552435  0.525724   2.46245 255 255 255
-0.602504  0.429646   2.82282 255 255 255
-0.760908  0.701524    2.8489 255 255 255
-0.678068  0.476714   2.93548 255 255 255
-0.611243   1.64266   2.80446 255 255 255
-0.636691  0.516901   2.85547 255 255 255
-0.517094  0.731905   2.51871 255 255 255
-0.49895  1.74044  2.62479 255 255 255
-0.687499   1.04108   2.68161 255 255 255
-0.643567  0.381567   2.87896 255 255 255
-0.560538   1.65897   2.69971 255 255 255
-0.507082   1.52136   2.56763 255 255 255
-0.0976576    1.65064    2.06353 255 255 255
-0.55653  1.35556  2.79898 255 255 255
-0.521867    1.0885   2.57453 255 255 255
-0.665467   1.46084   2.72117 255 255 255
-0.517711   1.54394   2.62277 255 255 255
-0.410176   1.36706   2.23476 255 255 255
-0.463312  0.307486   2.58167 255 255 255
-0.582593   1.43815   2.82352 255 255 255
-0.137088   1.64426   2.10478 255 255 255
-0.496416  0.314609   2.67085 255 255 255
-0.608984   1.75257   2.82656 255 255 255
-0.437266   1.70798   2.51524 255 255 255
-0.561404  0.479341   2.41627 255 255 255
-0.50828  1.20991  2.55376 255 255 255
-0.532046   1.03809    2.3737 255 255 255
-0.47116  1.64213  2.55526 255 255 255
-0.223792   1.58685   2.17036 255 255 255
-0.551503   1.60157   2.68041 255 255 255
-0.563603  0.372851   2.78254 255 255 255
-0.483626    1.6851   2.62391 255 255 255
-0.636552   1.54623   2.72218 255 255 255
-0.552976   1.62866   2.68969 255 255 255
-0.559719   1.53278   2.66431 255 255 255
-0.596885  0.846247    2.6914 255 255 255
-0.559344   1.09517   2.48921 255 255 255
-0.596308  0.941913   2.51857 255 255 255
-0.574764   1.01392   2.62212 255 255 255
-0.472635  0.769266    2.4147 255 255 255
-0.527914  0.328145   2.74274 255 255 255
-0.673354  0.392872    2.9335 255 255 255
-0.534286   1.10006   2.35959 255 255 255
-0.371881   1.38057   2.23991 255 255 255
-0.55837  0.44136   2.7756 255 255 255
-0.461381  0.292978   2.50994 255 255 255
-0.605864     1.226   2.67474 255 255 255
-0.450072    1.2133   2.34981 255 255 255
-0.397058   1.73766   2.47044 255 255 255
-0.53378  1.53846  2.64592 255 255 255
-0.676701  0.360172   2.93595 255 255 255
-0.41574  1.32709  2.43334 255 255 255
-0.524305  0.708313   2.55486 255 255 255
-0.42316 0.800255  2.27355 255 255 255
-0.551323  0.390737   2.76228 255 255 255
-0.443392  0.363061   2.51226 255 255 255
-0.552183  0.905872   2.42382 255 255 255
-0.528869  0.362048   2.43567 255 255 255
-0.523032  0.322484   2.70919 255 255 255
-0.388217  0.197154    2.5222 255 255 255
-0.613433  0.456519   2.85508 255 255 255
-0.653834  0.748172   2.79143 255 255 255
-0.5652 0.67351 2.67785 255 255 255
-0.671273   1.52667   2.74407 255 255 255
-0.445425   1.70805    2.5513 255 255 255
-0.531002   1.66282   2.66433 255 255 255
-0.214281   1.63106    2.2251 255 255 255
-0.650643    1.4884   2.69107 255 255 255
-0.671618   1.21673   2.94597 255 255 255
-0.499032  0.815969   2.43716 255 255 255
-0.667209   1.35784   2.95361 255 255 255
-0.703743   1.09289   2.76089 255 255 255
-0.542229    1.6262   2.67575 255 255 255
-0.519463   1.51174   2.60855 255 255 255
-0.51128 0.504757  2.37732 255 255 255
-0.551666   0.37686   2.76508 255 255 255
-0.66934  0.65866  2.82684 255 255 255
-0.643406  0.684511   2.79341 255 255 255
-0.548673  0.693093   2.62207 255 255 255
-0.385561  0.770501   2.31777 255 255 255
-0.60745 0.699513  2.53398 255 255 255
-0.529707   1.52562   2.63354 255 255 255
-0.484863   0.27921   2.68452 255 255 255
-0.64321 0.842151  2.75595 255 255 255
-0.497559   1.19614     2.345 255 255 255
-0.52611 0.310299  2.69271 255 255 255
-0.715303  0.972099   2.72332 255 255 255
-0.447213  0.304674   2.51697 255 255 255
-0.630831   1.18885   2.70556 255 255 255
-0.624511   1.26595   2.70327 255 255 255
-0.557398   1.21357   2.60136 255 255 255
-0.512055   1.55265   2.61519 255 255 255
-0.572677   1.11332    2.6294 255 255 255
-0.567343   1.11292   2.62884 255 255 255
-0.563567   1.09982    2.4666 255 255 255
-0.639698   1.21794   2.89491 255 255 255
-0.590349   1.31398   2.82042 255 255 255
-0.550515  0.464683   2.47283 255 255 255
-0.286803   1.68512   2.29167 255 255 255
-0.507082  0.277785    2.7575 255 255 255
-0.758006  0.564998   2.90287 255 255 255
-0.494688   1.61349   2.59035 255 255 255
-0.508453   1.51489   2.59748 255 255 255
-0.449742   0.27047   2.61264 255 255 255
-0.481271  0.314172   2.62221 255 255 255
-0.380718  0.189527   2.43565 255 255 255
-0.526811  0.833218   2.56109 255 255 255
-0.607901   1.06108   2.67217 255 255 255
-0.181654   1.03184    2.4573 255 255 255
-0.379699    1.3382   2.17906 255 255 255
-0.531731   1.60625   2.64414 255 255 255
-0.64038  1.54113  2.87456 255 255 255
-0.648149   1.31737   2.70777 255 255 255
-0.45407   1.7157  2.53043 255 255 255
-0.496075   1.71266   2.63542 255 255 255
-0.444689  0.302615    2.5364 255 255 255
-0.536777  0.510508   2.29887 255 255 255
-0.615329  0.805606    2.7137 255 255 255
-0.439645   1.25998   2.34316 255 255 255
-0.623481  0.644718   2.59947 255 255 255
-0.490561   1.68791   2.61076 255 255 255
-0.530927   1.65568   2.67682 255 255 255
-0.488215   1.60798   2.58148 255 255 255
-0.438739   1.10167   2.21634 255 255 255
-0.621325  0.610331   2.45914 255 255 255
-0.180138   1.62663   2.18841 255 255 255
-0.423269   0.84635   2.30327 255 255 255
-0.507802   0.25884   2.72052 255 255 255
-0.633329  0.757356   2.75558 255 255 255
-0.231283   1.67314   2.23978 255 255 255
-0.596283    1.1946   2.65444 255 255 255
-0.688126   1.30468   2.99418 255 255 255
-0.732542    1.5966   2.92231 255 255 255
-0.642225  0.760631   2.78004 255 255 255
-0.356904  0.214238   2.40879 255 255 255
-0.730166  0.719861   3.07135 255 255 255
-0.575399  0.417852   2.68514 255 255 255
-0.398756   1.30653   2.41877 255 255 255
-0.519141     1.123    2.3543 255 255 255
-0.376107   1.60576   2.43811 255 255 255
-0.511863   1.54952   2.54862 255 255 255
-0.638352  0.936612   2.73203 255 255 255
-0.350331  0.723888   2.27393 255 255 255
-0.772365   1.03051   2.82423 255 255 255
-0.581632  0.443518   2.56389 255 255 255
-0.589561   0.44899   2.66801 255 255 255
-0.700636   1.23415   2.73236 255 255 255
-0.78493 0.700852  2.90854 255 255 255
-0.649401    1.0736   2.68029 255 255 255
-0.596146   1.16317   2.66782 255 255 255
-0.705141     1.126    2.7534 255 255 255
-0.489574   1.14704   2.33126 255 255 255
-0.429234  0.263472   2.56285 255 255 255
-0.541896  0.387855   2.73883 255 255 255
-0.627995  0.928875   2.67849 255 255 255
-0.786112   1.00416   2.83839 255 255 255
-0.397086   1.40342   2.32711 255 255 255
-0.536921  0.331381   2.76736 255 255 255
-0.232328    1.5907   2.18925 255 255 255
-0.666732  0.852847    2.7806 255 255 255
-0.559223   1.10947   2.52872 255 255 255
-0.649085  0.831031   2.74622 255 255 255
-0.513591  0.725587   2.55931 255 255 255
-0.569051  0.893751   2.64541 255 255 255
-0.63228  0.56198  2.62879 255 255 255
-0.674381  0.840592   2.73631 255 255 255
-0.543328  0.600304   2.67018 255 255 255
-0.477539  0.910803   2.26037 255 255 255
-0.445462  0.256464   2.61807 255 255 255
-0.698985   1.13817   2.84039 255 255 255
-0.355286   1.66353   2.41033 255 255 255
-0.598557  0.414213   2.82262 255 255 255
-0.5834 1.06984  2.5071 255 255 255
-0.616961  0.419053   2.63178 255 255 255
-0.313104    1.6756   2.33381 255 255 255
-0.681588   1.24686   2.74286 255 255 255
-0.717202   1.13443   2.74514 255 255 255
-0.3479 1.70129 2.39535 255 255 255
-0.493628  0.868352   2.39989 255 255 255
-0.522626  0.747416   2.52384 255 255 255
-0.634065   1.29641   2.70489 255 255 255
-0.553817  0.967907   2.41285 255 255 255
-0.553668  0.456443   2.47664 255 255 255
-0.196927   1.67269   2.21647 255 255 255
-0.367212   1.39166   2.28061 255 255 255
-0.765928  0.640008   2.86036 255 255 255
-0.309676  0.655599    2.2257 255 255 255
-0.557279   1.52774   2.67589 255 255 255
-0.438082   1.67959   2.52504 255 255 255
-0.656026   1.15011   2.80455 255 255 255
-0.522623   1.11915   2.33417 255 255 255
-0.659466   1.10804   2.80404 255 255 255
-0.190363   1.65244   2.18623 255 255 255
-0.578577    1.5645   2.71851 255 255 255
-0.486249   1.46335   2.56267 255 255 255
-0.420667   1.70765   2.49965 255 255 255
-0.458807  0.276945   2.58597 255 255 255
-0.521167  0.283272   2.74086 255 255 255
-0.141162   1.66209   2.08712 255 255 255
-0.704727  0.921682   2.74745 255 255 255
-0.309168  0.158819    2.3784 255 255 255
-0.509973   1.75225   2.62246 255 255 255
-0.636436  0.527856   2.86654 255 255 255
-0.298172  0.666644   2.22371 255 255 255
-0.629347  0.575017   2.58737 255 255 255
-0.521562   1.75422    2.6658 255 255 255
-0.496094    1.0893   2.30129 255 255 255
-0.509282   1.57235   2.61902 255 255 255
-0.796343  0.743442   2.89986 255 255 255
-0.356714   1.39044   2.26848 255 255 255
-0.403401    1.5762   2.43496 255 255 255
-0.491401   1.07879   2.19364 255 255 255
-0.530875  0.928799     2.345 255 255 255
-0.534803   1.18439   2.33606 255 255 255
-0.535214  0.996898   2.33253 255 255 255
-0.846852   0.92783   2.86873 255 255 255
-0.494679   1.00682   2.28938 255 255 255
-0.668778   1.54895   2.94377 255 255 255
-0.448423   1.18737   2.21714 255 255 255
-0.497495   1.57159    2.5972 255 255 255
-0.519718   1.64329   2.63705 255 255 255
-0.55649 0.434795  2.75241 255 255 255
-0.68626  0.72477  2.82675 255 255 255
-0.519915   1.12955   2.36793 255 255 255
-0.503149   1.56175   2.60639 255 255 255
-0.593084   1.48042   2.82034 255 255 255
-0.483639   1.64965   2.50097 255 255 255
-0.819821  0.440863   3.16206 255 255 255
-0.594071   1.74614   2.79848 255 255 255
-0.551605   1.66318   2.70365 255 255 255
-0.624602  0.386856   2.88096 255 255 255
-0.505341   0.42351   2.38054 255 255 255
-0.503555  0.790155   2.43906 255 255 255
-0.531172   1.01894   2.39566 255 255 255
-0.575602  0.574997   2.44113 255 255 255
-0.250196   1.42285   2.23704 255 255 255
-0.347793  0.177809   2.48507 255 255 255
-0.799334  0.885585   2.81364 255 255 255
-0.39531 0.214983  2.52569 255 255 255
-0.127451   1.65656   2.09431 255 255 255
-0.586797  0.407469   2.78448 255 255 255
-0.576371  0.799878   2.63793 255 255 255
-0.456679   1.54211   2.51572 255 255 255
-0.685809   1.13243   2.85815 255 255 255
-0.303059  0.768712   2.21002 255 255 255
-0.549884   1.03005   2.39981 255 255 255
-0.534996  0.721339   2.53998 255 255 255
-0.821258  0.731758   2.91785 255 255 255
-0.437518   1.25819   2.33038 255 255 255
-0.469162  0.663633   2.41333 255 255 255
-0.477179  0.276995   2.66262 255 255 255
-0.375181   1.37008    2.2327 255 255 255
-0.374846   0.20967   2.43164 255 255 255
-0.521424  0.394346   2.70773 255 255 255
-0.443534   1.67443    2.5112 255 255 255
-0.581428   1.45555   2.82027 255 255 255
-0.642872  0.511611   2.60731 255 255 255
-0.581026   1.43146   2.82149 255 255 255
-0.51874 0.306285  2.77273 255 255 255
-0.578523  0.428491   2.56195 255 255 255
-0.485161  0.314781    2.6455 255 255 255
-0.339678  0.777573    2.2466 255 255 255
-0.379554  0.684578   2.31955 255 255 255
-0.331056   1.47951   2.35252 255 255 255
-0.613165  0.408728   2.86251 255 255 255
-0.661852  0.738889   2.80195 255 255 255
-0.814528   0.46432   3.11729 255 255 255
-0.484911  0.489284   2.35583 255 255 255
-0.538389  0.286636   2.76754 255 255 255
-0.306215   1.59067   2.36119 255 255 255
-0.5353 1.07353 2.34999 255 255 255
-0.62559  1.14253  2.69192 255 255 255
-0.813039   0.93574   2.85413 255 255 255
-0.530468   1.20981   2.57533 255 255 255
-0.350259  0.614104   2.31105 255 255 255
-0.610482  0.930301   2.69211 255 255 255
-0.388192   1.34648    2.2464 255 255 255
-0.445415  0.294718    2.5254 255 255 255
-0.32937  1.73401    2.382 255 255 255
  -0.591 0.473731  2.76386 255 255 255
-0.44378  1.37892  2.47866 255 255 255
-0.497841   1.33462   2.53362 255 255 255
-0.549079  0.463384    2.6904 255 255 255
-0.471486   1.12429   2.29388 255 255 255
-0.484953  0.858439   2.39723 255 255 255
-0.233074   1.57073   2.18419 255 255 255
-0.590541  0.559673   2.66086 255 255 255
-0.57727 0.573381   2.6567 255 255 255
-0.141696   1.44657     2.087 255 255 255
-0.674403   1.50385   2.73612 255 255 255
-0.534784  0.828174   2.53849 255 255 255
-0.504237  0.463416   2.36495 255 255 255
-0.480759  0.702742   2.44051 255 255 255
-0.565017  0.412573   2.79414 255 255 255
-0.587565  0.735685   2.68347 255 255 255
-0.325885   1.59044   2.34147 255 255 255
-0.58937  1.75671  2.79056 255 255 255
-0.538782   1.09936    2.3394 255 255 255
-0.536436  0.493082   2.38314 255 255 255
-0.560721  0.879052   2.62123 255 255 255
-0.298516     1.528   2.25825 255 255 255
-0.53089  1.57869  2.64219 255 255 255
-0.655124   1.04961   2.72884 255 255 255
-0.346869   1.51338   2.37696 255 255 255
-0.548973  0.373398   2.55147 255 255 255
-0.581687    1.0191    2.5166 255 255 255
-0.377757  0.295004   2.42665 255 255 255
-0.697513  0.733493    2.8346 255 255 255
-0.459685  0.452422   2.30414 255 255 255
-0.80188  1.04496  2.85618 255 255 255
-0.56348  1.61128  2.69855 255 255 255
-0.63934 0.470117  2.62807 255 255 255
-0.465666   1.63549     2.535 255 255 255
-0.520068   1.20757   2.42098 255 255 255
-0.65008  1.13042  2.82632 255 255 255
-0.533478  0.803226   2.55223 255 255 255
-0.356538   0.77911   2.27965 255 255 255
-0.369693  0.296089   2.41616 255 255 255
-0.433228   1.28996   2.33439 255 255 255
-0.410007  0.835347   2.29377 255 255 255
-0.321701   1.51327   2.31762 255 255 255
-0.367887  0.781125   2.28975 255 255 255
-0.60058 0.408754  2.84656 255 255 255
-0.780641  0.621379   2.91067 255 255 255
-0.379812   1.37395   2.35335 255 255 255
-0.440539   1.51573   2.59422 255 255 255
-0.396788   1.67364   2.46316 255 255 255
-0.664903  0.401563   2.93372 255 255 255
-0.574223  0.563258   2.74682 255 255 255
-0.500566   1.67752   2.61353 255 255 255
-0.452842   1.68303   2.54756 255 255 255
-0.306946   1.53413   2.28265 255 255 255
-0.521016   1.64785    2.6452 255 255 255
-0.67615  1.32315   2.7387 255 255 255
-0.381525   1.35895   2.39835 255 255 255
-0.386742   1.57154   2.40944 255 255 255
-0.756253  0.603341   2.86519 255 255 255
-0.534966   1.68286    2.6705 255 255 255
-0.538683  0.767154   2.59397 255 255 255
-0.451391  0.409044   2.32503 255 255 255
-0.576433  0.913907   2.43645 255 255 255
-0.300279    1.5242   2.27685 255 255 255
-0.298217     1.401   2.18936 255 255 255
-0.534976  0.411894   2.71711 255 255 255
-0.534808   1.61896    2.6592 255 255 255
-0.654032   1.55387    2.9065 255 255 255
-0.575136  0.664968   2.63848 255 255 255
-0.643867   1.32902   2.68207 255 255 255
-0.664267  0.382115    2.9411 255 255 255
-0.462822   1.30465   2.13923 255 255 255
-0.464673    1.4727   2.53653 255 255 255
-0.588918  0.786392   2.64037 255 255 255
-0.806254   0.70289   2.91916 255 255 255
-0.81589 0.450884  3.10649 255 255 255
