ply
format ascii 1.0
element vertex 1144
property float x
property float y
property float z
property uchar red
property uchar green
property uchar blue
end_header
-0.532646   1.08739   2.37155 255 255 255
-0.566255  0.469914   2.47887 255 255 255
-0.431183  0.416408   2.21963 255 255 255
-0.44237  1.00887   2.0534 255 255 255
-0.387253  0.287333   2.43691 255 255 255
-0.456499  0.769069   2.40188 255 255 255
-0.540029   1.00232      2.19 255 255 255
-0.267715   1.49573   2.26216 255 255 255
-0.548985  0.786483   2.54861 255 255 255
-0.587607  0.890953   2.64477 255 255 255
-0.505507   1.25065   2.19637 255 255 255
-0.58677 0.924706  2.37155 255 255 255
-0.510561   0.53147   2.33543 255 255 255
-0.100379   1.56399   2.04222 255 255 255
-0.586517  0.894016   2.47763 255 255 255
-0.554263  0.429852   2.41648 255 255 255
-0.594687  0.453052   2.42895 255 255 255
-0.0341723    1.57913    1.92411 255 255 255
-0.191034   1.56104   2.15379 255 255 255
-0.396715    1.3169   2.40641 255 255 255
-0.547784  0.795822   2.56179 255 255 255
-0.40556 0.646924  2.33608 255 255 255
-0.49011 0.677315  2.45669 255 255 255
-0.564881  0.828301    2.5833 255 255 255
-0.321547  0.613857   2.15493 255 255 255
-0.558011  0.966774   2.39148 255 255 255
-0.420322   0.45768   2.19124 255 255 255
-0.542929  0.558099   2.34719 255 255 255
-0.566852   1.61192      2.69 255 255 255
-0.46869 0.415187  2.24365 255 255 255
-0.415898   1.32629   2.36664 255 255 255
-0.623541  0.590586   2.54451 255 255 255
-0.521808  0.915918    2.2072 255 255 255
-0.524165  0.897621   2.14128 255 255 255
-0.611209  0.639307    2.7401 255 255 255
-0.553723   1.18494   2.59224 255 255 255
-0.245513    1.5913    2.2099 255 255 255
-0.52829  1.07247  2.12084 255 255 255
-0.258368  0.684861   2.10849 255 255 255
-0.377453   1.50674   2.39623 255 255 255
-0.470805   1.06821   2.24277 255 255 255
-0.613526   0.60311   2.52404 255 255 255
-0.567496  0.447906   2.42135 255 255 255
-0.524682   1.08695   2.17879 255 255 255
-0.526794   1.15258   2.55131 255 255 255
-0.503341  0.776888   2.46842 255 255 255
-0.566767  0.716304   2.59275 255 255 255
-0.319829   1.61229   2.28086 255 255 255
-0.400521  0.285486    2.4829 255 255 255
-0.459946   1.26485   2.25371 255 255 255
-0.318873   1.51385   2.30126 255 255 255
-0.569394   0.71204   2.59836 255 255 255
-0.465256   1.30448   2.31748 255 255 255
-0.439897    1.3372   2.06277 255 255 255
-0.589374  0.594928   2.64641 255 255 255
-0.470753   1.64216   2.52668 255 255 255
-0.56108 0.997992  2.34239 255 255 255
-0.0865058     1.4774    1.99373 255 255 255
-0.463138  0.473986   2.23258 255 255 255
-0.40968  1.65606  2.57486 255 255 255
-0.543665   1.16627    2.3574 255 255 255
-0.579077  0.548426   2.72322 255 255 255
-0.453104   1.27692   2.06722 255 255 255
-0.257578  0.660704   2.11116 255 255 255
-0.565689  0.714961   2.61677 255 255 255
-0.523998   1.49568   2.59133 255 255 255
-0.491342   1.21156   2.50306 255 255 255
-0.548909  0.522517   2.37307 255 255 255
-0.383295   0.71783   2.23106 255 255 255
-0.585234  0.870489   2.63981 255 255 255
-0.650981  0.787968   2.72566 255 255 255
-0.615211   1.03455   2.48025 255 255 255
-0.625649   1.03569   2.48006 255 255 255
-0.610688  0.419017    2.5832 255 255 255
-0.554711   1.24343   2.58581 255 255 255
-0.26558  1.49287   2.2449 255 255 255
-0.423319   1.47386   2.45299 255 255 255
-0.45758  1.15849  2.24162 255 255 255
-0.544869    1.1271   2.58477 255 255 255
-0.615132  0.548104   2.54554 255 255 255
-0.534454  0.866388   2.44129 255 255 255
-0.540462   1.16557   2.35069 255 255 255
-0.442443    1.3517   2.32593 255 255 255
-0.530362  0.794858   2.49746 255 255 255
-0.668476  0.588829   2.57257 255 255 255
-0.440615    1.0164   2.05637 255 255 255
-0.48375  1.63938  2.56347 255 255 255
-0.656109   0.60646   2.58599 255 255 255
 -0.5661 0.448881  2.53039 255 255 255
-0.435853   1.05246    2.0491 255 255 255
-0.528955    1.5108   2.58453 255 255 255
-0.485904   1.54837   2.56195 255 255 255
-0.154381    1.5605   2.08942 255 255 255
-0.497664  0.357418   2.32164 255 255 255
-0.575417   0.89526   2.18543 255 255 255
-0.483251  0.403076    2.2576 255 255 255
-0.0758253    1.57552    2.00665 255 255 255
-0.280758   1.67321   2.27602 255 255 255
-0.55006 0.858276  2.15092 255 255 255
-0.650145  0.518424   2.60693 255 255 255
-0.621573   1.02329   2.49711 255 255 255
-0.615017  0.405789   2.60664 255 255 255
-0.569078  0.441979   2.53526 255 255 255
-0.53839 0.708523  2.52903 255 255 255
-0.649615  0.533927    2.6114 255 255 255
-0.59312  1.10939  2.41999 255 255 255
-0.4654 1.29173 2.34832 255 255 255
-0.271226   1.40471   2.16527 255 255 255
-0.429666   1.69691   2.48217 255 255 255
-0.407577  0.758207   2.34059 255 255 255
-0.576392  0.457316    2.4107 255 255 255
-0.539969   1.16066   2.12211 255 255 255
-0.566367  0.369566   2.79518 255 255 255
-0.471639   1.21525   2.06469 255 255 255
-0.519393  0.504345   2.27085 255 255 255
-0.410624  0.714372   2.26523 255 255 255
-0.536538   1.07439   2.37421 255 255 255
-0.45837  1.57443  2.49833 255 255 255
-0.54752  1.21377  2.58892 255 255 255
-0.467387    1.3832   2.48929 255 255 255
-0.517891  0.873145   2.43328 255 255 255
-0.646803  0.470271   2.62497 255 255 255
-0.355534  0.767454   2.23866 255 255 255
-0.570513   1.14385   2.44232 255 255 255
-0.0417423    1.56823    1.96416 255 255 255
-0.457026   1.23588   2.45993 255 255 255
-0.584499   1.19562   2.66368 255 255 255
-0.569414  0.496388   2.41223 255 255 255
-0.45857 0.855013  2.34628 255 255 255
-0.621786  0.482952   2.59034 255 255 255
-0.431454  0.430817    2.1939 255 255 255
-0.0472853    1.65923    2.05722 255 255 255
-0.560318  0.628579   2.40595 255 255 255
-0.532294  0.684817   2.50267 255 255 255
-0.594362   0.47851   2.42865 255 255 255
-0.559602  0.516801   2.38755 255 255 255
-0.421281  0.444709   2.19543 255 255 255
-0.511545  0.856175   2.24979 255 255 255
-0.304675   1.61037   2.30778 255 255 255
-0.425697   1.32439   2.25679 255 255 255
-0.378157   1.38433   2.37037 255 255 255
-0.482493  0.669434   2.43807 255 255 255
-0.617674  0.539791   2.55617 255 255 255
-0.633569  0.977678   2.58253 255 255 255
-0.465385   1.60152   2.52818 255 255 255
-0.561236   1.11506   2.54252 255 255 255
-0.608767  0.620979   2.48561 255 255 255
-0.606676   1.06306   2.66484 255 255 255
-0.382387   1.39051   2.38161 255 255 255
-0.283143   1.50895   2.25323 255 255 255
-0.526994   1.25157   2.18013 255 255 255
-0.52666 0.929072  2.26171 255 255 255
-0.48577 0.350123  2.38444 255 255 255
-0.543256   1.13992   2.57754 255 255 255
-0.644473  0.466279   2.61974 255 255 255
-0.587543  0.927874   2.13035 255 255 255
-0.393532   1.61224   2.43061 255 255 255
-0.593451   1.05993   2.42886 255 255 255
-0.557968   1.12982   2.59321 255 255 255
-0.577848  0.442575   2.52529 255 255 255
-0.142637   1.68084   2.10645 255 255 255
-0.555161   1.19959   2.58737 255 255 255
-0.629026   1.08279   2.52086 255 255 255
-0.604742   1.33445   2.82827 255 255 255
-0.566543  0.966131   2.17301 255 255 255
-0.55067  0.43526   2.4094 255 255 255
-0.533865  0.435418   2.37372 255 255 255
-0.603146   1.32037   2.83048 255 255 255
-0.562756  0.438435   2.39845 255 255 255
-0.582483   1.04426   2.47144 255 255 255
-0.394232   1.21982   2.02946 255 255 255
-0.618602  0.456472   2.59171 255 255 255
-0.58489 0.499247  2.40312 255 255 255
-0.309467   1.59451   2.28782 255 255 255
-0.194564    1.5632   2.13599 255 255 255
-0.358897   1.61528   2.38987 255 255 255
-0.567701   1.06085    2.4619 255 255 255
-0.399311   1.57419   2.37905 255 255 255
-0.490407   1.25756   2.50476 255 255 255
-0.579896   0.57954   2.49617 255 255 255
-0.540488  0.699861   2.56533 255 255 255
-0.568368   1.12346   2.12438 255 255 255
-0.499026  0.539203   2.30715 255 255 255
-0.567906  0.693389   2.66502 255 255 255
-0.57882 0.954858  2.41851 255 255 255
-0.566147  0.741931   2.61886 255 255 255
-0.601971   0.72817   2.74356 255 255 255
-0.533773  0.483975   2.36499 255 255 255
-0.4596 1.24716 2.46604 255 255 255
-0.511776  0.773654   2.47398 255 255 255
-0.418997   1.36451   2.42425 255 255 255
-0.224872  0.624521   2.12614 255 255 255
-0.517537  0.493515   2.35275 255 255 255
-0.555331   1.24866   2.59155 255 255 255
-0.597351   1.17372   2.65851 255 255 255
-0.585799   1.18624   2.64126 255 255 255
-0.603448  0.550575    2.4126 255 255 255
-0.509288  0.481712    2.3177 255 255 255
-0.442835  0.668576   2.37813 255 255 255
-0.404355   1.59134   2.45451 255 255 255
-0.582453   1.18825    2.6512 255 255 255
-0.409873  0.637304   2.33295 255 255 255
-0.375214  0.759134   2.26779 255 255 255
-0.637075  0.988884   2.55616 255 255 255
-0.426054  0.339675   2.23317 255 255 255
-0.647693   1.03586   2.55102 255 255 255
-0.556388   1.05266   2.15678 255 255 255
-0.562485   1.20777   2.59558 255 255 255
-0.550075  0.407409   2.73486 255 255 255
-0.185582  0.491248   2.14888 255 255 255
-0.582177  0.492993   2.41424 255 255 255
-0.572124  0.693785   2.64864 255 255 255
-0.419198   1.71056    2.4793 255 255 255
-0.567775   1.10037   2.44835 255 255 255
-0.494091   1.18026   2.49505 255 255 255
-0.598165  0.596559   2.63855 255 255 255
-0.518631   1.32379   2.55277 255 255 255
-0.586266  0.566128    2.5022 255 255 255
-0.576072   1.05401   2.45552 255 255 255
-0.5754 1.10334 2.46029 255 255 255
-0.487134   1.04789   2.09002 255 255 255
-0.517583  0.522354   2.34048 255 255 255
-0.441572   1.32176   2.06566 255 255 255
-0.448785   1.31197   2.31939 255 255 255
-0.530706  0.861809   2.43389 255 255 255
-0.497649   1.17018   2.21605 255 255 255
-0.444293  0.383299   2.22775 255 255 255
-0.304623   1.46876   2.31122 255 255 255
-0.503738   1.04184    2.2327 255 255 255
-0.472249  0.981264   2.04907 255 255 255
-0.639819  0.676559    2.5875 255 255 255
-0.635133  0.460359   2.60641 255 255 255
-0.641516   1.04453   2.54177 255 255 255
-0.50809  1.48411   2.5571 255 255 255
-0.249547   1.46481   2.23385 255 255 255
-0.367746   1.36579   2.19968 255 255 255
-0.529258  0.851586    2.1411 255 255 255
-0.586908  0.564971   2.43582 255 255 255
-0.552728  0.941464   2.39843 255 255 255
-0.463515  0.356472   2.23768 255 255 255
-0.551527  0.498174   2.38571 255 255 255
-0.413963   1.34041   2.02649 255 255 255
-0.467074   1.03432   2.05774 255 255 255
-0.434259  0.441856   2.19186 255 255 255
-0.59873 0.435825  2.44774 255 255 255
-0.479958   1.26679   2.09847 255 255 255
-0.585649  0.888343   2.43284 255 255 255
 -0.2368 0.656453  2.14338 255 255 255
-0.563622   1.63006   2.68281 255 255 255
-0.364106  0.294223   2.35115 255 255 255
-0.595969   1.06296   2.40167 255 255 255
-0.618097  0.412592   2.59998 255 255 255
-0.626471  0.904726   2.54469 255 255 255
-0.486153   1.06577   2.08675 255 255 255
-0.509748   1.00532   2.12556 255 255 255
-0.607477  0.459148    2.5907 255 255 255
-0.538018   1.16684    2.3335 255 255 255
-0.620434   1.09116   2.46978 255 255 255
-0.553341   1.30726   2.58306 255 255 255
-0.542896   1.15856   2.57423 255 255 255
-0.56213 0.848364  2.17046 255 255 255
-0.532201  0.945543   2.36063 255 255 255
-0.617259  0.825611   2.70437 255 255 255
-0.476827   1.13749   2.28751 255 255 255
-0.574721   0.96757   2.47282 255 255 255
-0.57043 0.409649  2.55582 255 255 255
-0.520676   1.14265   2.54772 255 255 255
-0.544208   0.36811   2.43263 255 255 255
-0.610909  0.581014   2.52633 255 255 255
-0.549499   1.03619   2.38016 255 255 255
-0.588787  0.542134   2.44342 255 255 255
-0.593542   1.12254   2.63372 255 255 255
-0.621978  0.560314   2.54203 255 255 255
-0.543046   1.04777   2.13381 255 255 255
-0.600409  0.498591   2.55176 255 255 255
-0.435096  0.437138   2.19607 255 255 255
-0.553927  0.877439   2.15307 255 255 255
-0.466342   1.06259   2.07553 255 255 255
-0.586459   1.14021   2.41506 255 255 255
-0.380578   1.35764   2.19513 255 255 255
-0.594142  0.461306   2.43495 255 255 255
-0.435952  0.942072   2.06671 255 255 255
-0.570154   1.04276   2.46428 255 255 255
-0.552823   1.29275   2.58193 255 255 255
-0.549206   1.29367   2.58804 255 255 255
-0.233176  0.570089    2.1394 255 255 255
-0.584635  0.557444   2.50584 255 255 255
-0.489133    1.3927   2.52069 255 255 255
-0.439318   0.25242   2.55474 255 255 255
-0.496851  0.372319   2.37807 255 255 255
-0.600675   1.08116   2.65339 255 255 255
-0.281806   1.57619   2.34003 255 255 255
-0.46927 0.321152  2.26671 255 255 255
-0.444113   1.35141   2.05692 255 255 255
-0.531428   1.17492   2.55358 255 255 255
-0.579648   1.18729   2.44829 255 255 255
-0.609378  0.997846   2.67179 255 255 255
-0.608436  0.621419   2.63045 255 255 255
-0.455898  0.407982    2.2409 255 255 255
-0.654072  0.550032   2.59675 255 255 255
-0.41606 0.465117  2.18557 255 255 255
-0.556402  0.474668   2.47852 255 255 255
-0.469739  0.610474   2.23609 255 255 255
-0.567617   1.00521   2.22646 255 255 255
-0.482654   1.11973   2.10317 255 255 255
-0.309758  0.720917   2.18046 255 255 255
-0.35727 0.736954   2.2639 255 255 255
-0.371442   1.53298   2.48866 255 255 255
-0.39145 0.233352  2.48554 255 255 255
-0.17767  1.68209  2.19349 255 255 255
-0.431821  0.317878   2.23738 255 255 255
-0.557299  0.356368   2.55176 255 255 255
-0.538894   1.00898   2.18093 255 255 255
-0.553407  0.522578   2.38391 255 255 255
-0.626263  0.683897   2.51296 255 255 255
-0.583775  0.630479   2.63956 255 255 255
-0.617979  0.484612   2.56897 255 255 255
-0.573168  0.439698   2.47198 255 255 255
-0.540969    1.2831   2.59432 255 255 255
-0.785595   1.02084   2.83489 255 255 255
-0.587515   0.52797   2.44743 255 255 255
-0.586662  0.571578    2.6661 255 255 255
-0.569219   1.11225   2.46508 255 255 255
-0.544649   1.16947   2.11089 255 255 255
-0.607277    1.1011    2.5024 255 255 255
-0.158659   1.66561   2.15189 255 255 255
-0.5691  1.1716 2.33059 255 255 255
-0.684479  0.637391   2.58202 255 255 255
-0.424755   1.51298   2.52223 255 255 255
-0.57026 0.432947  2.54295 255 255 255
-0.452986   1.30293   2.32459 255 255 255
-0.582251  0.482992   2.45975 255 255 255
-0.550256   1.30112   2.62541 255 255 255
-0.530666   1.37189   2.57608 255 255 255
-0.577827   1.14511   2.64411 255 255 255
-0.532179   1.37911    2.6004 255 255 255
-0.608059  0.392942    2.8111 255 255 255
-0.586124   1.10674   2.64175 255 255 255
-0.596722  0.403105   2.57569 255 255 255
-0.325094   0.64598   2.23399 255 255 255
-0.52957   1.3321  2.57771 255 255 255
-0.452436   1.15538    2.0611 255 255 255
-0.614775  0.608338   2.50359 255 255 255
-0.561048   1.37001   2.62094 255 255 255
-0.618348   0.83698   2.70534 255 255 255
-0.508922   0.90524   2.11534 255 255 255
-0.383451   1.57967   2.40483 255 255 255
-0.622251  0.532217   2.55519 255 255 255
-0.559409  0.419874   2.41188 255 255 255
-0.220665   0.74948   2.09256 255 255 255
-0.548931   1.25785   2.59882 255 255 255
-0.653409  0.547316   2.60329 255 255 255
-0.43614  0.61627  2.25336 255 255 255
-0.266595   1.50642   2.19508 255 255 255
-0.387765  0.236128   2.47367 255 255 255
-0.588463   1.13925   2.40679 255 255 255
-0.620738  0.779689   2.67032 255 255 255
-0.385517  0.737734   2.30196 255 255 255
-0.560128  0.673519    2.6764 255 255 255
-0.489173   1.09486    2.0907 255 255 255
-0.51149 0.851514  2.25736 255 255 255
-0.510233   1.30319   2.11679 255 255 255
-0.579467  0.454504   2.46733 255 255 255
-0.570806    1.1051   2.46676 255 255 255
-0.569905  0.418939   2.53821 255 255 255
-0.462451  0.334484   2.26684 255 255 255
-0.581042  0.467313   2.46379 255 255 255
-0.591983  0.784233   2.68898 255 255 255
-0.442594  0.947419   2.06645 255 255 255
-0.461351  0.400851   2.24762 255 255 255
-0.450029  0.440039   2.21264 255 255 255
-0.563698  0.737798   2.61026 255 255 255
-0.583343  0.533889   2.40193 255 255 255
-0.458118  0.981845   2.07769 255 255 255
-0.537597  0.693267   2.52763 255 255 255
-0.461783   0.38157   2.23354 255 255 255
-0.602628  0.513099   2.54179 255 255 255
-0.567252   0.42337   2.75739 255 255 255
-0.472037  0.363588    2.2649 255 255 255
-0.579894  0.733156    2.6723 255 255 255
-0.562799  0.533861    2.4626 255 255 255
-0.329655  0.715051   2.18128 255 255 255
-0.542667  0.698394   2.54401 255 255 255
-0.54564 0.844302  2.21958 255 255 255
-0.396187    1.4064   2.28763 255 255 255
-0.489822   0.45189    2.2401 255 255 255
-0.445136  0.979947   2.05624 255 255 255
-0.51576 0.477158   2.3572 255 255 255
-0.571019  0.373646   2.45817 255 255 255
-0.607531  0.389541   2.60791 255 255 255
-0.484847   1.05044   2.10027 255 255 255
-0.550191  0.445413   2.40734 255 255 255
-0.279319   1.46563   2.19027 255 255 255
-0.509931   0.84997   2.38844 255 255 255
-0.543263   1.17642    2.5731 255 255 255
-0.532937   1.44722   2.60044 255 255 255
-0.532233  0.784361   2.48623 255 255 255
-0.636576  0.601164   2.54706 255 255 255
-0.36737   1.5396  2.43156 255 255 255
-0.561902   0.62606    2.6486 255 255 255
-0.652597  0.910394   2.54952 255 255 255
-0.539486  0.326765   2.74951 255 255 255
-0.456756   0.94409   2.07972 255 255 255
-0.378803  0.656917   2.33087 255 255 255
-0.644753  0.957862   2.56087 255 255 255
-0.509054   1.24441   2.38696 255 255 255
-0.601459  0.511294   2.54814 255 255 255
-0.608169   1.08464   2.51157 255 255 255
-0.262228  0.713684   2.12304 255 255 255
-0.44878  1.34576  2.30269 255 255 255
-0.557895    1.0197   2.16373 255 255 255
-0.521212  0.490769   2.36313 255 255 255
-0.543276    0.4234   2.41947 255 255 255
-0.59858 0.796444  2.69132 255 255 255
-0.422069  0.311427   2.22559 255 255 255
-0.584295  0.429681     2.444 255 255 255
-0.593224  0.775586   2.69678 255 255 255
-0.594996   1.16435   2.64312 255 255 255
-0.602904   1.26948   2.81533 255 255 255
-0.663417  0.453896   2.62386 255 255 255
-0.251768  0.505659   2.15533 255 255 255
-0.531856  0.430289   2.38266 255 255 255
-0.574168   1.13679   2.45679 255 255 255
-0.246173   1.59471   2.19722 255 255 255
-0.443205   1.36368   2.04897 255 255 255
-0.595754   1.11721   2.41835 255 255 255
-0.446568   1.30111   2.44498 255 255 255
-0.41067  1.33637  2.04554 255 255 255
-0.484264   1.15101   2.10437 255 255 255
-0.420974   1.31881   2.25797 255 255 255
-0.247828  0.661955   2.11789 255 255 255
-0.540733  0.276356   2.75227 255 255 255
-0.542183  0.389182   2.71182 255 255 255
-0.552125   1.08716    2.3309 255 255 255
-0.184286  0.459169   2.15434 255 255 255
-0.335454  0.621702   2.24586 255 255 255
-0.419317   1.53317    2.4623 255 255 255
-0.501488   1.13764   2.10849 255 255 255
-0.611191  0.516608   2.56282 255 255 255
-0.533173  0.970544   2.30245 255 255 255
-0.439266   1.24401   2.43106 255 255 255
-0.416851   1.28902   2.04637 255 255 255
-0.643816  0.575647   2.61841 255 255 255
-0.236021  0.735767   2.10973 255 255 255
-0.564451  0.976298   2.17152 255 255 255
-0.61152 0.522319  2.51962 255 255 255
-0.511409  0.386134   2.37141 255 255 255
-0.568486   1.30194   2.62931 255 255 255
-0.551739   1.18645   2.57962 255 255 255
-0.646068  0.570879   2.61909 255 255 255
-0.558515   1.26386    2.6098 255 255 255
-0.589431  0.483406   2.41858 255 255 255
-0.421792  0.329483   2.21412 255 255 255
-0.624892  0.928303   2.52041 255 255 255
-0.51828 0.429082  2.27355 255 255 255
-0.482784  0.867142   2.11211 255 255 255
-0.653171  0.501449   2.61808 255 255 255
-0.573448  0.425409   2.44124 255 255 255
-0.587278  0.837982   2.64316 255 255 255
-0.649929  0.592409   2.59017 255 255 255
-0.611899  0.537486   2.55069 255 255 255
-0.53414   1.0619  2.12916 255 255 255
-0.62016  1.07264  2.56788 255 255 255
-0.543591   1.37251   2.59527 255 255 255
-0.463353  0.455979   2.23182 255 255 255
-0.477006  0.457672   2.24133 255 255 255
-0.641614   0.51808   2.57014 255 255 255
-0.483975  0.376012   2.32266 255 255 255
-0.551326  0.701564   2.55201 255 255 255
-0.374039   1.35345   2.20954 255 255 255
-0.592568   1.10173   2.42151 255 255 255
-0.500622   1.27087   2.30604 255 255 255
-0.540673  0.539998   2.47691 255 255 255
-0.555526  0.447565    2.3804 255 255 255
-0.573435   1.00682   2.38411 255 255 255
-0.556798  0.455821   2.37826 255 255 255
-0.555633  0.447712    2.3745 255 255 255
-0.408695    1.3062   2.04613 255 255 255
-0.186153   1.61932   2.16052 255 255 255
-0.574261   1.16542   2.62886 255 255 255
-0.509056   1.19743    2.3201 255 255 255
-0.567364  0.865789     2.164 255 255 255
-0.529884    1.5091   2.59898 255 255 255
-0.584877  0.530284   2.51716 255 255 255
-0.56656 0.857116  2.16563 255 255 255
-0.380761   1.29107   2.01273 255 255 255
-0.483235  0.443206   2.31523 255 255 255
-0.424801   1.69146   2.48353 255 255 255
-0.626241  0.899308   2.60513 255 255 255
-0.567146   1.13022    2.3463 255 255 255
-0.448263   1.28985   2.27063 255 255 255
-0.487613   1.28982   2.56244 255 255 255
-0.558865  0.361067   2.55557 255 255 255
-0.450483   1.23886   2.44913 255 255 255
-0.495416   0.41582   2.26573 255 255 255
-0.547961   1.12156   2.33909 255 255 255
-0.433852   1.26179   2.42898 255 255 255
-0.442683  0.905003   2.07842 255 255 255
-0.567388  0.785363   2.58177 255 255 255
-0.486628   1.17091   2.21046 255 255 255
-0.622436  0.634703    2.5371 255 255 255
-0.479829    1.0492   2.08339 255 255 255
-0.50678   1.3501   2.5463 255 255 255
-0.394837   1.40153   2.39903 255 255 255
-0.520224   1.11104   2.26465 255 255 255
-0.611763  0.929554   2.44632 255 255 255
-0.603848  0.522939   2.54313 255 255 255
-0.488294  0.458505   2.24924 255 255 255
-0.573615  0.710751   2.60797 255 255 255
-0.316853   1.60768   2.28045 255 255 255
-0.385452  0.678619   2.28849 255 255 255
-0.47858  1.20264  2.30002 255 255 255
-0.478904  0.343341   2.27066 255 255 255
-0.476656   1.53074   2.55729 255 255 255
-0.589038   1.16993    2.6648 255 255 255
-0.468141   1.26028   2.07836 255 255 255
-0.525302   1.33465    2.5729 255 255 255
-0.571603  0.790084   2.57473 255 255 255
-0.370428   0.69411   2.21624 255 255 255
-0.582134  0.725665   2.70314 255 255 255
-0.608259  0.512272   2.56322 255 255 255
-0.482016   1.27999   2.08379 255 255 255
-0.600438  0.456865   2.56814 255 255 255
-0.336484  0.758681   2.21376 255 255 255
-0.607542   1.07032   2.66907 255 255 255
-0.646031  0.512307   2.61302 255 255 255
-0.465634   1.71229    2.5446 255 255 255
-0.544978  0.520501   2.47101 255 255 255
-0.520272   1.33829    2.5827 255 255 255
-0.605079  0.587619   2.51913 255 255 255
-0.434508  0.446317   2.20682 255 255 255
-0.612066    0.5181    2.5174 255 255 255
-0.51444  1.01071  2.19215 255 255 255
-0.558393  0.464376   2.37606 255 255 255
-0.482892  0.597735    2.2275 255 255 255
-0.425289   1.37851   2.31316 255 255 255
-0.521738   1.29359   2.53994 255 255 255
-0.526481  0.687948   2.48657 255 255 255
-0.546013  0.915257   2.23569 255 255 255
-0.545306   1.21655   2.58233 255 255 255
-0.0666141     1.4532    1.98814 255 255 255
-0.479225   1.34914   2.51605 255 255 255
-0.435835   1.28615    2.0292 255 255 255
-0.506736  0.864655   2.42262 255 255 255
-0.620286  0.419433   2.58956 255 255 255
-0.292369   1.49698   2.28994 255 255 255
-0.615662   1.06235   2.67791 255 255 255
-0.438649   1.25471   2.43477 255 255 255
-0.0392093     1.6179    1.98232 255 255 255
-0.40915 0.779639   2.3294 255 255 255
-0.333561   0.25597   2.37257 255 255 255
-0.48062 0.413121   2.3237 255 255 255
-0.646221  0.461662   2.59923 255 255 255
-0.467789   1.52041   2.54296 255 255 255
-0.536535  0.451669    2.3553 255 255 255
-0.494452  0.364424   2.28726 255 255 255
-0.633766  0.893502   2.59933 255 255 255
-0.558517   1.21593   2.61823 255 255 255
-0.585414  0.734795   2.70442 255 255 255
-0.584548  0.573806   2.49482 255 255 255
-0.386189  0.229307   2.49358 255 255 255
-0.451639    1.1446   2.05738 255 255 255
-0.556951   1.17104   2.11568 255 255 255
-0.524847    1.3019   2.58078 255 255 255
-0.472543  0.553514   2.29476 255 255 255
-0.519829  0.394211   2.37398 255 255 255
-0.644725  0.612978   2.55883 255 255 255
-0.40317  1.50274  2.44134 255 255 255
-0.579153   1.10495   2.63151 255 255 255
-0.520988  0.355722   2.41079 255 255 255
-0.361691  0.739395   2.25709 255 255 255
-0.580654  0.745138   2.66634 255 255 255
-0.56603  1.26853  2.62555 255 255 255
-0.548506  0.527799   2.36829 255 255 255
-0.276116   1.50804   2.24689 255 255 255
-0.549273  0.732721   2.55734 255 255 255
-0.496261  0.415978   2.27166 255 255 255
-0.500831  0.407521   2.30747 255 255 255
-0.61253 0.518687  2.52334 255 255 255
-0.46073  1.28276  2.07238 255 255 255
-0.451562    1.2836   2.07184 255 255 255
-0.567007  0.774387   2.60789 255 255 255
-0.440904   1.55359   2.49098 255 255 255
-0.397576   1.58129   2.44513 255 255 255
-0.653318  0.988162      2.56 255 255 255
-0.66647 0.616717  2.58541 255 255 255
-0.622426  0.629486   2.53064 255 255 255
-0.56795 0.393933  2.48435 255 255 255
-0.511807   1.19287   2.39115 255 255 255
-0.523754   0.47128   2.26526 255 255 255
-0.54596  1.06419  2.37252 255 255 255
-0.554068  0.788697    2.5736 255 255 255
-0.460266    1.2444   2.06327 255 255 255
-0.609564  0.514417   2.52187 255 255 255
-0.282278   1.58118   2.27211 255 255 255
-0.521548  0.862933   2.40516 255 255 255
-0.545798  0.705851    2.5498 255 255 255
-0.161357   1.56077    2.0824 255 255 255
-0.536825  0.459835   2.35312 255 255 255
-0.558848  0.958677   2.39544 255 255 255
-0.387991   1.41478   2.39672 255 255 255
-0.502301   1.13936   2.07366 255 255 255
-0.557684  0.528855    2.3844 255 255 255
-0.546919  0.517303    2.3697 255 255 255
-0.543162   1.25079    2.5807 255 255 255
-0.522846    1.3148   2.57543 255 255 255
-0.567833  0.805797   2.57803 255 255 255
-0.585388   1.16406   2.65538 255 255 255
-0.549079   1.24476   2.59478 255 255 255
-0.544363    1.1906   2.58437 255 255 255
-0.554726  0.861376   2.31546 255 255 255
-0.648528  0.618308    2.5549 255 255 255
-0.538583  0.456482    2.3569 255 255 255
-0.561723   1.21437   2.62708 255 255 255
-0.636887   1.02076   2.48186 255 255 255
-0.487577   1.18121   2.08579 255 255 255
-0.430027   1.56653   2.46714 255 255 255
-0.556581  0.455856   2.37265 255 255 255
-0.502238   1.28988    2.0836 255 255 255
-0.57361 0.883424  2.41191 255 255 255
-0.560518   0.46101   2.37981 255 255 255
-0.531868  0.430344   2.37657 255 255 255
-0.280199   1.47014   2.27369 255 255 255
-0.331727  0.257332   2.36247 255 255 255
 -0.5273 0.544701  2.32429 255 255 255
-0.502575  0.437616   2.29866 255 255 255
-0.557828   0.34456   2.44135 255 255 255
-0.394711  0.721862   2.28977 255 255 255
-0.608942  0.613521   2.63198 255 255 255
-0.609052  0.522021   2.51331 255 255 255
-0.217929   1.57837   2.13917 255 255 255
-0.261238  0.721947   2.10462 255 255 255
-0.151788   1.57871   2.07642 255 255 255
-0.519875  0.968368   2.29891 255 255 255
-0.64586 0.521423  2.60839 255 255 255
-0.548526  0.817665   2.53569 255 255 255
-0.0994919    1.44934    2.02075 255 255 255
-0.106139   1.45123   2.02574 255 255 255
-0.662357  0.961104   2.56414 255 255 255
-0.527317   0.69182   2.50175 255 255 255
-0.648718  0.860615   2.65526 255 255 255
-0.631863  0.586513   2.56001 255 255 255
-0.559509  0.460652   2.37403 255 255 255
-0.475336   1.70408   2.54884 255 255 255
-0.277499   1.57876   2.25918 255 255 255
-0.313908  0.728414   2.14179 255 255 255
-0.453024   1.05537   2.04541 255 255 255
-0.586737  0.468668   2.42203 255 255 255
-0.314278   1.52378   2.28143 255 255 255
-0.582348   1.12591   2.59616 255 255 255
-0.525736   1.13456   2.11432 255 255 255
-0.420106  0.306545   2.22264 255 255 255
-0.483206   1.20768   2.48027 255 255 255
-0.360802  0.260639   2.39925 255 255 255
-0.56063 0.452789  2.38176 255 255 255
-0.576999  0.865656   2.33806 255 255 255
-0.490868   1.15867   2.48118 255 255 255
-0.486179    1.2724   2.09756 255 255 255
-0.536244  0.447844   2.35917 255 255 255
-0.442467   1.57463   2.49142 255 255 255
-0.553337   1.24014   2.59841 255 255 255
-0.36784 0.749537  2.27199 255 255 255
-0.380269  0.635465   2.28189 255 255 255
-0.529393  0.709811   2.58514 255 255 255
-0.59791 0.575274  2.52645 255 255 255
-0.615241  0.830556   2.70356 255 255 255
-0.591719  0.809413   2.72291 255 255 255
-0.533539   1.29597   2.13386 255 255 255
-0.150985   1.47696   2.07305 255 255 255
-0.37323  1.65584  2.57987 255 255 255
-0.606046   1.05755    2.6639 255 255 255
-0.604415  0.973316   2.67892 255 255 255
-0.627951  0.502846   2.58257 255 255 255
-0.676007  0.528451   2.61992 255 255 255
-0.312654   1.52376   2.27499 255 255 255
-0.554966  0.957334    2.3287 255 255 255
-0.587653  0.471207   2.42611 255 255 255
-0.345082   1.62947   2.46993 255 255 255
-0.294306   1.58228   2.27884 255 255 255
-0.623551   1.09926   2.50723 255 255 255
-0.463528   0.44329   2.22775 255 255 255
-0.565089  0.439408   2.42131 255 255 255
-0.401631  0.558951   2.18105 255 255 255
-0.497951  0.993814   2.09436 255 255 255
-0.573238   1.18053   2.61873 255 255 255
-0.302661   1.51627    2.2609 255 255 255
-0.533515   1.13736   2.55918 255 255 255
-0.542414   1.14655   2.56843 255 255 255
-0.362638   1.60057   2.49191 255 255 255
-0.186122    1.4947   2.12478 255 255 255
-0.534657  0.447277   2.35368 255 255 255
-0.47075  1.17122   2.2882 255 255 255
-0.584943  0.862556   2.63514 255 255 255
-0.0233314    1.61405    1.95116 255 255 255
-0.0650386    1.47951    1.97854 255 255 255
-0.56016 0.463019  2.38441 255 255 255
-0.535989  0.443919    2.3573 255 255 255
-0.656059  0.909161   2.56377 255 255 255
-0.422602  0.656893   2.34275 255 255 255
-0.530034   1.27392     2.131 255 255 255
-0.509103  0.461774   2.28842 255 255 255
-0.45775  1.23649  2.34313 255 255 255
-0.587879  0.864808   2.32915 255 255 255
-0.544821  0.971986   2.13565 255 255 255
-0.61953 0.465641  2.59388 255 255 255
-0.40514  1.57633  2.42461 255 255 255
-0.358551  0.649477   2.21095 255 255 255
-0.123449   1.48069   2.07749 255 255 255
-0.525637  0.447796    2.2719 255 255 255
-0.538176   1.32072   2.14425 255 255 255
-0.433441   1.53032   2.49321 255 255 255
-0.629042   1.07051   2.53704 255 255 255
-0.179629   1.67861   2.18657 255 255 255
-0.430659   1.18064   2.04496 255 255 255
-0.588931  0.877831    2.6452 255 255 255
-0.440788   1.36354   2.05743 255 255 255
-0.345657   1.52334   2.37077 255 255 255
-0.513243   1.19039   2.36821 255 255 255
-0.549995  0.796707   2.53064 255 255 255
-0.649257   1.09479   2.54008 255 255 255
-0.60455 0.513049   2.5159 255 255 255
-0.486564  0.441284   2.24996 255 255 255
-0.559965  0.687169   2.66622 255 255 255
-0.607596  0.486652    2.5704 255 255 255
-0.445552   1.56622   2.49875 255 255 255
-0.25826  1.50546  2.21525 255 255 255
-0.233219  0.705932   2.12112 255 255 255
-0.528356  0.857484   2.29567 255 255 255
-0.373733   0.65047   2.18675 255 255 255
-0.388214   1.62384   2.57536 255 255 255
-0.546914  0.923942   2.22933 255 255 255
-0.527931   0.49329   2.28898 255 255 255
-0.471616   1.08867   2.06678 255 255 255
-0.417091    1.0644   2.02235 255 255 255
-0.502971   1.53092   2.58991 255 255 255
-0.420276   1.54962   2.46964 255 255 255
-0.557596  0.480161   2.39798 255 255 255
-0.581547  0.401791    2.4711 255 255 255
-0.588058   1.12182      2.64 255 255 255
-0.559186   1.10264   2.33494 255 255 255
-0.229221   1.56623   2.19875 255 255 255
-0.605921  0.852759   2.69898 255 255 255
-0.641551  0.606822     2.553 255 255 255
-0.650625   1.08375   2.54644 255 255 255
-0.620247  0.602482   2.50239 255 255 255
-0.613682  0.951284   2.52252 255 255 255
-0.092681   1.48408   2.03647 255 255 255
-0.541503  0.822009   2.53637 255 255 255
-0.401209   1.36969   2.23523 255 255 255
-0.583339  0.902036   2.62314 255 255 255
-0.635769   1.00054   2.54775 255 255 255
-0.442311   1.12544    2.2641 255 255 255
-0.544754  0.756522   2.47329 255 255 255
-0.58633 0.741642  2.66922 255 255 255
-0.57163 0.712336  2.63068 255 255 255
-0.522926   1.08125   2.11226 255 255 255
-0.529369  0.516278   2.35821 255 255 255
-0.552326  0.492134   2.38719 255 255 255
-0.410038   1.55303   2.45957 255 255 255
-0.614644  0.784513   2.63162 255 255 255
-0.43064 0.806835  2.32921 255 255 255
-0.665228  0.618561    2.5808 255 255 255
-0.472389    1.2885   2.07875 255 255 255
-0.48418  1.50004  2.54644 255 255 255
-0.306237  0.722763   2.14259 255 255 255
-0.610355  0.547282   2.53845 255 255 255
-0.588613   1.02737   2.64221 255 255 255
-0.513678  0.733971   2.47459 255 255 255
-0.327585   1.52225    2.3139 255 255 255
-0.43717  1.53135  2.60261 255 255 255
-0.226087   1.51873   2.17603 255 255 255
-0.584279   1.11543   2.64143 255 255 255
-0.489975   1.37799   2.08413 255 255 255
-0.622663  0.584425   2.55092 255 255 255
-0.634675  0.925102   2.67482 255 255 255
-0.116765   1.46002   2.07531 255 255 255
-0.605993   1.07137   2.67395 255 255 255
-0.506702   1.44475    2.5706 255 255 255
-0.517003    1.3509   2.58498 255 255 255
-0.447229   1.34721   2.51114 255 255 255
-0.639106  0.453383   2.61435 255 255 255
-0.246174    1.5679   2.22264 255 255 255
-0.593747   1.16164   2.66868 255 255 255
-0.585361 -0.621337   4.26562 255 255 255
-0.565979 -0.681038   4.81629 255 255 255
 -0.37442 -0.860304   4.29782 255 255 255
-0.376281  -0.87755   4.37491 255 255 255
 -0.39175 -0.917623   4.55491 255 255 255
-0.323066 -0.936003   4.69908 255 255 255
-0.245338 -0.996302   4.36061 255 255 255
-0.459803 -0.753959   5.18598 255 255 255
-0.475072  -0.76297   4.50617 255 255 255
-0.444624 -0.823089   4.35083 255 255 255
-0.498054 -0.791309   4.25195 255 255 255
-0.358413 -0.913777    4.6513 255 255 255
-0.617263 -0.490672   5.29038 255 255 255
-0.599458 -0.780353   4.17643 255 255 255
-0.573336 -0.818205   4.17012 255 255 255
 -0.54362 -0.691557   4.62618 255 255 255
-0.453715 -0.728249    5.4409 255 255 255
-0.554384 -0.699944   4.88987 255 255 255
-0.136994  -1.02855   5.27418 255 255 255
-0.429755 -0.830824   4.74877 255 255 255
-0.151184  -1.02636   5.20132 255 255 255
-0.433958 -0.755653   5.41784 255 255 255
-0.641492 -0.564288   4.84387 255 255 255
-0.638876 -0.603971   4.91303 255 255 255
-0.628115 -0.526393   5.01264 255 255 255
-0.363678 -0.890996   4.52196 255 255 255
-0.242936  -1.11525   4.56923 255 255 255
-0.478195 -0.668449   5.40351 255 255 255
-0.272484 -0.961817   4.36623 255 255 255
-0.330837 -0.910178   4.32443 255 255 255
-0.454616 -0.797722   5.21191 255 255 255
-0.304641 -0.938402   4.76577 255 255 255
 -0.36847 -0.881535   5.26736 255 255 255
-0.317343 -0.944751   4.67033 255 255 255
 -0.40333 -0.753914     5.472 255 255 255
 -0.38048 -0.874878   4.35877 255 255 255
-0.487471  -0.79176   4.88014 255 255 255
-0.372224 -0.906076    4.6038 255 255 255
-0.229207   -1.0739   5.19647 255 255 255
-0.173677  -1.11919   4.33842 255 255 255
-0.160739  -1.03494   5.14149 255 255 255
-0.368552 -0.915757   4.49402 255 255 255
-0.516791 -0.684596   4.29442 255 255 255
-0.357271 -0.918006   4.96317 255 255 255
-0.312724 -0.925771   4.34684 255 255 255
-0.513625  -0.71994   4.76931 255 255 255
-0.657818 -0.500276   5.12241 255 255 255
-0.375805 -0.886764   4.39932 255 255 255
-0.0858284  -0.981932     3.9747 255 255 255
-0.342033 -0.939367   4.46106 255 255 255
-0.403372 -0.873481   4.48665 255 255 255
-0.224218 -0.980956      4.23 255 255 255
-0.390105 -0.773626   5.46379 255 255 255
-0.448238 -0.806845   5.08965 255 255 255
-0.218534  -1.01684   5.20382 255 255 255
-0.394252 -0.894968   4.49098 255 255 255
-0.384428 -0.860797   4.72739 255 255 255
-0.291958 -0.918957   5.27726 255 255 255
-0.514018 -0.721571   4.59389 255 255 255
-0.154042  -1.09104   4.96233 255 255 255
-0.658082 -0.486893   5.08874 255 255 255
-0.376718 -0.860985    4.3355 255 255 255
-0.344931 -0.883493   4.33718 255 255 255
-0.571845 -0.720821   4.17542 255 255 255
-0.435484 -0.832519   5.01774 255 255 255
-0.335402 -0.937683   4.73887 255 255 255
-0.0779524   -1.05384    5.36758 255 255 255
-0.616841 -0.820951   4.09775 255 255 255
-0.185753  -1.00778   5.17716 255 255 255
-0.633536 -0.541802   4.28412 255 255 255
-0.14935 -1.13658   4.3177 255 255 255
-0.490441 -0.746888   4.49489 255 255 255
-0.338176 -0.896949   5.31055 255 255 255
-0.163542  -1.00257   5.26039 255 255 255
 -0.68492 -0.497893   4.28381 255 255 255
-0.149539  -1.01231   5.32095 255 255 255
-0.521558 -0.731289   4.34001 255 255 255
-0.295483 -0.920433   5.39893 255 255 255
-0.286567 -0.916728   5.33846 255 255 255
-0.417477 -0.868271   4.54985 255 255 255
-0.429158 -0.814984    5.2111 255 255 255
-0.0149941   -1.15155    4.16314 255 255 255
-0.355047 -0.898159    4.3131 255 255 255
-0.124244  -1.09183   4.15564 255 255 255
-0.497393  -0.66147   5.31478 255 255 255
-0.0854754   -1.20368    4.67574 255 255 255
-0.183126  -1.06802   4.90435 255 255 255
-0.176406  -1.06361   4.96019 255 255 255
 -0.59585 -0.818422   4.14462 255 255 255
-0.658381 -0.474586   5.06355 255 255 255
 -0.30086 -0.963862   4.76384 255 255 255
-0.150011  -1.09337   4.99414 255 255 255
-0.450957 -0.878779   4.26005 255 255 255
-0.245918   -1.0097   4.73058 255 255 255
-0.490744 -0.643258   5.40401 255 255 255
-0.465773 -0.824883   4.78408 255 255 255
-0.206057  -1.13265    4.5354 255 255 255
-0.228959  -1.11332   4.54078 255 255 255
-0.209229  -1.02904   4.85176 255 255 255
-0.261103 -0.998452   5.20564 255 255 255
-0.455289 -0.780816   4.67429 255 255 255
-0.414752 -0.866927   4.39223 255 255 255
-0.537247 -0.630502   5.21327 255 255 255
-0.563585 -0.607465   5.08701 255 255 255
-0.416299 -0.833793   4.27056 255 255 255
-0.333598 -0.953191   5.15295 255 255 255
-0.577885 -0.848423   4.09522 255 255 255
-0.136447 -0.999821   5.38347 255 255 255
-0.0781564   -1.19273    4.83381 255 255 255
-0.308766 -0.953792    5.0947 255 255 255
-0.418779 -0.853294   5.10372 255 255 255
-0.656458 -0.481329   4.23701 255 255 255
-0.159679  -1.14271    4.3621 255 255 255
-0.334271  -0.93927   4.83443 255 255 255
-0.527002 -0.598422   5.35172 255 255 255
-0.592373 -0.659211   4.50912 255 255 255
-0.585939 -0.572048   4.25757 255 255 255
-0.621901 -0.531071   4.22982 255 255 255
-0.195905  -1.13135   4.83808 255 255 255
-0.553243 -0.606076   4.18959 255 255 255
-0.623118 -0.550095   5.11199 255 255 255
-0.186845   -1.0212   5.15638 255 255 255
 -0.56692 -0.611602   4.39435 255 255 255
-0.594136 -0.576989   5.19371 255 255 255
-0.193611  -1.11888   4.43847 255 255 255
-0.588499 -0.544473   4.23521 255 255 255
-0.658683 -0.453754   5.20543 255 255 255
-0.230039 -0.985958   4.30352 255 255 255
-0.520675 -0.761363   4.24333 255 255 255
-0.614042 -0.426226   5.38681 255 255 255
-0.523865 -0.729758   4.32445 255 255 255
-0.657715 -0.425232   4.20237 255 255 255
-0.507808 -0.697682   4.87627 255 255 255
-0.599348 -0.774985   4.07355 255 255 255
-0.528685 -0.646359   5.21275 255 255 255
-0.494662 -0.715243   5.17123 255 255 255
-0.219931  -1.01394   4.93561 255 255 255
-0.378252 -0.895895   4.54248 255 255 255
-0.517845 -0.708832   4.43269 255 255 255
-0.228197  -1.01414   4.87495 255 255 255
-0.177701  -1.02592   5.07764 255 255 255
-0.185062 -0.999831   5.19364 255 255 255
-0.547357 -0.635039    5.1401 255 255 255
-0.305459 -0.932711   4.32069 255 255 255
-0.163309 -0.999144   5.27975 255 255 255
-0.250205  -1.03982   5.18552 255 255 255
-0.223857  -1.01344    4.9015 255 255 255
-0.107914  -1.14406   4.31615 255 255 255
-0.746475  -0.49442   4.65907 255 255 255
-0.556718  -0.60081   5.14919 255 255 255
-0.409814 -0.895632   4.41976 255 255 255
-0.437973 -0.747459   5.42697 255 255 255
-0.500903 -0.722354   5.00665 255 255 255
-0.261488 -0.982345   4.54963 255 255 255
-0.634926 -0.784189   4.20579 255 255 255
-0.189151  -1.02328   4.30827 255 255 255
-0.586795 -0.566418   4.27826 255 255 255
-0.555926 -0.620931   5.14003 255 255 255
-0.590001 -0.821631   4.20435 255 255 255
-0.265539  -1.00888   4.75334 255 255 255
-0.169038  -1.02791   5.17032 255 255 255
-0.370966 -0.955034   4.84153 255 255 255
-0.154839  -1.02718   5.28855 255 255 255
-0.260636  -1.03655   5.02436 255 255 255
-0.0918362   -1.02201     4.0309 255 255 255
-0.0525662   -1.18226     4.4814 255 255 255
-0.639175 -0.515531   5.11374 255 255 255
-0.204672  -1.06855   5.23463 255 255 255
-0.178247  -1.01168   5.19255 255 255 255
-0.312524 -0.953011   4.70478 255 255 255
-0.302942 -0.925342   5.22151 255 255 255
-0.0720431   -1.08924    5.28976 255 255 255
-0.608877 -0.599285   4.72153 255 255 255
-0.628602 -0.583358   4.85568 255 255 255
-0.641427 -0.510602   4.71016 255 255 255
-0.620818 -0.559777   4.96926 255 255 255
-0.409881 -0.919641   4.55707 255 255 255
-0.493118  -0.65349   5.41858 255 255 255
-0.562114 -0.599475   4.12651 255 255 255
-0.449593   -0.8063   5.21332 255 255 255
0.241391 -1.05842  3.88809 255 255 255
-0.548917 -0.604882   5.22041 255 255 255
-0.660984 -0.492729   4.60044 255 255 255
-0.571086  -0.61032   5.12932 255 255 255
-0.687941 -0.447059   4.43138 255 255 255
-0.571251  -0.83015   4.06066 255 255 255
-0.093149  -1.08936   5.36672 255 255 255
0.289838 -1.08325  3.88528 255 255 255
-0.189646 -0.993123   5.18186 255 255 255
 -0.69825 -0.460928    4.0929 255 255 255
-0.389824  -0.89402   4.87186 255 255 255
-0.486577  -0.71607   5.15945 255 255 255
-0.141001  -1.09905   4.19779 255 255 255
-0.489384  -0.73277    5.0295 255 255 255
-0.358426 -0.909559   4.92572 255 255 255
 -0.36488 -0.967218   4.85095 255 255 255
-0.346781 -0.909585   4.35212 255 255 255
-0.525411 -0.642556   5.19714 255 255 255
-0.514443 -0.628305   5.38836 255 255 255
-0.415057 -0.855659   4.35235 255 255 255
-0.278004   -1.0157   4.76942 255 255 255
-0.261685  -1.00845   4.76971 255 255 255
-0.634326  -0.51353   4.58356 255 255 255
-0.314951  -1.01687   5.07085 255 255 255
-0.353092 -0.903935   4.97705 255 255 255
-0.393669 -0.900395   4.59037 255 255 255
 -0.53428 -0.647461   4.11728 255 255 255
-0.187105  -1.12148    4.4677 255 255 255
-0.243165 -0.994817    4.5312 255 255 255
-0.317859 -0.910873   4.69391 255 255 255
-0.311523 -0.919787   5.02968 255 255 255
 -0.55656 -0.592679   4.07515 255 255 255
-0.588469 -0.610236   4.47318 255 255 255
-0.248441  -0.99092   4.63102 255 255 255
-0.230453  -1.00708      4.85 255 255 255
-0.172424  -1.01706   5.14243 255 255 255
-0.524971 -0.671625   4.33204 255 255 255
-0.587836 -0.816236   4.18071 255 255 255
-0.24075 -1.00591  4.65149 255 255 255
-0.429872  -0.85479   4.65258 255 255 255
-0.615398   -0.5667   5.06145 255 255 255
-0.0671497   -1.11572    4.13783 255 255 255
-0.569175  -0.60453   4.30905 255 255 255
-0.218049  -1.02478   4.66201 255 255 255
-0.701957 -0.460673   4.14687 255 255 255
-0.0778349   -1.07598    5.26628 255 255 255
-0.0873666   -1.07833    5.36356 255 255 255
-0.478204 -0.836479   4.46995 255 255 255
-0.159592  -1.00886    5.2748 255 255 255
 -0.47766 -0.753766   4.66087 255 255 255
-0.635301 -0.506416   4.58997 255 255 255
-0.217679 -0.905813   3.98764 255 255 255
-0.183428   -1.1269   4.44692 255 255 255
-0.599191 -0.535064   4.04947 255 255 255
-0.607493 -0.799451   4.05371 255 255 255
-0.221978 -0.998689   5.02643 255 255 255
-0.394649 -0.832029   4.33648 255 255 255
-0.576083 -0.834673   4.08714 255 255 255
-0.486306 -0.724346   5.15237 255 255 255
-0.379962 -0.924778   4.46714 255 255 255
-0.688581 -0.465506   4.44343 255 255 255
-0.667101 -0.591512   4.77129 255 255 255
-0.220322  -1.00553   4.94602 255 255 255
-0.648196 -0.490589   5.13649 255 255 255
-0.264113  -1.00233    4.7023 255 255 255
-0.498526 -0.740238   4.72699 255 255 255
 -0.35798 -0.954338   4.92237 255 255 255
-0.23887  -1.0084  4.59145 255 255 255
-0.491266 -0.929864   4.22117 255 255 255
-0.551819 -0.611765    5.1805 255 255 255
-0.20968 -1.00731  5.02096 255 255 255
-0.655509 -0.468924   4.24496 255 255 255
-0.569658 -0.594465   5.14196 255 255 255
-0.182436  -1.01584   5.10174 255 255 255
-0.187757  -1.04211   4.95149 255 255 255
-0.309326 -0.931635   4.69994 255 255 255
-0.226353  -1.01766   4.84628 255 255 255
-0.524281 -0.703552   4.86304 255 255 255
-0.382262 -0.913081   4.53811 255 255 255
-0.368193 -0.913476   4.51447 255 255 255
-0.507333 -0.665109   5.32285 255 255 255
-0.563758 -0.617761   4.38593 255 255 255
-0.572012 -0.807847   4.13329 255 255 255
-0.365776 -0.896924   4.52454 255 255 255
-0.384585 -0.903275   4.63624 255 255 255
-0.255237  -0.96588     4.295 255 255 255
-0.0989608   -1.07642    5.38163 255 255 255
-0.659417 -0.491395   4.72882 255 255 255
-0.564351 -0.572162    5.2177 255 255 255
-0.294369 -0.930659   5.28104 255 255 255
-0.207422  -1.02553   5.00989 255 255 255
-0.511622 -0.710187   4.75689 255 255 255
-0.532928  -0.75984   4.62747 255 255 255
-0.630642 -0.490148   4.24229 255 255 255
-0.630088 -0.614423   4.85451 255 255 255
-0.525882 -0.689613   4.93129 255 255 255
-0.374416 -0.883574   4.78972 255 255 255
-0.502653 -0.657974   4.17604 255 255 255
-0.565601 -0.622389   5.17992 255 255 255
-0.169495  -1.01219   5.21197 255 255 255
-0.481342 -0.823691   4.46393 255 255 255
-0.639175 -0.440838   4.20344 255 255 255
-0.253282 -0.967718   4.27858 255 255 255
-0.460159 -0.745865   5.20422 255 255 255
-0.431878 -0.883143   4.30567 255 255 255
-0.251402 -0.972787   4.33566 255 255 255
-0.687956 -0.423857   4.19762 255 255 255
   -0.558 -0.635282   5.11357 255 255 255
-0.0761459    -1.0584    5.37703 255 255 255
-0.575112 -0.737843   4.95416 255 255 255
-0.589498 -0.828783   4.20689 255 255 255
-0.18706  -1.0191  5.13255 255 255 255
-0.264465  -1.00271   4.71378 255 255 255
-0.430126 -0.825352   5.11888 255 255 255
-0.188722   -1.0101   5.16395 255 255 255
-0.229829  -1.02818   5.11024 255 255 255
-0.100932  -1.10527   4.16493 255 255 255
-0.628577 -0.640541   4.55651 255 255 255
-0.370962 -0.904196   4.38815 255 255 255
-0.357818 -0.884734   5.24861 255 255 255
-0.218775  -1.00286   4.99977 255 255 255
-0.204991 -0.951251   5.35767 255 255 255
-0.0864171   -1.04728    5.37062 255 255 255
0.0079024  -1.16799   4.16834 255 255 255
-0.476517 -0.724364   5.19304 255 255 255
-0.15045 -1.00617  5.33831 255 255 255
-0.359876 -0.894531   5.09459 255 255 255
-0.458105 -0.784929   5.07761 255 255 255
-0.218668 -0.999918   4.23684 255 255 255
-0.228807  -1.00272   4.68653 255 255 255
-0.510491 -0.644431    5.3462 255 255 255
-0.580216 -0.814728   4.10597 255 255 255
-0.574288  -0.83107   4.10117 255 255 255
-0.165641  -1.02265   5.20239 255 255 255
-0.465302 -0.810733   4.79789 255 255 255
-0.513062 -0.749814   5.25498 255 255 255
-0.0733965   -1.08377    5.30867 255 255 255
-0.580443  -0.56838   4.24022 255 255 255
-0.285415  -1.01817   4.61394 255 255 255
-0.488422 -0.712745   5.11942 255 255 255
-0.416248 -0.841424   4.60561 255 255 255
-0.204573  -1.06243   4.90042 255 255 255
-0.361405 -0.878757   4.77674 255 255 255
-0.160619  -1.01064   5.24964 255 255 255
-0.181975   -1.0161   5.12142 255 255 255
-0.569543 -0.607992   5.16958 255 255 255
-0.563775 -0.642188   4.93806 255 255 255
-0.602949 -0.611502   5.04956 255 255 255
0.294246 -1.09283  3.92366 255 255 255
-0.551424 -0.620987    4.1171 255 255 255
-0.521941 -0.686724   5.06733 255 255 255
-0.341249 -0.930423   4.49685 255 255 255
-0.388344 -0.867432   4.97894 255 255 255
 -0.25813 -0.999619      4.51 255 255 255
-0.547537 -0.643426   4.31528 255 255 255
-0.250041  -1.04832    4.8579 255 255 255
-0.349473 -0.941273   5.08435 255 255 255
-0.559588 -0.631367   4.30719 255 255 255
-0.515222 -0.635553   5.39883 255 255 255
0.0456437  -1.13907   4.20198 255 255 255
-0.398527 -0.832302    5.4184 255 255 255
-0.189678  -1.01116    5.1546 255 255 255
-0.276476  -1.00802   4.72595 255 255 255
-0.367515 -0.913247   4.85799 255 255 255
-0.243326 -0.999748    4.5895 255 255 255
-0.651843 -0.646295   4.60511 255 255 255
 -0.43244 -0.825977   4.42051 255 255 255
-0.402831 -0.863847   4.58752 255 255 255
-0.239933  -1.00426   4.57189 255 255 255
 -0.41087 -0.834995   4.66514 255 255 255
-0.573905 -0.603893   5.09224 255 255 255
 -0.25647 -0.989713   4.44874 255 255 255
 -0.25537 -0.989502   4.44855 255 255 255
-0.275503  -1.03825   5.01367 255 255 255
-0.531354  -0.68055   4.36273 255 255 255
-0.483587 -0.718259   5.17322 255 255 255
-0.470746 -0.746424   4.29124 255 255 255
-0.254586 -0.984695   4.39644 255 255 255
-0.636072 -0.576294   4.83696 255 255 255
-0.394727 -0.884088   4.85945 255 255 255
-0.529575 -0.594212   5.35185 255 255 255
