ply
format ascii 1.0
element vertex 1161
property float x
property float y
property float z
property uchar red
property uchar green
property uchar blue
end_header
0.153458 0.118966  2.03935 255 255 255
 0.254764 0.0819776   2.00239 255 255 255
  0.171515 -0.0985278    2.10274 255 255 255
0.0576736  0.248649   2.06407 255 255 255
0.738456 0.198541  1.72988 255 255 255
0.596323 0.127853  1.81058 255 255 255
 0.64967 0.300085  1.72688 255 255 255
 0.450805 0.0427294   1.90864 255 255 255
  0.416469 0.00572076    1.93336 255 255 255
0.336171  0.11189  1.95143 255 255 255
 0.474418 0.0136871   1.89836 255 255 255
 0.430505 -0.144459   1.96217 255 255 255
0.595486 0.165919  1.80185 255 255 255
 0.662766 -0.196696   1.82396 255 255 255
 0.173238 -0.230782   2.03878 255 255 255
0.295294 0.106226  1.98093 255 255 255
0.664244 0.311967  1.72579 255 255 255
0.567757 0.025039  1.83787 255 255 255
0.719215 0.193579  1.73246 255 255 255
0.0658869 0.0568763   2.09445 255 255 255
  0.625348 -0.0415293    1.87912 255 255 255
0.560084 0.118404  1.82049 255 255 255
0.0434249 -0.055588   2.09937 255 255 255
0.668196 0.124801  1.76305 255 255 255
0.0704031  0.200352   2.04893 255 255 255
   0.24265 -0.0607682     2.0302 255 255 255
0.478263 0.062416  1.89185 255 255 255
0.485154 0.271361  1.84585 255 255 255
  0.597566 0.00948175     1.8453 255 255 255
 0.198658 -0.196982   2.03965 255 255 255
0.0907487 -0.217078   2.08335 255 255 255
0.501353 0.317858  1.81919 255 255 255
  0.792235 -0.0698067    1.80444 255 255 255
  0.466652 -0.0815702    1.95684 255 255 255
0.862653 0.290344  1.66677 255 255 255
0.559266 0.245371  1.81344 255 255 255
0.761815 -0.17588  1.78012 255 255 255
 0.759326 -0.100451   1.81807 255 255 255
0.163386 0.212442  2.01069 255 255 255
  0.843875 -0.0597972    1.78215 255 255 255
0.346308 0.050384  1.96285 255 255 255
0.867111 0.321661   1.6398 255 255 255
0.333083  0.24392  1.90772 255 255 255
 0.283346 0.0479138   1.99491 255 255 255
0.401384 0.119862  1.92736 255 255 255
 0.560332 0.0239839   1.84429 255 255 255
0.709325 0.197362  1.73609 255 255 255
 0.721045 -0.130021   1.83106 255 255 255
 0.737704 -0.156411   1.81774 255 255 255
0.202876 0.198868  1.99899 255 255 255
 0.858332 0.0749994   1.69526 255 255 255
0.853301 -0.12179  1.76069 255 255 255
 0.257828 -0.225564   2.01318 255 255 255
 0.257828 -0.225564   2.01318 255 255 255
 0.392655 -0.146143   1.95436 255 255 255
0.145972  0.15752  2.03435 255 255 255
0.258704 0.216111  1.96549 255 255 255
 0.35413 0.267276  1.89191 255 255 255
 0.594802 0.0551026   1.83372 255 255 255
0.510693 0.307757  1.81607 255 255 255
 0.470578 0.0797469   1.89394 255 255 255
0.354659 0.175957  1.94027 255 255 255
0.595424 0.076877  1.82974 255 255 255
 0.596874 0.0766224   1.83203 255 255 255
0.669222 0.332988  1.73305 255 255 255
0.761281 0.263452  1.69412 255 255 255
0.581226 0.103657   1.8277 255 255 255
0.0456419  0.221486   2.07863 255 255 255
0.0792455  0.115611   2.09062 255 255 255
0.603212 0.139681  1.80681 255 255 255
0.925478  0.11578  1.65923 255 255 255
0.812677  0.10343  1.72014 255 255 255
0.131602 0.111545   2.0587 255 255 255
 0.570992 0.0577513   1.83559 255 255 255
0.321568 -0.13529  1.99413 255 255 255
   0.055084 -0.00112391     2.10419 255 255 255
  0.19982 -0.228588   2.03001 255 255 255
0.711722 0.294908  1.71372 255 255 255
  0.393881 0.00718175    1.94403 255 255 255
 0.306097 0.0987962   1.97866 255 255 255
 0.30696 0.051865  1.97971 255 255 255
0.0107321  0.089413   2.09291 255 255 255
0.949028 0.125433  1.64893 255 255 255
0.738704 0.305329  1.69823 255 255 255
0.863518 0.346295   1.6351 255 255 255
0.870077 -0.16996  1.75431 255 255 255
0.373249 0.156122  1.90019 255 255 255
 0.159821 -0.257102   2.03651 255 255 255
 0.478752 0.0811913   1.89222 255 255 255
0.887146 0.269169  1.65349 255 255 255
 0.406355 0.0828764   1.92848 255 255 255
 0.327026 -0.211587   1.98233 255 255 255
 0.786855 -0.190631    1.7735 255 255 255
 0.338605 0.0133225   1.97193 255 255 255
 0.253032 -0.194421   2.02678 255 255 255
0.159486 0.218172  2.01255 255 255 255
  0.509501 -0.0588998    1.93132 255 255 255
 0.674752 -0.203059   1.82429 255 255 255
0.303111 0.285611  1.93079 255 255 255
0.709712 -0.15933  1.83165 255 255 255
 0.49045 0.315487  1.82598 255 255 255
0.826461 0.254758   1.6628 255 255 255
  0.3015 0.250017  1.94406 255 255 255
  0.0951205 -0.00476483     2.07593 255 255 255
0.894864 0.103683  1.67124 255 255 255
0.333524 0.212244  1.93683 255 255 255
 0.922502 0.0737041   1.65886 255 255 255
0.116175 -0.21581  2.06903 255 255 255
0.851726 0.192818  1.66024 255 255 255
 0.831436 -0.135745   1.77779 255 255 255
 0.57898 0.150634  1.81738 255 255 255
0.893542  0.27943  1.66063 255 255 255
  0.19991 -0.109091   2.09715 255 255 255
 0.585292 0.0226552    1.8314 255 255 255
 0.550596 0.0979763    1.8528 255 255 255
0.797572 0.316233  1.67279 255 255 255
0.151068 0.237406  2.01227 255 255 255
0.0638118 0.0887049   2.10013 255 255 255
 0.561968 0.0115566   1.84559 255 255 255
 0.568774 0.0904429   1.83456 255 255 255
 0.848482 -0.156715   1.76431 255 255 255
0.122266 0.169426   2.0384 255 255 255
0.473641 0.215062  1.87006 255 255 255
   0.39407 -0.0674597    1.95015 255 255 255
0.865973 0.077403  1.68685 255 255 255
0.365821 0.298056  1.88987 255 255 255
 0.871373 0.0863908    1.6862 255 255 255
0.862423 0.338092  1.63783 255 255 255
0.503019 0.272473  1.79938 255 255 255
 0.797281 -0.174142   1.78818 255 255 255
   0.591179 -0.00969043     1.83203 255 255 255
0.187665 0.268997  1.98753 255 255 255
 0.155221 0.0207438    2.0557 255 255 255
 0.225227 -0.204249   2.04647 255 255 255
  0.945909 -0.0477956    1.73372 255 255 255
0.500426 0.260978  1.83824 255 255 255
0.923426 0.145373  1.65667 255 255 255
0.744528 0.309949  1.69623 255 255 255
 0.43202 0.103753  1.90547 255 255 255
0.871106 0.331863  1.63567 255 255 255
0.542753 0.287951    1.805 255 255 255
0.0607213  0.189598   2.05454 255 255 255
0.175243 0.175065  2.01822 255 255 255
  0.725925 -0.0941435    1.83224 255 255 255
0.316391 0.221991  1.94295 255 255 255
   0.205639 -0.00196951     2.03748 255 255 255
  0.141733 -0.0250456    2.06274 255 255 255
  0.15203 -0.174368   2.06112 255 255 255
 0.220225 0.0834554   2.01858 255 255 255
 0.727885 -0.197442    1.7994 255 255 255
 0.366863 0.0990864   1.94177 255 255 255
0.684031  0.34188   1.7273 255 255 255
0.422537 0.217569  1.89284 255 255 255
0.699756 0.221428  1.74182 255 255 255
 0.602355 -0.157833   1.87207 255 255 255
0.936221 0.128877  1.65278 255 255 255
 0.224769 0.0657833   2.01961 255 255 255
0.403528 0.222178  1.90157 255 255 255
 0.233744 0.0226243   2.01698 255 255 255
  0.816701 -0.0721582    1.79171 255 255 255
  0.85316 -0.143037   1.76508 255 255 255
 0.964233 -0.157297   1.70869 255 255 255
0.835937 0.300996  1.66269 255 255 255
0.119203 0.219157  2.03134 255 255 255
0.734214 0.317795  1.70287 255 255 255
0.752743 0.064555   1.7554 255 255 255
 0.578494 0.0865334   1.82889 255 255 255
0.730742 0.271034  1.70037 255 255 255
0.0445515 -0.095743   2.09734 255 255 255
0.581488 0.116818  1.82567 255 255 255
0.613921 0.147518   1.7917 255 255 255
0.80943  0.3447 1.66227 255 255 255
  0.776929 -0.0570595    1.81737 255 255 255
 0.584641 -0.226247   1.83235 255 255 255
0.905625 0.100641  1.67074 255 255 255
 0.259861 0.0226348   2.00465 255 255 255
0.523664 0.200672  1.83995 255 255 255
 0.935779 0.0863538   1.66316 255 255 255
 0.101017 -0.162685   2.09016 255 255 255
0.319182 0.184789  1.95322 255 255 255
0.428886 0.216295  1.88964 255 255 255
 0.857071 0.0910293   1.69933 255 255 255
0.856747 0.309707  1.65437 255 255 255
  0.145349 -0.0646574    2.12447 255 255 255
 0.338063 0.0419165   1.96589 255 255 255
0.566381 0.268199  1.79714 255 255 255
 0.096429 0.0495013   2.08198 255 255 255
0.721738 0.292458  1.71173 255 255 255
0.784182 0.325196  1.67692 255 255 255
0.534625 0.290302  1.80783 255 255 255
0.517703 0.197566  1.84246 255 255 255
0.197175 0.190139  2.00828 255 255 255
0.410191 0.220648  1.89893 255 255 255
0.434462  0.21415  1.88575 255 255 255
0.711258 0.208017  1.73172 255 255 255
  0.948017 -0.0361401    1.73649 255 255 255
  0.535554 -0.0171356    1.86961 255 255 255
  0.960585 -0.0766348    1.71296 255 255 255
0.740994 0.268178  1.69642 255 255 255
0.581494  0.04732   1.8287 255 255 255
0.393245 0.193994  1.87659 255 255 255
0.231664 0.260064  1.97247 255 255 255
0.621535 0.259595  1.76559 255 255 255
0.859488 0.285581   1.6667 255 255 255
0.698333 0.194489  1.73781 255 255 255
0.103613 0.163796  2.05137 255 255 255
 0.91683 0.107484  1.66748 255 255 255
0.860506 0.185051   1.6584 255 255 255
0.134909 0.036549  2.06405 255 255 255
 0.629177 -0.137198   1.87265 255 255 255
0.812827 0.339141  1.66368 255 255 255
  0.911936 -0.0386023     1.7521 255 255 255
0.737617 0.205664  1.72902 255 255 255
 0.368143 0.0463197   1.95446 255 255 255
0.558833 0.188975  1.81956 255 255 255
 0.932669 -0.159932   1.72499 255 255 255
 0.0972464 -0.0371493    2.07969 255 255 255
0.871387 0.256657   1.6419 255 255 255
0.427854 0.143568  1.90572 255 255 255
0.397242  0.22388  1.90446 255 255 255
  0.907021 -0.0425294    1.75359 255 255 255
0.413962 0.107993  1.91439 255 255 255
  0.336921 -0.0343179    2.01573 255 255 255
0.787349 0.050478  1.74114 255 255 255
 0.24794 0.262009  1.94547 255 255 255
  0.239146 -0.0292405    2.03148 255 255 255
 0.664326 -0.144036   1.85581 255 255 255
0.593703 -0.15067    1.885 255 255 255
0.232397 0.267522  1.96354 255 255 255
  0.947564 -0.0845456    1.72421 255 255 255
 0.583511 0.0737124   1.82663 255 255 255
0.689394 0.136847  1.75742 255 255 255
 0.481939 -0.212874   1.89792 255 255 255
 0.184485 -0.169928   2.08316 255 255 255
 0.532286 0.0872329   1.85401 255 255 255
 0.152652 0.0375533   2.05398 255 255 255
0.0930652  0.100658   2.06754 255 255 255
0.470169 0.258257  1.84992 255 255 255
 0.144428 0.0257365   2.06363 255 255 255
 0.763388 -0.144111   1.80637 255 255 255
0.046618 0.139319  2.07055 255 255 255
  0.8465 0.214109  1.65521 255 255 255
 0.571506 0.0232864   1.85473 255 255 255
 0.596981 -0.208209   1.82596 255 255 255
0.382674 0.198437  1.87819 255 255 255
0.861886 0.333786  1.63863 255 255 255
 0.946171 -0.170966   1.71562 255 255 255
0.588744  0.30801  1.77236 255 255 255
  0.791689 -0.0861081    1.80139 255 255 255
 0.462938 0.0408093   1.90413 255 255 255
 0.0705467 -0.0633252    2.16261 255 255 255
0.719849 0.313784  1.71953 255 255 255
0.523474 0.309184  1.80912 255 255 255
0.608262 0.336724  1.74494 255 255 255
0.909421 0.119734  1.66841 255 255 255
0.595282 0.299983   1.7634 255 255 255
 0.373641 -0.173945   1.96386 255 255 255
 0.896714 -0.120232   1.73859 255 255 255
 0.712672 -0.170904   1.81694 255 255 255
 0.174159 -0.247567   2.03448 255 255 255
 0.25678 0.126477  1.99763 255 255 255
0.0546065  0.152824   2.08907 255 255 255
 0.792962 -0.189243   1.76943 255 255 255
0.259907 0.224824   1.9672 255 255 255
0.671801 0.309589  1.72286 255 255 255
0.030952 0.129505  2.07931 255 255 255
  0.72734 -0.160574   1.80612 255 255 255
 0.848089 -0.162038   1.76257 255 255 255
 0.117558 0.0275772   2.06781 255 255 255
 0.115288 -0.222993   2.08982 255 255 255
 0.357638 -0.163051   1.96948 255 255 255
0.459442 0.261182  1.86575 255 255 255
 0.249047 0.0561088   2.00997 255 255 255
 0.916911 -0.164486   1.73121 255 255 255
0.704568 0.296197  1.71812 255 255 255
  0.18278 0.0255651   2.04254 255 255 255
0.0719605  0.222791   2.06131 255 255 255
 0.147454 -0.192611   2.06412 255 255 255
  0.491259 -0.0978069    1.89656 255 255 255
0.518901  0.14408  1.86231 255 255 255
  0.172563 -0.0560957    2.05272 255 255 255
0.829784 0.247812  1.65859 255 255 255
0.813185  0.29014  1.70096 255 255 255
0.406579 0.209371  1.87001 255 255 255
 0.741623 0.0590691   1.75895 255 255 255
 0.762251 -0.191459   1.78461 255 255 255
 0.230528 -0.207073   2.03401 255 255 255
0.067091 0.144851  2.06323 255 255 255
0.101882 0.194516  2.03997 255 255 255
0.0286852 0.0820722   2.08481 255 255 255
0.0287732 0.0285986   2.10895 255 255 255
0.818207 0.123759  1.69096 255 255 255
0.889701 0.292717  1.63725 255 255 255
0.798654 0.344291  1.66415 255 255 255
 0.736385 -0.176389   1.80058 255 255 255
  0.509439 -0.0112434    1.88438 255 255 255
  0.507222 -0.0107822    1.88143 255 255 255
0.367747 0.288659  1.88899 255 255 255
  0.770091 -0.0513733    1.82193 255 255 255
 0.212151 -0.229774   2.04184 255 255 255
   0.239456 -0.00605747     2.02277 255 255 255
  0.331292 -0.0194361    2.00635 255 255 255
   0.386381 -0.00463013     1.94915 255 255 255
0.277204 0.137646  1.97892 255 255 255
0.619985 0.109738  1.80591 255 255 255
 0.943796 -0.174785   1.72168 255 255 255
 0.775694 0.0939953   1.72499 255 255 255
0.109724 0.188408  2.05073 255 255 255
 0.572693 0.0487968   1.83403 255 255 255
  0.329463 0.00548322    1.98062 255 255 255
 0.899409 -0.166214   1.74329 255 255 255
0.743666 0.213209  1.72598 255 255 255
 0.792447 0.0388224   1.74022 255 255 255
 0.938751 0.0792727   1.65559 255 255 255
 0.170559 0.0965096   2.04236 255 255 255
0.559428 0.220644  1.79908 255 255 255
  0.454758 0.00459571    1.91062 255 255 255
 0.111131 0.0215032   2.07401 255 255 255
0.0258848  0.227498   2.08719 255 255 255
  0.970459 -0.0614936    1.71615 255 255 255
0.290071 -0.25282  1.99569 255 255 255
0.345768 0.293035  1.89919 255 255 255
  0.518391 -0.0463702    1.93313 255 255 255
0.621005 0.160929  1.80049 255 255 255
0.293597  0.18154  1.95369 255 255 255
0.221237 0.170141  1.99928 255 255 255
 0.0380256 0.00918634    2.09131 255 255 255
0.248233 0.223816   1.9769 255 255 255
0.474391 0.320969  1.83216 255 255 255
 0.159605 -0.147962   2.06993 255 255 255
0.193306  0.10978  2.02734 255 255 255
0.878369 0.275968  1.66212 255 255 255
 0.597261 -0.184625   1.86544 255 255 255
0.0597846  0.116406   2.07154 255 255 255
 0.47217 0.135225  1.87991 255 255 255
0.760206 -0.16651   1.7872 255 255 255
   0.89375 -0.0466433    1.75971 255 255 255
0.543893 0.100411  1.85401 255 255 255
 0.721817 -0.190015   1.80381 255 255 255
 0.619298 0.0432276   1.81015 255 255 255
0.319188 0.217418  1.94794 255 255 255
0.860118 0.180579  1.65958 255 255 255
   0.356955 -0.00604585     1.96703 255 255 255
0.726655 0.194241  1.73176 255 255 255
0.895429 -0.18692  1.74174 255 255 255
0.590513 0.214602  1.78086 255 255 255
 0.054955 0.0265046   2.08723 255 255 255
  0.71215 -0.206855    1.7923 255 255 255
0.867922 0.242752  1.64411 255 255 255
  0.1498 0.183696  2.02976 255 255 255
0.674199 0.325203  1.72675 255 255 255
0.262619  0.29796  1.94447 255 255 255
0.127413 -0.10556  2.07283 255 255 255
0.939228 -0.16789  1.72446 255 255 255
0.332202 0.106387  1.96514 255 255 255
0.547214  0.28881  1.80308 255 255 255
 0.64839 0.115962   1.7751 255 255 255
0.391709 0.115607  1.93461 255 255 255
0.471716 0.174585  1.83534 255 255 255
 0.299849 -0.045247   1.99961 255 255 255
0.323607 0.301522  1.89137 255 255 255
 0.107956 0.0274405   2.07861 255 255 255
0.694879 0.197868  1.74033 255 255 255
0.356244 0.185359  1.93872 255 255 255
   0.102449 -0.00525916     2.07469 255 255 255
0.645679 0.207605  1.75546 255 255 255
0.669135 0.241015  1.75284 255 255 255
 0.157283 0.0736959   2.04481 255 255 255
  0.478483 -0.0186019    1.89863 255 255 255
0.842321 0.335653  1.64809 255 255 255
0.429627  0.28171  1.87158 255 255 255
 0.407233 -0.180799   1.96466 255 255 255
  0.689402 -0.0592765     1.8652 255 255 255
 0.748927 -0.136574   1.81564 255 255 255
 0.441874 -0.124432   1.96372 255 255 255
  0.19974 -0.112036   2.09088 255 255 255
0.285597 0.124775  1.98416 255 255 255
 0.119834 -0.105124   2.13085 255 255 255
 0.11395 0.217802  2.03109 255 255 255
 0.397118 0.0752717   1.93115 255 255 255
0.0495922 -0.232837   2.09257 255 255 255
 0.955729 -0.162361   1.71236 255 255 255
  0.0712977 -0.00502238     2.08638 255 255 255
 0.692584 -0.185378   1.82167 255 255 255
0.809632 0.329208  1.66439 255 255 255
  0.5804 0.330418  1.77521 255 255 255
0.822775 0.313708    1.659 255 255 255
0.723667 0.267256  1.70197 255 255 255
 0.396088 0.0395416   1.93933 255 255 255
 0.321331 0.0229608    1.9765 255 255 255
0.249151  0.22976  1.97455 255 255 255
0.165434 0.186615  2.02282 255 255 255
 0.305308 0.0163194   1.98353 255 255 255
0.552323 0.326794  1.78261 255 255 255
 0.611129 0.0230548   1.83707 255 255 255
 0.275053 -0.215454   2.00943 255 255 255
 0.582989 0.0953152   1.82576 255 255 255
0.212719 0.232685  1.98678 255 255 255
0.987202 -0.14895  1.67995 255 255 255
  0.27468 0.0908458   1.99237 255 255 255
 0.335066 -0.033279   1.98088 255 255 255
0.067827 0.191567  2.05369 255 255 255
0.0722412  0.193225   2.06377 255 255 255
0.851701 0.143546  1.67798 255 255 255
0.789307 0.338011  1.67243 255 255 255
 0.670018 -0.225505   1.80849 255 255 255
0.510304 0.316164  1.80825 255 255 255
0.579891 0.229051  1.79241 255 255 255
0.0734533  0.192641   2.05132 255 255 255
0.193435 0.181156  2.00973 255 255 255
  0.77852 -0.146774   1.79986 255 255 255
0.0449321  0.171356   2.06533 255 255 255
0.548712 0.293915  1.80192 255 255 255
0.110742 0.101618  2.06168 255 255 255
 0.154284 -0.207705   2.07856 255 255 255
 0.944006 -0.179087   1.72065 255 255 255
 0.15346 0.244148  2.00945 255 255 255
0.617255 0.148484   1.7851 255 255 255
0.464812 0.253813  1.84075 255 255 255
0.273022  0.22061  1.96762 255 255 255
 0.169214 0.0708758     2.041 255 255 255
 0.606585 0.0697281    1.8152 255 255 255
 0.068203 0.0760668   2.08559 255 255 255
   0.3326 0.0427999    1.9729 255 255 255
0.127949  0.17355  2.03972 255 255 255
0.691689 0.175255  1.74245 255 255 255
0.950386 0.101353  1.64393 255 255 255
 0.360103 0.0056348   1.96399 255 255 255
0.322996 0.206645  1.94771 255 255 255
 0.724309 0.0928062   1.75886 255 255 255
  0.736818 -0.0741197    1.83256 255 255 255
0.0868082  0.162937   2.05393 255 255 255
   0.35729 -0.0603278    2.02031 255 255 255
0.475459 0.183581  1.86002 255 255 255
   1.02576 -0.0549765    1.69123 255 255 255
  1.02742 -0.061749   1.68762 255 255 255
 0.711787 -0.175874   1.80602 255 255 255
 0.43727 0.284202  1.86682 255 255 255
0.845749 0.290319   1.6618 255 255 255
0.0137057  0.171361   2.07668 255 255 255
   0.2246 -0.169762   2.06256 255 255 255
 0.74664 0.314052  1.70208 255 255 255
0.647388 0.124774  1.77671 255 255 255
0.810173 0.349163  1.65924 255 255 255
 0.131084 0.0770403   2.06019 255 255 255
 0.155452 0.0621698   2.04897 255 255 255
0.558274 0.168221  1.82821 255 255 255
0.0761582 0.0266237   2.09242 255 255 255
  0.4689 0.042212  1.90021 255 255 255
 0.153627 -0.136982   2.10477 255 255 255
    0.376322 -0.000219899      1.95461 255 255 255
0.555259  0.10048  1.84235 255 255 255
  0.198758 -0.0568583    2.10291 255 255 255
 0.442966 0.0738831   1.91046 255 255 255
0.448286 0.212969  1.88174 255 255 255
0.190635 0.160108  2.01507 255 255 255
    0.1139 -0.0132981    2.07116 255 255 255
 0.11495 0.246806  2.03142 255 255 255
0.00562528   0.181185    2.07773 255 255 255
 0.590857 0.0903391   1.82179 255 255 255
0.58073 0.13732  1.8188 255 255 255
 0.385273 0.0237996   1.94692 255 255 255
 0.254807 -0.120628   2.03751 255 255 255
   0.293455 -0.00213356      1.9974 255 255 255
 0.127744 -0.246579   2.07694 255 255 255
  0.45811 -0.006935   1.90956 255 255 255
  0.881652 -0.0580201    1.76233 255 255 255
 0.157481 0.0586097    2.0521 255 255 255
0.0313843  0.188109   2.06463 255 255 255
  0.373167 -0.0220707    1.95927 255 255 255
 0.570862 0.0067861   1.84125 255 255 255
0.845349 0.175792  1.66772 255 255 255
 0.853461 0.0756135   1.70338 255 255 255
0.192939 0.207344  1.99877 255 255 255
 0.285252 -0.120447    2.0362 255 255 255
   0.395563 -0.00449964     1.94489 255 255 255
 0.787576 -0.143787   1.79533 255 255 255
0.693497 0.140481  1.75619 255 255 255
 0.741143 -0.075831   1.83002 255 255 255
 0.478834 -0.154171   1.93742 255 255 255
 0.0708577 -0.0182717    2.08644 255 255 255
0.690141 0.167209  1.74312 255 255 255
0.952383  -0.1746  1.71692 255 255 255
 0.879429 -0.167394   1.75274 255 255 255
0.865681 0.282463  1.65449 255 255 255
0.276423 0.219734  1.96279 255 255 255
 0.672814 0.0587477   1.79259 255 255 255
0.0627447 0.0366017   2.10162 255 255 255
0.493211 0.296004  1.82064 255 255 255
0.0310439  0.144708    2.0739 255 255 255
 0.68302 -0.18318  1.82553 255 255 255
 0.316045 0.0355349   1.98121 255 255 255
  0.87401 -0.111544   1.75298 255 255 255
0.892941 0.115626  1.67581 255 255 255
 0.174555 -0.222235   2.04106 255 255 255
 0.69484 0.247303  1.72685 255 255 255
  0.5478 0.269654  1.79324 255 255 255
 0.904177 -0.145317   1.74096 255 255 255
 0.243647 -0.253592   2.02058 255 255 255
 0.936255 -0.171667   1.71911 255 255 255
0.300924 0.133974  1.96385 255 255 255
  0.39228 -0.123722   1.98659 255 255 255
 0.278304 -0.224518   2.00647 255 255 255
 0.818473 0.0305483   1.73291 255 255 255
0.552336 0.241164  1.80392 255 255 255
0.875294 0.240186  1.63453 255 255 255
0.749483 0.313333  1.69359 255 255 255
 0.415663 -0.137987   1.97138 255 255 255
 0.396339 -0.194699   1.96392 255 255 255
0.338883 0.307536  1.90096 255 255 255
0.666323 0.162611  1.76309 255 255 255
 0.598313 0.0367066   1.83965 255 255 255
   1.02412 -0.0510171     1.6944 255 255 255
0.143742 0.238198  2.02224 255 255 255
 0.061992 -0.211839   2.09113 255 255 255
0.856375 0.313728  1.65109 255 255 255
0.478591 -0.21748  1.90022 255 255 255
 0.477946 -0.216708   1.89928 255 255 255
 0.22724 0.192979  1.99417 255 255 255
0.242531 0.219454  1.97572 255 255 255
 0.331719 0.0225979   1.97072 255 255 255
0.807485 0.282621  1.71504 255 255 255
0.566577 0.274494   1.7848 255 255 255
  0.8104 0.322493  1.66569 255 255 255
0.0740973  0.115371    2.0876 255 255 255
0.181198 0.213106  2.00536 255 255 255
 0.220373 -0.068554   2.04585 255 255 255
  0.14199 0.0357919   2.06037 255 255 255
  0.804582 -0.0555007     1.8022 255 255 255
  0.214328 -0.0872937    2.03778 255 255 255
 0.321951 -0.116926   1.99108 255 255 255
0.0437115 0.0164876   2.09356 255 255 255
0.704721 0.273143  1.71385 255 255 255
0.0993968  -0.08587   2.14466 255 255 255
0.586472 0.236389  1.80028 255 255 255
 0.78431 0.295254  1.68463 255 255 255
   0.2539 0.0169994   2.00816 255 255 255
0.0935787   0.20107   2.05729 255 255 255
  0.90874 -0.156617   1.73678 255 255 255
 0.0255078 -0.0391551    2.10053 255 255 255
0.721154 0.318216  1.70559 255 255 255
 0.726791 -0.178094   1.80467 255 255 255
   0.308888 -0.00525231     1.99278 255 255 255
 0.70324 0.116645  1.75627 255 255 255
 0.804472 -0.180777   1.76755 255 255 255
  0.276956 -0.0579401    2.01728 255 255 255
0.880163   0.2697  1.65458 255 255 255
0.321925 0.166588  1.95886 255 255 255
 0.142963 0.0985705     2.047 255 255 255
 0.349477 -0.117368   2.00776 255 255 255
  0.81092 0.0306857   1.73545 255 255 255
  0.718104 -0.0919153    1.83685 255 255 255
0.477092 0.250581  1.82053 255 255 255
 0.853053 0.0794947   1.70456 255 255 255
 0.269256 -0.169129   2.02585 255 255 255
0.141894 0.144219  2.04091 255 255 255
0.127229 0.219466  2.02473 255 255 255
0.533695 0.323881  1.79168 255 255 255
 0.435457 -0.228877   1.92723 255 255 255
0.866469 0.286195  1.65438 255 255 255
 0.825565 -0.187292   1.77257 255 255 255
0.0461806 -0.138751   2.11705 255 255 255
 0.899836 0.0817498   1.67166 255 255 255
  0.526348 -0.0241654    1.87346 255 255 255
  0.394216 -0.0494309    1.95139 255 255 255
 0.944968 0.0822196   1.65125 255 255 255
 0.55772 0.290627  1.79723 255 255 255
0.0179401 0.0856071   2.08974 255 255 255
 0.64519 0.322645  1.72651 255 255 255
  0.29351 -0.260674   1.99351 255 255 255
0.50282 0.29601 1.82211 255 255 255
0.821223 0.317446  1.65911 255 255 255
  0.898816 -0.0329495    1.76001 255 255 255
0.620186 0.211158  1.80287 255 255 255
 0.878253 -0.137753   1.75489 255 255 255
0.121134 0.136292  2.04784 255 255 255
 0.502411 -0.165725   1.88735 255 255 255
0.862114 0.352994  1.63584 255 255 255
 0.561215 0.0321875   1.85448 255 255 255
0.921419 0.107821  1.66567 255 255 255
0.0561807  0.202397    2.0557 255 255 255
 0.195635 0.0922267   2.02809 255 255 255
0.351533 0.253024  1.89276 255 255 255
  0.541721 -0.0118296    1.86674 255 255 255
  0.344779 -0.0584015    2.00327 255 255 255
 0.572005 0.0843751    1.8357 255 255 255
 0.395989 -0.214978   1.94762 255 255 255
 0.489846 -0.177616   1.89749 255 255 255
0.964016 -0.13903  1.69657 255 255 255
 0.261952 -0.208923   2.01564 255 255 255
  0.423733 -0.0114266    1.93009 255 255 255
   1.01571 -0.0605281     1.6924 255 255 255
0.873953 0.104775    1.689 255 255 255
 0.13016 0.240447  2.02637 255 255 255
0.441923 0.214275  1.88426 255 255 255
0.411418 0.316049  1.86388 255 255 255
 0.910615 -0.111808   1.73965 255 255 255
 0.502662 -0.110698   1.93571 255 255 255
  0.50103 -0.110344   1.93367 255 255 255
 0.305165 -0.101991   1.99814 255 255 255
0.122468 0.205978  2.03462 255 255 255
 0.410417 -0.215833   1.95205 255 255 255
0.304299 0.241916  1.94836 255 255 255
 0.515796 -0.236073   1.87352 255 255 255
 0.729183 0.0497333     1.768 255 255 255
 0.420221 -0.136475   1.93669 255 255 255
0.120135 0.244896  2.03141 255 255 255
  0.72849 0.0306695   1.77087 255 255 255
 0.780756 -0.206819   1.77399 255 255 255
  0.163272 0.00413333    2.05611 255 255 255
  0.693093 -0.0872703     1.8511 255 255 255
 0.936378 0.0803117   1.65981 255 255 255
  0.404868 -0.0127078    1.94216 255 255 255
 0.249285 -0.136778   2.04978 255 255 255
 0.673883 -0.185735   1.83077 255 255 255
 0.288337 -0.172762   2.01226 255 255 255
0.813769 0.322982  1.66384 255 255 255
  0.588495 0.00594677    1.85543 255 255 255
 0.669247 -0.151244   1.84983 255 255 255
0.146777 0.158675  2.03399 255 255 255
  0.226487 -0.0042999    2.02914 255 255 255
0.334821 0.144335  1.95264 255 255 255
  0.196372 -0.0844159    2.09291 255 255 255
0.296466 0.147085  1.97518 255 255 255
0.705665  0.19773  1.73819 255 255 255
 0.629683 -0.142081   1.87068 255 255 255
0.364344 0.163562  1.93719 255 255 255
0.709527 0.284887  1.71516 255 255 255
0.0534644 0.0616217   2.10768 255 255 255
0.323482 0.149403   1.9568 255 255 255
0.0902947  0.114954   2.06929 255 255 255
0.277554 0.186722  1.96618 255 255 255
 0.577495 0.0279363   1.85176 255 255 255
  0.586346 -0.0753119    1.90114 255 255 255
0.189272 0.226581  1.99945 255 255 255
0.807356 0.341281  1.66733 255 255 255
 0.415333 -0.228347   1.93428 255 255 255
0.939204 0.155331  1.64857 255 255 255
0.715458 0.279894  1.71052 255 255 255
  1.01108 -0.160852   1.67146 255 255 255
0.0888378 -0.101887   2.15111 255 255 255
 0.0692932 -0.0771108     2.1621 255 255 255
 0.606317 0.0479811   1.83448 255 255 255
0.314744 0.128665  1.96332 255 255 255
 0.232118 -0.252781    2.0216 255 255 255
 0.242719 -0.168736   2.04236 255 255 255
0.572889 0.217762  1.79103 255 255 255
 0.779405 0.0357302     1.751 255 255 255
0.861719 0.308049  1.64715 255 255 255
0.657841 0.299291  1.72271 255 255 255
0.725013 0.285478   1.7062 255 255 255
 0.593303 0.0637353   1.82214 255 255 255
0.620381 0.323294  1.73863 255 255 255
0.146155 0.263582  2.00972 255 255 255
 0.740642 -0.165276   1.81709 255 255 255
  0.93716 -0.076812   1.72954 255 255 255
0.0508819 0.0724265   2.10857 255 255 255
 0.860097 0.0877797   1.69742 255 255 255
0.197076   0.2136  2.00181 255 255 255
0.370918  0.08183  1.94864 255 255 255
0.913868 0.150652   1.6583 255 255 255
0.588714  0.11563  1.81702 255 255 255
  0.859917 -0.0783092    1.76797 255 255 255
0.864215 0.321685  1.64231 255 255 255
0.106282 0.175476  2.04786 255 255 255
  0.90874 -0.106572   1.73869 255 255 255
0.343794 0.297558  1.91196 255 255 255
   0.90215 -0.0361165    1.75671 255 255 255
 0.116525 0.0938782   2.06321 255 255 255
  0.32303 -0.144538    1.9883 255 255 255
 0.622198 -0.138278   1.87541 255 255 255
  0.915608 -0.0483788    1.74967 255 255 255
 0.631573 0.0634218    1.8118 255 255 255
  0.3625 0.301769  1.89006 255 255 255
   0.23664 0.00203698    2.02141 255 255 255
0.956351 -0.14774  1.69383 255 255 255
0.407113 0.303761  1.84057 255 255 255
 0.215417 -0.217134   2.03212 255 255 255
 0.84427 0.342436  1.64507 255 255 255
 0.474847 -0.248996   1.89754 255 255 255
 0.165684 -0.161498   2.05935 255 255 255
0.173055 0.184048  2.01915 255 255 255
0.105759 0.140416  2.04972 255 255 255
0.517503  0.30405  1.81464 255 255 255
0.194128 0.241773  1.99402 255 255 255
 0.250178 0.0736921   2.00648 255 255 255
0.280424 0.011591  2.00082 255 255 255
  0.580132 -0.0448235    1.83872 255 255 255
 0.86599 0.237602  1.64522 255 255 255
 0.213413 0.0942201   2.02111 255 255 255
 0.921693 0.0739867   1.65983 255 255 255
0.356429 0.286973   1.8956 255 255 255
0.750811 0.118351  1.74056 255 255 255
   0.78331 -0.0944654    1.80335 255 255 255
0.367749 0.219088  1.92105 255 255 255
  0.838607 -0.0704318    1.78031 255 255 255
  0.74206 -0.151842   1.80206 255 255 255
0.188206 -0.23712  2.03847 255 255 255
 0.768046 -0.143627   1.80444 255 255 255
 0.0532129 -0.0322247     2.0925 255 255 255
0.505398 0.320119  1.81101 255 255 255
   0.1214 -0.209792   2.09343 255 255 255
 0.63528 0.031941  1.82222 255 255 255
 0.631658 0.0500506   1.81416 255 255 255
  0.262693 -0.0462161    2.02222 255 255 255
 0.601311 0.0329024   1.82085 255 255 255
 0.614977 0.0874231    1.8091 255 255 255
0.605069 0.116192  1.81099 255 255 255
0.417327 0.267742  1.88221 255 255 255
 0.904072 -0.176006    1.7377 255 255 255
0.109808 0.206092   2.0485 255 255 255
 0.440734 0.0659979   1.91301 255 255 255
0.378135   0.2879  1.89591 255 255 255
 0.0748678 -0.0855755    2.15628 255 255 255
  1.02827 -0.120193   1.67515 255 255 255
0.112757 0.191041  2.04825 255 255 255
0.0672777   0.11064    2.0713 255 255 255
0.542029 0.293877  1.79874 255 255 255
0.705662 0.210415  1.74283 255 255 255
0.297913 0.162775  1.97075 255 255 255
0.710849 0.274987  1.70992 255 255 255
 0.494701 0.0510063   1.88853 255 255 255
0.770804 0.314386  1.68415 255 255 255
  0.583194 -0.0220852    1.83366 255 255 255
  0.857181 -0.0444077    1.60603 255 255 255
0.404137 0.153635  1.91653 255 255 255
 0.883505 0.0972205    1.6857 255 255 255
0.53835 0.32363 1.78825 255 255 255
 0.223623 0.0528469   2.02198 255 255 255
 0.250544 -0.054981   2.07039 255 255 255
 0.209102 -0.113548   2.06509 255 255 255
0.282058  0.19407   1.9719 255 255 255
 0.55346 0.156025  1.83087 255 255 255
  0.274612 0.00885845    1.99654 255 255 255
0.994512 -0.11268  1.69532 255 255 255
 0.626526 0.0468421   1.80547 255 255 255
  0.803732 -0.0755218    1.79714 255 255 255
  0.550107 -0.0653706    1.86636 255 255 255
0.703243  0.14179  1.75077 255 255 255
0.382754 0.241401  1.90967 255 255 255
  0.355968 0.00352826     1.9651 255 255 255
0.753282 0.284862  1.70241 255 255 255
 0.683351 -0.204319   1.81843 255 255 255
0.320023 0.242726  1.94081 255 255 255
  0.702689 -0.0942942    1.84522 255 255 255
0.211143 0.250978  1.98362 255 255 255
 0.16429 0.218164  2.01094 255 255 255
 0.239932 -0.103548   2.04551 255 255 255
0.0420098  0.151638   2.06746 255 255 255
  0.376543 -0.0336102    1.98337 255 255 255
0.473027   0.3174  1.83328 255 255 255
0.479148 0.318564  1.83145 255 255 255
0.094516 0.251733  2.03956 255 255 255
 0.470932 0.0387663   1.89984 255 255 255
0.619817 0.073066  1.80969 255 255 255
0.346073 0.030615  1.96342 255 255 255
 0.372337 -0.142674   1.96409 255 255 255
      0.3799 -0.000828179      1.95248 255 255 255
0.931751 0.138588  1.65458 255 255 255
 0.0741282 -0.0495882    2.16273 255 255 255
 0.660279 -0.184198   1.83813 255 255 255
0.133034 0.121992  2.04835 255 255 255
0.586898 0.244712  1.79006 255 255 255
0.516123  0.12123  1.85691 255 255 255
0.344885 0.013829  1.96822 255 255 255
0.846623 0.228122  1.65794 255 255 255
 0.972611 -0.111043   1.70626 255 255 255
0.307668 0.235363   1.9465 255 255 255
0.702825 0.208277  1.74256 255 255 255
 0.755192 -0.164002   1.80924 255 255 255
0.770374 -0.17051  1.77743 255 255 255
0.114871 0.251692  2.03328 255 255 255
 0.151898 0.0268857   2.05646 255 255 255
0.209204 0.063179  2.02738 255 255 255
 0.16976 0.173164  2.02421 255 255 255
  0.211313 -0.0287238    2.08804 255 255 255
  0.969121 -0.0286894    1.72945 255 255 255
 0.708198 0.0569733   1.77272 255 255 255
0.428473 0.208713  1.89077 255 255 255
 0.669552 -0.163181   1.83849 255 255 255
 0.607884 -0.181152   1.86676 255 255 255
  0.591782 -0.0283384    1.83006 255 255 255
 0.29732 0.167367  1.96979 255 255 255
0.610563 0.118406  1.80403 255 255 255
  0.73963 -0.136824    1.8198 255 255 255
0.949056 -0.17579  1.71921 255 255 255
0.716291 0.269872  1.70697 255 255 255
 0.223636 -0.210787   2.03367 255 255 255
0.736025 0.186851  1.72616 255 255 255
0.528782  0.30544  1.79446 255 255 255
 0.780976 -0.134719   1.80093 255 255 255
0.725881 0.190504  1.72998 255 255 255
0.561684 0.298387  1.78355 255 255 255
0.0517893 0.0577677   2.11033 255 255 255
0.036583 0.210901  2.05693 255 255 255
0.818681 0.319088  1.66068 255 255 255
0.337353 0.171435  1.94659 255 255 255
0.706327 0.299952  1.72369 255 255 255
 0.563808 0.0654316    1.8477 255 255 255
 0.62145 0.144047  1.78722 255 255 255
   0.79377 -0.0695889    1.80301 255 255 255
0.672961 0.298013  1.71763 255 255 255
 0.285222 -0.189683   2.00578 255 255 255
  0.600669 -0.0906023    1.89503 255 255 255
  0.845104 -0.0749548    1.77585 255 255 255
0.867329 0.278767  1.65536 255 255 255
  0.140529 -0.0771925    2.07154 255 255 255
0.286077 0.108869  1.98223 255 255 255
 0.566152 0.0992972   1.84384 255 255 255
 0.481889 -0.127645   1.90234 255 255 255
0.854126 0.184118  1.66413 255 255 255
0.734533  0.19117   1.7281 255 255 255
 0.438244 0.0412897   1.91579 255 255 255
  0.0452259 -0.00758855     2.09362 255 255 255
 0.589478 0.0277804   1.85021 255 255 255
 0.300148 0.0950537    1.9788 255 255 255
0.369419 0.114785  1.94013 255 255 255
   0.21985 -0.0546807    2.08588 255 255 255
0.564536 0.236964  1.80916 255 255 255
 0.0891312 0.00731459     2.0773 255 255 255
0.500807 0.323335  1.82092 255 255 255
0.724214 0.200734  1.73557 255 255 255
0.173093 0.089173  2.03642 255 255 255
 0.847281 -0.214843   1.77018 255 255 255
   0.6013 -0.158701   1.88129 255 255 255
0.467486 0.267574  1.85473 255 255 255
  0.71128 -0.195038   1.80824 255 255 255
0.352704 0.193312  1.92727 255 255 255
 0.315101 0.0317967   1.97793 255 255 255
0.156741 0.193088  2.02534 255 255 255
0.900936 0.211926  1.64136 255 255 255
 0.267077 0.0437116   2.00611 255 255 255
  0.203183 -0.0828228    2.04925 255 255 255
0.267626 0.262838  1.95675 255 255 255
  0.775018 -0.0614757    1.81485 255 255 255
0.203547  0.20877  1.99485 255 255 255
0.126972 0.199052   2.0399 255 255 255
1.03205 -0.1199  1.6739 255 255 255
 0.152865 0.0888766   2.04833 255 255 255
 0.426957 0.0508006   1.91947 255 255 255
 0.415907 -0.183692   1.95789 255 255 255
0.762889 0.266121  1.69826 255 255 255
 0.783741 -0.173035   1.79798 255 255 255
 0.883892 -0.175967   1.74901 255 255 255
 0.175346 0.0815012   2.03752 255 255 255
 0.629392 -0.113887   1.87792 255 255 255
 0.876394 -0.156121   1.75053 255 255 255
 0.501998 -0.201409   1.90504 255 255 255
0.511052 0.109945  1.85821 255 255 255
0.283013 0.238315  1.95764 255 255 255
  0.385494 -0.0660503    1.95556 255 255 255
0.810084 0.269394  1.67348 255 255 255
  0.133593 -0.0211376     2.0674 255 255 255
0.83474 0.35016 1.64642 255 255 255
0.0784694  0.228465   2.05995 255 255 255
0.471615 0.314435  1.83433 255 255 255
 0.44323 0.315538   1.8491 255 255 255
0.550218 -0.22408   1.8612 255 255 255
0.958985 0.285709  1.73834 255 255 255
 0.206164 -0.207948   2.05275 255 255 255
  0.382423 -0.0187305      1.954 255 255 255
0.535957 0.277749  1.77379 255 255 255
0.636645 0.141436   1.7737 255 255 255
  0.975131 -0.0452298    1.71875 255 255 255
0.421734 0.271091   1.8762 255 255 255
  0.850675 -0.0488058    1.78125 255 255 255
  0.605646 -0.0516407    1.89231 255 255 255
 0.607419 -0.242752   1.83068 255 255 255
0.579358 -0.18268  1.87753 255 255 255
0.640692 0.123366  1.77551 255 255 255
0.598102 0.282566  1.75983 255 255 255
0.747501 0.283694  1.69703 255 255 255
  0.583457 0.00527601    1.83339 255 255 255
0.794538 0.290796  1.67526 255 255 255
0.570342 0.276279  1.79358 255 255 255
 0.741965 0.0478537   1.75458 255 255 255
  0.66254 -0.172397   1.85611 255 255 255
0.530395 0.210195  1.82213 255 255 255
 0.274946 -0.186036   2.01464 255 255 255
 0.557145 0.0646966   1.85209 255 255 255
 0.155464 -0.218951   2.07701 255 255 255
 0.808972 0.0576843   1.72844 255 255 255
 0.416179 -0.136111   1.93824 255 255 255
0.0964479 -0.158067     2.136 255 255 255
 0.221946 0.0402459   2.02177 255 255 255
0.636488 0.321298   1.7301 255 255 255
0.792945 0.315737  1.67408 255 255 255
 0.137235 0.0364897   2.06256 255 255 255
 0.353249 -0.206766   1.97995 255 255 255
0.205355 0.143598  2.01228 255 255 255
0.846293 0.339833  1.64446 255 255 255
 0.156229 0.0171538   2.05517 255 255 255
0.0614125 -0.071491   2.16471 255 255 255
 0.55433 0.292396  1.79816 255 255 255
 0.882394 -0.137824   1.75224 255 255 255
  0.526557 -0.0401467    1.87461 255 255 255
 0.179798 0.0978486     2.037 255 255 255
0.940263 0.123785  1.65386 255 255 255
0.305104 0.029377  1.98866 255 255 255
0.203632 0.096242  2.02486 255 255 255
0.959679  0.10086    1.642 255 255 255
 0.283567 -0.162541   2.02601 255 255 255
 0.547961 -0.178407   1.85726 255 255 255
0.829205 -0.16175  1.77092 255 255 255
  0.277365 -0.0168546     2.0272 255 255 255
0.251378 -0.18532  2.02325 255 255 255
0.288513 0.116729  1.98524 255 255 255
 0.275186 -0.228894   2.01312 255 255 255
 0.690435 -0.135542   1.84402 255 255 255
  0.275155 0.00197065      2.006 255 255 255
0.798276 0.287207  1.69836 255 255 255
  0.411854 -0.0437005    1.94062 255 255 255
0.276438  0.19228  1.97383 255 255 255
0.127287 0.185236  2.04239 255 255 255
 0.191335 -0.212366   2.04322 255 255 255
0.760277 0.287696  1.69678 255 255 255
0.193278 0.186079  2.00863 255 255 255
  0.737659 -0.0674991    1.83446 255 255 255
 0.612654 -0.177303   1.86383 255 255 255
 0.309173 -0.136434   1.99843 255 255 255
0.274465 0.124336  1.99003 255 255 255
  0.95388 -0.116528   1.71431 255 255 255
  0.964977 -0.0515967    1.72213 255 255 255
0.631111 0.188692  1.77156 255 255 255
0.557266 0.140712  1.82304 255 255 255
 0.262978 -0.200685   2.02038 255 255 255
 0.851775 0.0445841   1.70465 255 255 255
  0.496105 -0.0105976    1.89218 255 255 255
  0.232712 0.00238064    2.02487 255 255 255
  0.984509 -0.0521588    1.71359 255 255 255
  0.911777 -0.0339571    1.75492 255 255 255
 0.325789 -0.165306   1.99346 255 255 255
0.746438 0.347727  1.68862 255 255 255
0.333583 0.273876  1.92158 255 255 255
0.601355 0.124006   1.8153 255 255 255
 0.129695 -0.160897   2.07244 255 255 255
 0.59663 0.229082  1.78015 255 255 255
 0.721356 -0.115874   1.83412 255 255 255
0.730457 0.199903  1.73348 255 255 255
 0.0865871 -0.0595432    2.16281 255 255 255
0.225413 0.219633  1.98487 255 255 255
  0.141708 -0.0891142    2.11777 255 255 255
 0.25668 0.228463  1.97158 255 255 255
 0.247192 -0.150321    2.0464 255 255 255
0.994359 -0.11586   1.6943 255 255 255
 0.361685 0.0673299   1.95646 255 255 255
  0.628891 -0.0812397    1.81179 255 255 255
0.315289 0.187395  1.94477 255 255 255
  0.59993 0.0640524   1.81805 255 255 255
 0.605158 0.0647284   1.82333 255 255 255
0.134012  0.10169  2.05795 255 255 255
 0.304091 -0.199725    2.0038 255 255 255
 0.299788 -0.185191   2.01049 255 255 255
 0.429551 -0.216014   1.92466 255 255 255
 0.153353 -0.162342   2.09886 255 255 255
  0.777171 -0.0720135    1.81166 255 255 255
 0.275377 0.0953975   1.99031 255 255 255
 0.243037 -0.114524   2.06935 255 255 255
 0.739607 -0.161459   1.81715 255 255 255
  0.212098 -0.0482975    2.09137 255 255 255
 0.219502 -0.083459   2.08338 255 255 255
   0.43749 -0.0462371    1.97228 255 255 255
 0.598788 0.0844909   1.81852 255 255 255
0.593047   0.1666  1.81078 255 255 255
 0.320559 0.0366786   1.97738 255 255 255
 0.320132 0.0367659   1.97675 255 255 255
  0.181669 -0.0736343    2.10392 255 255 255
  0.76876 -0.140657   1.80576 255 255 255
0.261035 0.129856  1.99821 255 255 255
0.708324 0.209274  1.73024 255 255 255
0.0941062  0.155187   2.05297 255 255 255
  0.161938 -0.0314773    2.05585 255 255 255
  0.619788 -0.0497359    1.88256 255 255 255
  0.235168 0.00494383    2.02226 255 255 255
 0.222379 0.0347941   2.02411 255 255 255
 0.345595 -0.147047   2.00122 255 255 255
0.185561 0.188212   2.0135 255 255 255
 0.346368 0.0173972   1.96709 255 255 255
   0.104438 -0.00987935     2.07297 255 255 255
0.548211 0.281445  1.79448 255 255 255
  0.856447 -0.0624148    1.77383 255 255 255
  0.275868 -0.0383906    2.00997 255 255 255
0.591188 0.298134  1.76355 255 255 255
 0.0826788 -0.0841391    2.08392 255 255 255
 0.601264 -0.163693   1.88022 255 255 255
0.144129 0.201856  2.02468 255 255 255
 0.587414 0.0858104   1.82319 255 255 255
0.251931 0.169205  1.98457 255 255 255
0.698104  0.04283  1.78441 255 255 255
 0.530919 0.0269427   1.86763 255 255 255
 0.898994 -0.029009   1.76206 255 255 255
0.259588 0.145436  1.98668 255 255 255
 0.310758 -0.118438   1.99957 255 255 255
  0.292996 -0.0705114    2.00302 255 255 255
  0.313153 -0.0774581    2.04374 255 255 255
0.135321 0.243104   2.0253 255 255 255
 0.246497 -0.212779   2.02174 255 255 255
  0.818374 -0.0380121     1.8007 255 255 255
 0.390956 0.0373301      1.94 255 255 255
 0.381344 -0.184481   1.95567 255 255 255
 0.328282 -0.104967   1.98787 255 255 255
 0.409465 0.0578992   1.93192 255 255 255
0.797249   -0.128  1.79472 255 255 255
  0.756973 -0.0764637    1.82134 255 255 255
 0.326589 0.0493247   1.97455 255 255 255
   1.01721 -0.0502365    1.69664 255 255 255
0.782934 0.281838  1.68463 255 255 255
  0.28292 0.0625188   1.99386 255 255 255
0.488362 0.278882   1.8094 255 255 255
  0.915487 -0.0311304    1.75324 255 255 255
  0.868632 -0.0720247    1.76467 255 255 255
 0.700373 -0.100009   1.84569 255 255 255
 0.58757 0.289676  1.76006 255 255 255
  0.187163 -0.0821078    2.09829 255 255 255
0.233534 0.111046  2.00892 255 255 255
 0.74203 -0.10094  1.82476 255 255 255
0.665989 0.171523  1.76394 255 255 255
 0.17544 0.256744  1.99926 255 255 255
0.200983 0.175278  2.00931 255 255 255
0.154586 0.135963  2.03548 255 255 255
 0.623276 -0.141688   1.87434 255 255 255
 0.18086 0.248898   1.9955 255 255 255
 0.686482 -0.205813   1.81547 255 255 255
  0.702401 -0.0664435     1.8529 255 255 255
 0.169353 0.0895514   2.03955 255 255 255
0.153397 0.233429  2.01561 255 255 255
 0.269859 -0.109903   2.04412 255 255 255
 0.200277 0.0072022   2.02655 255 255 255
0.229395 0.149807    1.996 255 255 255
0.491598 0.256129  1.83169 255 255 255
 0.433715 -0.148408    1.9267 255 255 255
   0.563111 -0.00766441     1.84843 255 255 255
 0.441143 -0.083988   1.92345 255 255 255
  0.619863 -0.0194417    1.80336 255 255 255
   0.153402 -0.00375555     2.07164 255 255 255
0.411672 0.111312  1.91798 255 255 255
 0.270061 -0.107964   2.05688 255 255 255
 0.672955 -0.197954   1.82534 255 255 255
 0.592227 0.0948974   1.82049 255 255 255
  0.829518 -0.0370149    1.79475 255 255 255
 0.105704 0.0327244    2.0728 255 255 255
  0.34578 -0.221088   1.97408 255 255 255
 0.236863 -0.194726   2.03343 255 255 255
  0.263213 -0.0290969    2.01455 255 255 255
   0.389363 0.000148237     1.94838 255 255 255
 0.403999 0.0291811   1.93646 255 255 255
0.511029 0.146305  1.85682 255 255 255
 0.279985 -0.206111   2.01186 255 255 255
 0.32605 -0.24616  1.97382 255 255 255
0.291303 0.154603  1.97186 255 255 255
  0.362099 0.00220447    1.96266 255 255 255
   0.1174 0.0792668   2.05512 255 255 255
  0.318655 -0.0024364    1.98475 255 255 255
  0.485759 -0.0363282    1.89964 255 255 255
  0.77563 0.0351223   1.75196 255 255 255
 0.234051 -0.203593   2.03193 255 255 255
  0.726902 -0.0748366    1.83629 255 255 255
 0.0588793 -0.0741285    2.17324 255 255 255
 0.581597 0.0792333   1.83985 255 255 255
  0.244963 -0.0041673    2.02059 255 255 255
  0.864327 -0.0438224    1.77584 255 255 255
   0.296114 -0.00289501     1.99798 255 255 255
 0.280464 -0.126126   2.03796 255 255 255
 0.212558 -0.122784   2.08504 255 255 255
 0.670027 -0.104394   1.85941 255 255 255
 0.470291 -0.241855   1.90068 255 255 255
 0.612167 -0.138568   1.87941 255 255 255
0.184241 0.159336  2.01405 255 255 255
 0.21094 0.159353  2.00698 255 255 255
 0.53772 0.117684   1.8573 255 255 255
0.282951 0.119237  1.98617 255 255 255
  0.900392 -0.0667325    1.75042 255 255 255
 0.463151 0.0254975   1.90315 255 255 255
 0.307073 -0.106176   1.99814 255 255 255
 0.307763 -0.106148   2.00127 255 255 255
  0.482489 -0.0527395      1.942 255 255 255
 0.395385 0.0848876   1.93395 255 255 255
  0.540602 -0.0400856    1.92147 255 255 255
0.179357 0.206897  2.00943 255 255 255
  0.888391 -0.0697746    1.75378 255 255 255
 0.0856686 -0.0746072    2.15351 255 255 255
0.0623377 0.0402047   2.10248 255 255 255
 0.183613 0.0983074    2.0354 255 255 255
  0.28703 -0.141242   2.01693 255 255 255
  0.227581 -0.0534678     2.0323 255 255 255
0.720021 0.283003  1.70771 255 255 255
0.467765 0.176282  1.87533 255 255 255
 0.81309 0.239524   1.6702 255 255 255
  0.29204 -0.209636   2.00317 255 255 255
 0.513146 -0.177698   1.88085 255 255 255
  0.328998 -0.0226086    1.98317 255 255 255
 0.246518 0.0285502   2.01088 255 255 255
   0.40118 -0.0206941    1.94307 255 255 255
 0.662293 -0.226453   1.81209 255 255 255
 0.621099 -0.172264   1.86221 255 255 255
 0.819908 -0.115847   1.78753 255 255 255
 0.400453 -0.182147    1.9439 255 255 255
 0.346555 -0.107505   1.97787 255 255 255
0.878086 0.288816  1.64549 255 255 255
   0.349678 -0.00557088     1.97076 255 255 255
0.413978 0.167421  1.90952 255 255 255
0.499628 0.273225  1.80202 255 255 255
0.267204 0.129365  1.99283 255 255 255
 0.485524 -0.090116   1.89791 255 255 255
  0.939094 -0.0790331    1.72761 255 255 255
0.226515 0.167209  1.99471 255 255 255
 0.11011 0.119624  2.06929 255 255 255
0.504707 0.325206  1.81963 255 255 255
 0.334335 0.0792932   1.96814 255 255 255
 0.346303 -0.123398   1.97791 255 255 255
 0.311745 0.0249149   1.98757 255 255 255
0.223485  0.19973   1.9942 255 255 255
  0.458248 -0.0665507    1.91335 255 255 255
 0.157329 -0.210043    2.0766 255 255 255
0.193076   0.2668  1.98825 255 255 255
   0.562 0.243383  1.80133 255 255 255
0.354089 0.190156  1.92966 255 255 255
0.354386 0.189986  1.93017 255 255 255
0.277083 0.218237  1.95617 255 255 255
 0.377584 0.0515213   1.94591 255 255 255
  0.407651 -0.0242808    1.94045 255 255 255
 0.413892 -0.170998   1.96222 255 255 255
0.239501 0.221061  1.97787 255 255 255
   0.565769 -0.00766484     1.84572 255 255 255
0.207574 -0.21378  2.04905 255 255 255
0.811842 0.316767  1.66501 255 255 255
0.259226 0.140025  1.98087 255 255 255
0.602626  0.21196   1.7774 255 255 255
  0.219862 -0.0664602    2.08424 255 255 255
0.201345 0.212388  1.99455 255 255 255
0.573047 0.184166  1.81313 255 255 255
 0.408563 -0.198409   1.93708 255 255 255
 0.295358 0.0181498   1.99503 255 255 255
0.526308 0.202241  1.83764 255 255 255
 0.103657 0.0184466   2.08678 255 255 255
0.794802 0.288256  1.67406 255 255 255
 0.10626 0.148011  2.04805 255 255 255
 0.295287 0.0868853   1.98476 255 255 255
 0.27953 0.183038  1.95943 255 255 255
0.396345  0.26393  1.89356 255 255 255
0.344782 0.234122  1.92777 255 255 255
0.500805 0.267042  1.83696 255 255 255
 0.986242 -0.118858    1.6976 255 255 255
 0.469796 -0.171873   1.93478 255 255 255
0.601637 0.136518  1.81194 255 255 255
0.0787742  0.225006   2.05962 255 255 255
  0.416728 -0.0031623    1.93376 255 255 255
 0.354543 0.0310017   1.96327 255 255 255
 0.203411 -0.241353   2.02474 255 255 255
0.867122 0.276705  1.65276 255 255 255
 0.598348 -0.191442   1.82692 255 255 255
    0.34658 -0.00112907     1.97236 255 255 255
 0.368231 -0.020548   1.96194 255 255 255
   0.19161 -0.0720731    2.09721 255 255 255
  0.349088 -0.0158974    1.97163 255 255 255
 0.477833 -0.140698   1.93786 255 255 255
0.193503 0.023257   2.0369 255 255 255
0.438423 0.118608  1.90505 255 255 255
  0.145058 -0.0179586    2.06318 255 255 255
0.581628 0.307518  1.76767 255 255 255
0.466554  0.12249  1.88495 255 255 255
