ply
format ascii 1.0
element vertex 1196
property float x
property float y
property float z
property uchar red
property uchar green
property uchar blue
end_header
-0.406794  0.796028   2.35166 255 255 255
-0.532647    1.1597   2.37715 255 255 255
-0.562893   1.58098   2.72433 255 255 255
-0.565075    0.8481   2.14798 255 255 255
-0.630078   1.12331   2.82495 255 255 255
-0.531513    1.4569   2.62845 255 255 255
-0.399677  0.226204   2.36471 255 255 255
-0.809725  0.862763   2.87976 255 255 255
-0.52441 0.487359  2.40338 255 255 255
-0.495622   1.62722   2.49855 255 255 255
-0.439161   1.22645   2.45997 255 255 255
-0.246021   1.54266   2.25322 255 255 255
-0.783105  0.686258    2.9241 255 255 255
-0.53671 0.393397  2.73512 255 255 255
-0.173759   1.50642   2.13229 255 255 255
-0.362627   1.62609   2.52284 255 255 255
-0.795764  0.987909   2.84267 255 255 255
-0.723888  0.504017   2.90229 255 255 255
-0.564948   1.21492    2.7965 255 255 255
-0.404597   1.52052   2.47121 255 255 255
-0.67623 0.741501  2.85845 255 255 255
-0.610571  0.641502   2.61696 255 255 255
-0.534486  0.911383   2.59869 255 255 255
-0.438383   1.67066   2.54239 255 255 255
-0.617767  0.392824   2.63474 255 255 255
-0.782892  0.695718    2.9153 255 255 255
-0.34963 0.200648  2.48349 255 255 255
-0.643024  0.821877   2.75916 255 255 255
-0.616621    1.0324   2.54742 255 255 255
-0.521117  0.769013   2.46792 255 255 255
-0.342064   1.35105   2.20942 255 255 255
-0.774154  0.696671   2.89507 255 255 255
-0.59773  0.65069  2.74583 255 255 255
-0.768325  0.598903   2.90649 255 255 255
-0.545479  0.368547   2.55539 255 255 255
-0.697055  0.850353   2.81996 255 255 255
-0.574004   0.70974   2.65474 255 255 255
-0.636804   1.41587   2.69192 255 255 255
-0.145055   1.57474    2.0683 255 255 255
-0.773715  0.689515   2.89656 255 255 255
-0.623521  0.928383   2.67238 255 255 255
-0.47506 0.481649  2.35856 255 255 255
-0.516846   1.13057   2.51201 255 255 255
-0.795852  0.899597   2.85214 255 255 255
-0.639533   1.11752   2.68118 255 255 255
-0.812591   0.72962   2.91157 255 255 255
-0.418959  0.265629    2.5666 255 255 255
-0.78039 0.695257  2.90871 255 255 255
-0.662301   1.49834   2.71862 255 255 255
-0.650963   1.12002   2.82851 255 255 255
-0.419615  0.796848   2.36722 255 255 255
-0.62119 0.470986  2.59381 255 255 255
-0.583907  0.464414    2.5677 255 255 255
-0.267942   1.48555   2.29152 255 255 255
-0.486418  0.495003   2.28966 255 255 255
-0.344387  0.197091   2.39869 255 255 255
-0.661484  0.842302   2.78491 255 255 255
-0.654561   0.74154   2.80466 255 255 255
-0.811081  0.943648   2.83967 255 255 255
-0.465135  0.322112   2.63044 255 255 255
-0.48628 0.705699  2.48114 255 255 255
-0.407543  0.244992   2.54224 255 255 255
-0.770004  0.609343   2.93727 255 255 255
-0.809194  0.654461   2.92619 255 255 255
-0.734452  0.555186   2.90988 255 255 255
-0.796286  0.906938    2.8504 255 255 255
-0.747644  0.563147   2.93761 255 255 255
-0.594998  0.558396   2.53851 255 255 255
-0.776146  0.915445   2.81169 255 255 255
-0.808312  0.936097   2.84108 255 255 255
-0.758083  0.645397   2.89132 255 255 255
-0.300706  0.294834   2.33226 255 255 255
-0.503639   1.17811   2.54351 255 255 255
-0.591247   1.17609   2.66284 255 255 255
-0.563712   1.00566   2.41309 255 255 255
-0.160111   1.61454   2.15982 255 255 255
-0.53174  1.62261  2.68293 255 255 255
-0.576847  0.625494    2.5006 255 255 255
-0.410494   1.26043    2.4279 255 255 255
-0.79668 0.913984   2.8489 255 255 255
-0.515741  0.970491   2.35454 255 255 255
-0.388341  0.649119    2.3455 255 255 255
-0.468266   1.56402   2.56599 255 255 255
-0.372245   1.48735    2.4218 255 255 255
-0.708001   1.17143   2.75204 255 255 255
-0.554739   1.60684   2.70266 255 255 255
-0.132283    1.5587   2.10447 255 255 255
-0.787161  0.724234    2.8783 255 255 255
-0.593929   1.19372   2.66247 255 255 255
-0.343683   1.34954   2.21398 255 255 255
-0.389814  0.649466   2.37302 255 255 255
-0.353801   1.57041   2.44815 255 255 255
-0.338393  0.262193   2.40774 255 255 255
-0.396242  0.649216   2.33182 255 255 255
-0.419373   1.36505   2.32189 255 255 255
-0.435419  0.253105   2.63688 255 255 255
-0.325852   1.48622   2.37231 255 255 255
-0.505485  0.410142   2.37318 255 255 255
-0.503224    1.5316   2.60062 255 255 255
-0.560549   1.11988   2.46449 255 255 255
-0.452207   1.16634   2.29826 255 255 255
-0.637698  0.929951   2.57432 255 255 255
-0.497684   1.52677   2.58994 255 255 255
-0.593795  0.653092   2.62168 255 255 255
-0.511359   1.66999   2.64176 255 255 255
-0.489239  0.852369   2.40111 255 255 255
-0.50357   1.7113  2.61887 255 255 255
-0.503102  0.521474   2.37117 255 255 255
-0.52241  1.32085  2.57206 255 255 255
-0.810505  0.972147   2.87286 255 255 255
-0.52434 0.474403  2.38417 255 255 255
-0.316852  0.638415   2.26697 255 255 255
-0.406566  0.827431   2.31587 255 255 255
-0.367362  0.323688   2.36346 255 255 255
-0.559118   1.64125   2.65933 255 255 255
-0.503117  0.796985   2.48728 255 255 255
-0.350599   0.20577   2.48449 255 255 255
-0.58864 0.528264   2.5137 255 255 255
-0.544437  0.418936   2.41978 255 255 255
-0.781488  0.909496   2.81946 255 255 255
-0.795627  0.708844   2.90509 255 255 255
-0.646059   0.79181   2.77537 255 255 255
-0.548168   1.13726    2.4562 255 255 255
-0.749232  0.557069   2.95289 255 255 255
-0.390899   1.52677   2.44702 255 255 255
-0.760969  0.610679   2.90996 255 255 255
-0.537263  0.879224   2.34464 255 255 255
-0.656956  0.857014   2.78315 255 255 255
-0.560099   1.01354   2.41204 255 255 255
-0.547666  0.407317   2.79435 255 255 255
-0.430813   1.16306   2.28707 255 255 255
-0.646037  0.465579   2.62933 255 255 255
-0.779932  0.679743   2.91665 255 255 255
0.0732161   1.14774    1.6333 255 255 255
0.204994  1.02195   1.6004 255 255 255
0.0893429   1.15518   1.62842 255 255 255
0.178013  1.14912  1.51402 255 255 255
0.16713 1.04815  1.4414 255 255 255
0.0570388   1.06898   1.64274 255 255 255
0.149546  1.13351  1.50856 255 255 255
0.114971  1.09123  1.60197 255 255 255
0.136613  1.15084  1.53216 255 255 255
0.246039  1.10007   1.5639 255 255 255
0.0529674   1.06408   1.62337 255 255 255
0.127206  1.15043  1.51463 255 255 255
0.0649513   1.07155   1.63651 255 255 255
0.156511  1.07884  1.44273 255 255 255
0.168941  1.14764    1.699 255 255 255
0.201244  1.11464  1.51543 255 255 255
0.159738  1.14458  1.71629 255 255 255
0.163243  1.08798  1.44714 255 255 255
0.366581 0.991956  1.60084 255 255 255
0.173864  1.06459  1.44482 255 255 255
0.215465  1.12694  1.51842 255 255 255
0.11966 1.07274 1.46058 255 255 255
0.183848  1.09685  1.44933 255 255 255
0.190052  1.12144  1.50606 255 255 255
0.16897 1.04827 1.44811 255 255 255
0.112872   1.0693  1.45221 255 255 255
0.118153  1.11854  1.59697 255 255 255
0.173094  1.09661  1.45276 255 255 255
0.141825   1.1534  1.54347 255 255 255
0.150835  1.07819  1.44186 255 255 255
0.167452  1.05217  1.44867 255 255 255
0.139495  1.11747  1.51236 255 255 255
0.051039  1.07763  1.62384 255 255 255
0.152377   1.0887  1.43259 255 255 255
0.0558185   1.07596   1.62533 255 255 255
0.150489  1.08134  1.44335 255 255 255
0.110205  1.09709  1.59764 255 255 255
0.251359  1.01716   1.5873 255 255 255
0.17531 1.12949 1.45034 255 255 255
0.138094  1.17006  1.68087 255 255 255
0.35843 1.07953 1.59237 255 255 255
0.162601  1.06285  1.44233 255 255 255
0.165781   1.1538  1.68083 255 255 255
0.159983  1.07341  1.43782 255 255 255
0.0584826   1.13534   1.60164 255 255 255
0.0847983   1.10704   1.69268 255 255 255
0.195194  1.09828  1.45756 255 255 255
0.192467  1.09821  1.45513 255 255 255
0.194994  1.13818  1.45428 255 255 255
0.184579  1.02924  1.47552 255 255 255
0.123404  1.06977  1.45816 255 255 255
0.130968  1.14381  1.52028 255 255 255
0.276599  1.09464  1.58043 255 255 255
0.12836 1.07912 1.45418 255 255 255
0.116922  1.07582  1.44545 255 255 255
0.353528 0.989674  1.60366 255 255 255
0.17576   1.091 1.44611 255 255 255
0.251675   1.1576  1.51491 255 255 255
0.0974802   1.16584   1.68432 255 255 255
0.168113  1.11961  1.51813 255 255 255
0.381232  1.15192  1.58681 255 255 255
0.364306   1.1774  1.60166 255 255 255
0.166421  1.12163  1.52132 255 255 255
0.140477  1.13899  1.52535 255 255 255
0.154342  1.17908  1.70023 255 255 255
0.16664 1.04811 1.44356 255 255 255
0.364794 0.988248  1.60308 255 255 255
 0.1729 1.13061 1.45174 255 255 255
0.192956   1.1345   1.4599 255 255 255
0.288186  1.09646  1.58194 255 255 255
0.181997   1.1143  1.44945 255 255 255
0.154932  1.08335  1.43877 255 255 255
0.125739  1.06126  1.44595 255 255 255
0.189386  1.03906  1.44956 255 255 255
0.171703  1.01674  1.59295 255 255 255
0.168311  1.11795  1.44581 255 255 255
0.164318  1.13433  1.51239 255 255 255
0.163076  1.13413  1.51105 255 255 255
0.196837   1.1475  1.51976 255 255 255
0.123982  1.05803  1.44258 255 255 255
0.180348  1.04819  1.44322 255 255 255
0.172972  1.05339   1.4493 255 255 255
0.0467646   1.05844   1.62379 255 255 255
0.140256  1.18753  1.69895 255 255 255
0.0960582   1.10589   1.69652 255 255 255
0.251064  1.09494  1.57734 255 255 255
0.156107  1.11822  1.72586 255 255 255
0.382249  1.00404  1.59584 255 255 255
0.163561  1.06732  1.44657 255 255 255
0.16425 1.12319 1.52429 255 255 255
0.166079  1.07822  1.43743 255 255 255
0.183282  1.08961  1.44931 255 255 255
0.226563  1.01405  1.59583 255 255 255
0.124246  1.05676  1.44821 255 255 255
0.0524916   1.08284   1.63521 255 255 255
0.150866  1.12699  1.51413 255 255 255
0.186924  1.10987  1.50756 255 255 255
0.123627  1.07637  1.46352 255 255 255
0.229667  1.14755  1.50263 255 255 255
0.147862  1.16379  1.53658 255 255 255
0.160386  1.12792  1.51808 255 255 255
0.124759  1.06496  1.45354 255 255 255
0.115902  1.10123  1.61501 255 255 255
0.173028  1.12178  1.45043 255 255 255
0.357371 0.988897  1.60331 255 255 255
0.170723  1.05996  1.45253 255 255 255
0.119456  1.06202  1.45524 255 255 255
0.148348  1.13583  1.52237 255 255 255
0.160175  1.06672   1.4452 255 255 255
0.155298  1.12493  1.51502 255 255 255
0.296207  1.11008  1.58334 255 255 255
0.0457045    1.0555   1.62605 255 255 255
0.163867  1.06461   1.4401 255 255 255
0.137164  1.18062  1.70738 255 255 255
0.137339  1.13464  1.60739 255 255 255
0.164119  1.06516  1.44321 255 255 255
0.152095  1.08108  1.44273 255 255 255
0.184584  1.14971  1.52332 255 255 255
0.179142  1.13269  1.51762 255 255 255
0.164544  1.05919  1.45044 255 255 255
0.411697  1.13117  1.59955 255 255 255
0.213588   1.0113  1.60027 255 255 255
0.17644 1.13287 1.44758 255 255 255
0.147669   1.0665  1.44538 255 255 255
0.171978  1.05413  1.45126 255 255 255
0.276898  1.08509  1.58156 255 255 255
0.0684349   1.07237   1.65038 255 255 255
0.282161  1.09094  1.57823 255 255 255
0.175908  1.06333  1.44436 255 255 255
0.150532  1.14508  1.50781 255 255 255
0.364375 0.991589   1.6019 255 255 255
0.239397  1.16529  1.52971 255 255 255
0.123185  1.08032  1.45159 255 255 255
0.120855   1.0759  1.45852 255 255 255
0.158372   1.0591  1.44543 255 255 255
0.159848  1.15604  1.65931 255 255 255
0.398896  1.14148  1.59928 255 255 255
0.173995  1.13035  1.51547 255 255 255
0.168131  1.07991  1.43602 255 255 255
0.169121  1.04986  1.45521 255 255 255
0.176009  1.03614  1.59256 255 255 255
0.0734873   1.10422   1.68179 255 255 255
0.124012  1.05388  1.45223 255 255 255
0.289993  1.09219  1.58163 255 255 255
0.181874  1.13849  1.52063 255 255 255
0.175658  1.12198  1.45491 255 255 255
0.188111  1.03927  1.44642 255 255 255
0.144865  1.05871  1.56945 255 255 255
0.177314    1.056  1.44628 255 255 255
0.173398  1.05494  1.45941 255 255 255
0.161445  1.15898  1.66608 255 255 255
0.344382  1.09554  1.57957 255 255 255
0.170789  1.06148  1.44718 255 255 255
0.153836  1.08068  1.44096 255 255 255
0.169297  1.05334  1.44949 255 255 255
0.173517  1.05457  1.44427 255 255 255
0.147175  1.06823  1.44476 255 255 255
0.181745  1.11047  1.44778 255 255 255
0.123541  1.07367  1.44985 255 255 255
0.166313  1.08991  1.44652 255 255 255
0.156765  1.16988  1.54375 255 255 255
0.169954  1.05021  1.44487 255 255 255
0.131507  1.05311   1.5921 255 255 255
0.153895  1.08039  1.43951 255 255 255
0.349481   1.0835  1.58954 255 255 255
   0.13 1.07708 1.44459 255 255 255
0.350736  1.16577  1.59859 255 255 255
0.130398  1.07672  1.44641 255 255 255
0.374245  1.01313  1.59326 255 255 255
0.126588  1.07281  1.44348 255 255 255
0.158949  1.08645  1.44171 255 255 255
0.122186  1.07791  1.46171 255 255 255
0.158284  1.08021  1.43887 255 255 255
0.0710574   1.10376   1.59716 255 255 255
0.158414  1.07339  1.44037 255 255 255
0.170234  1.12114  1.45133 255 255 255
0.169201  1.13596  1.51177 255 255 255
0.127279  1.06632  1.44936 255 255 255
0.167675  1.16044  1.72024 255 255 255
 0.34608 0.989728  1.60396 255 255 255
0.204314  1.02314  1.58219 255 255 255
0.163354  1.15312  1.71801 255 255 255
0.131312   1.0696  1.44783 255 255 255
0.140105  1.06041  1.63578 255 255 255
0.124781  1.06842  1.44595 255 255 255
0.144054  1.06948  1.55376 255 255 255
0.126487  1.06861  1.44541 255 255 255
0.133862  1.05625  1.45153 255 255 255
0.118066   1.1465  1.56264 255 255 255
0.128906  1.07824  1.45119 255 255 255
0.357593  1.07413   1.5895 255 255 255
0.116833  1.07511  1.45398 255 255 255
0.172198  1.05598  1.44871 255 255 255
0.16562 1.09233 1.44675 255 255 255
0.18406 1.13452 1.46209 255 255 255
0.349691  0.99525  1.57453 255 255 255
0.176754  1.12346  1.45503 255 255 255
0.117589  1.06096  1.45331 255 255 255
0.126277  1.07115  1.44204 255 255 255
0.189048  1.10954  1.51254 255 255 255
0.11233 1.06709 1.45537 255 255 255
0.126032  1.05857  1.45785 255 255 255
0.125574  1.06196  1.45574 255 255 255
0.285802  1.10428  1.57137 255 255 255
0.357999 0.994599  1.56886 255 255 255
0.122372  1.06418  1.45373 255 255 255
0.170393  1.09238  1.45021 255 255 255
0.165334  1.08796  1.44228 255 255 255
0.120833  1.07285  1.44682 255 255 255
0.170263  1.06187  1.44876 255 255 255
0.13198 1.07328 1.44722 255 255 255
0.168103  1.11961  1.44669 255 255 255
0.144784  1.07635  1.44922 255 255 255
0.174472   1.0558    1.449 255 255 255
0.174578  1.08302  1.44003 255 255 255
0.167308  1.04398   1.4431 255 255 255
0.285982  1.11273  1.57591 255 255 255
0.169286  1.12005  1.44947 255 255 255
0.208457  1.12423  1.51332 255 255 255
0.241936  1.01875  1.59979 255 255 255
0.216231   1.1328  1.50895 255 255 255
0.122338  1.07219  1.44742 255 255 255
0.160656  1.13053  1.51609 255 255 255
0.120497  1.07376  1.45659 255 255 255
0.177369  1.10771   1.5132 255 255 255
0.238079  1.01488  1.59783 255 255 255
0.12075 1.07367 1.45189 255 255 255
0.289781  1.11143  1.57961 255 255 255
0.146892   1.0678  1.44782 255 255 255
0.174123  1.11253  1.44971 255 255 255
0.173325  1.13834  1.52245 255 255 255
0.123077  1.07318  1.45085 255 255 255
0.163079  1.14392  1.72636 255 255 255
0.246597  1.11503  1.55037 255 255 255
0.159941  1.08705  1.44062 255 255 255
0.121088  1.06997  1.46707 255 255 255
0.395354  1.16305  1.58423 255 255 255
0.166342  1.08474  1.44202 255 255 255
0.162189   1.0662  1.45166 255 255 255
0.268678  1.08357  1.57638 255 255 255
0.346329 0.990983  1.59834 255 255 255
0.193151  1.12554   1.4504 255 255 255
0.174371  1.09849  1.50998 255 255 255
0.122468  1.06709  1.45778 255 255 255
 0.1599 1.07064  1.4356 255 255 255
0.172139   1.0962  1.45006 255 255 255
0.13672 1.04937 1.60849 255 255 255
0.169834  1.05178  1.44541 255 255 255
0.168169  1.05474  1.45308 255 255 255
0.122559  1.07316  1.44397 255 255 255
0.169121  1.09546  1.44795 255 255 255
0.175843  1.13135  1.45095 255 255 255
0.175135  1.10476  1.44737 255 255 255
0.174756  1.07941  1.43981 255 255 255
0.166796  1.08433  1.44156 255 255 255
0.128995  1.07565  1.44432 255 255 255
0.172079  1.16717  1.74365 255 255 255
0.170942  1.05113  1.45234 255 255 255
0.174294  1.14458  1.51802 255 255 255
0.117738  1.07255  1.45275 255 255 255
0.116948  1.14604  1.55754 255 255 255
0.166936  1.13601  1.72163 255 255 255
0.17245 1.07543 1.43866 255 255 255
0.110169   1.1017  1.58804 255 255 255
0.140618  1.13063  1.64707 255 255 255
0.248867  1.09855  1.56192 255 255 255
0.137509  1.13307  1.59754 255 255 255
0.16457 1.11864 1.44358 255 255 255
0.158782   1.1603  1.67428 255 255 255
0.183212   1.1137  1.52649 255 255 255
0.167793  1.04698  1.45731 255 255 255
0.169678  1.05067  1.45768 255 255 255
0.15361 1.11402 1.71849 255 255 255
0.155124  1.16129  1.65684 255 255 255
0.13683 1.06657 1.44561 255 255 255
0.169626  1.08963  1.44556 255 255 255
0.298889  1.11136  1.57969 255 255 255
0.169072  1.04854  1.46359 255 255 255
0.235123  1.10159  1.54965 255 255 255
0.179656  1.13643  1.44983 255 255 255
0.151984  1.14338  1.65527 255 255 255
0.289399  1.09999  1.57726 255 255 255
0.166874  1.04976  1.44145 255 255 255
0.183789  1.10437  1.44355 255 255 255
0.123777  1.08193  1.45311 255 255 255
0.126271  1.07152  1.45073 255 255 255
0.159806  1.08634  1.44115 255 255 255
0.147148  1.12947    1.519 255 255 255
0.178568  1.08429  1.44078 255 255 255
0.169815  1.05189   1.4433 255 255 255
0.157321  1.07722  1.44388 255 255 255
0.120772  1.07359  1.44673 255 255 255
0.176418  1.05697  1.44712 255 255 255
0.179008  1.12279  1.44426 255 255 255
0.119356  1.11821  1.60582 255 255 255
0.178838  1.10864  1.51291 255 255 255
0.170433  1.12319  1.45014 255 255 255
0.177463  1.10884  1.43997 255 255 255
 0.1673 1.15482  1.6802 255 255 255
0.176776  1.05791  1.44991 255 255 255
0.296723  1.10866  1.58008 255 255 255
0.147823  1.13319  1.65339 255 255 255
0.119705   1.1056  1.62912 255 255 255
0.178057  1.05606  1.44254 255 255 255
0.232279  1.14514  1.50296 255 255 255
0.142946  1.13258  1.50345 255 255 255
0.174115  1.05035  1.44505 255 255 255
0.398444  1.16527  1.59014 255 255 255
0.134667  1.04913   1.4581 255 255 255
0.159493     1.16  1.66578 255 255 255
0.173577  1.09655  1.44931 255 255 255
0.166906  1.09379   1.4473 255 255 255
0.169207  1.05092  1.45092 255 255 255
0.127893  1.11738  1.61318 255 255 255
0.285054  1.11868  1.58029 255 255 255
0.165328  1.16164  1.68164 255 255 255
0.157783  1.13444  1.51272 255 255 255
0.293235  1.10612  1.57879 255 255 255
0.13161 1.08257 1.45457 255 255 255
0.149206   1.1588  1.67813 255 255 255
0.181494  1.09182  1.44853 255 255 255
0.172981  1.12979  1.51707 255 255 255
0.167717  1.04624  1.44344 255 255 255
0.224713  1.13814  1.51593 255 255 255
0.289025  1.11064  1.57995 255 255 255
0.166549  1.09452  1.44647 255 255 255
0.300213   1.1109  1.58472 255 255 255
  0.928083 -0.0923588    1.70791 255 255 255
0.294506 0.291051  1.90099 255 255 255
0.394453 0.306323  1.86171 255 255 255
   0.935718 -0.00961435     1.72155 255 255 255
0.829554 0.361492   1.6563 255 255 255
0.832233 0.302013  1.66496 255 255 255
 0.146098 0.0515666   2.06695 255 255 255
  0.996677 -0.0710624    1.70613 255 255 255
0.449365 0.236096  1.85423 255 255 255
0.582815 0.083603  1.80757 255 255 255
 0.890877 0.0877819   1.66227 255 255 255
0.537897 0.168889  1.82895 255 255 255
0.244363  0.20615  1.98416 255 255 255
0.547855 0.295072  1.78619 255 255 255
0.547284 0.253332  1.78284 255 255 255
0.759355 0.296812  1.69547 255 255 255
0.595269 0.309321  1.77934 255 255 255
0.618471 0.192624  1.78465 255 255 255
 0.722757 0.0424876   1.76589 255 255 255
0.408534 0.231232  1.87189 255 255 255
  0.438569 -0.0787532    1.97209 255 255 255
 0.695065 -0.114487    1.8514 255 255 255
 0.0767567 -0.0541878    2.15634 255 255 255
0.540743 0.338047  1.78049 255 255 255
0.493004 0.366163  1.80664 255 255 255
0.599159 0.358169  1.76735 255 255 255
0.482616 0.337935   1.8143 255 255 255
0.508926 0.303941  1.81989 255 255 255
0.720175  0.38575  1.72987 255 255 255
 0.283969 0.0500222   1.99265 255 255 255
0.819403 0.284792  1.68046 255 255 255
   0.110718 -0.00062961      2.1132 255 255 255
0.249723 0.315938  1.93101 255 255 255
  0.388413 -0.0348261    1.99587 255 255 255
0.550559 0.360203  1.77961 255 255 255
0.276408 0.337055  1.89794 255 255 255
0.796016 0.368738  1.74745 255 255 255
0.702136 0.372138  1.73645 255 255 255
0.278291 0.245326  1.93021 255 255 255
0.521122 0.327173  1.81158 255 255 255
0.380236 -0.07994  1.99672 255 255 255
0.783545 0.121745  1.71179 255 255 255
0.361827 0.317127  1.89298 255 255 255
0.451303 0.334293   1.8426 255 255 255
0.431486 0.316788  1.86079 255 255 255
0.191423 0.183791  2.00844 255 255 255
0.674592 0.371666  1.74181 255 255 255
0.702262 0.310898   1.7281 255 255 255
0.422724 0.320295  1.84801 255 255 255
0.069949  0.26006  2.05687 255 255 255
0.630409 0.213697  1.75573 255 255 255
 0.892842 -0.187168   1.74575 255 255 255
 0.72374 0.104652  1.75207 255 255 255
0.696501 0.343872  1.72824 255 255 255
  0.898778 -0.0500631    1.75797 255 255 255
 0.832328 0.0252539   1.74259 255 255 255
0.636075 0.095304  1.80373 255 255 255
 0.29465 0.126866  1.97558 255 255 255
0.855469 0.319178  1.64102 255 255 255
 0.4016 0.01744 1.94089 255 255 255
0.774427 0.108239   1.7287 255 255 255
0.592918 0.292422  1.76316 255 255 255
 0.64098 0.345784   1.7529 255 255 255
  0.626654 0.00641805    1.83407 255 255 255
0.566853 0.233397  1.79928 255 255 255
 0.664151 0.0616324    1.7812 255 255 255
 0.634596 0.0499987   1.79988 255 255 255
0.756939 0.181793  1.71353 255 255 255
0.547949 0.307795  1.79926 255 255 255
0.633492 0.370407   1.7511 255 255 255
 0.946822 0.0795863   1.66263 255 255 255
0.602318 0.350699   1.7687 255 255 255
0.375784 0.278208  1.88548 255 255 255
0.412553 0.266608  1.84325 255 255 255
0.661306 0.270183  1.73432 255 255 255
 0.985503 -0.169471   1.70516 255 255 255
0.589566 0.324393  1.77549 255 255 255
 0.379868 0.0613414    1.9417 255 255 255
0.682935 0.303799  1.72352 255 255 255
  0.147011 -0.0308465    2.11575 255 255 255
0.0308547  0.267925   2.06843 255 255 255
 0.24272 0.247446  1.97087 255 255 255
0.602685 0.221537  1.78016 255 255 255
0.670602 0.328872  1.74308 255 255 255
0.616428 0.354798  1.75704 255 255 255
0.756381 0.354623  1.72883 255 255 255
0.428329 0.347134  1.84372 255 255 255
0.481668 0.314692   1.8239 255 255 255
0.587378 0.340583  1.76877 255 255 255
0.738399  0.21643  1.72851 255 255 255
0.301003 0.166945  1.94921 255 255 255
0.623219 0.279484  1.76308 255 255 255
0.744032 0.358937  1.69303 255 255 255
0.637212 0.132979  1.78407 255 255 255
0.640302 0.253285  1.76485 255 255 255
0.641329 0.252842  1.76807 255 255 255
0.138105 0.273767  2.01704 255 255 255
 0.650789 -0.161731   1.85162 255 255 255
0.267482 0.314426   1.9176 255 255 255
0.748306 0.048608  1.75953 255 255 255
   0.1787 0.0944269    2.0389 255 255 255
0.736463 0.361203  1.73054 255 255 255
 0.141128 -0.107192   2.12609 255 255 255
  0.33356 -0.149818    1.9966 255 255 255
0.920231 0.119272  1.66156 255 255 255
 0.175881 -0.061624   2.11624 255 255 255
 0.28921 0.170513  1.96243 255 255 255
0.371855 0.230854  1.83452 255 255 255
0.800887 0.375762  1.66127 255 255 255
0.774567 0.375322  1.66993 255 255 255
0.843041 0.322602  1.67216 255 255 255
0.789235 0.345093  1.71674 255 255 255
0.726553 0.363457  1.73415 255 255 255
0.0517132  0.228248   2.07808 255 255 255
 0.369576 0.0484022   1.94325 255 255 255
0.882051 0.140126  1.66647 255 255 255
0.0777312  0.171464   2.08038 255 255 255
  0.196666 -0.0413162    2.09941 255 255 255
0.491455 0.371604   1.8098 255 255 255
 0.681935 0.0454471   1.78486 255 255 255
0.606676 0.345707   1.7514 255 255 255
0.645638 0.183484  1.76689 255 255 255
0.816602  0.34329  1.65743 255 255 255
0.470567 0.355478  1.82222 255 255 255
  0.675046 -0.0878863     1.8609 255 255 255
0.657837 0.347802  1.74731 255 255 255
 0.677338 0.0640167   1.78357 255 255 255
0.624207 0.084989  1.82068 255 255 255
0.853902 0.239051  1.66375 255 255 255
  0.21318 0.0659838   2.02991 255 255 255
0.223896 0.287706  1.96109 255 255 255
0.574339  0.31882  1.77644 255 255 255
0.628689 0.216379  1.76695 255 255 255
 0.448891 0.0296967   1.90792 255 255 255
 0.650265 -0.172886   1.84195 255 255 255
 0.101513 -0.161003   2.12399 255 255 255
 0.815002 -0.133947   1.78936 255 255 255
  0.53067 0.0771579   1.86608 255 255 255
0.943693 0.140727  1.65069 255 255 255
0.398177 -0.13508  1.97963 255 255 255
0.219039  0.26132  1.98053 255 255 255
 0.886849 -0.181476   1.74705 255 255 255
 0.718247 0.0467303   1.77834 255 255 255
0.230181 0.241944  2.00078 255 255 255
 0.843703 0.0760299   1.70978 255 255 255
 0.668659 0.0952798   1.77279 255 255 255
0.805219 0.121401   1.7124 255 255 255
0.683429 0.226276  1.74454 255 255 255
0.662087 0.137566  1.77089 255 255 255
 0.332498 -0.152475   1.99783 255 255 255
0.858595 0.351061  1.63713 255 255 255
 0.84431 0.167387  1.67139 255 255 255
  0.100345 -0.0641105    2.16036 255 255 255
0.266182  0.19175   1.9604 255 255 255
0.245222 0.196612  1.98346 255 255 255
0.907359 0.136878  1.66989 255 255 255
 0.826167 -0.211629   1.78183 255 255 255
 0.958618 -0.145944   1.69392 255 255 255
0.324013 0.309751   1.9005 255 255 255
0.558922 0.343044  1.78308 255 255 255
0.676789 0.346918  1.73188 255 255 255
0.782297 0.322453   1.7023 255 255 255
0.904993 0.168307  1.65519 255 255 255
0.871671 0.348911  1.74591 255 255 255
  0.346823 -0.0812548    2.01242 255 255 255
0.757646 0.194903  1.70648 255 255 255
0.698978  0.22797  1.74506 255 255 255
0.757426 0.107394  1.74521 255 255 255
 0.42617 0.333635   1.8599 255 255 255
0.273245 0.293977  1.92774 255 255 255
 0.921665 -0.179048   1.73173 255 255 255
  0.713648 -0.0939767    1.84341 255 255 255
  0.510367 -0.0945614    1.94844 255 255 255
0.895165 0.303438  1.69937 255 255 255
 0.389703 0.0681865   1.94092 255 255 255
 0.656542 -0.181993   1.83626 255 255 255
 0.49815 0.347354  1.79863 255 255 255
0.669087 0.349018  1.74253 255 255 255
 0.359999 0.0932396   1.94385 255 255 255
0.277074 0.174282  1.97077 255 255 255
0.261687 0.274022  1.91798 255 255 255
 0.703212 0.0768043   1.77465 255 255 255
0.674139 0.287117  1.72658 255 255 255
0.672153 0.234936  1.75625 255 255 255
0.840473 0.198569     1.67 255 255 255
  0.546171 -0.0428088    1.92412 255 255 255
0.624828 0.220235  1.77715 255 255 255
0.522272 0.284139  1.80672 255 255 255
0.850643 0.336327  1.64909 255 255 255
0.491216 0.299613  1.83623 255 255 255
0.767209 0.211844  1.70978 255 255 255
 0.539393 0.0821798    1.8633 255 255 255
 0.927404 -0.123321   1.71952 255 255 255
 0.51799 0.356721  1.80823 255 255 255
0.590241 0.253118  1.79155 255 255 255
 0.708986 0.0842447   1.77487 255 255 255
0.606186 0.291798  1.75679 255 255 255
0.0881852 -0.168944    2.1159 255 255 255
0.745261 0.235391  1.70953 255 255 255
 0.490022 0.0848856   1.88531 255 255 255
0.615447  0.37634  1.75489 255 255 255
0.797885 0.237176  1.68292 255 255 255
0.265796 0.327125  1.91522 255 255 255
  0.31387 -0.122638   2.01123 255 255 255
0.313507 0.314043  1.90429 255 255 255
 0.82012 0.223606  1.67441 255 255 255
0.254363  0.29186  1.93725 255 255 255
0.220081 0.261808  2.00336 255 255 255
 0.850236 0.0861283   1.70759 255 255 255
0.936427 0.165055  1.64839 255 255 255
0.844179 0.110414  1.70116 255 255 255
0.805999 0.104227  1.70744 255 255 255
0.163884 0.167176  2.15818 255 255 255
0.185491 0.254631  2.00375 255 255 255
0.575553 0.262559  1.78596 255 255 255
0.267204 0.203297  1.95075 255 255 255
0.627146 0.346843  1.74752 255 255 255
0.754842 0.302068  1.69881 255 255 255
 0.224456 0.0762038   2.02461 255 255 255
 0.796085 0.0234066   1.74746 255 255 255
 0.646925 0.0923279   1.78701 255 255 255
0.780337 0.361348  1.67007 255 255 255
  0.955032 -0.0765236    1.72176 255 255 255
0.374139 0.120544  1.93562 255 255 255
 0.92934 0.150222  1.66089 255 255 255
0.664083 0.244426  1.75533 255 255 255
0.468634 0.101019  1.88346 255 255 255
 0.80264 0.304468  1.66809 255 255 255
0.739291 0.242989  1.71336 255 255 255
 0.464141 -0.252123   1.91722 255 255 255
0.299005 0.317965   1.9101 255 255 255
0.844418 0.302234  1.66473 255 255 255
 0.395265 0.0786214   1.93656 255 255 255
 0.82299 0.275621  1.68085 255 255 255
0.250755  0.33204  1.91869 255 255 255
0.887215 0.248051  1.63512 255 255 255
0.699028 0.349459  1.71278 255 255 255
0.865059 0.249241  1.65124 255 255 255
  1.03851 -0.117068   1.67205 255 255 255
 0.384007 0.0861349   1.93646 255 255 255
0.0705345  0.035395    2.1034 255 255 255
0.651566 0.387271  1.75058 255 255 255
0.218774 0.195205  1.99574 255 255 255
0.515775 0.382491  1.79647 255 255 255
0.192482 0.110261   2.0484 255 255 255
0.767825 0.288582  1.69256 255 255 255
0.527819 0.374745  1.79237 255 255 255
 0.369658 0.0162251   1.95115 255 255 255
0.222555 0.298453  1.95882 255 255 255
0.477608 0.370605  1.80343 255 255 255
 0.677825 0.0282677   1.80462 255 255 255
 0.754747 0.0147426   1.77096 255 255 255
0.623884 0.352532   1.7514 255 255 255
0.333399 0.220232   1.9054 255 255 255
 0.239399 -0.199908   2.03216 255 255 255
0.724175 0.127826  1.74887 255 255 255
 0.733438 -0.163246   1.82083 255 255 255
 0.893471 0.0575769   1.68252 255 255 255
  0.379597 -0.0700882     1.9968 255 255 255
0.699225 0.201859  1.73868 255 255 255
0.0571679  0.241075   2.07201 255 255 255
0.522291 0.042496  1.88069 255 255 255
0.633281 0.336541  1.74531 255 255 255
0.115956 0.201013  2.05063 255 255 255
 0.341389 0.0943235   1.95204 255 255 255
 0.394501 0.0183466   1.94444 255 255 255
0.331533 0.322545  1.90346 255 255 255
  0.972459 -0.0768871    1.71369 255 255 255
0.614054 0.120524  1.79469 255 255 255
 0.889494 -0.115171   1.75018 255 255 255
 0.771639 0.0107861   1.76936 255 255 255
0.122414 0.216595  2.04207 255 255 255
0.167774 0.301503  2.00445 255 255 255
  0.81903 0.0612789   1.72827 255 255 255
0.117875 0.168224  2.04736 255 255 255
0.833053 0.204745  1.67151 255 255 255
0.846328 0.264762  1.66547 255 255 255
0.663047 0.381051  1.74831 255 255 255
0.655949 0.296266  1.72577 255 255 255
0.618593 0.384194  1.75497 255 255 255
0.759065 0.231529  1.70775 255 255 255
0.0634313 0.0271715    2.1098 255 255 255
0.737514 0.327121  1.72016 255 255 255
 0.914181 0.0766827   1.66274 255 255 255
 0.562016 0.0897982   1.85805 255 255 255
0.859371 0.233886  1.64992 255 255 255
 0.745798 0.0282382   1.76636 255 255 255
 0.90774 0.241315  1.63126 255 255 255
0.610714 0.167366   1.7827 255 255 255
0.541485 0.186363  1.81773 255 255 255
0.617539 0.326993  1.74363 255 255 255
 0.40183 0.358644  1.85483 255 255 255
0.0920971  0.306684   2.05045 255 255 255
0.495438 0.379714  1.80288 255 255 255
0.526739 0.338256  1.81027 255 255 255
0.945701 0.146956   1.6447 255 255 255
0.528585 0.350641  1.79969 255 255 255
0.806856 0.243131  1.69532 255 255 255
0.916449 0.132184   1.6668 255 255 255
0.375323 0.346075  1.84157 255 255 255
0.0705087 0.0269593   2.10496 255 255 255
0.743006 0.377175  1.67957 255 255 255
0.828058 0.103449  1.70548 255 255 255
0.532805 0.383157  1.78959 255 255 255
 0.742782 -0.103905   1.82865 255 255 255
0.483001 0.341394  1.83776 255 255 255
0.877088 0.102733  1.69083 255 255 255
0.572093 0.313581  1.76461 255 255 255
0.773902 0.176669  1.71294 255 255 255
0.773292 0.176902  1.71179 255 255 255
0.570126  0.30273  1.77954 255 255 255
0.872856 0.302688  1.66593 255 255 255
0.734688 0.207261  1.73449 255 255 255
0.19609 0.29751  2.0151 255 255 255
0.515497 0.370085  1.80233 255 255 255
0.395558 0.271462  1.83405 255 255 255
0.571793 0.294833  1.78154 255 255 255
0.439478 0.157286  1.86606 255 255 255
0.380261 0.195408  1.89743 255 255 255
0.245913 0.255564  1.94846 255 255 255
0.314748 0.283689  1.89233 255 255 255
0.133409 0.165378  2.04573 255 255 255
 0.813746 -0.150431   1.76336 255 255 255
 0.28509 0.295599  1.88585 255 255 255
 0.73736 0.084174  1.75283 255 255 255
0.659496 0.372843   1.7471 255 255 255
 0.56339 0.391518  1.78525 255 255 255
0.544588 0.367467  1.77983 255 255 255
 0.602371 0.0502825   1.83443 255 255 255
0.835742 0.244631   1.6608 255 255 255
0.463115 0.376893  1.80501 255 255 255
0.680515 0.364559  1.72656 255 255 255
0.575752 0.354183  1.77769 255 255 255
0.0539055  0.153503   2.09512 255 255 255
 0.372946 -0.114339   1.99737 255 255 255
0.0768204 0.0359503   2.09892 255 255 255
 0.615443 0.0498467   1.81665 255 255 255
0.699696 0.219508    1.748 255 255 255
0.557174 0.312509  1.78812 255 255 255
0.246712 0.346025  1.92426 255 255 255
0.369517 0.258403  1.87808 255 255 255
 0.241519 -0.104769   2.04832 255 255 255
0.449472 0.278367  1.82546 255 255 255
0.638598 0.104287  1.77957 255 255 255
0.616412 0.369004  1.75889 255 255 255
 0.793492 -0.164273   1.79408 255 255 255
0.800952 0.203048   1.6969 255 255 255
0.692381 0.153965  1.75706 255 255 255
0.546255 0.390916  1.78528 255 255 255
0.638435 0.380741  1.74583 255 255 255
0.267873 0.262766  1.92602 255 255 255
0.898366  0.17838  1.64506 255 255 255
0.276236 0.303207  1.91095 255 255 255
0.531791 0.367342  1.79208 255 255 255
0.738701 0.229623  1.71581 255 255 255
0.306623 0.295517  1.89792 255 255 255
0.181863  0.18303  2.06263 255 255 255
 0.808057 0.0967553   1.72783 255 255 255
 0.455633 0.0650588   1.90629 255 255 255
0.732525 0.124245   1.7413 255 255 255
 0.46126 0.291895  1.81852 255 255 255
0.516765 0.391379  1.79133 255 255 255
0.847351 0.254819  1.65955 255 255 255
  0.181223 -0.0306954    2.11505 255 255 255
0.788085 0.315035  1.68206 255 255 255
0.489271 0.322565  1.82794 255 255 255
0.218676 0.281418  1.97046 255 255 255
0.635306  0.15624  1.78358 255 255 255
0.728472 0.193357  1.73177 255 255 255
 0.94129 0.121049  1.65338 255 255 255
 0.337954 0.0613225   1.96655 255 255 255
 0.353574 -0.169701   1.99355 255 255 255
  0.35424 -0.170191   1.99463 255 255 255
0.602171 0.307044   1.7589 255 255 255
 0.823981 0.0671216   1.72741 255 255 255
0.801075 0.323037  1.67926 255 255 255
 0.487288 0.0710538   1.89021 255 255 255
 0.213064 0.0117378   2.02548 255 255 255
0.237321 0.207151  1.97711 255 255 255
0.573774 0.328305  1.78676 255 255 255
0.190297 0.239562  1.99514 255 255 255
0.299182 0.188074  1.93882 255 255 255
  0.570167 -0.0553192    1.91783 255 255 255
 0.357461 0.0421422   1.96149 255 255 255
 0.295841 0.0781315    1.9854 255 255 255
 0.499604 -0.106922   1.94067 255 255 255
0.507732 0.353818  1.80206 255 255 255
   1.04435 -0.0188852    1.69666 255 255 255
0.838712 0.146575  1.67951 255 255 255
0.659909 0.340227  1.74086 255 255 255
0.661329 0.313835  1.71921 255 255 255
0.830143 0.373445  1.64768 255 255 255
0.765153 0.185168  1.70751 255 255 255
0.553176 0.288014  1.80313 255 255 255
0.799688  0.28597  1.70851 255 255 255
0.693955  0.39943  1.70717 255 255 255
 0.839896 0.0395083   1.72538 255 255 255
0.571261 0.265552  1.79931 255 255 255
0.677825 0.220257  1.74104 255 255 255
 0.398643 -0.127157   1.98312 255 255 255
 0.58006 0.319931   1.7646 255 255 255
0.0845005  0.112262   2.08836 255 255 255
0.671243 0.264953  1.73632 255 255 255
0.104133 0.235036  2.04753 255 255 255
0.725989 0.255748  1.71096 255 255 255
0.445492 0.340619  1.84947 255 255 255
 0.976981 -0.139175   1.68815 255 255 255
 0.71322 0.090076     1.77 255 255 255
0.716208 0.198653  1.73878 255 255 255
0.522113 0.316223  1.81372 255 255 255
0.763595 0.259897  1.69343 255 255 255
0.564818 0.320471  1.77318 255 255 255
 0.794899 0.0670672   1.73864 255 255 255
 0.795882 0.0666851   1.73992 255 255 255
0.829252 0.380578  1.64556 255 255 255
0.465524 0.192533  1.84892 255 255 255
0.743565 0.366316  1.68625 255 255 255
 0.842094 -0.197854   1.77773 255 255 255
  0.139933 -0.0789854    2.12562 255 255 255
 0.392446 -0.194705    1.9705 255 255 255
0.042311 0.143317  2.10261 255 255 255
0.427555 0.349907  1.86007 255 255 255
 0.56402 0.326196  1.77411 255 255 255
0.700262 0.355374   1.7126 255 255 255
0.191878  0.19816  2.00226 255 255 255
0.250275 0.156872  1.99173 255 255 255
 0.270493 -0.179856   2.02741 255 255 255
 0.348236 -0.177606   1.99383 255 255 255
  0.670419 -0.0984681    1.86456 255 255 255
  0.827175 -0.0467739    1.79298 255 255 255
0.328466 0.243288  1.90796 255 255 255
0.836662 0.242373   1.6556 255 255 255
0.404932 0.101992  1.92024 255 255 255
 0.38273 -0.20988  1.95857 255 255 255
 0.65899 0.387365  1.74851 255 255 255
0.778794  0.12489  1.73237 255 255 255
  0.75399 0.0841785   1.75297 255 255 255
0.343813 0.301567  1.90425 255 255 255
0.345404 0.301103  1.90491 255 255 255
0.607421 0.324599  1.77188 255 255 255
0.820028 0.041688  1.71716 255 255 255
0.333326 0.306181  1.89572 255 255 255
0.228937 0.251233  1.97834 255 255 255
0.579177 0.348041  1.77246 255 255 255
0.756355  0.23986  1.70573 255 255 255
 0.132614 0.0977213   2.06833 255 255 255
0.676493  0.16638  1.75856 255 255 255
 0.661916 0.0433458   1.79122 255 255 255
 0.912534 0.0564368   1.67356 255 255 255
0.841457 0.172965  1.69323 255 255 255
 0.224601 0.0862446   2.02074 255 255 255
 0.153472 -0.189025   2.07542 255 255 255
  0.427077 -0.0413725    1.97241 255 255 255
 0.441214 0.0917829   1.90671 255 255 255
 0.298682 0.0644843    1.9876 255 255 255
  0.258175 -0.0595221    2.05295 255 255 255
0.916233 0.215829  1.63853 255 255 255
0.449811 0.313356  1.82726 255 255 255
0.549764 0.375222  1.77887 255 255 255
 0.38753 0.303572  1.80915 255 255 255
 0.487676 0.0384443   1.89567 255 255 255
0.931172 0.145927  1.65552 255 255 255
0.574068 0.343093   1.7818 255 255 255
0.064626 0.230317  2.07045 255 255 255
0.684972 0.349218  1.72278 255 255 255
 0.383961 0.0543127   1.93957 255 255 255
0.815373 0.087966  1.71626 255 255 255
 0.242214 -0.189698   2.05071 255 255 255
0.717214 0.230327   1.7394 255 255 255
0.921322 0.153431  1.66197 255 255 255
0.259646 0.136473  1.97988 255 255 255
0.445267 0.310389  1.84837 255 255 255
0.832261  0.21574  1.67297 255 255 255
0.237273  0.25699   1.9568 255 255 255
 0.44171 0.331758  1.85338 255 255 255
 0.342376 0.0358924    1.9673 255 255 255
0.537488 0.302483  1.79899 255 255 255
0.616356 0.314499   1.7596 255 255 255
 0.76923 0.116009  1.73758 255 255 255
0.788715 0.301404  1.68121 255 255 255
0.533244 0.196039  1.80945 255 255 255
 0.463752 0.0718964   1.89942 255 255 255
 0.57743 0.361424  1.77496 255 255 255
 0.900381 0.0996339   1.67254 255 255 255
 0.945717 0.0710599    1.6472 255 255 255
0.528113 0.131605  1.84906 255 255 255
 0.736093 0.0803955   1.75846 255 255 255
0.936367 0.101368  1.65385 255 255 255
0.220481 -0.23954  2.02942 255 255 255
 0.411242 -0.226785    1.9372 255 255 255
  0.99977 -0.125614   1.69256 255 255 255
  0.7112 0.354442   1.7373 255 255 255
 0.241367 -0.129793   2.05084 255 255 255
0.173837  0.25061  2.04015 255 255 255
 0.639492 -0.116888   1.87585 255 255 255
0.440789 0.310629   1.8536 255 255 255
0.468772 0.260314  1.84389 255 255 255
0.537706 0.346528  1.79462 255 255 255
0.633156 0.252662  1.77382 255 255 255
 0.66987 0.371009  1.73653 255 255 255
0.686464 0.324086  1.73209 255 255 255
0.145274 0.278946  2.01713 255 255 255
0.690187 0.168071  1.75188 255 255 255
0.693644 0.166793  1.75497 255 255 255
0.553568 0.381808  1.78636 255 255 255
0.190497 0.133208  2.02071 255 255 255
0.858362 0.250023   1.6554 255 255 255
0.33986 0.18901 1.92929 255 255 255
 0.322108 -0.244557   1.97978 255 255 255
  0.361271 -0.0878579     2.0202 255 255 255
  0.75258 0.0347152   1.76175 255 255 255
0.245524 0.292732  1.95011 255 255 255
0.613022 0.228645  1.77274 255 255 255
 0.29128 0.239227  1.93142 255 255 255
  0.73218 -0.124097   1.83085 255 255 255
 0.64422 0.312912  1.73301 255 255 255
0.699587 0.213228  1.74906 255 255 255
 0.716092 -0.166795    1.8123 255 255 255
  0.914122 -0.0627644    1.74854 255 255 255
  0.94911 0.0897127   1.65405 255 255 255
 0.223444 -0.181816   2.04151 255 255 255
0.733875 0.387594  1.69257 255 255 255
 0.517484 0.0569356   1.87579 255 255 255
0.429426 0.358013   1.8428 255 255 255
0.832575 0.180928  1.68959 255 255 255
 0.66305 0.255227  1.75475 255 255 255
0.820037 0.230843  1.66833 255 255 255
 0.786091 0.0207453   1.75265 255 255 255
0.533878 0.261372   1.7962 255 255 255
 0.328056 -0.218193   1.99287 255 255 255
0.933964 0.114559  1.65553 255 255 255
 0.638968 0.0460768   1.79223 255 255 255
0.194014 0.208495  2.00592 255 255 255
0.637255 0.195051  1.77367 255 255 255
  0.467591 -0.0282435    1.95937 255 255 255
 0.719316 0.0933608   1.76524 255 255 255
0.668279 0.382383  1.74487 255 255 255
 0.109167 0.0676563   2.07875 255 255 255
0.488278 0.130081  1.86497 255 255 255
0.508787 0.187061  1.82484 255 255 255
 0.800519 -0.191337   1.79383 255 255 255
0.473819 0.234769  1.83252 255 255 255
 0.884081 0.0715374   1.68463 255 255 255
 0.604339 -0.139434   1.88741 255 255 255
 0.177829 0.0916514   2.04191 255 255 255
  0.151538 0.00247811    2.08534 255 255 255
 0.156188 -0.256344   2.06851 255 255 255
  0.63562 0.0752938   1.81098 255 255 255
 0.53969 0.118373  1.83868 255 255 255
0.409653 0.260807  1.84811 255 255 255
0.521401 0.384441   1.7939 255 255 255
0.835547 0.362772  1.74725 255 255 255
0.239894 0.217502  1.97428 255 255 255
0.0812983  0.301434   2.05378 255 255 255
0.685164 0.386003  1.72313 255 255 255
0.058086 0.174117  2.08731 255 255 255
0.422317  0.33795  1.86142 255 255 255
0.282126 0.315139  1.91107 255 255 255
  0.961041 -0.0255775    1.73649 255 255 255
0.498984 0.281526  1.81175 255 255 255
 0.50375 0.382019  1.80395 255 255 255
0.465257 0.115962   1.8791 255 255 255
0.785223 0.362687  1.66072 255 255 255
 0.64065 0.269616  1.75232 255 255 255
0.604499 0.390393  1.75926 255 255 255
 0.645161 0.0750986   1.80769 255 255 255
  0.931377 -0.0701019     1.7343 255 255 255
  0.284289 -0.0456394    2.05884 255 255 255
 0.188129 0.0151599   2.04561 255 255 255
0.460731 0.263385  1.85036 255 255 255
 0.159551 -0.253382    2.0613 255 255 255
0.634072   0.3768  1.74369 255 255 255
  0.25862 0.0626287   2.00921 255 255 255
0.820286  0.37459  1.65413 255 255 255
0.586675 0.180747  1.76536 255 255 255
0.575911 0.245199  1.79696 255 255 255
0.882846 0.287389  1.70552 255 255 255
0.596317 0.198837  1.79279 255 255 255
 0.683645 0.0771261   1.78841 255 255 255
 0.311452 0.0120614   1.98727 255 255 255
0.0395874   0.16356   2.09681 255 255 255
0.579413 0.370894  1.76856 255 255 255
 0.444139 0.0697196   1.91079 255 255 255
0.272584 0.337824  1.91342 255 255 255
0.369953 0.145409  1.92581 255 255 255
0.848394 0.198677  1.66818 255 255 255
 0.77355 0.136618  1.73048 255 255 255
 0.110636 0.0274936      2.08 255 255 255
0.945114 0.307006  1.74078 255 255 255
0.867109 0.123131  1.68983 255 255 255
0.619884 0.148035    1.793 255 255 255
 0.892665 0.0673716   1.67517 255 255 255
 0.837604 -0.171553    1.7783 255 255 255
  0.209341 0.00900942    2.02652 255 255 255
 0.967299 -0.163336   1.68504 255 255 255
0.825422 0.141108  1.68823 255 255 255
 0.609487 0.0167805   1.83564 255 255 255
  0.801185 -0.0510579    1.80752 255 255 255
0.695194 0.226938  1.74876 255 255 255
0.862531 0.340806   1.6406 255 255 255
 0.315853 0.0432737   1.98218 255 255 255
 0.100582 -0.142548   2.14835 255 255 255
  0.207622 -0.0951962    2.10052 255 255 255
0.870547 0.214915  1.64305 255 255 255
0.879909  0.28698  1.66614 255 255 255
0.949591 0.124436   1.6515 255 255 255
 0.245696 0.0192663   2.01675 255 255 255
 0.885816 0.0779802   1.68331 255 255 255
 0.91724 0.144673  1.66326 255 255 255
 0.669946 0.0771575   1.79242 255 255 255
0.637793 0.261853  1.76389 255 255 255
0.938508 0.123276   1.6577 255 255 255
 0.410958 0.0834012   1.91904 255 255 255
 0.64566 0.313059  1.72682 255 255 255
0.808234 0.341106  1.66588 255 255 255
0.795947  0.26071   1.6909 255 255 255
0.332863 0.314487  1.89649 255 255 255
0.219518 0.238844  1.98816 255 255 255
  0.32778 0.0727902   1.97374 255 255 255
0.688733 0.174242  1.75111 255 255 255
0.696516 0.364286  1.72285 255 255 255
 0.378814 0.0495705   1.94649 255 255 255
0.623247 0.329314   1.7415 255 255 255
0.717604 0.201087  1.73832 255 255 255
0.195748 0.294327  1.97689 255 255 255
0.371783 0.290958  1.89406 255 255 255
  0.171065 -0.0602955    2.12304 255 255 255
0.619137 0.151657  1.79898 255 255 255
0.607788 0.156492  1.78324 255 255 255
0.671627 0.326859  1.73892 255 255 255
0.299333 0.256869  1.88415 255 255 255
 0.814335 0.0974905   1.72424 255 255 255
0.425738 0.341679  1.86007 255 255 255
0.827207  0.22567  1.66961 255 255 255
0.296624 0.298262  1.89766 255 255 255
0.585215 0.276625  1.79093 255 255 255
0.604167 0.321728  1.76366 255 255 255
0.516058 0.337789  1.80654 255 255 255
 0.570281 0.0689611   1.84615 255 255 255
 0.51925 0.353104  1.80625 255 255 255
0.0897279 0.0662693   2.09533 255 255 255
  0.8034 0.352961  1.66096 255 255 255
 0.490764 0.0638897   1.89198 255 255 255
0.602159 0.396581  1.75904 255 255 255
0.865683 0.256285  1.65358 255 255 255
0.731824 0.301985  1.70775 255 255 255
0.187582 0.283542  1.98466 255 255 255
0.791596 0.358067  1.66438 255 255 255
0.857357 0.357836  1.63956 255 255 255
0.855117 0.373939  1.64458 255 255 255
0.727683  0.25852  1.70418 255 255 255
0.633962 0.306462  1.73909 255 255 255
 0.855295 -0.172195   1.76472 255 255 255
0.618348 0.391763  1.75457 255 255 255
0.767824 0.367384  1.68382 255 255 255
 0.272998 0.0357476    2.0023 255 255 255
 0.830641 0.0579373   1.71895 255 255 255
0.419668 0.343101  1.86189 255 255 255
  0.873589 -0.0439101     1.7739 255 255 255
 0.15677 0.116861  2.04959 255 255 255
0.893157 0.236692  1.62971 255 255 255
  0.767748 -0.0452334     1.8196 255 255 255
 0.286342 -0.197259   2.01464 255 255 255
0.512146 0.351887  1.79229 255 255 255
0.48806 0.37403 1.81545 255 255 255
 0.788613 0.0555476   1.75088 255 255 255
  0.95697 0.0612986   1.66233 255 255 255
0.644453  0.27806  1.76298 255 255 255
  0.597424 0.00386302    1.85042 255 255 255
 0.666187 0.0612784   1.79476 255 255 255
0.326297 0.317728  1.89454 255 255 255
0.473563 0.378647  1.81965 255 255 255
0.582577 0.072442  1.83703 255 255 255
 0.150304 -0.132794   2.08622 255 255 255
 0.780722 -0.184455   1.77957 255 255 255
0.0889184  0.269204   2.05075 255 255 255
0.893255 0.288866  1.65936 255 255 255
0.614123 0.336512  1.74511 255 255 255
0.841975  0.35512  1.64582 255 255 255
0.417595 0.320287  1.86433 255 255 255
  0.259522 -0.0537911    2.05143 255 255 255
0.869068  0.25211  1.64723 255 255 255
0.690211 0.256705  1.73129 255 255 255
0.765993  0.23922  1.70356 255 255 255
  0.514724 -0.0551101    1.93651 255 255 255
0.588596 0.231008   1.7877 255 255 255
0.839332 0.135557  1.68743 255 255 255
0.528761 0.237083  1.80324 255 255 255
0.399091 0.269261  1.85516 255 255 255
0.714707 0.371866  1.73682 255 255 255
0.384044 0.199744   1.8925 255 255 255
  0.196486 -0.0557945    2.10386 255 255 255
 0.267886 0.0637458   1.99744 255 255 255
0.217614 0.308997  1.95572 255 255 255
0.452407 0.311395  1.85118 255 255 255
 0.953281 0.0837372    1.6501 255 255 255
0.306211 0.189575  1.93054 255 255 255
0.300412 0.324434   1.9126 255 255 255
0.0370421  0.176084   2.09714 255 255 255
0.563518 0.318303  1.78006 255 255 255
0.301854 0.267661  1.88874 255 255 255
0.673813 0.268556  1.73415 255 255 255
0.901381 0.193964  1.64283 255 255 255
  0.75142 -0.187191   1.81731 255 255 255
0.334367   0.1326  1.95377 255 255 255
 0.81643 0.358307  1.65976 255 255 255
0.785268 0.136162  1.72348 255 255 255
 0.810609 -0.121401     1.787 255 255 255
0.610216 0.326016  1.74596 255 255 255
0.810632 0.363241    1.658 255 255 255
 0.867142 0.0224875   1.66771 255 255 255
  0.274697 -0.0354669    2.04648 255 255 255
  0.262898 -0.0180024    2.04922 255 255 255
0.592311 0.315824  1.77075 255 255 255
 0.790808 -0.096622   1.80012 255 255 255
0.881453 0.260922  1.63722 255 255 255
0.177899 0.181959  2.02207 255 255 255
0.527003 0.311004  1.81338 255 255 255
0.804657 0.276845  1.70432 255 255 255
0.680937 0.235184  1.74813 255 255 255
 0.818734 0.0364633   1.71271 255 255 255
 0.755809 -0.133206   1.81756 255 255 255
0.671387 0.356471  1.74048 255 255 255
0.0532913 -0.177616   2.12636 255 255 255
0.767288 0.343094  1.67969 255 255 255
 0.707652 0.0290197    1.7803 255 255 255
0.327697 0.303442  1.89506 255 255 255
0.576458 0.309545  1.76131 255 255 255
0.732451 0.288582  1.70837 255 255 255
0.346449 0.315963  1.89598 255 255 255
 0.272959 -0.225894   2.00896 255 255 255
0.213008 0.307006  1.97148 255 255 255
0.835992 0.367653  1.64654 255 255 255
  0.291838 -0.0430914    2.05599 255 255 255
0.106147 0.256391  2.04164 255 255 255
 0.90726 0.129356  1.67023 255 255 255
