ply
format ascii 1.0
element vertex 1191
property float x
property float y
property float z
property uchar red
property uchar green
property uchar blue
end_header
0.715658 0.257636   1.7299 255 255 255
  0.591557 -0.0697103    1.87478 255 255 255
 0.39367 0.317553  1.86326 255 255 255
0.189733 0.298386  1.97801 255 255 255
0.893356 0.295616  1.76361 255 255 255
 0.880018 0.0467158   1.74619 255 255 255
0.650773  0.20837  1.75307 255 255 255
 0.62574 0.281232   1.7508 255 255 255
0.464757 0.175605  1.86051 255 255 255
   0.839936 -0.00959902     1.55671 255 255 255
0.636156 0.117315  1.78982 255 255 255
0.543756 0.344746  1.77439 255 255 255
 0.271504 0.0928191   1.98794 255 255 255
0.553498 0.313344  1.77238 255 255 255
  0.5098 0.301298  1.80101 255 255 255
0.597969 0.276507  1.76263 255 255 255
0.309179 0.290412  1.88607 255 255 255
 0.81373 0.287818  1.66198 255 255 255
0.758283 0.192872  1.70951 255 255 255
   0.564732 -0.00846042     1.89641 255 255 255
0.456273 0.304733  1.82058 255 255 255
0.397747 0.301204  1.84098 255 255 255
0.727503 0.271254  1.70169 255 255 255
0.847454 0.175079  1.67791 255 255 255
0.381056 0.114754  1.92574 255 255 255
0.387896 0.312671   1.8573 255 255 255
0.171101 0.023412  2.05766 255 255 255
  0.396273 -0.0873015    1.97331 255 255 255
0.827391 0.133553  1.69705 255 255 255
0.273785 0.251202  1.93911 255 255 255
0.577411 0.189027  1.79933 255 255 255
0.801112 0.273126  1.67734 255 255 255
0.625969 0.256405  1.74769 255 255 255
 0.26647 0.100664  1.98247 255 255 255
  0.893212 -0.0816366    1.71247 255 255 255
0.0623752  0.176955   2.07132 255 255 255
 0.240297 -0.176343   2.02624 255 255 255
0.696735 0.229417     1.73 255 255 255
0.633632 0.275912  1.75504 255 255 255
0.676091 0.378708  1.72312 255 255 255
0.533634 0.306611  1.78935 255 255 255
0.776699 0.242573  1.68933 255 255 255
0.890522 0.171307  1.65822 255 255 255
0.805841 0.207173  1.67458 255 255 255
 0.435264 -0.161274   1.93112 255 255 255
 0.314836 0.0656944   1.96397 255 255 255
0.753246 0.246899  1.70102 255 255 255
 0.522387 -0.141255   1.89753 255 255 255
 0.745208 -0.156481   1.79651 255 255 255
0.525332 0.158951  1.83553 255 255 255
0.520199 0.159631  1.82681 255 255 255
 0.366737 -0.151071   1.96478 255 255 255
0.653613 0.093875  1.78348 255 255 255
0.112303 0.193652  2.03958 255 255 255
0.0856785 0.0990427   2.07938 255 255 255
0.764783 0.144231  1.70573 255 255 255
0.783513 0.302262  1.68273 255 255 255
 0.437054 -0.201504   1.91878 255 255 255
0.14191 0.27123 2.00351 255 255 255
0.832555 0.319039  1.65434 255 255 255
0.0643578 0.0531321   2.07716 255 255 255
0.599309 0.358119  1.73763 255 255 255
0.751949 0.121582  1.71949 255 255 255
0.582844 0.198187  1.79506 255 255 255
0.693311 0.290285  1.70531 255 255 255
0.241591 0.260498  1.95598 255 255 255
 0.222039 -0.132138   2.03081 255 255 255
0.387087 0.251488  1.89198 255 255 255
0.254202  0.14983  1.97781 255 255 255
 0.493578 -0.178037   1.88537 255 255 255
0.690345 0.261055  1.73162 255 255 255
0.535444 0.338947  1.77872 255 255 255
0.587729 0.288031  1.78997 255 255 255
  0.6956 0.277727  1.71466 255 255 255
0.714102 0.123123  1.74973 255 255 255
0.246107 0.260779  1.94231 255 255 255
0.619793 0.287851  1.74789 255 255 255
0.0507298  0.228821   2.06524 255 255 255
0.649314  0.14125  1.76117 255 255 255
0.344889  0.33043  1.88533 255 255 255
0.650574 0.131242  1.77666 255 255 255
 0.26752 0.298169  1.89991 255 255 255
0.328253 0.296812   1.8536 255 255 255
 0.57273 0.150878  1.79975 255 255 255
  0.13409 0.0168078   2.06374 255 255 255
 0.61623 -0.13965  1.85726 255 255 255
 0.118991 0.0212392   2.07718 255 255 255
0.392943 0.246155  1.87293 255 255 255
0.128846  0.14547  2.04027 255 255 255
0.447553 0.348184  1.83331 255 255 255
 0.391103 0.0806932   1.92357 255 255 255
 0.615742 -0.125122   1.84724 255 255 255
0.929623 0.134084  1.64832 255 255 255
0.501725 0.204473  1.82376 255 255 255
0.736214 0.245766   1.7062 255 255 255
0.305538 0.192297  1.93242 255 255 255
0.445858 0.305169  1.81434 255 255 255
0.148995 0.102125  2.03515 255 255 255
0.858384 0.188342  1.66918 255 255 255
0.648808 0.290108  1.73241 255 255 255
0.274885 0.124222  1.97627 255 255 255
0.708541  0.12767  1.75044 255 255 255
0.656877 0.314094  1.69392 255 255 255
0.216382 0.313863  1.94104 255 255 255
 0.316095 0.0765227    1.9637 255 255 255
0.620893 0.244902  1.75194 255 255 255
0.742468  0.13817  1.72529 255 255 255
0.233045 0.204666  1.97512 255 255 255
 0.369883 -0.192801   1.95729 255 255 255
  0.47525 -0.171809   1.90074 255 255 255
0.0756266  0.196333   2.05846 255 255 255
0.794318 0.260829  1.66896 255 255 255
  0.515921 0.00958241     1.9061 255 255 255
 0.588434 0.0966622   1.82574 255 255 255
0.372538 0.233727  1.88225 255 255 255
0.598638 0.252718  1.76884 255 255 255
0.174516 -0.16501  2.06125 255 255 255
 0.476363 0.0460494   1.88913 255 255 255
 0.88888 0.127746  1.66449 255 255 255
0.301283 0.189313   1.9371 255 255 255
0.685916 0.267084  1.72665 255 255 255
0.685493  0.26707  1.72604 255 255 255
 0.856999 0.0848331   1.65799 255 255 255
0.146631 0.206286  2.02078 255 255 255
0.0720111  0.207089   2.05703 255 255 255
0.278132 0.214457  1.95199 255 255 255
0.610965 0.373908  1.74565 255 255 255
  0.46495 0.0780131   1.88619 255 255 255
0.412075 0.242903  1.86551 255 255 255
0.196987 0.282564  1.96641 255 255 255
0.396052 0.280573  1.84697 255 255 255
0.358826 0.197059  1.91493 255 255 255
0.738532 0.258905  1.70401 255 255 255
0.317542 0.108109  1.95931 255 255 255
0.609335 0.348248  1.72842 255 255 255
0.725121 0.244983  1.70837 255 255 255
 0.425392 0.0967364   1.90601 255 255 255
0.32615 0.13138 1.95372 255 255 255
 0.394915 -0.127412   1.94244 255 255 255
0.217509 0.310266  1.94678 255 255 255
0.617829 0.293354  1.74364 255 255 255
0.636193 0.124285  1.78563 255 255 255
0.726549 0.029302  1.81784 255 255 255
0.656576 0.256931  1.74629 255 255 255
 0.69986 0.261302  1.72288 255 255 255
  0.513437 0.00875265    1.91905 255 255 255
 0.45087 0.294831  1.81721 255 255 255
0.877456 0.045776  1.74727 255 255 255
0.201424  0.20352  1.99075 255 255 255
 0.934364 0.0371506   1.71277 255 255 255
  0.557916 -0.0575232    1.89418 255 255 255
0.613123 0.118581  1.80814 255 255 255
0.673166 0.317379  1.71561 255 255 255
 0.616997 -0.160634   1.83823 255 255 255
0.277342 0.241147  1.94032 255 255 255
0.556481 0.124356  1.83651 255 255 255
 0.534057 0.0954807   1.85349 255 255 255
 0.71016 0.266365  1.71093 255 255 255
   0.96963 -0.0763582    1.67857 255 255 255
0.790431 0.256099  1.67602 255 255 255
 0.401949 0.0657736   1.92284 255 255 255
  0.850828 -0.0700944    1.73312 255 255 255
 0.485281 0.0958536   1.87367 255 255 255
 0.700151 -0.133956   1.82101 255 255 255
0.447684 0.236265  1.84973 255 255 255
 0.80763 0.204045  1.68996 255 255 255
0.568577 0.277519  1.78475 255 255 255
 0.370879 -0.159197   1.95576 255 255 255
 0.85021 0.230696  1.68784 255 255 255
0.294707 0.303391   1.8926 255 255 255
0.828114  0.36299  1.63557 255 255 255
 0.244988 -0.134301   2.03944 255 255 255
 0.242094 0.0923474   1.99717 255 255 255
 0.553791 0.0632898   1.85009 255 255 255
0.857606 0.220284  1.64601 255 255 255
0.923941 0.134649  1.64873 255 255 255
0.665283 0.384873  1.71535 255 255 255
 0.680221 -0.124774   1.81084 255 255 255
 0.688799 -0.128601   1.82531 255 255 255
0.739666 0.356349  1.69416 255 255 255
0.32257 0.21297 1.91605 255 255 255
0.882391 0.210766  1.65364 255 255 255
 0.633911 0.0107119   1.85481 255 255 255
  0.362595 -0.0507604    1.99625 255 255 255
0.453454 0.235142  1.84723 255 255 255
0.503983 0.287989  1.80186 255 255 255
 0.60774 0.254071  1.76077 255 255 255
  0.300854 -0.0131498    2.02729 255 255 255
0.281244 0.318339  1.89253 255 255 255
 0.142616 -0.108636   2.11245 255 255 255
0.619517 0.261402  1.75828 255 255 255
0.853202 0.179879  1.67494 255 255 255
0.590401 0.301248  1.74912 255 255 255
0.810498 0.402033  1.63667 255 255 255
0.810901 0.199146  1.68725 255 255 255
0.248775 0.305933   1.9385 255 255 255
 0.584831 -0.154842   1.85293 255 255 255
  0.25808 0.0675466    1.9938 255 255 255
0.198867 0.189836  1.99438 255 255 255
0.827698 0.242137  1.65359 255 255 255
0.0702745  0.168867   2.06001 255 255 255
 0.219124 0.0556982   2.01711 255 255 255
 0.178475 0.0930465    2.0272 255 255 255
0.229396  0.20157  1.97978 255 255 255
0.414687 0.237848  1.88211 255 255 255
0.247299 0.109693  1.99294 255 255 255
0.642092 0.258538   1.7437 255 255 255
0.763238 0.241574  1.69256 255 255 255
   0.85787 -0.0940772    1.72824 255 255 255
0.692641 0.233684  1.73138 255 255 255
0.649338 0.329946  1.72002 255 255 255
0.274903 0.294036  1.90266 255 255 255
 0.204578 0.0341776   2.02654 255 255 255
 0.832781 0.0887317   1.70952 255 255 255
0.269914 0.181747  1.96751 255 255 255
0.577561 0.280167  1.77946 255 255 255
 0.77076 0.150374  1.70019 255 255 255
0.793371 -0.05248  1.59362 255 255 255
0.138345 0.115217  2.04064 255 255 255
  0.528169 0.00388182    1.90099 255 255 255
0.224174 0.118598  1.99593 255 255 255
0.648502 0.267282  1.74543 255 255 255
0.546668 0.142612  1.81895 255 255 255
0.240285 0.203489  1.97075 255 255 255
0.555656 0.364611   1.7707 255 255 255
0.0744615  0.065198    2.0711 255 255 255
 0.24891 -0.18745    2.004 255 255 255
 0.142698 0.0330761   2.05081 255 255 255
 0.375606 0.0316451   1.94544 255 255 255
 0.169984 0.0152411   2.06671 255 255 255
0.785314 0.373823   1.6557 255 255 255
0.474919 0.140682  1.86922 255 255 255
  0.770505 -0.0211949       1.79 255 255 255
 0.093065 -0.122258   2.08189 255 255 255
0.823882 0.147085  1.69603 255 255 255
  0.77754 -0.115978   1.76223 255 255 255
0.758001 0.160164  1.72847 255 255 255
 0.168661 0.0430805   2.03431 255 255 255
0.505092 0.154284  1.84585 255 255 255
0.0998383  -0.15663   2.08095 255 255 255
 0.608867 0.0775515   1.81221 255 255 255
   0.566119 -0.00842034     1.89584 255 255 255
0.571507  0.32886  1.76784 255 255 255
0.844115 0.273897  1.63487 255 255 255
0.195374 0.189626  2.06778 255 255 255
0.551799 0.363547  1.77423 255 255 255
0.174029 0.226861   1.9962 255 255 255
 0.57092 0.221786  1.78441 255 255 255
 0.6188 0.25377 1.75998 255 255 255
0.429316 0.261773  1.84288 255 255 255
  0.720961 -0.0320089    1.80914 255 255 255
0.871898 0.118385  1.67306 255 255 255
0.0668724 0.0566639   2.07612 255 255 255
0.730558 0.123822  1.73601 255 255 255
  0.326233 -0.0243408    2.01649 255 255 255
0.851169 0.170202  1.67955 255 255 255
0.294609 0.149679  1.96045 255 255 255
0.604427 0.371773  1.74377 255 255 255
0.741742 0.265802  1.68883 255 255 255
0.490223 0.369713  1.79735 255 255 255
0.796976 0.148979  1.70856 255 255 255
 0.140676 -0.218089   2.03737 255 255 255
0.731432 0.262676  1.70184 255 255 255
 0.605219 -0.135873   1.86135 255 255 255
0.548419  0.18593  1.80521 255 255 255
0.806214 0.161547  1.69345 255 255 255
0.600487 0.058031   1.8233 255 255 255
0.345618 0.321333  1.88657 255 255 255
  0.199066 -0.0473957    2.07814 255 255 255
     0.81379 -0.000291404       1.7718 255 255 255
0.780957 0.266063  1.67508 255 255 255
0.640531 0.235118  1.74654 255 255 255
0.327999 0.146152  1.94923 255 255 255
  0.992855 0.00495222     1.6775 255 255 255
 0.78987 0.296063  1.68814 255 255 255
 0.376005 0.0732177   1.93767 255 255 255
0.640376 0.158087  1.76192 255 255 255
0.162115 0.204136   2.0108 255 255 255
 0.136925 -0.100651   2.10556 255 255 255
 0.39701 0.124787  1.90894 255 255 255
0.616745 0.301274  1.74618 255 255 255
0.313613 0.247243  1.91497 255 255 255
0.786754 0.175833  1.70543 255 255 255
0.540911 0.273709  1.79521 255 255 255
0.241311 0.184324  1.97649 255 255 255
0.653923 0.384687  1.72139 255 255 255
0.339602 0.137641  1.93226 255 255 255
 0.696927 -0.121198   1.80341 255 255 255
0.721443 0.147146  1.74268 255 255 255
0.700593 0.162246  1.74042 255 255 255
 0.297788 -0.165795   1.99202 255 255 255
 0.493201 -0.166831    1.8955 255 255 255
0.518802 0.109488  1.85437 255 255 255
0.520989 0.108867   1.8591 255 255 255
 0.76308 0.386745  1.67735 255 255 255
0.220459  0.16369  1.99392 255 255 255
0.267808 0.264646  1.91079 255 255 255
0.439834 0.349967  1.83397 255 255 255
0.674087 0.239633  1.74018 255 255 255
 0.35861 0.328978  1.84578 255 255 255
0.460327 0.158554  1.86236 255 255 255
0.639585 0.276694  1.75024 255 255 255
0.476181 0.320957  1.81774 255 255 255
  0.819201 -0.0791372    1.75345 255 255 255
0.439206 0.324129   1.8356 255 255 255
0.625633 0.239748  1.74915 255 255 255
0.466759 0.299185  1.80429 255 255 255
0.464743 0.340889  1.82538 255 255 255
0.607404 0.275632   1.7627 255 255 255
 0.891044 0.0508942   1.67934 255 255 255
 0.62043 0.141148  1.78299 255 255 255
0.299358  0.04437  1.97487 255 255 255
0.653097 0.314806  1.71374 255 255 255
0.782891 0.222246  1.67797 255 255 255
0.832049 0.081104  1.68671 255 255 255
0.826142 0.191495  1.67401 255 255 255
 0.234883 -0.128369   2.04832 255 255 255
0.578636 0.306788   1.7462 255 255 255
 0.76946 0.244197  1.69594 255 255 255
 0.850078 0.0917815   1.70437 255 255 255
 0.565672 0.0912993   1.84039 255 255 255
  0.249878 -0.0954295    2.02059 255 255 255
 0.190774 -0.106124   2.07105 255 255 255
 0.188274 -0.100689   2.07592 255 255 255
0.437426 0.223084  1.82087 255 255 255
 0.368805 -0.135192   1.97277 255 255 255
0.397272 0.214176  1.88963 255 255 255
0.260194 0.231357  1.95188 255 255 255
0.155044 0.260328  2.00544 255 255 255
0.475981 0.133333   1.8709 255 255 255
  0.367526 -0.0236364    2.00013 255 255 255
 0.85961 0.215012  1.65271 255 255 255
 0.328443 -0.192307   1.97304 255 255 255
  0.732388 -0.0685624    1.80228 255 255 255
 0.75732 0.300276  1.69124 255 255 255
0.376267 0.302106  1.85392 255 255 255
 0.280707 0.0446921   1.98215 255 255 255
0.605597 -0.17923  1.83514 255 255 255
0.576751 0.134544  1.81908 255 255 255
0.211943 0.191965  1.99031 255 255 255
0.249315 0.304913  1.92043 255 255 255
0.738855  0.25112  1.70957 255 255 255
 0.326847 -0.207712    1.9737 255 255 255
0.0889234   0.12995   2.06041 255 255 255
0.715363 0.272011  1.70597 255 255 255
0.481654 0.290584  1.80835 255 255 255
   0.607566 -0.00426096      1.7867 255 255 255
 0.29382 0.230997  1.94184 255 255 255
0.103148 0.134257  2.04993 255 255 255
0.27942 -0.2023 1.99698 255 255 255
0.495309 0.255715  1.80828 255 255 255
0.628547 0.332282   1.7213 255 255 255
 0.787082 0.0814575   1.72943 255 255 255
0.628451 0.312438  1.72515 255 255 255
0.830112 0.269879  1.64587 255 255 255
  0.945213 -0.0445801    1.69673 255 255 255
0.0801358  0.158436   2.06158 255 255 255
0.100103 0.161817  2.05498 255 255 255
0.359208 0.324428  1.87792 255 255 255
0.475645 0.202026  1.84087 255 255 255
0.420863 0.322212  1.83348 255 255 255
 0.786828 0.0992109   1.68414 255 255 255
0.677905 0.198214  1.74078 255 255 255
0.260205 0.212637  1.95475 255 255 255
0.0576118   0.21674   2.06262 255 255 255
0.0578244  0.216676   2.06059 255 255 255
0.199969 0.260321  1.97359 255 255 255
  0.5402 0.323271  1.77894 255 255 255
0.309304 0.289676  1.90362 255 255 255
0.294322 0.258973  1.90095 255 255 255
0.794776 0.300981   1.6647 255 255 255
 0.57707 0.084291  1.84968 255 255 255
0.67641 0.30468 1.71486 255 255 255
0.710786 0.143678  1.74018 255 255 255
  0.644397 -0.0244176     1.8568 255 255 255
0.635273 0.253747  1.73977 255 255 255
 0.167518 -0.107705   2.08769 255 255 255
 0.318425 0.0854183   1.96404 255 255 255
0.163174 0.160041   2.0175 255 255 255
0.748938 0.115863  1.74078 255 255 255
0.702666 0.153476  1.74965 255 255 255
0.322351 0.323039  1.87728 255 255 255
0.434044 0.154145  1.89169 255 255 255
 0.245053 0.0667445   2.00122 255 255 255
0.512305 0.226719  1.82587 255 255 255
0.526024 0.218153  1.85426 255 255 255
0.415085 0.152132  1.90206 255 255 255
 0.23273 0.109535  2.00132 255 255 255
 0.15295 0.291871  1.99761 255 255 255
0.486499 0.293997  1.81094 255 255 255
 0.57595 0.359685  1.76161 255 255 255
0.665029 0.190949  1.75296 255 255 255
0.233559 0.306876  1.93696 255 255 255
 0.75177 0.251252  1.70074 255 255 255
0.653814  0.25331  1.74931 255 255 255
0.17189 0.23416 1.99684 255 255 255
0.098686 0.169342  2.05142 255 255 255
 0.595473 0.0569153   1.83407 255 255 255
0.565409 0.313325  1.77002 255 255 255
0.567722 0.370958  1.76063 255 255 255
  0.432502 -0.0896426    1.95291 255 255 255
0.334864 0.149189   1.9355 255 255 255
    0.7846 -0.0522363    1.77776 255 255 255
 0.101704 -0.195081   2.07191 255 255 255
 0.333325 -0.167787   1.98123 255 255 255
0.539956 0.340172  1.77251 255 255 255
  0.351651 -0.0828309    1.97105 255 255 255
0.780335 0.258056  1.67508 255 255 255
0.610474  0.26848  1.76672 255 255 255
0.622088 0.344939  1.72546 255 255 255
0.807342 0.355603  1.64475 255 255 255
 0.739592 -0.128984   1.77622 255 255 255
0.206717 0.302022   1.9555 255 255 255
0.460812 0.313004  1.80893 255 255 255
0.384222 0.169464  1.90456 255 255 255
0.666505 0.141987  1.76076 255 255 255
  0.481895 0.00101372    1.92095 255 255 255
0.791292 0.329125  1.68664 255 255 255
0.275247 0.044231  1.98648 255 255 255
0.734092 0.307079  1.70052 255 255 255
0.131582 0.227204  2.01882 255 255 255
0.405624 0.122314  1.91069 255 255 255
  0.7138 0.155102  1.73871 255 255 255
0.165255  0.18008  2.01515 255 255 255
0.706738 0.280685  1.70933 255 255 255
0.551989 0.343782  1.76793 255 255 255
0.789893 0.162386  1.70467 255 255 255
0.481908 0.103513  1.87415 255 255 255
0.655809 0.320016  1.71174 255 255 255
0.186114 0.302378  1.97599 255 255 255
 0.237489 -0.191659   2.01556 255 255 255
0.89875  0.1592  1.6494 255 255 255
0.625932 0.295015   1.7391 255 255 255
0.492449 0.299287  1.80043 255 255 255
  0.259221 -0.0674684    2.02089 255 255 255
0.200582 0.286798  1.96457 255 255 255
0.0961552  0.110814   2.06952 255 255 255
0.860337 0.160086  1.67903 255 255 255
0.353792 0.041216  1.95382 255 255 255
0.224972 0.157574  1.99285 255 255 255
0.164201 0.261961  1.99481 255 255 255
  0.324841 -0.0322154     2.0202 255 255 255
0.547379 0.365625  1.77468 255 255 255
  0.91925 0.0215102   1.72032 255 255 255
 0.478674 0.0817768   1.88059 255 255 255
 0.936526 0.0180469   1.70959 255 255 255
0.628825 0.252487  1.74539 255 255 255
 0.784368 -0.091476    1.7676 255 255 255
 0.414415 -0.104729   1.93695 255 255 255
0.156805 0.223939  2.02143 255 255 255
0.528336  0.31262  1.80043 255 255 255
0.681766 0.109531  1.76723 255 255 255
0.0795845    0.1712    2.0575 255 255 255
 0.663914 -0.132239   1.81741 255 255 255
 0.870706 0.0493932   1.59361 255 255 255
0.573428 0.272698  1.77193 255 255 255
0.768667 0.220498  1.68728 255 255 255
0.602802 0.060767  1.82756 255 255 255
  0.220585 -0.0146405    2.07262 255 255 255
0.340789  0.21825   1.9176 255 255 255
 0.742959 0.0690596   1.74475 255 255 255
  0.171287 -0.0578049    2.08706 255 255 255
0.609823 0.293907  1.74861 255 255 255
 0.607161 0.0427318   1.81877 255 255 255
0.104481 0.261946  2.08614 255 255 255
0.543371 0.331453  1.77137 255 255 255
0.359798 0.195275  1.89099 255 255 255
 0.133756 -0.163632   2.08346 255 255 255
0.624934 0.303755  1.75394 255 255 255
  0.39015 -0.170551   1.95063 255 255 255
0.429449 0.358008  1.83838 255 255 255
 0.755808 -0.118134   1.79377 255 255 255
0.514921 0.319164  1.80213 255 255 255
 0.481863 -0.156233   1.90547 255 255 255
0.345963 0.117617  1.94326 255 255 255
0.622567 0.352615  1.72276 255 255 255
0.0513236   0.19863   2.07148 255 255 255
  0.452325 -0.0247644     1.9358 255 255 255
0.621222 0.223373  1.75863 255 255 255
0.518275 0.156871   1.8195 255 255 255
0.429429 -0.13648  1.93918 255 255 255
0.330174 0.137842  1.93682 255 255 255
0.949942 0.350201   1.7898 255 255 255
0.312623 0.260204  1.88735 255 255 255
0.183557   0.1137  2.02441 255 255 255
0.268926 0.100394  1.98154 255 255 255
0.408115 0.322434  1.85469 255 255 255
0.381965 0.346644  1.83482 255 255 255
0.640044 0.372155  1.72574 255 255 255
0.642225  0.37207   1.7282 255 255 255
0.610014 0.284471  1.75561 255 255 255
0.159122 0.106569  2.03285 255 255 255
0.0720309  0.124267   2.08225 255 255 255
 0.190007 0.0598729   2.02744 255 255 255
0.464178 0.350308  1.82141 255 255 255
0.512227 0.207821  1.82298 255 255 255
0.606171 0.278666  1.77395 255 255 255
0.745919 0.319819   1.6884 255 255 255
0.816665 0.340347  1.64596 255 255 255
0.655513 0.179524  1.75984 255 255 255
 0.205071 -0.169213   2.03725 255 255 255
 0.658086 0.0869253   1.78784 255 255 255
0.721013 0.117972  1.75019 255 255 255
0.300778 0.186434  1.94956 255 255 255
0.751279 0.217411  1.70416 255 255 255
0.861119  0.13878  1.67428 255 255 255
0.195398 0.226647  1.98724 255 255 255
  0.355506 -0.0585995    1.97207 255 255 255
0.165414  0.27619  1.98262 255 255 255
 0.63281 0.329883  1.71939 255 255 255
0.882022 0.105251   1.6808 255 255 255
0.529226 0.219225  1.80442 255 255 255
0.240183 0.210021  1.96934 255 255 255
 0.713712 -0.126518   1.79119 255 255 255
0.132639  0.11288  2.04558 255 255 255
0.88646 0.13207 1.66215 255 255 255
  0.968038 -0.0644205    1.67757 255 255 255
  0.255224 -0.0121613    2.04853 255 255 255
0.0996446 -0.026446   2.12806 255 255 255
0.600779 0.114657  1.81636 255 255 255
0.715571 0.174932  1.73767 255 255 255
 0.812824 -0.039471   1.57625 255 255 255
 0.179699 0.0685498   2.20342 255 255 255
  0.50867 0.0693301   1.86885 255 255 255
  0.671103 -0.0846938    1.83526 255 255 255
0.425077 0.085695  1.91033 255 255 255
0.346947 0.283747  1.87093 255 255 255
0.284487 0.168591   1.9607 255 255 255
  0.822837 -0.0291564    1.56498 255 255 255
  0.983245 -0.0400772     1.6772 255 255 255
 0.352599 -0.100591   1.97711 255 255 255
 0.868919 0.0300437   1.74893 255 255 255
 0.446617 0.0835849   1.89594 255 255 255
 0.250011 -0.138957   2.01656 255 255 255
 0.715053 0.0322505   1.82097 255 255 255
0.608888 0.251745  1.75646 255 255 255
 0.545356 0.0540247    1.8449 255 255 255
0.171502 0.113966  2.02856 255 255 255
 0.224132 0.0073182   2.06136 255 255 255
0.223942 -0.19493  2.03023 255 255 255
 0.726776 -0.140679   1.80594 255 255 255
0.614279  0.31264  1.75172 255 255 255
0.463447 0.188932  1.85224 255 255 255
 0.379044 -0.190514   1.95133 255 255 255
 0.348638 0.0495324   1.95577 255 255 255
 0.650594 -0.147178   1.83956 255 255 255
0.285334 0.114179  1.97478 255 255 255
0.748307 0.184616  1.71395 255 255 255
0.247164 0.268417  1.93984 255 255 255
0.829063  0.21817  1.65848 255 255 255
 0.335216 0.0757581    1.9575 255 255 255
0.297008 0.127184  1.96629 255 255 255
 0.159391 0.0319244   2.04529 255 255 255
0.487429 0.357241  1.80151 255 255 255
 0.602314 0.0119171   1.86671 255 255 255
0.903128 0.153311  1.65128 255 255 255
 0.509769 0.0919573   1.86917 255 255 255
  0.154435 -0.0362796    2.10977 255 255 255
0.397708 0.324698  1.85911 255 255 255
 0.893095 0.0650114   1.73701 255 255 255
0.443778  0.30593  1.82841 255 255 255
    0.46251 -0.00877026     1.93023 255 255 255
0.851442 0.154591  1.68376 255 255 255
   0.46795 -0.0293729    1.94056 255 255 255
0.788274   0.3425  1.69809 255 255 255
0.142109 0.119994  2.04223 255 255 255
0.262338 0.100169  1.98833 255 255 255
   0.201067 -0.00123014     2.07876 255 255 255
0.783111  0.28351  1.66721 255 255 255
 0.314632 0.0825917   1.96176 255 255 255
0.183916 0.281217  1.98191 255 255 255
 0.785103 -0.128965   1.75746 255 255 255
0.0912807  0.152624   2.05946 255 255 255
 0.419657 0.0200585   1.93287 255 255 255
  0.237444 -0.0727522    2.05721 255 255 255
 0.300041 0.0531581   1.97224 255 255 255
 0.780242 -0.121264   1.78215 255 255 255
0.590918 0.084063  1.82838 255 255 255
0.487442 0.352084  1.78696 255 255 255
 0.63725 0.127577  1.79125 255 255 255
 0.724688 0.0741547   1.76176 255 255 255
0.793319 0.245587  1.68364 255 255 255
 0.0979424 -0.0428493    2.12685 255 255 255
0.137566 0.196348  2.02601 255 255 255
0.728871 0.318559  1.69396 255 255 255
 0.549825 0.0960497   1.84234 255 255 255
0.841312   0.1524  1.68714 255 255 255
 0.663651 0.0690899   1.79345 255 255 255
0.587469 0.173991  1.78938 255 255 255
 0.107212 0.0875649   2.07048 255 255 255
0.821507 0.295557  1.69118 255 255 255
0.241701 0.205466  1.96602 255 255 255
0.649859 0.371734  1.73146 255 255 255
  0.780943 -0.0108472    1.78581 255 255 255
 0.699961 -0.145288    1.8192 255 255 255
 0.301698 -0.165576   1.98851 255 255 255
0.605201 0.356792  1.73894 255 255 255
0.742708 0.285018  1.68631 255 255 255
0.605189 0.187582  1.76949 255 255 255
0.631893 0.191546  1.76626 255 255 255
0.236799 0.157149  1.97744 255 255 255
 0.151283 0.0519052   2.04898 255 255 255
0.180635 0.132637  2.01875 255 255 255
0.460399 0.280948  1.83861 255 255 255
  0.176916 -0.0834476     2.0854 255 255 255
0.117746 0.156274  2.04589 255 255 255
 0.287106 -0.165604   2.00255 255 255 255
 0.738158 0.0722871   1.74996 255 255 255
 0.120888 0.0490094   2.06534 255 255 255
0.639057 0.368855  1.73815 255 255 255
0.148385 0.190797  2.02413 255 255 255
  0.389496 -0.0315311    1.97585 255 255 255
0.147272 0.119498  2.03855 255 255 255
0.206763 0.248866  1.97555 255 255 255
 0.533786 -0.169042    1.8696 255 255 255
 0.705596 -0.106902   1.80349 255 255 255
0.353369 0.061822  1.95245 255 255 255
0.160836 0.237449  1.99697 255 255 255
0.287367 0.178131  1.95331 255 255 255
 0.669115 -0.155419   1.83254 255 255 255
0.311405 0.230928  1.93268 255 255 255
0.168046  0.15848  2.01759 255 255 255
0.604739 0.290605  1.76367 255 255 255
 0.202851 -0.107842   2.03908 255 255 255
   0.425468 -0.00636333     1.96741 255 255 255
0.448295 0.106701  1.89097 255 255 255
0.508108 0.233089  1.81638 255 255 255
0.258627 0.184646  1.96733 255 255 255
0.740586 0.122843  1.72988 255 255 255
0.594823  0.29066  1.77731 255 255 255
0.912062 0.169223  1.65075 255 255 255
0.612236 0.304668  1.75401 255 255 255
0.615053 0.305309  1.75203 255 255 255
 0.120833 0.0523348   2.06444 255 255 255
0.635368 -0.11205  1.85014 255 255 255
 0.943159 0.0409752   1.71103 255 255 255
0.541856 0.319082  1.77765 255 255 255
0.672534 0.129856  1.76991 255 255 255
 0.547235 -0.106503   1.88722 255 255 255
0.165551 0.260344  1.99074 255 255 255
 0.513892 -0.143272   1.89151 255 255 255
 0.30597 0.081195  1.96832 255 255 255
 0.298717 -0.128328   2.01187 255 255 255
0.103315 0.107398   2.0569 255 255 255
0.571943  0.31107  1.75857 255 255 255
0.567785 0.126713  1.83075 255 255 255
0.344325 0.325618  1.88631 255 255 255
0.105428 0.228567  2.03775 255 255 255
0.800654 0.195379  1.68116 255 255 255
0.248706 0.180284  1.97305 255 255 255
  0.8247 0.266456  1.65002 255 255 255
   0.49415 0.00318736    1.93305 255 255 255
 0.15318 0.207098  2.01795 255 255 255
 0.788471 -0.116705   1.77695 255 255 255
0.681615 0.327056  1.72319 255 255 255
0.811365 0.320152  1.67354 255 255 255
   0.53967 -0.0735249     1.8992 255 255 255
0.751179 0.256739  1.68456 255 255 255
0.264972 0.274663  1.93358 255 255 255
  0.59828 0.0898682   1.79999 255 255 255
0.207174 0.218536  1.99802 255 255 255
 0.64689 0.082188  1.79584 255 255 255
 0.640872 0.0838348   1.78716 255 255 255
  0.52636 0.0456441   1.85749 255 255 255
 0.61351 0.144515   1.7941 255 255 255
  0.257003 -0.0208463    2.01469 255 255 255
0.171268  0.23617  2.04618 255 255 255
 0.581234 0.0227238   1.87142 255 255 255
0.842183 0.155777  1.68607 255 255 255
0.309921  -0.1437   2.0016 255 255 255
  0.325652 0.00541293    2.00909 255 255 255
  0.318064 0.00831058    1.99343 255 255 255
 0.333565 0.0924804    1.9571 255 255 255
0.579991 0.277984  1.78104 255 255 255
0.522541  0.32173  1.79738 255 255 255
0.0658925  0.252052    2.0514 255 255 255
  0.199267 -0.0164991    2.08567 255 255 255
0.227972 0.305665  1.94247 255 255 255
  0.46664 0.0588977   1.88548 255 255 255
 0.468395 0.0575991   1.88952 255 255 255
 0.31974 0.230154   1.9222 255 255 255
  0.278453 -0.0787456    2.03344 255 255 255
 0.843415 0.0839743   1.68242 255 255 255
0.167218 0.285749  1.99352 255 255 255
0.783678 0.297157  1.67056 255 255 255
 0.836198 0.0732007   1.67759 255 255 255
 0.704595 -0.145647   1.81746 255 255 255
0.203216 0.111052  2.01513 255 255 255
 0.314455 -0.131818   2.00244 255 255 255
 0.862485 0.0483196   1.61724 255 255 255
 0.180187 -0.166764   2.06082 255 255 255
 0.309227 -0.086972   2.01798 255 255 255
0.481648 0.337502  1.81155 255 255 255
0.835478 0.072221  1.68286 255 255 255
    0.46222 -0.00951244     1.94521 255 255 255
0.869481 0.193231  1.65974 255 255 255
 0.725516 -0.117107   1.79151 255 255 255
   0.38827 -0.0262902    1.96342 255 255 255
  0.903095 -0.0410284     1.7198 255 255 255
0.161634 0.287748  1.99486 255 255 255
0.579327 0.300676  1.75481 255 255 255
 0.661047 0.0251466   1.83275 255 255 255
  0.866338 -0.0756307    1.72965 255 255 255
0.537588 0.200101  1.81427 255 255 255
0.374869 0.312181  1.87329 255 255 255
0.402294 0.317713  1.83614 255 255 255
0.392794 0.319701  1.82043 255 255 255
  0.515172 0.00158839     1.9208 255 255 255
 0.692015 -0.101532   1.81329 255 255 255
0.537962 0.273139  1.78275 255 255 255
0.721744 0.240588  1.70658 255 255 255
  0.560696 0.00934342    1.89754 255 255 255
 0.340731 0.0629044   1.95692 255 255 255
0.224096 0.125264  2.00143 255 255 255
0.0564463  0.162393    2.0714 255 255 255
0.459271 0.354808  1.82329 255 255 255
 0.647812 -0.087562   1.83883 255 255 255
0.553994 0.365628   1.7709 255 255 255
  0.61475 0.0500291   1.82979 255 255 255
0.595043 0.372926  1.74499 255 255 255
 0.273478 0.0198003   2.00579 255 255 255
0.269531 0.246826  1.93709 255 255 255
 0.416638 -0.151729   1.94253 255 255 255
 0.730692 -0.139778   1.80313 255 255 255
  0.288818 0.00795151     2.0293 255 255 255
 0.238345 -0.185199   2.02539 255 255 255
0.182901 0.117933   2.0211 255 255 255
 0.305708 0.0432442   1.97041 255 255 255
 0.45063 0.307121  1.82498 255 255 255
  0.325672 -0.0110003    2.01132 255 255 255
    0.31748 -0.00774202      1.9945 255 255 255
  0.238429 -0.0150849    2.05737 255 255 255
 0.288124 -0.184858   1.99972 255 255 255
0.202203 0.108187   2.0155 255 255 255
 0.396504 -0.161634   1.95028 255 255 255
0.0932459  0.182145   2.05409 255 255 255
0.124669 0.107868  2.04253 255 255 255
0.354526 0.224934  1.91202 255 255 255
 0.62402 0.317112  1.72966 255 255 255
 0.881621 0.0143162   1.73829 255 255 255
0.678293 0.275877  1.72692 255 255 255
 0.289136 0.0517634   1.97692 255 255 255
 0.233036 -0.185177   2.02806 255 255 255
0.755979 0.279595  1.69442 255 255 255
0.174674 0.270128  1.98244 255 255 255
0.492563 0.350281  1.80076 255 255 255
0.632762 0.263336  1.74569 255 255 255
   0.10266 -0.0320925    2.12966 255 255 255
0.285168 0.278412  1.89787 255 255 255
 0.972878 0.0119601   1.68791 255 255 255
 0.390309 -0.114915   1.94725 255 255 255
 0.341422 -0.194029    1.9655 255 255 255
0.913107 0.142833   1.6525 255 255 255
0.607939 0.352414  1.73242 255 255 255
 0.378612 -0.132697   1.97055 255 255 255
  0.878641 -0.0873394    1.71883 255 255 255
 0.24912 0.260977  1.93923 255 255 255
  0.323521 -0.0655771    1.99381 255 255 255
0.644217 0.328411  1.71963 255 255 255
 0.202696 -0.164021    2.0486 255 255 255
   0.24867 -0.0128815    2.05334 255 255 255
0.651232 0.380107  1.71877 255 255 255
   0.84721 -0.0824084    1.73731 255 255 255
 0.361396 0.0494125   1.94999 255 255 255
0.362337 0.322772  1.87781 255 255 255
  0.2526 0.230797  1.96106 255 255 255
 0.47187 0.108245  1.88004 255 255 255
 0.214988 0.0062238   2.04243 255 255 255
  0.67157 -0.113008   1.82099 255 255 255
0.787399  0.12182  1.72018 255 255 255
 0.556054 0.0930641   1.84673 255 255 255
0.613889 0.300333  1.75117 255 255 255
0.493953 0.103136  1.86799 255 255 255
 0.727538 -0.158822   1.80756 255 255 255
 0.7639 0.30808 1.70145 255 255 255
  0.225337 -0.0147295    2.07097 255 255 255
 0.312093 -0.110055   2.00833 255 255 255
  0.380812 -0.0821373    1.98093 255 255 255
0.714804 0.237775  1.71224 255 255 255
0.149714  0.23156  2.00885 255 255 255
0.737718 0.266591  1.69786 255 255 255
 0.417559 0.0788066   1.91509 255 255 255
 0.554153 0.0278404    1.8829 255 255 255
 0.129271 0.0288933   2.05483 255 255 255
 0.132321 0.0387463   2.05072 255 255 255
0.517306 0.194388  1.82235 255 255 255
0.201398 0.275012  1.97978 255 255 255
0.0804746  0.180745    2.0577 255 255 255
0.216754 0.265342  1.97056 255 255 255
 0.530229 0.0214918   1.89551 255 255 255
0.271427 0.321716  1.90885 255 255 255
  0.793707 0.00291104    1.78308 255 255 255
0.343636 0.298413  1.89343 255 255 255
 0.728915 0.0973138   1.74794 255 255 255
 0.70458 0.312152  1.70303 255 255 255
0.138105 0.053536  2.04722 255 255 255
 0.356311 0.0797532   1.94578 255 255 255
0.738872 0.387249  1.67571 255 255 255
  0.342638 -0.0359846    2.01105 255 255 255
  0.236878 -0.0124651    2.05841 255 255 255
0.0614264  0.192521   2.07201 255 255 255
0.585726 0.274467  1.77534 255 255 255
  0.874538 -0.0767487    1.72395 255 255 255
0.144481 0.282793  2.00103 255 255 255
 0.253442 0.0613908   1.99832 255 255 255
0.281922 0.217959  1.93815 255 255 255
 0.894532 0.0229219   1.73262 255 255 255
0.710391 0.294879  1.70067 255 255 255
  0.360482 -0.0787593    1.96747 255 255 255
  0.471053 -0.0604378    1.92863 255 255 255
 0.334039 0.0660168   1.95544 255 255 255
   0.13565 -0.0317742    2.11213 255 255 255
0.510598 0.323257  1.79807 255 255 255
0.574232  0.32803    1.761 255 255 255
 0.927833 0.0276587   1.71734 255 255 255
 0.728742 -0.144693   1.78203 255 255 255
  0.383722 -0.0329519    1.98417 255 255 255
0.215385 -0.11483  2.03747 255 255 255
0.316343 0.011016  1.99432 255 255 255
0.181593 0.204482  2.00421 255 255 255
0.227831 -0.01658  2.06232 255 255 255
0.324386 0.246052  1.90883 255 255 255
0.090287 0.177891  2.05259 255 255 255
 0.697206 0.0695407   1.77496 255 255 255
0.794371 0.191662  1.68233 255 255 255
0.237699 0.218158  1.97187 255 255 255
 0.313636 -0.155837   1.98507 255 255 255
0.527467 0.331816  1.78177 255 255 255
0.344347 -0.19843  1.96794 255 255 255
0.169383 0.186174  2.00896 255 255 255
 0.912263 0.0570522   1.72845 255 255 255
 0.166937 0.0588564   2.03457 255 255 255
    0.3562 -0.0668723    1.99467 255 255 255
0.848457 0.298108  1.64172 255 255 255
  0.160495 -0.0241889    2.10013 255 255 255
 0.454482 -0.181122   1.91057 255 255 255
0.224468 0.305831  1.94343 255 255 255
0.574845 0.383123  1.75526 255 255 255
 0.308707 -0.169361   1.98442 255 255 255
 0.213965 -0.170022   2.03996 255 255 255
 0.417678 -0.188611   1.92304 255 255 255
  0.55947 0.0506761   1.83508 255 255 255
 0.167477 -0.130847   2.07843 255 255 255
 0.319591 -0.106344    1.9904 255 255 255
0.257537 0.205967  1.95408 255 255 255
0.255261 0.265864  1.94137 255 255 255
0.638867  0.18856  1.76538 255 255 255
 0.188007 -0.147986   2.03537 255 255 255
   0.87386 0.00261388    1.73784 255 255 255
  0.45689 0.0680324   1.89221 255 255 255
0.238652 0.109592  1.99655 255 255 255
 0.199652 0.0422312   2.02089 255 255 255
0.574548 0.364238  1.76419 255 255 255
0.166845   0.1691  2.01675 255 255 255
 0.787983 0.0700466   1.74046 255 255 255
0.144638 0.208738  2.02187 255 255 255
0.561871 0.312041   1.7704 255 255 255
  0.329146 -0.0732158    2.01105 255 255 255
 0.666829 0.0650217     1.793 255 255 255
 0.212894 0.0412508   2.01497 255 255 255
 0.925583 0.0089679   1.71348 255 255 255
0.252702 0.290652   1.9393 255 255 255
0.792389 0.374318  1.65166 255 255 255
 0.636471 0.0637901   1.81253 255 255 255
 0.266233 0.0381624   1.99774 255 255 255
0.366429 0.331127  1.84483 255 255 255
  0.595968 -0.0414298    1.87683 255 255 255
0.447415 0.122015  1.88968 255 255 255
  0.335024 -0.0369015    1.98153 255 255 255
 0.323191 -0.104845   1.98805 255 255 255
0.174263 0.204444  2.00685 255 255 255
  0.325892 0.00543742    1.99029 255 255 255
  0.348818 -0.0715207    1.99789 255 255 255
 0.553759 0.0908805   1.83479 255 255 255
  0.209487 -0.0585567     2.0403 255 255 255
 0.284217 0.0555318   1.98148 255 255 255
 0.350485 -0.151603   1.97112 255 255 255
 0.444076 0.0411447   1.90616 255 255 255
0.573356 0.267028  1.76804 255 255 255
 0.110541 0.0341214   2.06124 255 255 255
0.394108 0.250593  1.87243 255 255 255
0.355899 0.144501  1.93373 255 255 255
0.734339  0.28524  1.68812 255 255 255
  0.232549 -0.0710451     2.0306 255 255 255
0.485439 0.109214  1.87137 255 255 255
  0.30999 -0.173192   1.99033 255 255 255
0.134683 0.197459  2.02804 255 255 255
0.180645 0.227929  2.01676 255 255 255
  0.196072 -0.0965612    2.04623 255 255 255
 0.392862 0.0229837   1.94585 255 255 255
  0.305567 0.00720303    1.99969 255 255 255
  0.125156 -0.0587668    2.11158 255 255 255
0.226705 0.284872  1.95741 255 255 255
0.154987  0.18669  2.01882 255 255 255
0.334365 0.247824  1.91256 255 255 255
0.757115 0.400354  1.65852 255 255 255
  0.240644 -0.0577146    2.05415 255 255 255
0.177703 0.168777  2.00755 255 255 255
   0.341742 -0.00187791     1.97509 255 255 255
0.258152 0.273608  1.93721 255 255 255
  0.206167 -0.0135497    2.07526 255 255 255
0.532567  0.19456  1.81765 255 255 255
 0.701096 -0.110902   1.81981 255 255 255
0.656507 0.290438  1.72759 255 255 255
0.298127 -0.01141  2.03054 255 255 255
0.843812 0.345505  1.71025 255 255 255
 0.605055 0.0762358   1.81714 255 255 255
 0.379976 -0.159048   1.94884 255 255 255
  0.694684 -0.0114538    1.83306 255 255 255
 0.42585 0.221737  1.86977 255 255 255
  0.217682 -0.0360952     2.0405 255 255 255
0.239402 0.257026  1.95952 255 255 255
0.0618372  0.181986   2.07749 255 255 255
  0.334258 -0.0916295    2.00459 255 255 255
 0.316851 -0.181236   1.98316 255 255 255
0.464012 0.306901  1.77775 255 255 255
 0.7113 0.29357 1.71748 255 255 255
0.633389 0.343141  1.72837 255 255 255
0.533059 0.231994  1.78067 255 255 255
0.373727 0.642625  1.61842 255 255 255
0.251287   0.3468  1.89625 255 255 255
0.621733 0.381729  1.73486 255 255 255
0.197618 0.261824  2.03207 255 255 255
0.350868 0.583686  1.61857 255 255 255
0.466148 0.350454  1.80007 255 255 255
0.479024  0.40224  1.76665 255 255 255
 0.91326 0.286066   1.7485 255 255 255
0.212985 0.300147  1.99366 255 255 255
0.223888 0.323772  1.92945 255 255 255
0.523863 0.206144  1.80289 255 255 255
0.595051 0.408827  1.74518 255 255 255
 0.51795 0.379595  1.75772 255 255 255
0.536762 0.420395  1.75341 255 255 255
0.432267 0.332919  1.80846 255 255 255
0.268248 0.369935  1.85328 255 255 255
0.453558 0.573932   1.6452 255 255 255
0.351951 0.245628  1.82975 255 255 255
0.430472 0.312644  1.76185 255 255 255
0.0580839  0.258827   2.04611 255 255 255
0.324458 0.207813  1.85021 255 255 255
0.297268 0.177923   1.8991 255 255 255
0.318033 0.390985  1.86301 255 255 255
0.170265 0.090651  2.23881 255 255 255
0.367849 0.219648   1.9043 255 255 255
0.528103 0.582344  1.63711 255 255 255
 0.47961 0.530349  1.66502 255 255 255
0.448624 0.309176  1.75119 255 255 255
0.415426  0.55359  1.63391 255 255 255
0.794044 0.304389  1.71221 255 255 255
0.576483 0.589195  1.66307 255 255 255
0.673219 0.582257  1.68749 255 255 255
0.713347 0.256891  1.74802 255 255 255
0.409141  0.59614  1.62391 255 255 255
 0.21943 0.330933  1.94846 255 255 255
0.612461 0.477525  1.70476 255 255 255
0.484871 0.377085   1.7773 255 255 255
0.621801 0.417097  1.74592 255 255 255
  0.3587 0.296522  1.79973 255 255 255
0.325881 0.383606  1.85428 255 255 255
0.422758 0.535483  1.64162 255 255 255
0.477714 0.427006  1.77109 255 255 255
0.299692 0.376358  1.86057 255 255 255
0.291431 0.374034  1.88563 255 255 255
0.364577 0.404694  1.82987 255 255 255
0.536416 0.493965  1.68036 255 255 255
 0.34027 0.596653   1.6215 255 255 255
0.519488 0.542314  1.65314 255 255 255
0.222302 0.219622  2.01363 255 255 255
0.780247 0.321962  1.71756 255 255 255
0.632589 0.590786  1.68002 255 255 255
 0.46371 0.581895  1.64353 255 255 255
0.248167 0.168436  2.00093 255 255 255
0.461243 0.428394  1.77033 255 255 255
0.601766 0.300829  1.73376 255 255 255
0.688864 0.535572  1.67439 255 255 255
0.262391 0.336468  1.88359 255 255 255
0.460533 0.367648  1.79344 255 255 255
0.585035 0.544442  1.66792 255 255 255
0.247947 0.186136  1.97965 255 255 255
 0.14181 0.179968   2.2272 255 255 255
0.243354   0.2193  1.97913 255 255 255
0.521653 0.605659  1.64749 255 255 255
0.455098 0.542504  1.65153 255 255 255
0.552615  0.28048  1.73986 255 255 255
 0.41723 0.643505  1.63174 255 255 255
0.500188 0.419559  1.76192 255 255 255
0.257016 0.197822  1.94089 255 255 255
0.348938 0.577623  1.61753 255 255 255
0.681845 0.500933  1.70006 255 255 255
0.774431 0.389774  1.74613 255 255 255
0.576664 0.346492  1.73988 255 255 255
0.577244 0.538204  1.66559 255 255 255
0.515871 0.561049   1.6598 255 255 255
0.661718 0.572276   1.6733 255 255 255
0.401684 0.603964  1.62575 255 255 255
0.518623 0.339261  1.74267 255 255 255
 0.50842 0.524215  1.66909 255 255 255
0.546632 0.431177  1.76239 255 255 255
0.451891 0.329237  1.78794 255 255 255
0.503082 0.395582  1.77979 255 255 255
0.564161 0.418001  1.75137 255 255 255
 0.25347 0.286012  1.89645 255 255 255
0.335272 0.400739  1.85659 255 255 255
0.273056 0.264335  1.87862 255 255 255
0.572171 0.358225  1.73449 255 255 255
0.644974 0.589007  1.67756 255 255 255
   0.358 0.399512  1.83707 255 255 255
0.695449 0.552576  1.68629 255 255 255
0.256828 0.295296  1.91779 255 255 255
0.608341 0.355699  1.73761 255 255 255
 0.43349 0.577819   1.6231 255 255 255
0.395683 0.415491  1.80975 255 255 255
0.609889 0.500395  1.69675 255 255 255
0.201353 0.231227  2.04354 255 255 255
0.270726 0.192109  1.94749 255 255 255
0.334347 0.364328  1.85272 255 255 255
0.502263 0.564025  1.65688 255 255 255
0.170001 0.237491  2.11271 255 255 255
0.436681 0.420209  1.78697 255 255 255
0.651346 0.343098  1.72924 255 255 255
0.421542 0.330442  1.77065 255 255 255
0.457472 0.415117  1.77825 255 255 255
0.265309 0.352404  1.87368 255 255 255
0.363438 0.384055  1.84563 255 255 255
0.287082 0.317404  1.88813 255 255 255
0.247354 0.191392  1.96599 255 255 255
0.418128 0.571313  1.63392 255 255 255
0.450937 0.613523  1.63869 255 255 255
0.552014 0.495842  1.68584 255 255 255
0.679352 0.534506  1.67948 255 255 255
0.552656 0.422439  1.75385 255 255 255
0.626215 0.481593  1.69857 255 255 255
0.261697 0.275755  1.89299 255 255 255
0.513675 0.300695   1.7645 255 255 255
0.202997 0.266868  2.03489 255 255 255
0.35256 0.30297 1.80236 255 255 255
0.456636 0.356755   1.8082 255 255 255
0.589668 0.392143  1.74623 255 255 255
 0.55513 0.538797  1.66907 255 255 255
0.701042 0.246039  1.73161 255 255 255
0.495088 0.516269  1.66563 255 255 255
0.594387 0.535927  1.67109 255 255 255
0.423257 0.283676  1.78033 255 255 255
0.292603 0.375791   1.8891 255 255 255
0.473596 0.546272  1.65121 255 255 255
0.544392 0.424913  1.75704 255 255 255
0.418694 0.602086   1.6299 255 255 255
 0.48058 0.412582  1.77389 255 255 255
0.664216 0.563275  1.68745 255 255 255
0.303007 0.398472  1.87305 255 255 255
0.764824 0.546055  1.69613 255 255 255
0.611402 0.406834  1.74443 255 255 255
0.585883 0.620569   1.6749 255 255 255
0.400162  0.54775  1.63667 255 255 255
0.692154 0.351764  1.72543 255 255 255
0.689318 0.318966  1.71932 255 255 255
 0.23038 0.341817  1.94344 255 255 255
0.387624 0.555291  1.63179 255 255 255
0.105118 0.215094  2.14619 255 255 255
0.505462 0.425222  1.76301 255 255 255
0.486245 0.535579  1.65756 255 255 255
 0.58784 0.374167  1.74281 255 255 255
0.527518 0.410099  1.75881 255 255 255
0.162414 0.199715  2.16284 255 255 255
0.609764 0.603064  1.67702 255 255 255
0.465736  0.40995  1.77608 255 255 255
0.622944 0.317246  1.71687 255 255 255
0.425457 0.406142   1.7765 255 255 255
0.742299 0.456711  1.72197 255 255 255
0.340881   0.5932  1.61443 255 255 255
0.178842 0.227416  2.00716 255 255 255
0.387411 0.585466  1.62723 255 255 255
0.252167 0.263892  1.91889 255 255 255
0.437258 0.590634  1.63699 255 255 255
0.53271 0.57738  1.6338 255 255 255
0.336822 0.376815   1.8465 255 255 255
0.516678 0.569658  1.66085 255 255 255
0.467518 0.634478  1.64516 255 255 255
0.413435 0.415583  1.77696 255 255 255
0.484157 0.517973  1.66144 255 255 255
0.609169  0.25629  1.71693 255 255 255
0.427174 0.206895  1.77581 255 255 255
0.445327 0.339187  1.81558 255 255 255
0.348993 0.572986  1.62549 255 255 255
0.408601 0.418785  1.77933 255 255 255
0.253078 0.306822  1.90752 255 255 255
0.345004 0.269302  1.82131 255 255 255
0.457233 0.402026  1.77545 255 255 255
0.506703 0.550734  1.65718 255 255 255
0.224282 0.336881  1.93183 255 255 255
0.497297 0.499387  1.67618 255 255 255
0.212471 0.247537  1.98941 255 255 255
0.420266 0.417102  1.77655 255 255 255
0.510943 0.343766   1.7585 255 255 255
0.481204 0.652363  1.65436 255 255 255
0.271056 0.370337  1.90358 255 255 255
0.148582 0.142811  2.23775 255 255 255
0.271894  0.29932  1.88558 255 255 255
0.644249 0.409514  1.74327 255 255 255
0.638379 0.594941  1.68153 255 255 255
0.500321  0.53937  1.66128 255 255 255
0.464778 0.378254  1.76608 255 255 255
0.177758 0.242806  2.08641 255 255 255
0.697859  0.25673  1.73424 255 255 255
0.248314 0.268771  1.92455 255 255 255
0.614868 0.258976  1.71913 255 255 255
0.640417 0.242586  1.71903 255 255 255
0.596696 0.377123  1.74514 255 255 255
0.37713 0.42073 1.80306 255 255 255
0.352054 0.406347  1.83687 255 255 255
0.206244 0.344056  1.98241 255 255 255
0.182213 0.222031  2.08887 255 255 255
 0.49169 0.548058  1.65435 255 255 255
0.954497 0.266477  1.77238 255 255 255
0.501469  0.50863  1.66905 255 255 255
0.402455 0.327124  1.78923 255 255 255
0.409368 0.618179  1.62565 255 255 255
0.456123  0.40764  1.78061 255 255 255
 0.47009 0.407078  1.76922 255 255 255
0.376441 0.408306  1.79387 255 255 255
0.733788 0.296476  1.72995 255 255 255
0.517659 0.334553   1.7508 255 255 255
0.264694  0.21046  1.94129 255 255 255
0.361667  0.40303  1.82979 255 255 255
0.323975 0.191171  1.86929 255 255 255
0.285845 0.374217  1.89179 255 255 255
0.514478 0.555344  1.65705 255 255 255
 0.37576 0.602757   1.6188 255 255 255
 0.70749 0.472613  1.70863 255 255 255
0.570917  0.27729  1.73817 255 255 255
 0.47237 0.385772  1.78175 255 255 255
0.450445  0.53932  1.64521 255 255 255
0.414639  0.32461  1.76803 255 255 255
 0.18878 0.173227  2.11627 255 255 255
0.550043 0.273621  1.74473 255 255 255
0.509328 0.430054  1.76076 255 255 255
0.335437 0.295901  1.83681 255 255 255
0.562992 0.426461  1.75639 255 255 255
0.672653 0.256491  1.74197 255 255 255
0.494497 0.411119  1.76574 255 255 255
0.801013 0.375827  1.74854 255 255 255
0.222452  0.20275  2.03428 255 255 255
0.861285 0.412218  1.70618 255 255 255
0.645766 0.532347  1.68125 255 255 255
0.478027 0.407496  1.77233 255 255 255
0.320507 0.198923  1.87458 255 255 255
0.609465 0.435409  1.74396 255 255 255
0.334984 0.587735  1.61072 255 255 255
0.541749 0.479311  1.69365 255 255 255
0.248387 0.361272  1.89849 255 255 255
0.453662 0.546536  1.65042 255 255 255
  0.6128 0.243887  1.71694 255 255 255
0.414976  0.31621   1.7637 255 255 255
0.829029  0.40834  1.74272 255 255 255
0.548209 0.536719  1.67025 255 255 255
0.235974 0.148115  2.02841 255 255 255
0.637484 0.523716  1.68427 255 255 255
0.373476 0.391057  1.82774 255 255 255
0.262739 0.155772  1.96499 255 255 255
0.294524 0.323972  1.85692 255 255 255
0.125774 0.253343  2.06364 255 255 255
0.918981 0.352933  1.77513 255 255 255
0.546629 0.416543  1.75415 255 255 255
0.309291 0.397172  1.86598 255 255 255
0.202276 0.142986   2.0783 255 255 255
 0.62613 0.618271  1.68345 255 255 255
0.786511 0.335884  1.71923 255 255 255
 0.62321 0.437321  1.74413 255 255 255
0.658889 0.278925  1.72668 255 255 255
0.471051 0.506431  1.66201 255 255 255
0.347314 0.407438  1.83956 255 255 255
0.318773  0.59407  1.60347 255 255 255
0.799936 0.274867  1.69175 255 255 255
0.573678 0.320684  1.72833 255 255 255
0.343337 0.601305  1.62142 255 255 255
0.704031 0.344727  1.70058 255 255 255
0.372139 0.565507  1.63029 255 255 255
 0.63033 0.404537  1.74127 255 255 255
0.288681 0.191453  1.91224 255 255 255
0.550756 0.615333  1.66539 255 255 255
0.450517 0.312386  1.75681 255 255 255
0.194923 0.168166  2.09587 255 255 255
0.500332 0.411852   1.7643 255 255 255
0.428856 0.565708  1.63561 255 255 255
0.371828 0.397833  1.82611 255 255 255
0.582087  0.26659  1.72755 255 255 255
0.317044 0.261125  1.85306 255 255 255
 0.17789 0.229146  2.08803 255 255 255
 0.81408 0.369344  1.70865 255 255 255
 0.86497 0.341176  1.75747 255 255 255
 0.52697 0.340124  1.74526 255 255 255
