ply
format ascii 1.0
element vertex 1197
property float x
property float y
property float z
property uchar red
property uchar green
property uchar blue
end_header
0.713532 0.286605   1.7266 255 255 255
0.221248 0.116832  2.02258 255 255 255
0.618664  0.39005  1.75689 255 255 255
 0.338237 -0.252521   1.97642 255 255 255
 0.282677 0.0137735   2.00078 255 255 255
 0.56639 0.339836  1.78589 255 255 255
0.570058 0.338966  1.79153 255 255 255
  1.03988 -0.063672   1.68201 255 255 255
0.859279 0.364886  1.63916 255 255 255
 0.364336 0.0118356   1.96067 255 255 255
0.449037 0.338076  1.85019 255 255 255
0.0565154  0.296421    2.0663 255 255 255
  0.539348 0.00998589    1.86996 255 255 255
0.633555 0.259565  1.77458 255 255 255
0.724379  0.24918  1.72491 255 255 255
 0.910298 0.0819341   1.67082 255 255 255
 0.17391 0.186442  2.02709 255 255 255
0.718267 0.376772  1.70851 255 255 255
 0.378375 0.0572319   1.94617 255 255 255
 0.451769 -0.163469   1.95368 255 255 255
0.222885  0.14992   2.0145 255 255 255
0.453308 0.184127  1.80923 255 255 255
 0.508941 -0.190533   1.91117 255 255 255
0.280971 0.290078  1.92973 255 255 255
 0.43495 0.359481  1.84106 255 255 255
0.857695 0.372911  1.64325 255 255 255
 0.538423 0.0799115   1.86644 255 255 255
 0.543072 -0.228698   1.88792 255 255 255
0.597415 0.215444  1.77882 255 255 255
0.649917 0.329192  1.73371 255 255 255
0.261848 0.301691  1.92935 255 255 255
 0.267527 0.0275507   2.00866 255 255 255
0.691055 0.137837  1.76412 255 255 255
0.0819237   0.11873   2.09801 255 255 255
0.695687 0.179734  1.74732 255 255 255
  0.145224 0.00420587    2.09118 255 255 255
 0.474997 0.0916927    1.8871 255 255 255
 0.614082 -0.190201   1.85566 255 255 255
0.911782 0.305974  1.66561 255 255 255
0.712921 0.233364  1.74226 255 255 255
0.183731 0.316731  1.99358 255 255 255
 0.679417 0.0857995   1.79459 255 255 255
0.695982 0.146372  1.76014 255 255 255
 0.665988 0.0772019   1.80066 255 255 255
 0.435053 -0.220509   1.92396 255 255 255
0.112891 0.159809  2.06882 255 255 255
0.187522 -0.15053   2.0723 255 255 255
0.922262 0.161791  1.65731 255 255 255
 0.528675 0.0590634   1.86413 255 255 255
  0.881719 -0.0394433    1.76943 255 255 255
0.353726  0.15766  1.92485 255 255 255
0.221405 -0.12931   2.0909 255 255 255
0.312717 0.145502  1.96141 255 255 255
0.867387 0.235422  1.64567 255 255 255
0.709344  0.27412  1.71567 255 255 255
0.821575 0.241889  1.66951 255 255 255
 0.398835 -0.121146   1.99705 255 255 255
0.227438 0.174755  2.00087 255 255 255
 0.53627 0.376977  1.79934 255 255 255
 0.373456 0.0559593   1.95419 255 255 255
 0.879272 0.0805058   1.68672 255 255 255
0.316411 -0.21787  2.00086 255 255 255
 0.148191 -0.165839   2.11478 255 255 255
0.496366 0.264128  1.80983 255 255 255
  0.658247 -0.0750097    1.87647 255 255 255
 0.70582 0.164116  1.74431 255 255 255
 0.587827 0.0597015   1.83723 255 255 255
0.563445 0.336398  1.78717 255 255 255
 0.811169 0.0313269   1.73953 255 255 255
0.558972 0.326358  1.77935 255 255 255
0.243429 0.327588  1.93445 255 255 255
0.368772 0.374617  1.85223 255 255 255
0.332845 0.312765  1.89725 255 255 255
0.243267  0.18699  1.98633 255 255 255
 0.902314 0.0653719    1.6804 255 255 255
0.0777656 0.0293745   2.10352 255 255 255
 0.759235 -0.152328   1.81323 255 255 255
0.0757755 0.0230163   2.10825 255 255 255
0.952096 0.108178  1.64546 255 255 255
 0.89125 0.199749   1.6465 255 255 255
0.669331 0.265825  1.73973 255 255 255
0.765019 0.219084  1.71699 255 255 255
0.936299 0.141773   1.6525 255 255 255
0.347574 0.371532  1.82329 255 255 255
 0.206349 0.0917581   2.03127 255 255 255
0.131245 0.275024  2.01611 255 255 255
 0.797539 0.0515072   1.74048 255 255 255
0.0880631   0.12472   2.09343 255 255 255
0.281518 0.152169  1.98124 255 255 255
0.594745 0.219058  1.78415 255 255 255
 0.135583 0.0357642   2.07684 255 255 255
0.220377 0.276269  1.97591 255 255 255
  0.424324 -0.0818567    2.00383 255 255 255
0.751595 0.316605  1.69795 255 255 255
 0.847097 0.0697188   1.70615 255 255 255
0.352348 0.186767  1.87543 255 255 255
 0.558258 -0.110125   1.91823 255 255 255
 0.653907 0.0256818     1.825 255 255 255
0.827403 0.249483  1.66522 255 255 255
0.822631 0.368207  1.65339 255 255 255
0.540807 0.161319  1.83111 255 255 255
0.912938 0.143197  1.66422 255 255 255
0.289158 0.368509  1.89229 255 255 255
 0.68128 0.293965    1.717 255 255 255
0.154543 0.163268  2.03698 255 255 255
  0.729106 -0.0598475    1.84285 255 255 255
 0.888785 -0.142848   1.73238 255 255 255
0.583149 0.304313  1.78298 255 255 255
 0.251992 -0.100227   2.07382 255 255 255
0.673481 0.262751  1.73391 255 255 255
0.373029 0.193709  1.90477 255 255 255
0.444155 0.382476  1.81688 255 255 255
 0.243301 -0.259073    2.0279 255 255 255
0.166549 0.242978  2.06515 255 255 255
 0.274411 0.0265582   2.00833 255 255 255
  0.858993 -0.0578827     1.7751 255 255 255
0.795843 0.315704  1.67851 255 255 255
0.645028 0.332378  1.73341 255 255 255
0.760603 0.146946  1.72579 255 255 255
0.468374 0.330244  1.84033 255 255 255
0.0775254 0.0340567   2.10217 255 255 255
0.305653 0.152677  1.96538 255 255 255
0.253552 0.236977  1.97367 255 255 255
0.419721 0.306195  1.83275 255 255 255
0.592911 0.150719  1.80789 255 255 255
0.182111 0.303866  2.00392 255 255 255
 0.963432 -0.108774   1.70967 255 255 255
 0.818321 -0.065399   1.80078 255 255 255
 0.623445 0.0739821   1.81088 255 255 255
0.665884  0.33708  1.74045 255 255 255
0.647289 0.399352  1.74457 255 255 255
 0.793863 0.0327941   1.74824 255 255 255
0.0684943  0.255648   2.06544 255 255 255
 0.907937 -0.144927    1.7452 255 255 255
 0.163206 -0.206109   2.08303 255 255 255
  0.976357 -0.0303333    1.72393 255 255 255
0.565573  0.34491  1.79215 255 255 255
 0.833198 0.0830734   1.71766 255 255 255
0.896659 0.187933  1.64978 255 255 255
0.895972 0.188044  1.64956 255 255 255
0.649093   0.2133   1.7331 255 255 255
0.717858 0.199051  1.73685 255 255 255
0.0723956 0.0294513   2.11293 255 255 255
   0.4499 0.0796448   1.91302 255 255 255
 0.812322 0.0498706   1.73272 255 255 255
0.368579 0.281553  1.84355 255 255 255
0.187141 0.250613  2.00476 255 255 255
0.854487 0.338051  1.64476 255 255 255
 0.222635 -0.199181   2.05636 255 255 255
 0.70821 0.325597  1.71655 255 255 255
    0.4277 -0.0643622    1.99592 255 255 255
0.116115 0.254384  2.03984 255 255 255
0.648633 0.326019  1.73144 255 255 255
  0.310041 -0.0878823    2.02128 255 255 255
0.716948  0.22164  1.74406 255 255 255
0.606768 0.371496  1.76643 255 255 255
0.0300847  0.279906   2.07166 255 255 255
0.513852 0.214046  1.83695 255 255 255
 0.21533 0.311399  1.98412 255 255 255
0.837751 0.155228  1.68172 255 255 255
0.848207  0.20251  1.67444 255 255 255
0.677798 -0.14056  1.85465 255 255 255
0.127292 0.252673  2.03493 255 255 255
0.789015 0.404364  1.66431 255 255 255
 0.536518 0.0536739   1.86217 255 255 255
0.543441 0.366228  1.79825 255 255 255
0.814358 0.403715  1.65039 255 255 255
 0.524415 0.0848642   1.86518 255 255 255
0.537503 -0.22739  1.87649 255 255 255
 0.124948 -0.129582   2.09451 255 255 255
0.804132 0.269719  1.69079 255 255 255
 0.692326 -0.208773   1.82021 255 255 255
0.156362 0.318177  1.98918 255 255 255
0.577047 0.137913  1.81902 255 255 255
0.216148  0.30217  1.96622 255 255 255
0.654955 0.320042  1.73139 255 255 255
0.737052 0.291753  1.70951 255 255 255
 0.507602 0.0146217   1.88866 255 255 255
0.374811  0.37418  1.85277 255 255 255
0.496917 0.130385  1.86115 255 255 255
0.703151 0.123813  1.75691 255 255 255
0.755561 0.237155  1.70587 255 255 255
0.794771 0.274406  1.69476 255 255 255
 1.02482 -0.05371  1.69193 255 255 255
0.753645 0.370295  1.68993 255 255 255
0.826638 0.385355  1.64829 255 255 255
0.361749 0.266228  1.89531 255 255 255
0.873248 0.284584  1.65375 255 255 255
 0.947131 0.0963594   1.65123 255 255 255
0.237898 0.303135  1.95063 255 255 255
0.639571 0.387169    1.751 255 255 255
0.243599 0.131569  2.00625 255 255 255
0.547975 0.283198  1.80968 255 255 255
  0.899106 -0.0256648    1.76364 255 255 255
0.825497  0.30928  1.71733 255 255 255
0.953271 0.100948  1.64529 255 255 255
    0.5364 0.00769604    1.86657 255 255 255
0.0479645  0.215257   2.08365 255 255 255
0.288337 0.329275  1.92441 255 255 255
0.069655  0.20953  2.07546 255 255 255
0.123791 0.188176  2.05355 255 255 255
0.703996 0.375741   1.7069 255 255 255
0.438541 0.302512  1.83642 255 255 255
 0.256665 0.0555928   2.01622 255 255 255
0.534892 0.391777  1.78969 255 255 255
0.599484 0.308306  1.76034 255 255 255
0.0831487 -0.107776   2.16681 255 255 255
 0.759672 -0.123992   1.80887 255 255 255
0.717096 0.288029  1.72415 255 255 255
0.858196 0.354293  1.64177 255 255 255
0.708612  0.27643  1.71891 255 255 255
0.103958 0.158836  2.06799 255 255 255
0.419514 0.357868  1.86657 255 255 255
0.641824 0.353101   1.7532 255 255 255
 0.484115 0.0442195   1.89568 255 255 255
 0.211298 0.0385381   2.03618 255 255 255
0.360096 0.274942  1.87353 255 255 255
0.442379 0.326189  1.85315 255 255 255
0.681413 0.388644  1.72527 255 255 255
0.831992 0.332668  1.66093 255 255 255
0.250017 0.272148  1.94244 255 255 255
0.787105 0.358717  1.67025 255 255 255
 0.363862 -0.212582   1.97039 255 255 255
0.117787 0.209819  2.05227 255 255 255
0.855751  0.23977  1.65452 255 255 255
 0.539356 0.0585411   1.86732 255 255 255
  0.528159 -0.0262574    1.93531 255 255 255
0.879134 0.162669  1.66606 255 255 255
 0.124848 0.0389689   2.07595 255 255 255
0.716247 0.333356  1.70816 255 255 255
0.384264 0.351209    1.829 255 255 255
 0.51204 0.369837  1.82258 255 255 255
0.580058 0.260751  1.79812 255 255 255
0.126082 0.166132  2.04588 255 255 255
0.653894 0.345004  1.75439 255 255 255
 0.342329 -0.149431   2.00644 255 255 255
0.0552379  0.209338   2.08046 255 255 255
0.960006 0.115187  1.64941 255 255 255
 0.41785 0.341863  1.85984 255 255 255
 0.701025 0.0944563   1.77782 255 255 255
0.385361 0.215301  1.90606 255 255 255
 0.369578 0.0249704    1.9614 255 255 255
0.508672 0.196148  1.82887 255 255 255
 0.775339 -0.206173   1.76554 255 255 255
 0.305369 -0.224281   1.99289 255 255 255
 0.322046 -0.104389   2.01258 255 255 255
  0.76111 0.0327765   1.76388 255 255 255
 0.352471 0.0150073   1.96893 255 255 255
0.558023 0.388584  1.78173 255 255 255
0.415472 0.360794  1.85253 255 255 255
0.0699957  0.303897   2.05841 255 255 255
0.782319  0.17898  1.71455 255 255 255
0.886628  0.12096  1.68475 255 255 255
0.643347 0.358475  1.75163 255 255 255
 0.297929 -0.168793   2.03227 255 255 255
 0.365135 -0.191861   1.98533 255 255 255
0.745757  0.19122  1.70971 255 255 255
0.546323 0.370609  1.78005 255 255 255
0.732156  0.25346  1.71036 255 255 255
0.861134 0.146137  1.67848 255 255 255
 0.35451 0.315234  1.90072 255 255 255
 0.758309 0.0284844   1.76806 255 255 255
0.433615 0.338495  1.85801 255 255 255
0.185301 0.223827  2.00987 255 255 255
0.210528  0.21317  1.99811 255 255 255
0.0677869  0.301334   2.05717 255 255 255
0.832359 0.155794  1.68524 255 255 255
0.594253 0.372494  1.77057 255 255 255
0.191173 0.158323  2.01454 255 255 255
0.790208 0.308719  1.68203 255 255 255
0.295479  0.21802  1.95484 255 255 255
0.562871 0.313274  1.78348 255 255 255
0.0373459  0.294115   2.07402 255 255 255
0.900361 0.130956  1.67579 255 255 255
 0.284058 0.0476828   2.00215 255 255 255
   0.070344 -0.00629788     2.13106 255 255 255
 0.87495 0.074933  1.68824 255 255 255
0.461945 0.375928  1.80791 255 255 255
  0.18523 -0.164864   2.09554 255 255 255
0.361618 0.348179  1.85195 255 255 255
0.824052 0.376272  1.65359 255 255 255
0.148576  0.23911  2.02151 255 255 255
 0.713594 0.0778036    1.7682 255 255 255
 0.967575 0.0826506    1.6518 255 255 255
0.563153  0.37855  1.78407 255 255 255
0.850081 0.077259  1.70796 255 255 255
0.772286 0.220633  1.70476 255 255 255
 0.186531 -0.230069   2.04397 255 255 255
0.121283 0.136334  2.06196 255 255 255
0.0785574  0.201554   2.06969 255 255 255
0.769903 0.259729  1.68997 255 255 255
0.166366 0.102703  2.05324 255 255 255
  0.211671 -0.0256021    2.10917 255 255 255
  0.3144 0.309115  1.90424 255 255 255
0.201151  0.22539  2.00268 255 255 255
 0.0805131 -0.0971239    2.16857 255 255 255
0.0417172  0.092717   2.11891 255 255 255
 0.365112 -0.202855   1.98834 255 255 255
 0.764738 -0.196087   1.78522 255 255 255
0.347377 0.265114  1.90429 255 255 255
   1.04821 -0.0849098    1.67622 255 255 255
 0.376088 -0.178229   1.98792 255 255 255
0.697224 0.337052  1.71766 255 255 255
0.147716 0.243151  2.02752 255 255 255
 0.286495 0.0474317     1.998 255 255 255
0.213293 0.261776  1.99174 255 255 255
0.160364 0.203989  2.02906 255 255 255
0.551367 0.332052  1.79822 255 255 255
0.733889 0.387619  1.69452 255 255 255
0.774868 0.150834  1.71706 255 255 255
  0.4179 0.360699  1.84879 255 255 255
  0.903154 -0.0292426    1.76174 255 255 255
0.594961 0.377297   1.7717 255 255 255
0.246108 0.266216   1.9576 255 255 255
0.535222 0.329742  1.79564 255 255 255
0.610533 0.336406  1.75508 255 255 255
 0.44467 0.386493  1.81852 255 255 255
0.496393 0.310435  1.82289 255 255 255
0.809495 0.349795  1.65973 255 255 255
0.554522 0.378192   1.7934 255 255 255
 0.81754 0.325144   1.6656 255 255 255
  0.773695 -0.0597533     1.8197 255 255 255
  0.063228 -0.0642108    2.16721 255 255 255
 0.579569 0.0595944   1.84427 255 255 255
0.0940405  0.196287   2.07452 255 255 255
0.239592 0.217984  1.99566 255 255 255
0.637079 0.278807  1.75822 255 255 255
 0.20747 0.241824  1.99652 255 255 255
 0.347978 0.0800592   1.96461 255 255 255
0.239984   0.2814  1.96342 255 255 255
 0.724665 0.0839651   1.76156 255 255 255
0.571188  0.29081  1.79985 255 255 255
0.0647697  0.299355   2.05976 255 255 255
0.592473 0.306517   1.7715 255 255 255
0.0436219   0.28366   2.07617 255 255 255
 0.717623 0.0135549   1.79457 255 255 255
 0.329981 0.0293085   1.97652 255 255 255
  0.374441 -0.0459981     2.0199 255 255 255
  0.367893 -0.0404246    2.00622 255 255 255
0.300284   0.1622  1.96074 255 255 255
0.253195 0.300158   1.9455 255 255 255
0.444408 0.308017   1.8577 255 255 255
 0.737197 -0.017809   1.83852 255 255 255
 0.306953 0.0611506   1.98551 255 255 255
0.350905 0.321129  1.90252 255 255 255
 0.972689 0.0720097   1.65116 255 255 255
0.647318 0.220862  1.75392 255 255 255
0.677368 0.250145  1.75388 255 255 255
 0.904627 0.0655922   1.67786 255 255 255
0.0952028 0.0364751   2.09139 255 255 255
 0.884663 -0.181225   1.72422 255 255 255
 0.290574 -0.219605   2.00965 255 255 255
0.739242 0.139205  1.74253 255 255 255
 0.84053 0.322628  1.71491 255 255 255
 0.579743 -0.198193   1.87839 255 255 255
0.783497 0.358775  1.67197 255 255 255
 0.306356 -0.104191    2.0495 255 255 255
  0.832015 -0.0486148    1.79202 255 255 255
0.074983 0.139402  2.08474 255 255 255
0.270285 0.230831  1.96611 255 255 255
0.526977 0.332598  1.78913 255 255 255
  0.63553 -0.144189   1.86621 255 255 255
0.540178 0.395452  1.78866 255 255 255
0.774056 0.215725  1.71561 255 255 255
0.229756  0.12509  2.01352 255 255 255
  0.61582 0.0290588    1.8402 255 255 255
0.863644 0.103658  1.69796 255 255 255
 0.448837 0.0372898   1.92086 255 255 255
0.0949086 0.0394444   2.09631 255 255 255
0.317371 0.182944  1.93029 255 255 255
  0.82045 0.0741077   1.72695 255 255 255
 0.371967 -0.027759   2.00114 255 255 255
0.0502443  0.276735   2.07339 255 255 255
  0.78018 0.0483366   1.75162 255 255 255
0.799598 0.381997  1.66241 255 255 255
 0.26782 0.310308  1.92758 255 255 255
 0.208932 -0.152008    2.0623 255 255 255
0.104046 0.205128   2.0593 255 255 255
0.569473 0.339557  1.78367 255 255 255
0.866468 0.218935  1.64489 255 255 255
  0.418836 -0.0484003    1.98379 255 255 255
 0.599343 0.0451397   1.83726 255 255 255
 0.701326 -0.138318   1.84328 255 255 255
0.495891 0.135878  1.85464 255 255 255
0.348339 0.182796  1.92524 255 255 255
0.475873 0.345477  1.83639 255 255 255
 0.345858 -0.163382   2.00162 255 255 255
0.0807879 -0.165905   2.15041 255 255 255
0.488042 0.132867  1.87085 255 255 255
0.761303 0.361524  1.68503 255 255 255
0.689757 0.238963  1.75117 255 255 255
0.207097 0.290324  1.97624 255 255 255
  0.73403 -0.173581   1.79448 255 255 255
0.508228 0.393093  1.78933 255 255 255
 0.214787 -0.104449   2.09163 255 255 255
 0.198853 -0.255168   2.03944 255 255 255
0.733325 0.204353  1.73741 255 255 255
 0.177825 0.0936431   2.04479 255 255 255
0.295498  0.20486  1.95019 255 255 255
0.875609 0.256186  1.64067 255 255 255
0.821887 0.132696  1.70801 255 255 255
  1.03549 -0.111476   1.67776 255 255 255
0.793691 0.373653  1.66117 255 255 255
 0.92397 0.108502  1.66673 255 255 255
0.680706 0.394694  1.72352 255 255 255
  0.31452 0.0802029   1.97482 255 255 255
 0.308569 -0.164441   2.02693 255 255 255
0.360267 0.360743   1.8503 255 255 255
0.598109  0.25686  1.77345 255 255 255
  0.851958 -0.0414705    1.78468 255 255 255
0.369117  0.12732    1.941 255 255 255
0.543304  0.27983  1.80423 255 255 255
0.202116 -0.19852  2.05224 255 255 255
0.456161 -0.10618  1.96417 255 255 255
0.501633 0.385561  1.81442 255 255 255
0.143589 0.104469  2.06632 255 255 255
0.506693 0.343007  1.80925 255 255 255
0.0785403  0.194696   2.07157 255 255 255
0.451982 0.290569  1.81142 255 255 255
0.896674 0.213192  1.64515 255 255 255
0.778739 0.112396  1.73349 255 255 255
 0.365612 0.0752927   1.95692 255 255 255
0.871326 0.239245   1.6452 255 255 255
0.133245 0.210209  2.04381 255 255 255
 0.681745 0.0322506   1.78957 255 255 255
 0.610814 0.0239135   1.83509 255 255 255
0.517023 0.287678  1.80719 255 255 255
0.249355 0.290939   1.9413 255 255 255
0.835513 0.252855  1.66256 255 255 255
0.0845563  0.161679   2.07912 255 255 255
0.367037 0.322937  1.89334 255 255 255
0.372056 0.350475  1.84813 255 255 255
  0.357906 -0.0265659    2.02409 255 255 255
  0.078199 -0.0484324    2.17568 255 255 255
0.269567 0.308048  1.92106 255 255 255
0.626232 0.370167  1.76133 255 255 255
 0.778872 0.0689325   1.74541 255 255 255
0.122345 0.289764  2.03076 255 255 255
0.583958 0.365444  1.77676 255 255 255
0.0977674  0.278549   2.04346 255 255 255
0.837569 0.390615  1.64223 255 255 255
0.604814 0.366487  1.76545 255 255 255
0.764633 0.329768   1.6869 255 255 255
  0.540148 -0.0318975    1.92586 255 255 255
 0.672431 -0.121741   1.86014 255 255 255
 0.887059 0.0607561   1.68596 255 255 255
0.554036 0.331875  1.79203 255 255 255
0.466746 0.337927  1.84411 255 255 255
0.785952 0.293396  1.71615 255 255 255
0.490269 0.367669  1.81401 255 255 255
0.699613 0.053543  1.78964 255 255 255
  0.847738 -0.0541377    1.78217 255 255 255
0.717566 0.113129  1.76175 255 255 255
0.629504 0.248997  1.77166 255 255 255
0.632074 0.248207  1.77434 255 255 255
0.178707 0.107586  2.04473 255 255 255
0.177114 0.108774  2.04203 255 255 255
0.605431 0.373692  1.76914 255 255 255
 0.495983 0.0616928   1.88829 255 255 255
0.574176  0.29822  1.76733 255 255 255
 0.222082 -0.024975   2.09684 255 255 255
0.663469 0.064137  1.80186 255 255 255
 0.954585 0.0927671   1.65418 255 255 255
0.648355 0.349792  1.75143 255 255 255
   0.26649 -0.0738191    2.07487 255 255 255
  0.718458 -0.0690395    1.84724 255 255 255
0.585986 0.046056  1.85341 255 255 255
 0.999022 -0.139354   1.67583 255 255 255
0.631298 0.365146   1.7517 255 255 255
  0.914539 -0.0232317     1.7551 255 255 255
0.886855 0.108371  1.68918 255 255 255
 0.822713 0.0748761   1.70297 255 255 255
0.634504 0.337222  1.74095 255 255 255
   0.4379 0.0161803   1.92303 255 255 255
0.279177 0.276958  1.90479 255 255 255
 0.831176 -0.174072   1.77511 255 255 255
0.0847559  0.120735   2.09775 255 255 255
0.134079 0.232079  2.02892 255 255 255
  0.4482 0.315677  1.85528 255 255 255
0.446718 0.315984  1.85385 255 255 255
 0.297083 0.0602538   1.99209 255 255 255
 0.538483 0.0805235   1.85892 255 255 255
 0.946219 -0.179986   1.72741 255 255 255
0.651797 0.285965  1.72628 255 255 255
 0.241577 -0.141973   2.05085 255 255 255
 0.62789 0.343318  1.75777 255 255 255
0.749805 0.245027  1.70665 255 255 255
 0.141946 -0.198225   2.10205 255 255 255
0.768531 0.176117  1.71816 255 255 255
 0.276334 0.0205716   2.00369 255 255 255
0.618976 0.258435  1.77532 255 255 255
0.157587 0.169224  2.03523 255 255 255
 0.164801 -0.236253   2.04932 255 255 255
  0.1718 0.329969  1.99039 255 255 255
0.18984 0.20483 2.01359 255 255 255
 0.50439 0.356654   1.8083 255 255 255
0.428541 0.107545   1.9108 255 255 255
  0.640412 -0.0716437    1.88767 255 255 255
 0.58089 0.370402  1.77143 255 255 255
0.173378 0.182696    2.028 255 255 255
0.799287 0.356721  1.66337 255 255 255
0.557935 0.317673  1.77226 255 255 255
 0.683614 -0.155073   1.84917 255 255 255
 0.13486 0.174033  2.04211 255 255 255
0.0897931 0.0273234   2.09992 255 255 255
0.640144 0.119411  1.77263 255 255 255
 0.246507 -0.103169   2.05879 255 255 255
 0.103161 0.0377525   2.09354 255 255 255
0.751825 0.318014  1.70452 255 255 255
 0.397585 -0.162439   1.96571 255 255 255
  0.973105 -0.0172037    1.72474 255 255 255
  0.795752 -0.0886396    1.80453 255 255 255
 0.356375 0.0234222   1.96766 255 255 255
0.712408  0.21234  1.74402 255 255 255
0.868363 0.258215  1.65664 255 255 255
0.675764 0.307251  1.72421 255 255 255
0.481318 0.366325  1.81256 255 255 255
0.152137 0.291414  2.01821 255 255 255
 0.19469 0.181749  2.05308 255 255 255
0.677366 0.247234  1.75119 255 255 255
0.199315 -0.22133   2.0487 255 255 255
0.782599 0.288687  1.69482 255 255 255
0.132742 0.287552  2.02278 255 255 255
  0.869649 -0.0710851    1.76941 255 255 255
 0.0733347 -0.0852143    2.17188 255 255 255
  0.235035 -0.0343434    2.08257 255 255 255
 0.627121 -0.113758   1.88208 255 255 255
 0.353696 -0.179612    1.9844 255 255 255
0.431063  0.26163  1.84593 255 255 255
 0.92023 0.144597  1.66275 255 255 255
0.0796571  0.295372   2.05525 255 255 255
0.561829 0.302742  1.78718 255 255 255
 0.421455 0.0396037    1.9323 255 255 255
0.394125 0.193425  1.88305 255 255 255
0.653629 0.173282  1.77507 255 255 255
0.225847 0.349293  1.93946 255 255 255
0.0835528  0.187265   2.06543 255 255 255
 0.146597 -0.179127   2.07124 255 255 255
0.178916  0.19092   2.0236 255 255 255
 0.277408 -0.188123   2.03395 255 255 255
 0.89882 0.061614  1.68644 255 255 255
0.833664 0.347294  1.65187 255 255 255
 0.10267 -0.26022   2.0988 255 255 255
0.671779 0.139225   1.7533 255 255 255
  0.37821 -0.240821   1.95505 255 255 255
  0.733999 -0.0201235    1.83872 255 255 255
  0.952088 -0.0452825    1.73164 255 255 255
0.970071 0.061392  1.65701 255 255 255
0.487781 0.269984  1.81051 255 255 255
0.748076 0.102532   1.7564 255 255 255
0.679447 0.400844  1.72028 255 255 255
0.0958713  0.267957   2.05084 255 255 255
0.203255  0.24013  2.00005 255 255 255
 0.324169 -0.155038   2.02393 255 255 255
 0.489302 0.0369912   1.89525 255 255 255
   0.13411 -0.0508563    2.15031 255 255 255
 0.478055 0.0895089   1.87777 255 255 255
  0.10576 0.0378658   2.09096 255 255 255
 0.106112 0.0374298   2.09216 255 255 255
  0.90991 0.0958664   1.66568 255 255 255
0.0730675  0.176871   2.08557 255 255 255
   0.1409 -0.238952   2.05728 255 255 255
0.0775316  0.215114   2.07309 255 255 255
0.206607 0.111673  2.03053 255 255 255
 0.166477 -0.265328   2.06366 255 255 255
0.363781 0.316431  1.89451 255 255 255
   0.28106 -0.0566975    2.04564 255 255 255
0.610558 0.297533  1.76082 255 255 255
 0.47316 0.315033  1.84002 255 255 255
0.631818 0.246438  1.76815 255 255 255
  0.964839 -0.0617817    1.72041 255 255 255
  0.964831 -0.0617903    1.72044 255 255 255
 0.636372 -0.110258    1.8794 255 255 255
  0.25589 -0.217551   2.02544 255 255 255
 0.404124 -0.132767   1.98184 255 255 255
 0.330303 -0.178779   2.00394 255 255 255
 0.720188 -0.177839   1.80436 255 255 255
 0.232784 0.0191085   2.02693 255 255 255
0.854663  0.22956  1.65135 255 255 255
0.860501  0.30413  1.65075 255 255 255
0.268255 0.304036  1.92381 255 255 255
 0.783864 -0.165181   1.77323 255 255 255
0.530644 0.343251  1.80344 255 255 255
 0.317294 -0.070533   2.03103 255 255 255
   0.89856 -0.0212995    1.76419 255 255 255
0.863603 0.229203   1.6468 255 255 255
0.546679 0.297685  1.80231 255 255 255
 0.262833 -0.207209   2.03179 255 255 255
 0.628616 -0.134477   1.87872 255 255 255
 0.228054 -0.060599   2.08678 255 255 255
0.604196 0.253453  1.78805 255 255 255
0.691346 0.306526  1.72717 255 255 255
0.641074 0.333354  1.73539 255 255 255
  0.311412 -0.0209024    2.02987 255 255 255
0.403297 0.306164  1.87677 255 255 255
 0.325995 0.0708658    1.9776 255 255 255
0.161561 0.169014  2.03255 255 255 255
 0.769537 0.0704843   1.74796 255 255 255
0.265478 0.306898  1.92812 255 255 255
0.651037 0.298957  1.72805 255 255 255
  0.973384 -0.0225367    1.72556 255 255 255
  0.252147 -0.0310079    2.07435 255 255 255
 0.13112 0.110914  2.06855 255 255 255
0.867229 0.119661  1.69467 255 255 255
0.171843 0.200898  2.02597 255 255 255
0.131433 0.106081  2.06832 255 255 255
  0.730688 -0.0184495      1.842 255 255 255
0.842959 0.153532  1.67939 255 255 255
 0.470429 -0.176935   1.93643 255 255 255
0.507531  0.32847  1.82099 255 255 255
 0.808722 -0.120824   1.78427 255 255 255
0.632602  0.14806  1.78616 255 255 255
0.246081 0.244624  1.96827 255 255 255
0.615942 0.043798  1.82901 255 255 255
 0.708455 0.0576107   1.78643 255 255 255
 0.703483 0.0595343   1.78074 255 255 255
0.887348 0.247181  1.63901 255 255 255
0.725486 0.406282  1.69569 255 255 255
 0.238207 0.0251359    2.0232 255 255 255
0.463952 0.300268  1.81941 255 255 255
  0.317703 -0.0981019    2.02739 255 255 255
0.262203 0.338699  1.91751 255 255 255
0.915858 0.151956  1.66227 255 255 255
 0.2893 0.33257 1.92206 255 255 255
0.536762  0.35909  1.80672 255 255 255
 0.408814 -0.104999   1.99638 255 255 255
0.309737  0.28427  1.88575 255 255 255
0.866003 0.351833  1.63825 255 255 255
  0.693666 -0.0890182    1.85445 255 255 255
 0.75423 0.191912  1.70529 255 255 255
0.580429 0.046718  1.84253 255 255 255
 0.752097 -0.182651   1.81878 255 255 255
 0.249283 0.0642895    2.0187 255 255 255
  0.81438 -0.117281   1.78201 255 255 255
0.645583 0.181051  1.77928 255 255 255
 0.285209 -0.251916   2.00992 255 255 255
0.585789 0.300116  1.75794 255 255 255
 0.304164 0.0219753    1.9919 255 255 255
 0.184685 -0.128814    2.0984 255 255 255
  0.789976 -0.0879922    1.80465 255 255 255
 0.340895 -0.166685   1.99193 255 255 255
0.826109 0.361345  1.65558 255 255 255
0.454355 0.388167  1.81597 255 255 255
 0.951912 0.0952123   1.64813 255 255 255
  0.5236 0.238014  1.80305 255 255 255
 0.374905 -0.172005   1.97574 255 255 255
0.356132 0.364019  1.89936 255 255 255
 0.59081 0.359282  1.77331 255 255 255
0.79625 0.37138 1.66047 255 255 255
0.866622 0.250671  1.64821 255 255 255
 0.108882 0.0251149   2.09296 255 255 255
 0.124818 0.0279145   2.07753 255 255 255
0.306677 0.013196  1.98655 255 255 255
0.734129  0.27875  1.70814 255 255 255
 0.514638 -0.181814   1.90893 255 255 255
0.590681 0.310901  1.75926 255 255 255
 0.864326 0.0949969    1.6994 255 255 255
0.854356 0.262877  1.66564 255 255 255
0.728978 0.313518  1.71113 255 255 255
0.572716 0.301762  1.77879 255 255 255
  0.305809 -0.0426547    2.04831 255 255 255
  0.447248 0.00263153    1.92061 255 255 255
 0.20032 0.101781  2.03611 255 255 255
0.292589 0.132003  1.98183 255 255 255
0.343198 0.197664  1.93585 255 255 255
 0.868262 -0.188322    1.7592 255 255 255
 0.780403 -0.170385   1.79967 255 255 255
0.715952 0.227031  1.74271 255 255 255
0.552011 0.230523  1.81343 255 255 255
0.703969 0.233537  1.74727 255 255 255
0.733867 0.246429  1.71451 255 255 255
0.703115 -0.15917  1.82527 255 255 255
0.146088 0.100218  2.06222 255 255 255
  0.583074 -0.0708244    1.91279 255 255 255
  0.894128 -0.0241713    1.76521 255 255 255
 0.272095 -0.177601   2.02664 255 255 255
0.421485 0.325836   1.8645 255 255 255
 0.257056 0.0717245   2.01034 255 255 255
 0.811527 -0.126978   1.79405 255 255 255
 0.138081 0.0586122   2.06831 255 255 255
0.997781  -0.1338  1.69016 255 255 255
0.953736 0.118649  1.65267 255 255 255
0.727266 0.293162  1.72523 255 255 255
0.262624 0.295997  1.92245 255 255 255
 0.56034 0.334291  1.78125 255 255 255
0.219181 0.181359  2.00511 255 255 255
 0.26431 0.216593  1.96833 255 255 255
  0.980426 -0.0256875    1.72702 255 255 255
  0.11305 0.0229006   2.09155 255 255 255
0.0882688  0.292619   2.05024 255 255 255
0.935147 0.107911  1.65536 255 255 255
0.418134 0.288139  1.84315 255 255 255
0.806868 0.180629  1.68982 255 255 255
 0.233435 -0.172596   2.06328 255 255 255
  0.16951 0.0398098   2.05785 255 255 255
 0.964988 0.0815426   1.65138 255 255 255
0.712944 0.325774  1.71803 255 255 255
0.780539 0.253121  1.68817 255 255 255
0.0918372  0.125793   2.08457 255 255 255
 0.437911 0.0290302   1.92222 255 255 255
0.185365 0.103945  2.04093 255 255 255
 0.308324 -0.137009   2.04033 255 255 255
 0.664177 0.0212914   1.81901 255 255 255
 0.613694 0.0956499   1.81564 255 255 255
0.908635 0.164929  1.66109 255 255 255
  0.19355 0.0252056   2.04536 255 255 255
0.909695  0.13301  1.66742 255 255 255
 0.542183 0.0736503    1.8646 255 255 255
 0.219179 -0.160012   2.07633 255 255 255
0.323819 0.311177  1.88476 255 255 255
  0.750813 -0.0168256    1.83185 255 255 255
 0.151107 -0.157437   2.07607 255 255 255
 0.118919 -0.162887   2.13306 255 255 255
0.0737924  0.237984   2.06919 255 255 255
 0.652124 -0.178911   1.84824 255 255 255
 0.266036 -0.187701   2.02876 255 255 255
0.613417  0.25377  1.78433 255 255 255
 0.337152 -0.110032   2.02989 255 255 255
 0.64236 0.111729  1.78503 255 255 255
 0.897484 0.0964692   1.67483 255 255 255
0.116117 0.104697  2.17487 255 255 255
0.251896 -0.19079  2.04504 255 255 255
0.417532 0.268642   1.8531 255 255 255
 0.397093 0.0219682   1.94445 255 255 255
 0.196162 0.0827671   2.03431 255 255 255
 0.174379 -0.133115   2.08656 255 255 255
  0.906674 -0.0588429    1.74935 255 255 255
 0.559821 0.0769461   1.85254 255 255 255
 0.246108 -0.189076   2.03727 255 255 255
 0.24214 0.142008  2.00412 255 255 255
0.373674 -0.18358  1.97301 255 255 255
 0.255479 -0.171541   2.03479 255 255 255
0.374301 0.205612  1.91558 255 255 255
0.701703 0.385174  1.72034 255 255 255
0.561586 -0.05834  1.91689 255 255 255
0.274204 -0.23973  2.01125 255 255 255
 0.855167 0.0932962   1.70348 255 255 255
  0.906138 -0.0188816     1.7666 255 255 255
0.450512 0.361688  1.85181 255 255 255
  0.230185 -0.0434581    2.06937 255 255 255
  0.758823 -0.0300149    1.83404 255 255 255
 0.289695 0.0243404   2.00244 255 255 255
  0.219527 -0.0402236    2.09697 255 255 255
 0.314648 -0.211205   2.00292 255 255 255
0.407475 0.296722  1.86883 255 255 255
0.772799 0.178654  1.71657 255 255 255
0.338587 0.018951  1.97823 255 255 255
 0.298308 -0.181669   2.01182 255 255 255
 0.873532 -0.179678   1.76519 255 255 255
0.538674 0.302214  1.81087 255 255 255
0.058288  0.22257  2.08452 255 255 255
  0.184403 -0.0671318     2.1181 255 255 255
 0.29411 0.192202  1.95426 255 255 255
0.381047 0.280486  1.85911 255 255 255
0.655461 0.393669  1.75298 255 255 255
0.124815 0.191343  2.05002 255 255 255
 0.225111 0.0497419   2.02719 255 255 255
 0.841212 0.0585307   1.71674 255 255 255
 0.379589 -0.168207   1.97255 255 255 255
 0.431104 0.0131849   1.93159 255 255 255
 0.36967 0.123568  1.94139 255 255 255
0.875574 0.114348  1.69065 255 255 255
0.918796 0.208494   1.6411 255 255 255
0.302006 -0.16143  2.03517 255 255 255
 0.361178 -0.170982   1.99224 255 255 255
 0.165268 -0.159578   2.08258 255 255 255
 0.64486 0.358475  1.74792 255 255 255
0.375093 0.982587  1.54054 255 255 255
0.435429  1.07378  1.55301 255 255 255
0.400052  1.19072  1.55285 255 255 255
0.411085  1.01145  1.52701 255 255 255
0.392036  1.00187   1.5416 255 255 255
0.373707 0.974342  1.56667 255 255 255
0.435466  1.11312  1.56711 255 255 255
0.442272  1.01908  1.53572 255 255 255
0.323659 0.989061  1.62912 255 255 255
0.437503  1.06293  1.53703 255 255 255
0.406901  1.03595  1.57106 255 255 255
0.380773   1.0078  1.56648 255 255 255
0.418326  1.19105  1.62103 255 255 255
0.497065  1.07953  1.54386 255 255 255
0.308782  1.09078  1.51065 255 255 255
0.192546  1.04796  1.65554 255 255 255
0.392602   1.0538  1.58332 255 255 255
0.467115  1.04079  1.55249 255 255 255
0.39114 1.00036 1.56319 255 255 255
0.501903  1.09747  1.52489 255 255 255
0.434559  1.01006  1.47845 255 255 255
0.455239   1.1134  1.56021 255 255 255
0.381501  1.16435  1.58207 255 255 255
0.433748  1.01939  1.50195 255 255 255
0.385989 0.958453  1.49649 255 255 255
0.398594  1.16445   1.5776 255 255 255
0.443613  1.01812  1.54479 255 255 255
0.406074 0.976288  1.47691 255 255 255
0.445339  1.03643  1.51534 255 255 255
 0.38248 0.955723  1.53171 255 255 255
0.42969 1.08729 1.54719 255 255 255
0.402681 0.983525  1.50335 255 255 255
 0.36027 0.963239  1.58888 255 255 255
0.314598  1.08345  1.49144 255 255 255
0.430127  1.21564   1.6311 255 255 255
0.431061  1.22042  1.63376 255 255 255
0.393973 0.992691   1.5646 255 255 255
0.367387 0.942783  1.55514 255 255 255
0.407447  1.01446  1.53807 255 255 255
0.46863 1.04258 1.55791 255 255 255
0.462748  1.18756  1.60761 255 255 255
0.311473  1.08062  1.49192 255 255 255
0.434859  1.10528  1.55219 255 255 255
0.439517  1.09001  1.53176 255 255 255
0.355382  1.20681  1.55606 255 255 255
0.440199    1.224    1.618 255 255 255
0.402761  1.03981  1.54796 255 255 255
0.456563  1.03303  1.54195 255 255 255
0.369702 0.980771  1.54478 255 255 255
0.431782  1.20895  1.61734 255 255 255
0.282976  1.20363  1.43506 255 255 255
0.392323  1.00858  1.56269 255 255 255
0.393994  1.04073  1.57524 255 255 255
0.355108 0.948958  1.56486 255 255 255
0.381544 0.973179  1.59146 255 255 255
0.347508 0.934198  1.57233 255 255 255
0.435005  1.07127  1.55878 255 255 255
0.456242  1.12052  1.57849 255 255 255
0.440607  1.15192  1.59423 255 255 255
0.410743 0.956535  1.45445 255 255 255
0.426905   1.0719  1.56127 255 255 255
0.372813 0.951085  1.49376 255 255 255
0.368175 0.972547  1.55217 255 255 255
0.407148  1.15816  1.60793 255 255 255
0.386505 0.968455  1.53342 255 255 255
0.44257 1.21416 1.62896 255 255 255
0.457879  1.18337  1.59861 255 255 255
0.490778  1.22184    1.618 255 255 255
0.447828  1.15769  1.59464 255 255 255
0.417706  1.15978  1.60829 255 255 255
0.378071 0.939287  1.54336 255 255 255
0.549681  1.19911  1.52753 255 255 255
0.377606 0.943253   1.5488 255 255 255
0.462186   1.1156  1.54118 255 255 255
0.367889 0.970731  1.59562 255 255 255
0.479471  1.05136  1.54739 255 255 255
0.477496  1.05593  1.55147 255 255 255
0.483118  1.06457  1.54551 255 255 255
0.433638  1.00878  1.51004 255 255 255
0.457682  1.11903  1.56659 255 255 255
 0.4075 1.00907 1.52338 255 255 255
0.398503  1.05856  1.55996 255 255 255
0.423754  1.20187  1.64919 255 255 255
0.406588  1.00503  1.53494 255 255 255
0.370343  0.97727  1.54884 255 255 255
0.402524  1.00389  1.54274 255 255 255
0.452224  1.18679   1.6068 255 255 255
0.359576 0.969537  1.54758 255 255 255
0.443222  1.17715   1.6055 255 255 255
0.490623  1.18221  1.59756 255 255 255
0.297859   1.0492  1.59492 255 255 255
0.426266  1.09124  1.54996 255 255 255
0.450068  1.08374  1.55394 255 255 255
0.440125   1.1874  1.62414 255 255 255
0.473161  1.20407  1.60809 255 255 255
0.738804  1.20244  1.45105 255 255 255
0.525812  1.34539  1.55317 255 255 255
0.720304  1.46656  1.49478 255 255 255
 0.60309 0.775744  1.50101 255 255 255
0.743538 0.863891  1.44795 255 255 255
0.765589  1.42129  1.47381 255 255 255
0.753415  1.33848  1.46303 255 255 255
0.621053  1.46587  1.52654 255 255 255
0.702711 0.713276  1.47628 255 255 255
0.739769 0.725715  1.46037 255 255 255
0.676975  0.63922  1.50046 255 255 255
0.656435  0.72477  1.48751 255 255 255
0.773396  1.51697  1.50185 255 255 255
0.782164  1.22283  1.44136 255 255 255
0.775987  1.38577  1.46834 255 255 255
0.454449 0.959998  1.44388 255 255 255
0.517628  1.28992  1.54134 255 255 255
0.824618  0.88787  1.42466 255 255 255
0.832455  1.28957  1.43346 255 255 255
0.655931 0.642075  1.50798 255 255 255
0.691567  1.51409   1.5301 255 255 255
0.630759   1.5146  1.54991 255 255 255
0.834412  1.41283  1.44743 255 255 255
0.485078 0.794125  1.54526 255 255 255
0.698977  1.08778  1.44801 255 255 255
0.468848  1.00057  1.44188 255 255 255
0.72145 1.39866 1.48181 255 255 255
0.416957 0.765412  1.61955 255 255 255
0.76288 1.37074 1.46272 255 255 255
0.783479  1.51455  1.48163 255 255 255
0.599889 0.730428  1.50884 255 255 255
0.541582 0.684332  1.54125 255 255 255
0.418387 0.691356  1.64179 255 255 255
0.732516 0.981043  1.44334 255 255 255
0.743825 0.999299  1.43664 255 255 255
0.611001 0.721593  1.50704 255 255 255
0.769134   1.4597  1.48497 255 255 255
0.430357 0.691342  1.59507 255 255 255
0.686644   1.3941  1.49177 255 255 255
0.708083  1.37016  1.47849 255 255 255
0.512468  1.37506  1.55484 255 255 255
0.660747 0.838529  1.47325 255 255 255
 0.63014 0.671314  1.51235 255 255 255
0.717138  1.51094  1.51341 255 255 255
0.772203  1.41555   1.4804 255 255 255
0.455162 0.788099  1.56043 255 255 255
0.448195   1.3757  1.58421 255 255 255
0.460464  1.47938  1.58099 255 255 255
0.517033 0.680893  1.54459 255 255 255
0.372071 0.961113  1.55877 255 255 255
0.594142 0.646907  1.53111 255 255 255
0.499664  1.43147  1.56595 255 255 255
0.742312 0.965019  1.43905 255 255 255
0.491965 0.976498  1.43276 255 255 255
0.611381  1.27077  1.50196 255 255 255
0.443248 0.731503  1.58528 255 255 255
0.55552 1.51413 1.56671 255 255 255
0.830751  1.44964  1.45835 255 255 255
0.447714 0.699074  1.57969 255 255 255
0.617761  1.51764  1.55163 255 255 255
0.497182 0.982231  1.43437 255 255 255
0.668328  1.45413  1.51086 255 255 255
0.659795 0.632465  1.50954 255 255 255
0.664261  1.27523  1.48683 255 255 255
0.687477 0.635237  1.50234 255 255 255
0.819925 0.716188   1.4433 255 255 255
0.745533 0.624123  1.47998 255 255 255
0.55527 1.01918 1.40127 255 255 255
0.70369 1.09426 1.44576 255 255 255
0.711969 0.632587  1.49567 255 255 255
0.506507 0.675845  1.55301 255 255 255
0.73751 1.41665 1.47864 255 255 255
0.424956 0.684297  1.63389 255 255 255
0.710191   1.5251  1.52744 255 255 255
0.625762  1.22365   1.5084 255 255 255
0.663997 0.665733  1.49883 255 255 255
 0.40223 0.918367  1.53548 255 255 255
0.755583  1.06355  1.42345 255 255 255
0.817863 0.759634  1.44178 255 255 255
0.540728  1.36937  1.54146 255 255 255
0.865115  1.41992  1.44226 255 255 255
0.819768   1.3161  1.44497 255 255 255
0.815649  1.00528  1.42149 255 255 255
0.488023 0.753796  1.55531 255 255 255
0.663908 0.642609  1.50481 255 255 255
0.726301 0.781739  1.44799 255 255 255
0.482656 0.747113  1.55644 255 255 255
0.68463 1.47777 1.50897 255 255 255
0.700864  1.14266  1.46183 255 255 255
0.492447 0.699178  1.55739 255 255 255
0.590703 0.698557  1.51556 255 255 255
0.630194   1.3212  1.51107 255 255 255
0.675409  1.18965  1.46942 255 255 255
0.553975  1.49573  1.56225 255 255 255
0.672328   1.2596  1.48836 255 255 255
0.527229 0.902199  1.42787 255 255 255
0.493411 0.763166  1.55223 255 255 255
0.610879 0.638567  1.52899 255 255 255
0.669549  0.82759   1.4683 255 255 255
0.655963 0.789102  1.47583 255 255 255
0.819232  1.37159  1.45028 255 255 255
0.738479 0.930587  1.44567 255 255 255
0.441897 0.684257  1.58783 255 255 255
0.683462  1.07121  1.45977 255 255 255
0.637411 0.848733  1.48388 255 255 255
0.421335 0.700669   1.6079 255 255 255
0.689098 0.658472  1.49347 255 255 255
0.398777  1.01098  1.56056 255 255 255
0.386863 0.927928  1.53496 255 255 255
0.63036 1.48252 1.53297 255 255 255
0.655081  1.51789  1.54753 255 255 255
0.760019  1.30136  1.45491 255 255 255
0.605535  1.27545  1.50102 255 255 255
0.576088  1.35082   1.5246 255 255 255
0.680822 0.642626  1.50108 255 255 255
0.708277 0.669943  1.48255 255 255 255
0.757623 0.940525   1.4392 255 255 255
0.704173 0.855298  1.46483 255 255 255
0.739878  1.37037  1.47156 255 255 255
0.784509 0.754313  1.44854 255 255 255
0.697596  1.34475  1.48177 255 255 255
0.538816 0.694323  1.52762 255 255 255
0.649945  1.45524  1.51856 255 255 255
0.826682  1.29983  1.44059 255 255 255
0.721934 0.841983  1.45755 255 255 255
0.570034  1.48165  1.54924 255 255 255
0.732455  1.39095  1.47684 255 255 255
0.695145 0.714305  1.47461 255 255 255
0.850676  1.39144  1.44083 255 255 255
0.687467  1.25126   1.4682 255 255 255
0.769908 0.668675  1.46514 255 255 255
0.456019  1.47427  1.59393 255 255 255
0.616267 0.778271  1.49206 255 255 255
0.858327  1.31823  1.43658 255 255 255
0.744934  1.21648  1.44659 255 255 255
0.628883 0.637363  1.52578 255 255 255
0.714721 0.634555  1.49085 255 255 255
0.812504  1.35193   1.4497 255 255 255
0.364476 0.950599  1.55216 255 255 255
0.710368  1.18965  1.45188 255 255 255
0.782939  1.43211  1.47659 255 255 255
0.748011 0.646276  1.47774 255 255 255
0.584696  1.45277  1.54333 255 255 255
0.628036 0.995696  1.40245 255 255 255
0.550236 0.693433  1.53531 255 255 255
0.483823  1.05424   1.4151 255 255 255
0.672777  1.45985   1.5175 255 255 255
0.49977 1.44236 1.56166 255 255 255
0.54899 1.01345 1.41495 255 255 255
0.532422 0.709883  1.54167 255 255 255
0.479887 0.932648  1.42644 255 255 255
 0.61154 0.754187  1.49807 255 255 255
0.744434  1.31184  1.46152 255 255 255
0.750997  1.31326  1.46763 255 255 255
0.822801  1.27252  1.43573 255 255 255
0.444975 0.855114  1.44911 255 255 255
0.408525 0.857176  1.56418 255 255 255
0.550097  1.38014  1.54243 255 255 255
0.422954 0.977952  1.46314 255 255 255
 0.78889 0.661445  1.46387 255 255 255
0.814799 0.712249  1.44557 255 255 255
0.480883 0.950342    1.418 255 255 255
0.694787 0.917939  1.45784 255 255 255
0.761637 0.670722  1.46846 255 255 255
0.568949  1.45624  1.54574 255 255 255
0.726345 0.670776  1.47792 255 255 255
0.498991  1.45742  1.56836 255 255 255
0.427153 0.696295  1.62871 255 255 255
0.734081 0.933296  1.44775 255 255 255
0.434034  0.72231  1.58345 255 255 255
0.281479  1.29966  1.32943 255 255 255
0.60594 1.30998 1.51503 255 255 255
0.692204  1.09637  1.44748 255 255 255
0.509481   1.3107  1.54383 255 255 255
0.785241  1.20415  1.44114 255 255 255
0.703231 0.670552  1.48858 255 255 255
0.503886  1.35345  1.55218 255 255 255
 0.62324 0.853514  1.48513 255 255 255
0.767385  1.42975  1.47969 255 255 255
0.451738  1.37732  1.58467 255 255 255
0.754691  1.48062  1.48946 255 255 255
0.483231 0.971161   1.4301 255 255 255
0.645423 0.645315  1.51236 255 255 255
0.438275 0.679949  1.59401 255 255 255
0.489145  1.25532  1.55462 255 255 255
0.692744  1.23044  1.46361 255 255 255
0.737362 0.958645  1.44593 255 255 255
0.712466    1.369  1.48496 255 255 255
0.566472  1.39953  1.54148 255 255 255
0.603385 0.669184  1.51509 255 255 255
0.860537  1.38916  1.43731 255 255 255
0.721344  1.07197  1.42825 255 255 255
0.617554 0.788427   1.4914 255 255 255
0.753357 0.914094  1.44687 255 255 255
0.87034 1.37334 1.43858 255 255 255
0.819197   1.4471  1.46132 255 255 255
0.447659 0.822294  1.55378 255 255 255
0.420877  1.07255  1.56733 255 255 255
 0.70469 0.955479  1.45241 255 255 255
0.765151  1.43729  1.47967 255 255 255
0.763445  1.44052  1.48283 255 255 255
0.663438  1.52794  1.54338 255 255 255
 0.57908 0.661171  1.53278 255 255 255
0.707606  1.13419   1.4541 255 255 255
0.710523  1.50808  1.51222 255 255 255
0.47197 1.00208 1.43525 255 255 255
0.408071 0.769138  1.61951 255 255 255
0.744085  1.40832   1.4765 255 255 255
0.432696 0.731532  1.60024 255 255 255
0.688797  1.48612  1.51409 255 255 255
0.711805  0.85186   1.4602 255 255 255
0.431434  1.03891  1.48457 255 255 255
0.546192 0.987085  1.42184 255 255 255
0.693798  0.63908  1.49949 255 255 255
0.429036 0.947345  1.44196 255 255 255
0.715361  1.53118  1.51671 255 255 255
0.537181   1.3678   1.5444 255 255 255
0.685567   1.4637  1.51284 255 255 255
0.756451 0.995633  1.43713 255 255 255
0.423707 0.760219  1.61123 255 255 255
0.833617  1.10836  1.41579 255 255 255
0.745507 0.992483  1.43828 255 255 255
0.740723 0.641079  1.48173 255 255 255
0.661092  1.23254  1.48479 255 255 255
0.780008 0.632646   1.4752 255 255 255
0.453267 0.734779  1.57065 255 255 255
0.59494 1.17001 1.42374 255 255 255
0.82081  1.3924 1.45156 255 255 255
0.667475 0.798133  1.46235 255 255 255
0.654006 0.668041  1.50356 255 255 255
0.418516 0.748033  1.62552 255 255 255
0.552367  1.11999    1.398 255 255 255
0.727215  1.25209  1.45416 255 255 255
0.80743 1.12041 1.42408 255 255 255
0.354722  1.24973  1.32032 255 255 255
0.690814  1.23601  1.46141 255 255 255
0.457379 0.692578  1.58043 255 255 255
0.454693 0.745281  1.56836 255 255 255
0.597099 0.764586  1.50553 255 255 255
0.408485 0.766135  1.62223 255 255 255
0.755058  1.40477  1.48184 255 255 255
0.620148  1.47912  1.53493 255 255 255
 0.46637 0.699548  1.56978 255 255 255
0.410462 0.742987  1.63787 255 255 255
0.307405  1.27772  1.34971 255 255 255
0.403752  1.28546  1.56359 255 255 255
0.512535  0.78576  1.53854 255 255 255
0.751231  1.22943  1.45151 255 255 255
0.479244 0.745415  1.55852 255 255 255
0.423117 0.698563  1.59582 255 255 255
0.422198 0.698854  1.59512 255 255 255
0.471481  1.02151  1.43362 255 255 255
0.416804 0.682733  1.63944 255 255 255
0.387718   1.2628  1.54258 255 255 255
0.262322  1.29365  1.33976 255 255 255
0.517788  1.42996   1.5553 255 255 255
0.437392  0.74238  1.59068 255 255 255
0.763229 0.806744  1.45216 255 255 255
0.429242 0.718743  1.59761 255 255 255
0.672313 0.634932  1.50838 255 255 255
0.515695 0.658054  1.55221 255 255 255
0.836241  1.41806  1.44432 255 255 255
0.782064  1.35689  1.46609 255 255 255
0.557313  1.31402   1.4381 255 255 255
0.699775 0.623156  1.50216 255 255 255
0.501654 0.729547  1.55149 255 255 255
0.426918 0.723127  1.59938 255 255 255
0.536222  1.37252  1.54787 255 255 255
0.390126  1.25429  1.53409 255 255 255
0.463325  0.75435  1.56485 255 255 255
0.765086 0.730051  1.45711 255 255 255
0.424231 0.988834   1.4537 255 255 255
 0.42788 0.684106  1.60257 255 255 255
0.255503  1.36112  1.26139 255 255 255
0.626776 0.678023  1.50347 255 255 255
0.217799  1.37349  1.24847 255 255 255
0.558483 0.674148  1.53251 255 255 255
0.37159 1.22831 1.54357 255 255 255
0.533893 0.781016  1.51492 255 255 255
 0.39266 0.884782  1.55842 255 255 255
0.515269 0.712931  1.54334 255 255 255
0.446376  1.12541  1.58697 255 255 255
0.715456 0.843723  1.45865 255 255 255
0.650505 0.726222  1.48962 255 255 255
0.390494  1.04333  1.57932 255 255 255
0.823494 0.944126  1.42124 255 255 255
0.491554 0.792999  1.55786 255 255 255
0.624226 0.830044  1.48865 255 255 255
0.305948  1.32688  1.29504 255 255 255
0.638667 0.784814  1.48269 255 255 255
0.672854 0.843528  1.46502 255 255 255
0.344171  1.07934  1.50766 255 255 255
0.533625   1.4057  1.54635 255 255 255
0.859799  1.33255  1.43638 255 255 255
0.519039  1.42426  1.55128 255 255 255
0.427178 0.710696  1.59551 255 255 255
0.670081  1.20725  1.47305 255 255 255
  0.8149 0.664594  1.44742 255 255 255
 0.50784 0.702968  1.54598 255 255 255
0.378554 0.970763  1.55034 255 255 255
0.505146 0.704841  1.54627 255 255 255
0.713376 0.957112  1.44931 255 255 255
0.685813 0.673364  1.48803 255 255 255
0.531608  1.49337  1.57833 255 255 255
0.535796  1.48334  1.56959 255 255 255
0.424803 0.987877  1.45063 255 255 255
0.516924 0.666935  1.55116 255 255 255
0.439344 0.739524  1.57605 255 255 255
0.621535 0.638679  1.52742 255 255 255
0.751054  0.66911  1.47164 255 255 255
0.576437  1.44017  1.54337 255 255 255
0.513322 0.893413  1.43428 255 255 255
 0.77948 0.702183  1.45457 255 255 255
0.422677 0.678791  1.60975 255 255 255
0.422896 0.978695  1.43646 255 255 255
0.762884  1.41297  1.47588 255 255 255
0.427801 0.963104   1.4369 255 255 255
0.453448  1.02175  1.55285 255 255 255
0.457538   1.0225  1.56108 255 255 255
0.408951  1.05645  1.56465 255 255 255
-0.886017   1.01711   3.04355 255 255 255
-0.596806  0.478688   2.58333 255 255 255
-0.301234    1.6807   2.35551 255 255 255
-0.744581  0.619033   2.81296 255 255 255
-0.581432  0.690835   2.61667 255 255 255
-0.592165  0.689918   2.61809 255 255 255
-0.283253   1.44908   2.30328 255 255 255
-0.503699  0.301381   2.73371 255 255 255
-0.572088   1.67593   2.62667 255 255 255
-0.51501  1.63647  2.66138 255 255 255
-0.599298  0.666259   2.53446 255 255 255
-0.483779   1.74138   2.59981 255 255 255
-0.667527  0.508612   2.91564 255 255 255
-0.763893  0.908808   2.83593 255 255 255
-0.970426   1.07707   3.10778 255 255 255
