ply
format ascii 1.0
element vertex 1178
property float x
property float y
property float z
property uchar red
property uchar green
property uchar blue
end_header
0.113996 0.757568   1.7753 255 255 255
0.0129958  0.858411   1.78822 255 255 255
-0.152867  0.895047    2.0107 255 255 255
-0.146363   1.00337   1.98758 255 255 255
0.307768  1.57497  1.73451 255 255 255
-0.0780948   0.944672    1.78762 255 255 255
0.0360574   1.16841   1.79728 255 255 255
0.239114  1.64742  1.79544 255 255 255
-0.0273559    1.50979    1.96982 255 255 255
0.137846  1.41878  1.79149 255 255 255
-0.201282   1.31353   2.06095 255 255 255
-0.172692  0.601488    1.9296 255 255 255
-0.154858  0.628849   1.90509 255 255 255
-0.156516  0.823363   2.02659 255 255 255
-0.120923   1.42903   2.01181 255 255 255
0.0971238   1.65401   1.91082 255 255 255
-0.270735  0.678846   1.98554 255 255 255
0.000851688    0.636282     1.81702 255 255 255
-0.224669  0.816234   2.08343 255 255 255
  0.102 1.23692 1.78097 255 255 255
-0.216142   1.00365   2.01362 255 255 255
-0.129873  0.987033    1.8344 255 255 255
0.00597142   0.998598    1.73061 255 255 255
-0.012502  0.601103   1.83464 255 255 255
 0.1664  1.0984 1.68561 255 255 255
0.250703  1.21516  1.66525 255 255 255
0.112327  1.19965     1.72 255 255 255
0.0737272   1.33085   1.71858 255 255 255
0.0681963    1.6623   1.93232 255 255 255
-0.11477  1.06082  1.95406 255 255 255
0.0310702  0.848222   1.78658 255 255 255
0.108691  1.05285  1.68649 255 255 255
0.108795 0.804019  1.76055 255 255 255
-0.225743     1.569   2.21651 255 255 255
-0.0887519    1.14346    1.94135 255 255 255
-0.0832664    1.55682     2.0801 255 255 255
0.0457635   1.13425   1.76935 255 255 255
-0.0234658    1.30266    1.90396 255 255 255
0.240437  1.73048  1.82524 255 255 255
0.127824 0.748562  1.68637 255 255 255
0.130437  1.50468  1.84161 255 255 255
0.028318   1.0397   1.7209 255 255 255
-0.144738  0.903205   1.92693 255 255 255
0.129605  1.50621  1.85173 255 255 255
-0.132481  0.907685   1.92716 255 255 255
0.16605 1.67261 1.87387 255 255 255
-0.173709   1.27035   2.01968 255 255 255
-0.135686  0.997161   1.98489 255 255 255
-0.162435  0.924467    2.0107 255 255 255
-0.0432418   0.980297    1.77333 255 255 255
-0.0663953   0.959072    1.77937 255 255 255
0.137495  1.69388  1.89899 255 255 255
0.0537809   1.27175   1.83985 255 255 255
-0.228888   1.21043   2.04866 255 255 255
0.0208496  0.651733   1.80939 255 255 255
-0.190044  0.683051   1.92019 255 255 255
-0.129735  0.976419   1.97407 255 255 255
0.143093 0.749233  1.75683 255 255 255
-0.171626    1.0519   1.84344 255 255 255
-0.00053316     1.44653     1.90679 255 255 255
0.131445 0.778699   1.7492 255 255 255
-0.0164367   0.986563    1.76098 255 255 255
-0.00743675     1.56118     1.99282 255 255 255
0.0516835   1.27973   1.83134 255 255 255
-0.169571   1.01893   1.85536 255 255 255
0.0825288  0.644985   1.77177 255 255 255
0.180776   1.0891  1.68019 255 255 255
-0.119605  0.974143   1.82564 255 255 255
0.173952  1.42699  1.77753 255 255 255
-0.118596   1.36348   1.94293 255 255 255
-0.00895189    0.833561      1.8235 255 255 255
-0.0495298    1.36449    1.89592 255 255 255
-0.186659  0.796883   2.07618 255 255 255
-0.17837  1.02376  1.84785 255 255 255
0.0467848   0.56842   1.80245 255 255 255
-0.00576219     1.44454     1.87699 255 255 255
0.0933636   1.25782   1.70402 255 255 255
-0.105646   1.03358   1.92271 255 255 255
-0.115186  0.692856   1.84282 255 255 255
-0.203757   1.40352   2.02025 255 255 255
-0.107103  0.788314   1.96445 255 255 255
0.0310005   1.51464   1.95737 255 255 255
0.0774936   1.38472   1.83613 255 255 255
-0.19129 0.920534  2.04517 255 255 255
0.230415   1.1236  1.64871 255 255 255
-0.023122  0.830473   1.84577 255 255 255
0.0982617   1.25752   1.69146 255 255 255
-0.0355815   0.996572      1.771 255 255 255
-0.19104   1.0402  2.02877 255 255 255
-0.0877718   0.932438    1.94048 255 255 255
-0.157134   1.03452   1.92859 255 255 255
0.156655  1.40633  1.76582 255 255 255
0.0853874  0.616455   1.77076 255 255 255
-0.197269  0.795917   2.07718 255 255 255
-0.168757  0.821989   1.97988 255 255 255
-0.226122  0.822607     2.085 255 255 255
0.112199  1.16111  1.69527 255 255 255
-0.165224   1.65489   2.17132 255 255 255
-0.186298   1.56537   2.18583 255 255 255
0.248812 0.924474  1.66731 255 255 255
0.121179  1.41447  1.80244 255 255 255
-0.22024  1.00582  1.99333 255 255 255
-0.189545   1.27722   2.01809 255 255 255
0.00539183    1.62446    2.00172 255 255 255
0.132191  1.41698  1.79795 255 255 255
0.221782  1.47732  1.72497 255 255 255
-0.137249   1.18071   1.95255 255 255 255
0.00889085   0.736958    1.87231 255 255 255
-0.0135351    1.63754    1.98313 255 255 255
0.0450289   1.20413   1.84373 255 255 255
0.133123  1.61042  1.88025 255 255 255
0.104043  1.59563  1.87891 255 255 255
0.0679757  0.693377   1.75766 255 255 255
0.150999  1.68807  1.88714 255 255 255
0.172644 0.517787  1.78839 255 255 255
-0.136197   1.02715   1.88257 255 255 255
0.149125  1.69613  1.89071 255 255 255
0.369109  1.68988  1.70662 255 255 255
-0.0622258   0.945072    1.82243 255 255 255
-0.00206492    0.892075     1.78376 255 255 255
-0.0379668    1.58297     2.0268 255 255 255
0.102861  1.45639  1.77004 255 255 255
0.0711726   1.27763   1.71304 255 255 255
-0.146635   1.06658   1.90931 255 255 255
0.0422651    0.7238   1.76901 255 255 255
-0.0711114    1.47951    2.03143 255 255 255
-0.0756532    1.43664    1.96774 255 255 255
-0.110896   1.49912   2.07428 255 255 255
-0.0572244   0.971295    1.78305 255 255 255
-0.0688216    1.37184    1.90723 255 255 255
-0.045869   1.16866   1.91486 255 255 255
0.0793333   1.41718   1.84293 255 255 255
0.150511  1.66884    1.882 255 255 255
-0.144653  0.593589   1.91883 255 255 255
-0.124781   1.46898   2.09225 255 255 255
-0.0673825    1.24942    1.93157 255 255 255
-0.0769368    1.10348    1.92772 255 255 255
-0.076076  0.938847   1.79309 255 255 255
-0.00256879     1.64766     2.00817 255 255 255
-0.116856  0.977154   1.82006 255 255 255
-0.305322  0.685106   2.00968 255 255 255
0.0594009   1.26939   1.83659 255 255 255
0.015035  1.28343  1.73148 255 255 255
-0.210726   1.35074    1.9954 255 255 255
0.370131  1.62133  1.71289 255 255 255
-0.0730676   0.963683    1.92931 255 255 255
0.0416143   1.12066   1.78216 255 255 255
-0.197571  0.865718   2.07418 255 255 255
  0.1113 0.571074  1.68692 255 255 255
0.19447 1.69558 1.84345 255 255 255
0.259169    1.564  1.77591 255 255 255
-0.272276  0.713796   1.97806 255 255 255
0.124653  1.22768  1.76788 255 255 255
0.0898575    1.6023   1.91752 255 255 255
0.083642 0.688923  1.75884 255 255 255
0.0446575   1.12738   1.82362 255 255 255
-0.146774  0.611584   1.90858 255 255 255
-0.172452  0.877822   2.03187 255 255 255
-0.118647  0.758514   1.98264 255 255 255
0.0809729   1.64137   1.93171 255 255 255
-0.157277   1.05294   1.84118 255 255 255
-0.0638254    1.39451    1.93747 255 255 255
0.0483633    1.2792   1.72279 255 255 255
-0.168964  0.793245   2.02182 255 255 255
0.0742021   1.29012   1.70923 255 255 255
0.0792442   1.28542   1.70707 255 255 255
0.0670525    1.5689   1.93016 255 255 255
-0.0975691    1.24969    1.95639 255 255 255
-0.144279  0.861491   1.99728 255 255 255
0.0015645   1.57627   1.95938 255 255 255
-0.12094  1.02484  1.81965 255 255 255
-0.155779   0.84444   2.02286 255 255 255
0.295049  1.57011  1.74222 255 255 255
0.181081  1.53611  1.80892 255 255 255
0.0163851   1.50092   1.95898 255 255 255
0.305995   1.5698   1.7214 255 255 255
0.152189  1.60918  1.85275 255 255 255
0.12696 1.18217 1.75793 255 255 255
-0.00590605    0.798181     1.80919 255 255 255
-0.0956242    1.26995    1.95704 255 255 255
-0.27802 0.701988  2.15134 255 255 255
-0.153777    1.2834   2.00788 255 255 255
0.032835  1.09201  1.74725 255 255 255
0.134723 0.758151   1.7541 255 255 255
-0.142879   1.11182   1.98176 255 255 255
0.283147  1.66075  1.77954 255 255 255
-0.104405   1.22409    1.9632 255 255 255
0.0563171   1.57043    1.9388 255 255 255
-0.132989   1.27166   1.98552 255 255 255
0.0768781   1.14686   1.74969 255 255 255
0.189713  1.15476  1.65286 255 255 255
0.102798   1.4962  1.86244 255 255 255
-0.144706   0.89549   1.90354 255 255 255
-0.166253  0.806333   2.05026 255 255 255
0.0209441  0.677751    1.7934 255 255 255
-0.214635  0.994333   2.00016 255 255 255
-0.218395  0.998836   2.01139 255 255 255
-0.157365  0.647525   1.90525 255 255 255
-0.116984   0.62035   1.89154 255 255 255
0.0166216    1.1308   1.85817 255 255 255
0.0128425  0.985228   1.74899 255 255 255
0.176606  1.37578  1.66932 255 255 255
0.312664  1.54671  1.66745 255 255 255
-0.030181   1.05378   1.76939 255 255 255
0.0227304  0.670701   1.79549 255 255 255
-0.091666   1.48467   2.06041 255 255 255
0.226183  1.50432  1.74326 255 255 255
-0.0761821    1.44428    1.97032 255 255 255
0.10611  1.2226 1.78622 255 255 255
-0.102979  0.963699   1.95157 255 255 255
-0.0296568    1.03465    1.75763 255 255 255
0.181995  1.54753  1.81562 255 255 255
0.0260204   1.18414    1.8009 255 255 255
0.0104848  0.793356   1.83625 255 255 255
0.0421716   1.57502   1.94655 255 255 255
-0.0641169   0.963982    1.79239 255 255 255
-0.0560169    1.36086    1.93085 255 255 255
-0.0736274   0.950721    1.79317 255 255 255
0.199267  1.10965    1.668 255 255 255
-0.273889  0.718147   1.98317 255 255 255
0.0079486   1.24785    1.8687 255 255 255
-0.0795527   0.969077     1.7911 255 255 255
-0.213306   1.24222   2.03363 255 255 255
0.0234667   1.19074   1.85723 255 255 255
0.146643  1.68935  1.88929 255 255 255
-0.142753   0.82077   1.94737 255 255 255
-0.221242   1.28406   2.06328 255 255 255
0.0819695   1.50922   1.89642 255 255 255
0.285519  1.54839   1.7342 255 255 255
-0.03445  1.62907  2.03633 255 255 255
-0.0919037   0.958583     1.8031 255 255 255
-0.104211   1.03127   1.91979 255 255 255
0.224065  1.10366  1.65556 255 255 255
0.00645125    1.00762    1.73789 255 255 255
-0.125952   1.50467   2.10645 255 255 255
0.239853  1.72637  1.82546 255 255 255
-0.0955946    1.45383    2.07827 255 255 255
0.139798  1.22888  1.67025 255 255 255
0.152027  1.20377  1.68555 255 255 255
-0.1006 1.47791 2.07605 255 255 255
-0.0350245    0.96603    1.75863 255 255 255
-0.156446  0.904685   2.00707 255 255 255
0.174012  1.26006  1.65721 255 255 255
-0.062865    1.4421   1.95712 255 255 255
-0.158439   1.04948   2.00326 255 255 255
-0.0960479   0.905549    1.86958 255 255 255
0.0517537  0.714997   1.76566 255 255 255
-0.131037   0.56731   1.96265 255 255 255
-0.160076   1.11788   1.95801 255 255 255
0.280416  1.59684  1.76592 255 255 255
0.0537432   1.49133   1.90278 255 255 255
-0.0565337   0.733916    1.94042 255 255 255
-0.234838  0.711724   1.99749 255 255 255
-0.0634854   0.820075    1.93478 255 255 255
0.0695128  0.801062   1.77291 255 255 255
0.325479  1.56922  1.69547 255 255 255
-0.0560854   0.855646    1.91418 255 255 255
-0.119328  0.764153   1.97932 255 255 255
-0.102636  0.958872   1.95436 255 255 255
-0.0237532   0.741574     1.9073 255 255 255
0.279415 0.741798  1.67236 255 255 255
-0.0719966   0.966855    1.79887 255 255 255
0.0461778   1.59661   1.94091 255 255 255
-0.129041  0.759973   1.98979 255 255 255
0.105089  1.22697  1.78503 255 255 255
-0.0788258    1.48141    2.05091 255 255 255
-0.082311  0.866062   1.88142 255 255 255
-0.152944  0.970227   1.99869 255 255 255
0.0617184   1.57105   1.92911 255 255 255
0.00366428    1.16001    1.87072 255 255 255
-0.201078   1.01145   2.04119 255 255 255
-0.201626  0.961162    2.0535 255 255 255
-0.205257  0.865073   2.06634 255 255 255
-0.0925565    1.47694    2.07461 255 255 255
0.109249 0.531352  1.82163 255 255 255
-0.0613254   0.720681    1.94534 255 255 255
0.0137725   1.49836   1.96088 255 255 255
-0.0449351   0.656642    1.83181 255 255 255
-0.0925008    1.09791    1.91589 255 255 255
0.0191457    1.1641   1.85065 255 255 255
0.0468555   0.83115   1.77582 255 255 255
-0.172104   1.03509   2.01232 255 255 255
0.062684  1.41088  1.85435 255 255 255
-0.155479  0.838027   2.02673 255 255 255
0.041655  1.28971  1.79665 255 255 255
0.000161106    0.792436     1.80356 255 255 255
0.0579639   1.29013   1.72591 255 255 255
-0.0430595    1.66288    1.96879 255 255 255
0.0231868   1.31931    1.8679 255 255 255
0.0893062   1.41876   1.83326 255 255 255
-0.189982   1.08718   2.00161 255 255 255
-0.129273  0.761978   1.96431 255 255 255
0.102379  1.46198  1.77096 255 255 255
0.0346385   1.12911   1.78126 255 255 255
0.173245  1.60057  1.84632 255 255 255
0.0645861  0.805163   1.77521 255 255 255
0.0161602  0.928729   1.74101 255 255 255
-0.0897342   0.947048    1.94531 255 255 255
-0.18741 0.793394    2.077 255 255 255
-0.0957514   0.885668    1.87715 255 255 255
0.104707 0.654957  1.75643 255 255 255
0.0246421   1.01841   1.71097 255 255 255
-0.173912   1.03881   2.01298 255 255 255
-0.0966195   0.997186    1.81836 255 255 255
-0.167938  0.878379   2.02397 255 255 255
-0.163731  0.837938   2.01917 255 255 255
0.189651  1.62654  1.84098 255 255 255
0.249359  1.45394  1.72584 255 255 255
0.217692  1.72039  1.83646 255 255 255
-0.0717615    1.41198     1.9353 255 255 255
0.104364  1.69859  1.93498 255 255 255
-0.0179057   0.822184    1.84891 255 255 255
-0.141082  0.839689   1.99565 255 255 255
-0.084915  0.873519   1.86575 255 255 255
-0.111585  0.872334    1.9141 255 255 255
0.0521418   1.49503   1.91905 255 255 255
-0.0581926     1.6607     2.0104 255 255 255
0.0394194  0.837165   1.77453 255 255 255
-0.0946268    1.50136    2.07127 255 255 255
0.300172  1.72505  1.77214 255 255 255
-0.168387   1.05484   1.88889 255 255 255
-0.237077   0.76162   1.98793 255 255 255
0.453582 -1.28405  4.82757 255 255 255
-0.137855  -1.10147   4.51912 255 255 255
0.537732  -1.2308  4.35886 255 255 255
0.238567  -1.3031   4.3941 255 255 255
0.288999 -1.25993  4.21289 255 255 255
0.339762 -1.20883  5.10846 255 255 255
0.592877 -1.25267  4.70266 255 255 255
 1.21788 -1.22996  5.15779 255 255 255
0.0187889  -1.06364   4.02378 255 255 255
0.721441 -1.24384  4.10325 255 255 255
 1.29806 -1.26951  5.01941 255 255 255
0.0973947  -1.17973   4.44866 255 255 255
 1.2015 -1.2522 4.95109 255 255 255
 0.69487 -1.27726  4.73744 255 255 255
0.0067771  -1.23338   4.85767 255 255 255
0.0729719  -1.12424   4.31914 255 255 255
0.187007 -1.18626  4.53096 255 255 255
-0.231039  -1.10154   4.43505 255 255 255
 0.31855 -1.18556  4.10635 255 255 255
-0.0322403    -1.2097    5.06216 255 255 255
-0.0877708   -1.20801    4.71617 255 255 255
0.888132 -1.25188  4.90075 255 255 255
0.756152 -1.19823  3.81228 255 255 255
 1.04388 -1.24721  4.56667 255 255 255
0.893689 -1.25962  5.01239 255 255 255
-0.0192091   -1.19243    5.11173 255 255 255
0.480523 -1.32098  4.41075 255 255 255
 0.71744 -1.25004   4.1499 255 255 255
 1.05879 -1.25272  4.74674 255 255 255
0.203742 -1.19126  4.87129 255 255 255
-0.00575078    -1.20426     4.13229 255 255 255
-0.000895221     -1.20149       4.1295 255 255 255
0.0819214  -1.16171   4.19023 255 255 255
0.247269 -1.16145  4.33507 255 255 255
0.236908  -1.1671  4.33771 255 255 255
-0.0818405   -1.00904     4.0524 255 255 255
-0.158974  -1.07698   4.14723 255 255 255
-0.0681176   -1.04897    4.77729 255 255 255
0.302405 -1.23839  4.17764 255 255 255
0.180363 -1.12939  4.34786 255 255 255
 0.24485 -1.08529  3.99734 255 255 255
  0.2015 -1.16233  4.89605 255 255 255
0.568344 -1.24055  4.28619 255 255 255
-0.198699  -1.06451   4.53426 255 255 255
0.613204 -1.14127  3.75222 255 255 255
-0.0541481   -1.13861    4.15562 255 255 255
 1.07384 -1.24351   4.7794 255 255 255
0.0520641  -1.23915   4.70222 255 255 255
0.365685 -1.19314  4.79022 255 255 255
0.498292 -1.34617  5.05148 255 255 255
0.0641036  -1.18375   4.15022 255 255 255
-0.0705414   -1.18036     4.5313 255 255 255
0.799693 -1.16239  3.83214 255 255 255
0.0595448  -1.17138   4.46959 255 255 255
0.0260487  -1.12453   4.46227 255 255 255
0.989144   -1.242  4.87557 255 255 255
 1.00554 -1.23551  4.97964 255 255 255
-0.116614  -1.15779   4.99121 255 255 255
0.104209 -1.13963  4.22565 255 255 255
-0.0980465    -1.0874    4.71674 255 255 255
0.0786572   -1.2068   4.55933 255 255 255
0.167133 -1.18989  4.61613 255 255 255
0.416548 -1.33396  5.02636 255 255 255
0.276332 -1.21365  4.87223 255 255 255
0.750114 -1.27578  4.60761 255 255 255
0.711219 -1.21652  4.07993 255 255 255
-0.118525  -1.18116     4.952 255 255 255
 0.73652 -1.25427  3.98261 255 255 255
0.257015 -1.19959  4.66232 255 255 255
0.0420496  -1.20543   4.90167 255 255 255
0.0469601  -1.13692   4.26524 255 255 255
0.0398141  -1.14113   4.26675 255 255 255
0.145256 -1.13034  4.37017 255 255 255
-0.167099  -1.14766   4.94801 255 255 255
0.0382269  -1.06623   4.00089 255 255 255
-0.0796647  -0.998286     4.0258 255 255 255
0.0960424  -1.06663    5.2291 255 255 255
0.888492 -1.19536  3.79865 255 255 255
0.232035 -1.24054  4.60026 255 255 255
0.397045 -1.22542  4.94396 255 255 255
 1.60353 -1.22062  5.27578 255 255 255
0.0867025  -1.22029   5.10121 255 255 255
0.463428 -1.33466  4.58388 255 255 255
-0.113107  -1.23259   4.81688 255 255 255
 0.53712 -1.24055  4.76142 255 255 255
-0.121844   -1.1832   4.90395 255 255 255
0.275578 -1.28212  4.88136 255 255 255
0.0312922  -1.18303   4.17807 255 255 255
-0.0436844   -1.16811    4.65471 255 255 255
-0.0387957   -1.21424    4.84797 255 255 255
-0.125376  -0.99094    4.0572 255 255 255
0.00721236   -1.08364    4.04856 255 255 255
 1.46478 -1.25223  5.00735 255 255 255
0.956127  -1.2489  4.60662 255 255 255
0.752243 -1.27045  4.31792 255 255 255
0.460178  -1.1678   3.9689 255 255 255
0.231714 -1.19335  4.40013 255 255 255
0.208191  -1.1562  4.17695 255 255 255
0.274089 -1.26506  4.57121 255 255 255
-0.0709623    -1.2211    5.02627 255 255 255
-0.140071  -1.16619   4.93951 255 255 255
-0.167535  -1.11884   4.27717 255 255 255
0.168093 -1.06262  3.95332 255 255 255
-0.133253 -0.994998   4.08125 255 255 255
0.00307244   -1.05196    3.95145 255 255 255
0.859208 -1.18397  3.77464 255 255 255
0.640777 -1.18622  3.84904 255 255 255
 0.35682 -1.31436   4.8976 255 255 255
 1.40675 -1.22261   5.2634 255 255 255
0.984793 -1.23408  4.24559 255 255 255
0.670136 -1.15483   3.7814 255 255 255
0.231408 -1.17455  4.54791 255 255 255
-0.00422026    -1.25341     4.72571 255 255 255
0.902895 -1.25145  4.46172 255 255 255
-0.247692  -1.13729    4.6081 255 255 255
0.0911776  -1.10302   4.27362 255 255 255
0.957423 -1.24675  4.55991 255 255 255
0.577897 -1.25372  4.79971 255 255 255
0.272209 -1.26178  4.40971 255 255 255
 1.39585 -1.25583  5.02361 255 255 255
0.548486 -1.21017  5.14748 255 255 255
-0.120686  -1.08062   4.72559 255 255 255
0.933839   -1.182  3.68104 255 255 255
0.298872 -1.17134  4.11822 255 255 255
0.516732 -1.21697  4.25548 255 255 255
0.0686338  -1.12601   4.24433 255 255 255
0.872197 -1.25041  4.85227 255 255 255
0.233538 -1.15823  4.41515 255 255 255
-0.206798  -1.20008   4.59387 255 255 255
 0.31007 -1.22157   4.4173 255 255 255
0.00389815   -1.24613    4.70614 255 255 255
0.599851 -1.18998  3.99605 255 255 255
0.0502063  -1.20666    4.5024 255 255 255
0.374089 -1.13191  3.98778 255 255 255
-0.029784  -1.20252   5.08562 255 255 255
0.669797 -1.14223  3.73781 255 255 255
0.106187 -1.11872  4.29069 255 255 255
0.0266955  -1.10401    4.4247 255 255 255
-0.215411  -1.09506   4.31211 255 255 255
0.0821566  -1.06425   4.03484 255 255 255
 1.00114 -1.21053  3.90681 255 255 255
0.708689 -1.28494  4.77287 255 255 255
0.537092 -1.21437  5.14446 255 255 255
0.774948 -1.17671  3.88753 255 255 255
0.361468 -1.28705  4.40618 255 255 255
-0.114093  -1.13482   4.19853 255 255 255
0.217943 -1.07641  3.92671 255 255 255
0.0612188  -1.13604   4.20557 255 255 255
0.323776 -1.17267  4.33388 255 255 255
-0.0107918   -1.21962    4.93365 255 255 255
 0.52193 -1.18262  3.97068 255 255 255
0.928294 -1.20085  3.82349 255 255 255
0.744811 -1.23246  3.99309 255 255 255
-0.0195023   -1.23574    4.96729 255 255 255
0.768281 -1.26447  4.41955 255 255 255
0.413188 -1.28872  4.24312 255 255 255
0.421419 -1.18783  4.74183 255 255 255
 1.11663 -1.23077  4.08396 255 255 255
  0.3302 -1.22502  5.01699 255 255 255
-0.117525  -1.17818   4.79263 255 255 255
0.883596 -1.25869  4.48663 255 255 255
-0.122976  -1.17273   4.95705 255 255 255
0.733574 -1.23102  3.97712 255 255 255
0.360629 -1.23154  5.10001 255 255 255
 0.27362 -1.16671  5.10727 255 255 255
0.722305 -1.27248  4.22191 255 255 255
0.261753  -1.1782  4.99867 255 255 255
0.471485  -1.1602  3.96789 255 255 255
0.281925 -1.15488  5.07295 255 255 255
0.706712 -1.25113  4.12842 255 255 255
0.372345 -1.22002   5.1828 255 255 255
-0.100747  -1.20975   4.84629 255 255 255
0.716083 -1.25091  4.55267 255 255 255
-0.109974  -1.07962   4.11975 255 255 255
0.352917 -1.20268  5.00228 255 255 255
0.277529 -1.21228   4.8136 255 255 255
0.761819 -1.16797  3.88741 255 255 255
0.447699 -1.20339  4.74814 255 255 255
 1.01536 -1.22457  5.15509 255 255 255
1.25823 -1.2841 4.89291 255 255 255
0.717023 -1.24907  4.09831 255 255 255
0.98424 -1.2146 3.92617 255 255 255
-0.0760557   -1.15545    4.33782 255 255 255
0.0331371  -1.22185   4.99977 255 255 255
0.00775909   -1.24617    4.78935 255 255 255
0.331366 -1.29669  4.34526 255 255 255
0.260999 -1.19288  5.08153 255 255 255
-0.201455  -1.13313   4.44741 255 255 255
0.804619 -1.14519  3.67564 255 255 255
0.342435 -1.11776  3.89243 255 255 255
-0.117697   -1.1597   4.63207 255 255 255
0.216281  -1.1664  4.53228 255 255 255
0.731416 -1.27186  4.18738 255 255 255
-0.0708584  -0.988117    4.03697 255 255 255
0.646362 -1.28207  4.33289 255 255 255
-0.115301   -1.0909   4.16113 255 255 255
0.256646 -1.27941  4.60365 255 255 255
-0.066483  -1.13207   4.19475 255 255 255
 1.55399 -1.25253   5.0477 255 255 255
-0.0569255    -1.1394    4.19551 255 255 255
0.0390233  -1.10124   4.38739 255 255 255
0.336065 -1.26631   4.3802 255 255 255
0.409407 -1.17705  4.71243 255 255 255
0.396425 -1.16004  4.08152 255 255 255
0.212004 -1.18925  4.57405 255 255 255
0.337377 -1.20921  4.92285 255 255 255
0.746162 -1.27287  4.40726 255 255 255
0.513224 -1.11425  3.76699 255 255 255
0.0374793  -1.09841   5.14406 255 255 255
0.841752 -1.24527  4.16197 255 255 255
-0.17429 -1.15985  4.84966 255 255 255
0.742971 -1.16976  3.78575 255 255 255
0.111412 -1.14927   4.2437 255 255 255
0.402284 -1.18387  4.50642 255 255 255
-0.21571 -1.17763  4.43418 255 255 255
 1.18201 -1.21217  5.27112 255 255 255
 1.53443 -1.21687  5.28726 255 255 255
 1.02313 -1.22117  4.94345 255 255 255
0.762282 -1.16872  3.79331 255 255 255
0.038498  -1.2123  5.07593 255 255 255
0.563084 -1.08623  3.79679 255 255 255
-0.00584106    -1.18979     4.91271 255 255 255
0.00981752   -1.19154    4.88319 255 255 255
0.494095 -1.33405  5.17307 255 255 255
0.291181 -1.20358  5.01168 255 255 255
 0.38796 -1.27529  4.21301 255 255 255
 0.23638 -1.22102   4.8787 255 255 255
 1.11415 -1.26102  5.07437 255 255 255
-0.00744638    -1.16378      4.1962 255 255 255
0.233848 -1.15117  4.37851 255 255 255
 0.38577 -1.18219  4.77372 255 255 255
0.0596545  -1.20308   4.91779 255 255 255
-0.131828  -1.08148    4.1121 255 255 255
0.410375 -1.32065  5.07695 255 255 255
0.536616 -1.34169  5.22392 255 255 255
-0.14754 -1.17346   4.7866 255 255 255
0.276543 -1.17747  5.05006 255 255 255
0.0443665   -1.1565   4.19788 255 255 255
0.427485 -1.30293  5.20201 255 255 255
0.397111 -1.16697  4.12615 255 255 255
0.742174 -1.25822  4.13935 255 255 255
0.908868 -1.25192  5.15012 255 255 255
 0.87466 -1.25607  5.05014 255 255 255
0.460699 -1.24381  4.43526 255 255 255
0.394871 -1.14599  3.99602 255 255 255
0.496818  -1.2169  4.95062 255 255 255
0.202832 -1.14144  4.39038 255 255 255
0.0852424  -1.11477   4.34931 255 255 255
-0.199838  -1.08859   4.21848 255 255 255
 0.42613 -1.16562   4.2742 255 255 255
-0.024194  -1.15674   5.13942 255 255 255
0.462204 -1.13403   3.8734 255 255 255
-0.0522135   -1.22524    5.02536 255 255 255
0.218674  -1.1891  4.56259 255 255 255
0.763146 -1.24823   4.0449 255 255 255
0.753089 -1.25076  4.07247 255 255 255
0.787899 -1.26931  4.39374 255 255 255
0.240317 -1.16981    4.412 255 255 255
0.450067 -1.18596  4.44481 255 255 255
0.0976522  -1.10741   4.29412 255 255 255
0.863524  -1.2339  4.13759 255 255 255
0.307962 -1.11092  3.90009 255 255 255
0.380018 -1.33903  5.02609 255 255 255
0.0446413  -1.04968   3.94081 255 255 255
-0.20609 -1.11916  4.41561 255 255 255
-0.175165   -1.0956    4.2155 255 255 255
 1.43939 -1.23444  5.05736 255 255 255
0.654635 -1.24042   4.1265 255 255 255
 0.26362 -1.22054  4.53827 255 255 255
0.214422 -1.16015  4.93211 255 255 255
-0.244652  -1.17647   4.58223 255 255 255
-0.0787727   -1.16979    4.32573 255 255 255
-0.128724  -1.17784   4.65581 255 255 255
0.324561 -1.29833  4.83933 255 255 255
-0.085718  -1.16991   5.02614 255 255 255
0.463463 -1.10194  3.78876 255 255 255
0.0644175  -1.02503    3.9348 255 255 255
-0.0802113   -1.10751    4.13306 255 255 255
0.534072 -1.12761  3.76897 255 255 255
 0.77897 -1.26679  4.31529 255 255 255
0.846124 -1.25803  4.46549 255 255 255
0.0532667  -1.10498    4.3963 255 255 255
0.0600593  -1.10097   4.39595 255 255 255
0.0780044  -1.13707   4.21251 255 255 255
-0.0704359   -1.00686    3.97406 255 255 255
0.426734 -1.15829  4.30586 255 255 255
0.642363  -1.1689  3.91017 255 255 255
0.305658  -1.0932  3.89431 255 255 255
0.365014 -1.19418  4.66186 255 255 255
 1.14733 -1.20808   3.9156 255 255 255
-0.048651  -1.13245   4.15673 255 255 255
0.706322 -1.27591  4.91593 255 255 255
0.106345 -1.16203  4.29619 255 255 255
0.349667 -1.14183  3.98287 255 255 255
0.311465 -1.28658  4.57295 255 255 255
0.462306 -1.22178  4.64004 255 255 255
 0.85139 -1.25708  4.49133 255 255 255
-0.00912891    -1.16337     4.15264 255 255 255
0.972986 -1.24015  4.28488 255 255 255
0.569285 -1.18835  3.97873 255 255 255
0.997532 -1.24195  4.85264 255 255 255
-0.0842536   -1.20953    4.71434 255 255 255
-0.156042 -0.964662   4.08998 255 255 255
-0.102339  -0.93387   3.99529 255 255 255
0.0523561  -1.05511   5.18782 255 255 255
-0.0763232   -1.23297    4.56163 255 255 255
-0.119401  -1.19421   4.51858 255 255 255
0.311845 -1.20624  4.24215 255 255 255
0.223743 -1.16769  4.54628 255 255 255
 1.09475 -1.24083  4.41668 255 255 255
-0.0684366   -1.13838    4.14642 255 255 255
0.072825 -1.07223   4.2031 255 255 255
-0.136045   -1.1467   5.01866 255 255 255
0.195279  -1.2272  4.59157 255 255 255
0.897467   -1.164  3.77644 255 255 255
0.394683 -1.19078  4.76301 255 255 255
0.265202 -1.10354  3.99517 255 255 255
0.469807 -1.33585  4.56233 255 255 255
0.404004 -1.08614  3.82681 255 255 255
0.242942 -1.12239  4.11437 255 255 255
 1.24979 -1.26643  4.86407 255 255 255
0.214485 -1.21861  4.60948 255 255 255
0.258236 -1.13199  4.08466 255 255 255
0.213473 -1.06036  3.94254 255 255 255
0.297174 -1.13618  4.08262 255 255 255
0.966343 -1.24262  4.35452 255 255 255
0.191567 -1.14462  4.27525 255 255 255
 1.44325 -1.25408  4.99896 255 255 255
-0.104911  -1.07274   4.75876 255 255 255
0.335309   -1.091  3.85127 255 255 255
0.538514 -1.18789  3.95598 255 255 255
0.427062 -1.33047  4.58528 255 255 255
 1.06562 -1.25201  4.71115 255 255 255
0.418457 -1.35107  4.86699 255 255 255
 1.56472 -1.23672  5.00026 255 255 255
0.374198 -1.17953   4.8005 255 255 255
0.0227261  -1.16611   4.12704 255 255 255
 1.25431 -1.29009  4.85855 255 255 255
0.268698 -1.12854  4.09123 255 255 255
0.563921 -1.25331   4.9294 255 255 255
0.345074 -1.14354  3.96945 255 255 255
  0.2896 -1.20969   4.4162 255 255 255
 1.13416 -1.21855  5.31353 255 255 255
0.959906 -1.20447  3.85233 255 255 255
-0.208084   -1.1592   4.41869 255 255 255
-0.115344  -1.20261    4.5875 255 255 255
  1.0368 -1.21536  5.24032 255 255 255
0.926081 -1.24792  5.09595 255 255 255
-0.0935396   -1.19374    4.64484 255 255 255
-0.176989  -1.08186   4.22516 255 255 255
-0.205273   -1.1265    4.8125 255 255 255
 1.08413 -1.26149  4.87861 255 255 255
0.858386 -1.17888  3.72607 255 255 255
 1.09886 -1.25386  4.99752 255 255 255
 0.78256 -1.25792  4.23705 255 255 255
0.467938  -1.2361  5.16545 255 255 255
0.463548 -1.23828  5.16511 255 255 255
0.305561 -1.09515  3.94887 255 255 255
0.955075 -1.23037  4.15032 255 255 255
 1.17106 -1.22051  5.13627 255 255 255
  0.8302 -1.19319   3.8675 255 255 255
-0.0993769    -1.1378    4.28844 255 255 255
-0.127305  -1.18755   4.79019 255 255 255
0.687767 -1.28293  4.64935 255 255 255
0.274117 -1.17365  4.34781 255 255 255
0.806159 -1.24316  4.04661 255 255 255
0.323072 -1.12351  4.00487 255 255 255
-0.106663  -1.13536   4.29797 255 255 255
-0.200636  -1.09986   4.43036 255 255 255
  1.0805 -1.23455  4.12507 255 255 255
 1.00468 -1.24963  4.34232 255 255 255
0.208308 -1.15383  4.43052 255 255 255
-0.0985651   -1.14273    4.30952 255 255 255
0.229472 -1.17473   4.4013 255 255 255
-0.0834962   -1.21093    4.53797 255 255 255
0.282153  -1.2772  4.43476 255 255 255
 0.20237 -1.18169  4.90953 255 255 255
0.809015 -1.15603  3.68016 255 255 255
 0.46881 -1.20695  5.16619 255 255 255
0.331226 -1.08003  3.84106 255 255 255
0.950743 -1.24158  4.96262 255 255 255
 1.24645 -1.29171  4.39411 255 255 255
-0.14215 -1.10637  4.95354 255 255 255
-0.227668  -1.09156   4.38658 255 255 255
-0.0721857   -1.07981    4.08957 255 255 255
0.435094 -1.12635  3.90561 255 255 255
 1.22868 -1.26121  4.23895 255 255 255
0.506124 -1.29839  4.17771 255 255 255
-0.0861009   -1.18236     4.7542 255 255 255
0.957793 -1.22473  4.07347 255 255 255
-0.070487  -1.22621   4.75447 255 255 255
0.532439 -1.23818  5.15458 255 255 255
0.864181 -1.25024  4.94664 255 255 255
 1.30435 -1.21964  5.24867 255 255 255
0.422153 -1.09758  3.83136 255 255 255
-0.0560469   -1.21227    4.78475 255 255 255
-0.0663432   -1.11715    4.12321 255 255 255
0.274741 -1.18109  5.09227 255 255 255
0.872054 -1.24999  4.41767 255 255 255
-0.102908  -1.19757   4.55683 255 255 255
-0.086803  -1.10254   4.10811 255 255 255
 0.35788 -1.30308  4.55366 255 255 255
-0.113819   -1.1825   4.82408 255 255 255
0.289919 -1.27194  4.33078 255 255 255
0.978255 -1.17303  3.68921 255 255 255
0.837171 -1.15739  3.73407 255 255 255
0.275088 -1.16386  4.22821 255 255 255
0.0616021    -1.061   5.16337 255 255 255
-0.191563  -1.00557   4.17929 255 255 255
 0.40187 -1.29999  5.18374 255 255 255
-0.0475497   -1.22324    4.72724 255 255 255
 1.02028 -1.17448  3.66054 255 255 255
0.935161 -1.21217  3.90654 255 255 255
0.881819 -1.25471  4.41312 255 255 255
 1.06193 -1.21668  5.20546 255 255 255
0.429554 -1.34423  4.83433 255 255 255
 1.01678 -1.25289  4.35035 255 255 255
0.957647 -1.21599  4.00764 255 255 255
0.456023 -1.34025   5.0314 255 255 255
0.450041  -1.3437   5.0335 255 255 255
0.737749 -1.23145  4.02619 255 255 255
0.482827 -1.25581  4.57127 255 255 255
0.566627 -1.17531   3.9208 255 255 255
-0.0551407   -1.08284     4.0638 255 255 255
-0.105471  -1.10591   4.14011 255 255 255
0.733005  -1.2126  3.97164 255 255 255
 1.13062 -1.24655  4.72378 255 255 255
0.821728 -1.25177  5.06799 255 255 255
 1.48466 -1.21622  5.29761 255 255 255
 0.22427 -1.18399  4.54453 255 255 255
 1.22238 -1.27241  4.60294 255 255 255
 1.06156 -1.22818  5.08439 255 255 255
0.320194 -1.25287  4.51952 255 255 255
  0.2869 -1.17548  5.09403 255 255 255
0.398173  -1.2778  5.17311 255 255 255
0.929405 -1.25018  4.45786 255 255 255
0.252432 -1.21071  4.72109 255 255 255
0.264254 -1.17742  4.30284 255 255 255
 1.08147 -1.23375   4.1026 255 255 255
-0.0493397   -1.14136    4.15861 255 255 255
0.534994 -1.28618  4.97888 255 255 255
-0.209563  -1.07903   4.28675 255 255 255
0.0922491   -1.1607   4.23667 255 255 255
 -0.15461 -0.996976   4.31193 255 255 255
0.176191 -1.08012  4.00826 255 255 255
0.0932687  -1.06132   4.00053 255 255 255
-0.242626   -1.1041   4.47172 255 255 255
0.113457 -1.20066   4.5883 255 255 255
0.949286 -1.22816  4.09532 255 255 255
0.965243 -1.18666  3.79008 255 255 255
0.314731 -1.25307  4.20079 255 255 255
0.223843 -1.13585   4.2658 255 255 255
 0.48534 -1.20909  5.16011 255 255 255
0.319231 -1.15126  4.01893 255 255 255
 0.46614 -1.22723  4.96425 255 255 255
0.995309 -1.15943  3.65021 255 255 255
 0.27565 -1.19915  4.99027 255 255 255
1.06974 -1.2299  5.2002 255 255 255
0.377645 -1.28095  5.19606 255 255 255
0.377813 -1.14118  3.91828 255 255 255
0.427011 -1.27302  4.17583 255 255 255
0.274055 -1.15666  4.22643 255 255 255
0.054111 -1.19052  4.46329 255 255 255
 1.11502 -1.24801  4.48409 255 255 255
0.992504 -1.25086  4.28695 255 255 255
0.310845 -1.12996  4.02318 255 255 255
0.858325 -1.25497  4.39022 255 255 255
0.0671105   -1.1147   4.23607 255 255 255
0.405787 -1.09797  3.88174 255 255 255
 1.06768 -1.21658  3.76322 255 255 255
0.991189 -1.22104  4.94913 255 255 255
0.423304 -1.32302  4.38574 255 255 255
 1.27767 -1.26894   4.7334 255 255 255
0.870598 -1.21369  3.89495 255 255 255
-0.0980231   -1.20547    4.67318 255 255 255
0.233105 -1.22084  4.51956 255 255 255
0.567258  -1.2557  4.78051 255 255 255
0.075379 -1.04023  3.95962 255 255 255
0.404983 -1.17639  4.72861 255 255 255
0.311595 -1.21548  4.35154 255 255 255
-0.01764 -1.16302  4.14713 255 255 255
-0.110931   -1.1496   4.63947 255 255 255
-0.0885142   -1.14643    4.31264 255 255 255
0.718557 -1.27819  4.55643 255 255 255
0.386253 -1.13591  3.99024 255 255 255
0.461856 -1.17747  4.12212 255 255 255
0.0337524  -1.22607   5.06954 255 255 255
0.0566659  -1.21326   5.07271 255 255 255
-0.00311595    -1.15094      4.1104 255 255 255
0.382847 -1.20843  4.99943 255 255 255
0.202024 -1.15988  4.92258 255 255 255
 1.21483 -1.24631  4.12596 255 255 255
0.930561 -1.24498  4.84726 255 255 255
-0.166809  -1.14413   4.88075 255 255 255
-0.0423813   -1.14411    4.14503 255 255 255
-0.0765381   -1.20605    4.64033 255 255 255
 0.31492 -1.21804  4.16084 255 255 255
0.400877 -1.29131  5.22603 255 255 255
-0.165023  -1.16874   4.56485 255 255 255
0.893227 -1.16469  3.74472 255 255 255
 1.06511 -1.20972  5.27266 255 255 255
-0.00615854    -1.01659     3.94296 255 255 255
-0.0216481   -1.20365    5.08953 255 255 255
0.0341635  -1.04645   5.19957 255 255 255
0.541865 -1.24518   4.7511 255 255 255
0.959753 -1.22087  4.05745 255 255 255
0.427085 -1.24414  5.17583 255 255 255
-0.140226 -0.995636   4.30578 255 255 255
0.435849 -1.15405  3.98432 255 255 255
-0.198187  -1.09137   4.29419 255 255 255
-0.197774  -1.09108   4.29433 255 255 255
 1.13245 -1.22078  5.28814 255 255 255
-0.114726  -1.19251   4.88093 255 255 255
 0.28362 -1.11047  4.05146 255 255 255
0.231026 -1.18334  4.68459 255 255 255
 1.21428 -1.26648  4.40118 255 255 255
0.911658 -1.24624  4.95254 255 255 255
0.249806 -1.20943  4.52561 255 255 255
0.421468  -1.1434  3.98177 255 255 255
-0.124092  -1.20395   4.63433 255 255 255
  1.0661 -1.23973   4.1963 255 255 255
-0.167162  -1.05802   4.60907 255 255 255
-0.0949604   -1.10659    4.14045 255 255 255
0.749407 -1.21694  3.94422 255 255 255
0.458758 -1.23353  5.16199 255 255 255
 1.03961 -1.24244  4.96923 255 255 255
-0.0972227   -1.18007    4.63802 255 255 255
0.306327 -1.17654  5.04613 255 255 255
0.328332 -1.13038  3.92466 255 255 255
-0.102335  -1.05997   4.77507 255 255 255
0.416003 -1.18755  4.66364 255 255 255
0.0137151  -1.06458   4.07551 255 255 255
1.03118 -1.1796 3.66341 255 255 255
 1.22251 -1.27251  4.39406 255 255 255
0.662795 -1.27616  4.42023 255 255 255
  1.0442 -1.24152  4.21811 255 255 255
0.244586  -1.2029  4.83706 255 255 255
-0.150676  -1.08606   4.17687 255 255 255
-0.216266  -1.17014    4.6163 255 255 255
0.0176424  -1.20577    5.0908 255 255 255
0.295299 -1.17304   5.1289 255 255 255
 1.28668 -1.21444  5.29078 255 255 255
-0.119013  -1.14702     5.063 255 255 255
0.247802 -1.20056  4.76489 255 255 255
0.0971306   -1.1552   4.28867 255 255 255
  1.2372 -1.27836  4.67105 255 255 255
 1.07449 -1.23201   4.1366 255 255 255
-0.0699445   -1.12052    4.16639 255 255 255
-0.0584686   -1.22157    4.74074 255 255 255
-0.181713  -1.15674   4.82179 255 255 255
-0.122074  -1.09005   4.13886 255 255 255
0.677711 -1.27311  4.94768 255 255 255
1.04275 -1.2354 4.02582 255 255 255
0.505747 -1.29479  5.16352 255 255 255
0.201196 -1.17441  5.21891 255 255 255
0.193346 -1.13507  4.29833 255 255 255
0.0864496   -1.1429   4.41008 255 255 255
0.228028 -1.21639  4.51478 255 255 255
0.541884 -1.23561  4.93127 255 255 255
 1.13102 -1.21948  5.30571 255 255 255
0.190111 -1.16832  4.94423 255 255 255
 0.87239 -1.24596  4.22522 255 255 255
0.357263 -1.32049  4.87771 255 255 255
0.185258  -1.1525  4.45229 255 255 255
0.0462094  -1.19214    4.9082 255 255 255
0.0906203  -1.08449   4.24657 255 255 255
0.0941569    -1.151   4.28223 255 255 255
 1.41171 -1.24796  5.14421 255 255 255
0.663975 -1.13979  3.76262 255 255 255
0.893876 -1.24178  4.24017 255 255 255
-0.120698  -1.18576   4.84039 255 255 255
-0.170133  -1.16212   4.55984 255 255 255
0.105624 -1.16338  4.40376 255 255 255
0.892456 -1.25034  4.44002 255 255 255
 1.02917 -1.22017  3.86447 255 255 255
0.938109 -1.24894  4.60834 255 255 255
-0.131747  -1.15316   4.97448 255 255 255
0.695766 -1.23663  4.10459 255 255 255
-0.173491   -1.0981   4.25561 255 255 255
0.940981 -1.24849  4.81373 255 255 255
-0.131902  -1.15264   4.72919 255 255 255
0.261405 -1.20742  4.72902 255 255 255
-0.160083  -1.08068   4.18998 255 255 255
 0.82075 -1.20561   3.8797 255 255 255
0.239907 -1.20049  4.66883 255 255 255
0.614757 -1.25401  5.12179 255 255 255
0.987809 -1.24011  5.02299 255 255 255
0.289181 -1.28419  4.58859 255 255 255
0.775912 -1.19997  3.90295 255 255 255
0.541982 -1.18487  3.94554 255 255 255
 1.04988 -1.23118  4.03215 255 255 255
0.235453 -1.18002  4.88809 255 255 255
 1.42581 -1.24363  5.04332 255 255 255
-0.178125  -1.09851    4.2877 255 255 255
-0.161731  -1.09788   4.23887 255 255 255
0.262183 -1.19312  4.79964 255 255 255
-0.200876  -1.08437   4.29588 255 255 255
0.829321  -1.2626  4.67225 255 255 255
0.889994 -1.16712  3.75767 255 255 255
-0.0141898   -1.24823    4.79001 255 255 255
0.716984 -1.27166  4.11953 255 255 255
1.42913 -1.2633 4.86609 255 255 255
0.733923 -1.25227  4.08908 255 255 255
0.288849 -1.24696  4.81649 255 255 255
0.542082 -1.18401  3.93709 255 255 255
0.666947 -1.29108  4.69674 255 255 255
0.230464 -1.22812  4.70673 255 255 255
0.321188 -1.14003  4.07574 255 255 255
0.809821 -1.24282  4.03015 255 255 255
0.841765 -1.26674    4.738 255 255 255
0.931552 -1.24609  5.16507 255 255 255
 1.22882 -1.27585  4.37655 255 255 255
-0.148716  -1.13014   5.04479 255 255 255
0.0095139  -1.04665   5.19954 255 255 255
0.320693 -1.15744  5.19493 255 255 255
  0.4319 -1.32599  4.39919 255 255 255
0.698048 -1.27696  4.57761 255 255 255
0.192452 -1.21806  4.55445 255 255 255
-0.10896  -1.2064  4.77612 255 255 255
0.442852 -1.32985  4.38773 255 255 255
0.807046 -1.16347  3.82761 255 255 255
-0.115958  -1.10206   4.16525 255 255 255
 1.02239 -1.24114  4.84555 255 255 255
0.417713 -1.18886  4.47835 255 255 255
0.238214 -1.12113  4.12314 255 255 255
 0.93071 -1.23663  4.17025 255 255 255
0.506709 -1.21121  4.25622 255 255 255
 1.08278 -1.24467   4.5993 255 255 255
0.759784 -1.26757  4.85565 255 255 255
0.995222   -1.254  4.27846 255 255 255
0.946859 -1.24552  4.88037 255 255 255
 1.01432 -1.23621  5.02955 255 255 255
0.234067 -1.18192  4.55059 255 255 255
0.239791  -1.1598  5.01802 255 255 255
0.503761  -1.1698  4.12547 255 255 255
 1.00915 -1.25027  4.38583 255 255 255
0.986184 -1.24364   4.6052 255 255 255
0.381768 -1.19498  5.00095 255 255 255
0.316467 -1.15855  5.18607 255 255 255
0.803346 -1.26913  5.13518 255 255 255
 0.20028 -1.14235  4.35386 255 255 255
0.414963 -1.27755  4.21255 255 255 255
0.610919 -1.25083  4.42973 255 255 255
0.618599 -1.24736  4.42834 255 255 255
 1.04612 -1.21906  5.25274 255 255 255
-0.207338  -1.11354   4.39665 255 255 255
0.0317465  -1.13564   4.20047 255 255 255
0.922031 -1.25173  4.59005 255 255 255
0.971393 -1.24145  4.31672 255 255 255
0.409843 -1.14768  4.00684 255 255 255
1.01301 -1.2354 5.09272 255 255 255
 1.03477 -1.23459   5.0969 255 255 255
0.797493 -1.15433  3.75155 255 255 255
0.862886 -1.27104  4.87877 255 255 255
0.656789 -1.17475  3.95197 255 255 255
0.299448 -1.23148  4.85698 255 255 255
0.651259 -1.14756  3.79269 255 255 255
0.664806 -1.14138  3.79034 255 255 255
0.358076 -1.14499  4.06769 255 255 255
0.839965 -1.24677  5.00505 255 255 255
 1.08714 -1.24353  4.97829 255 255 255
 1.23107 -1.25605   4.1806 255 255 255
 0.21366 -1.13342   4.3067 255 255 255
0.295917 -1.25575  4.57146 255 255 255
 1.12677 -1.21595  5.21879 255 255 255
-0.163412  -1.09911   4.23744 255 255 255
 1.23098 -1.26682   4.3098 255 255 255
1.00069 -1.1738 3.67128 255 255 255
-0.0944904  -0.965112    4.02494 255 255 255
0.0367693  -1.12689   4.45787 255 255 255
0.355336 -1.31376  4.59848 255 255 255
-0.111372  -1.18787   4.64455 255 255 255
0.484496 -1.32831  5.21124 255 255 255
-0.106639  -1.13382   4.29052 255 255 255
0.649473  -1.2576  5.12247 255 255 255
-0.123978  -1.18082   4.88044 255 255 255
 1.23542 -1.26198  4.18587 255 255 255
0.932307 -1.21621  3.96088 255 255 255
0.395631 -1.10837  3.86285 255 255 255
0.074197 -1.12015   4.4171 255 255 255
 0.96666 -1.22547  4.13968 255 255 255
0.298509 -1.21619  4.56633 255 255 255
  0.3526 -1.33082  4.87859 255 255 255
 1.09402 -1.22107  3.96919 255 255 255
0.371557 -1.25344  4.25092 255 255 255
-0.183044  -1.01122   4.16861 255 255 255
 1.19622 -1.26832   4.3406 255 255 255
0.965371 -1.24557   4.3446 255 255 255
0.198843 -1.15116  4.88929 255 255 255
 1.05644 -1.25102  4.89539 255 255 255
0.647667 -1.18824  3.98679 255 255 255
0.379156 -1.22156  4.25183 255 255 255
-0.0640404   -1.21505    4.63625 255 255 255
-0.00565484    -1.17049     4.17089 255 255 255
-0.0448333   -1.03884    3.99559 255 255 255
0.841934 -1.18289  3.85878 255 255 255
-0.162254 -0.997629   4.33064 255 255 255
0.0625508  -1.09824   4.37587 255 255 255
  1.1076 -1.24449  4.64763 255 255 255
-0.139492  -1.16772   4.86727 255 255 255
  0.7361 -1.23621  3.97904 255 255 255
0.399871 -1.19125  4.25758 255 255 255
0.462866 -1.22936  4.43627 255 255 255
0.00777247   -1.17962    4.19534 255 255 255
 1.11176 -1.25505  4.85815 255 255 255
0.648857 -1.29126  4.69667 255 255 255
1.35266 -1.2769 4.79271 255 255 255
  1.0197 -1.24273  4.19763 255 255 255
0.401497  -1.1811  4.72066 255 255 255
0.943932 -1.23938  5.17546 255 255 255
0.679987 -1.28527  4.65494 255 255 255
0.970605 -1.23653  5.17498 255 255 255
 1.39151 -1.23825  5.10923 255 255 255
0.861991 -1.18676  3.71839 255 255 255
-0.00094147    -1.17605     4.14215 255 255 255
-0.105144  -1.15662   5.02009 255 255 255
0.322951 -1.22234   4.9203 255 255 255
  1.1391 -1.23445  5.12412 255 255 255
-0.161663  -1.07314   4.20431 255 255 255
0.450099 -1.13082   3.8781 255 255 255
-0.0839987    -1.2209    4.75809 255 255 255
0.586374 -1.22805  5.13358 255 255 255
 1.08586 -1.25061  4.76591 255 255 255
 0.39854 -1.30529  5.20123 255 255 255
  1.3965 -1.26998  4.75023 255 255 255
-0.22269  -1.1375  4.56322 255 255 255
0.249075 -1.20509  4.42888 255 255 255
 1.03595 -1.21483  5.26395 255 255 255
0.249445 -1.11788  4.14143 255 255 255
0.849408 -1.24916  4.91552 255 255 255
0.463972 -1.17759  4.43249 255 255 255
0.918708 -1.25153  4.38907 255 255 255
 0.40529 -1.09745  3.86271 255 255 255
0.684221 -1.24088  4.11534 255 255 255
 1.26076 -1.24488  5.13545 255 255 255
 1.19734 -1.27125  4.72387 255 255 255
0.348028 -1.18345  5.20314 255 255 255
-0.189612  -1.09329   4.28611 255 255 255
0.00252811   -1.21874    4.52257 255 255 255
0.119451 -1.06101  4.03988 255 255 255
0.330289 -1.20589  4.43275 255 255 255
0.0478936  -1.17978   4.16166 255 255 255
-0.125612  -1.08595   4.94346 255 255 255
0.282235 -1.11323  3.83773 255 255 255
0.267874 -1.14849  4.25068 255 255 255
0.658264 -1.27698   4.4101 255 255 255
0.477563 -1.18808  4.11375 255 255 255
0.288737 -1.20054  4.99552 255 255 255
0.0792901  -1.06633   5.20874 255 255 255
0.564357 -1.25063  4.65328 255 255 255
0.110556 -1.05363  3.95169 255 255 255
-0.176577  -1.05753    4.6035 255 255 255
-0.0892691    -1.1587    4.27385 255 255 255
 1.25156 -1.28901  4.58943 255 255 255
0.330503  -1.3027   4.5864 255 255 255
0.617936 -1.25628  5.12984 255 255 255
 0.60132 -1.26297   4.6692 255 255 255
0.327099 -1.07972  3.84286 255 255 255
-0.109416  -1.21252   4.73016 255 255 255
0.249925 -1.06866   3.9278 255 255 255
0.0793768  -1.07851   4.20524 255 255 255
-0.168939  -1.16065   4.66196 255 255 255
-0.138281  -1.15293   4.39549 255 255 255
-0.0583994    -1.1321    4.15196 255 255 255
-0.0913544   -1.20789     4.6254 255 255 255
0.185551 -1.15024  4.40314 255 255 255
-0.159516  -1.14631   4.45088 255 255 255
  1.4405 -1.24023  5.07578 255 255 255
0.279469 -1.18549  5.04743 255 255 255
0.204299 -1.12514  4.06941 255 255 255
1.61015 -1.2117 5.32037 255 255 255
0.972556 -1.24631  4.57733 255 255 255
0.413668  -1.3598   4.8455 255 255 255
0.861008 -1.25514  4.54987 255 255 255
0.328995 -1.22592   5.0521 255 255 255
0.551947 -1.24845  4.63376 255 255 255
0.174228 -1.13594  4.31106 255 255 255
0.245614 -1.19609  4.91278 255 255 255
0.665323 -1.28614  4.70318 255 255 255
-0.000440369      -1.1939      4.17137 255 255 255
0.0497844  -1.09572   4.23026 255 255 255
-0.0741117   -1.00782    3.97426 255 255 255
0.653424 -1.26415  4.43084 255 255 255
 1.16523 -1.19573  3.76256 255 255 255
 1.44604 -1.22374  5.16886 255 255 255
0.104242 -1.05371  4.00627 255 255 255
0.813579 -1.16206   3.6681 255 255 255
-0.211743  -1.09882   4.35602 255 255 255
 1.41554 -1.27138  4.70995 255 255 255
-0.118107  -1.16133   4.98042 255 255 255
0.737191 -1.18283  3.79916 255 255 255
0.283011 -1.17444  4.98018 255 255 255
-0.131322  -1.07262    4.1065 255 255 255
0.0721925  -1.06279   4.20313 255 255 255
-0.172853  -1.17261   4.91964 255 255 255
0.887788 -1.25101  4.45545 255 255 255
0.150174 -1.12634   4.3334 255 255 255
0.998965 -1.16567  3.65567 255 255 255
 0.38757 -1.20765  4.25528 255 255 255
0.213466 -1.15817  4.91269 255 255 255
 0.69876 -1.21663  4.00288 255 255 255
-0.197996  -1.08573   4.29048 255 255 255
-0.174397 -0.999694   4.10762 255 255 255
 1.35848 -1.27287  4.76363 255 255 255
0.282081 -1.21643  5.03842 255 255 255
-0.239379  -1.10859   4.47271 255 255 255
-0.0845745   -1.20005    4.68538 255 255 255
0.237192 -1.08206  4.00475 255 255 255
-0.110342  -1.13685   5.04336 255 255 255
0.815049 -1.26722  5.15313 255 255 255
0.177808 -1.14764  4.40263 255 255 255
-0.0154494   -1.06667    4.06462 255 255 255
-0.127763  -1.18384   4.52933 255 255 255
0.0963708  -1.14301    4.2738 255 255 255
 1.05925 -1.21822  3.84695 255 255 255
 1.09543 -1.25807  4.85062 255 255 255
0.0241615  -1.16524   4.98221 255 255 255
 1.30719 -1.22861  5.22686 255 255 255
0.497047  -1.3014  5.16552 255 255 255
0.721292  -1.2596  4.17557 255 255 255
-0.229961  -1.12852   4.56006 255 255 255
0.271543 -1.11514  4.08765 255 255 255
0.200297 -1.07405  3.93634 255 255 255
 0.38552 -1.18517  4.76264 255 255 255
 1.38305 -1.26602  4.57553 255 255 255
0.376642 -1.12982  3.92723 255 255 255
0.285434 -1.18521  4.28649 255 255 255
0.841827 -1.26023   4.7442 255 255 255
0.291991 -1.26626  4.33615 255 255 255
0.422349 -1.15826  4.27451 255 255 255
0.019348 -1.14374  4.44999 255 255 255
0.402673 -1.31538   5.0723 255 255 255
0.0756647  -1.07612   5.20693 255 255 255
0.308498 -1.14384  4.06441 255 255 255
 1.60248 -1.21566  5.29164 255 255 255
-0.0327754    -1.0704    4.75993 255 255 255
 0.86605 -1.25345  5.08137 255 255 255
0.899215 -1.24384  4.30869 255 255 255
0.0215992  -1.22779   5.02752 255 255 255
0.530043 -1.25029  4.94535 255 255 255
0.873701 -1.15675  3.64673 255 255 255
0.974918 -1.22096  4.05122 255 255 255
0.669322 -1.21394  4.04564 255 255 255
0.326054 -1.19233  5.15695 255 255 255
-0.016841    -1.078   4.06785 255 255 255
 0.68702 -1.28257  4.75022 255 255 255
-0.0368432   -1.20921    4.52965 255 255 255
-0.247469  -1.11293   4.54823 255 255 255
0.738607 -1.13898  3.69664 255 255 255
-0.126877  -1.08951   4.93916 255 255 255
0.685976 -1.28846  4.68838 255 255 255
0.240538 -1.24027  4.60344 255 255 255
 1.61564 -1.22279  5.10793 255 255 255
0.298969 -1.08826  3.92517 255 255 255
1.19193 -1.2036 5.26225 255 255 255
 0.98227 -1.24399  4.27732 255 255 255
