ply
format ascii 1.0
element vertex 1252
property float x
property float y
property float z
property uchar red
property uchar green
property uchar blue
end_header
0.712582 -1.18734  3.96693 102 94 71
0.759492 -1.21481  3.95099 53 56 35
0.273777 -1.13184  4.14129 107 100 92
0.330289 -1.11115  3.92614 88 85 68
0.583535 -1.15542  3.84065 192 193 159
0.648403 -1.20591  4.06146 139 112 85
0.946388 -1.23363  5.04884 80 71 54
0.642279 -1.21867  4.09979 250 252 251
0.693628 -1.21363  4.02422 76 65 43
0.703543 -1.22258    4.037 75 64 36
 1.01316 -1.19769   3.8996 64 53 35
0.375171 -1.13954  3.96405 212 206 190
0.866106 -1.17098   3.8377 102 90 66
0.656394 -1.27899  4.94581 80 69 51
0.745793 -1.19551  3.93384 47 41 7
0.739699 -1.19226  3.94232 113 89 63
0.678629 -1.25487  4.23763 47 36 14
0.508661 -1.18615  3.98433 219 217 202
0.707256 -1.21982  4.01456 188 186 165
0.552316 -1.25145  4.65866 100 90 65
0.653337 -1.21867  4.10597 186 188 185
0.689996 -1.25021  4.21877 84 75 58
0.724788 -1.19374  3.95875 97 81 56
0.770173  -1.2598  5.17575 224 197 170
 1.01394 -1.23201  4.08053 53 52 31
  1.1458 -1.24191  5.10358 193 194 178
 1.08405 -1.22529  4.15913 85 73 61
1.24734 -1.2668 4.86617 60 50 41
0.771122 -1.21382   3.9391 41 44 17
0.755127 -1.17764  3.92584 136 112 86
0.952988 -1.24843  4.75955 124 103 76
 1.07202 -1.23891   4.9094 35 29 17
 1.32036 -1.22807   5.1577 93 89 77
 0.55237 -1.23937  4.47078 44 42 30
0.295643 -1.19342  4.36324 48 39 32
0.249513 -1.18396  4.48334 160 160 160
0.442191 -1.32099  4.33507 45 53 64
0.651317 -1.27412  4.95156 191 174 148
0.399234 -1.14061  3.93598 182 170 146
0.622217 -1.26292  4.44473 229 191 155
0.853481 -1.24218  4.99715 100 89 69
0.573081 -1.15454  3.83387 65 50 31
0.750657 -1.22048  3.96622 212 203 186
0.892304 -1.23638  5.08199 72 71 43
0.273447  -1.1607   4.2349 253 254 255
   1.296 -1.23614   5.1003 189 173 157
0.529173 -1.23667  4.97014 125 107 97
0.767421 -1.25448  5.12101 78 73 53
0.674139 -1.20165   4.0167 97 83 54
0.560771 -1.24091  4.47038 99 90 73
0.765534 -1.25753  5.17272 140 116 88
0.992135    -1.25   4.6441 64 52 38
0.885311 -1.24847   4.1292 47 56 39
  0.2282 -1.19243  4.65238 203 205 200
 0.87986 -1.24102  5.04458 180 162 140
0.698191 -1.21821  4.02469 72 66 40
0.267243 -1.16078  4.28263 35 38 45
0.410695  -1.1643  4.07114 190 175 152
 1.09924 -1.21943  5.07637 184 178 162
0.375918 -1.31579  4.33574 54 59 62
1.31755 -1.2284  5.1664 105 97 84
0.668209 -1.28124   4.4799 70 63 34
 1.09391 -1.22677  4.97038 70 63 53
0.722926 -1.21914   3.9992 215 209 187
0.266784 -1.15946  4.25344 15 12 19
0.315137 -1.31525  4.86272 94 101 107
0.678309  -1.2693  5.08823 210 187 153
 1.21233 -1.26167  4.67723 209 189 165
0.662269 -1.27144  5.00695 96 82 55
0.698593 -1.26221  4.98753 192 181 163
 1.07887 -1.26247  4.51229 65 67 46
0.846577 -1.24903   5.1533 90 89 59
   1.006 -1.21571  3.98834 36 25 5
 1.10907 -1.22505  4.99884 85 79 65
0.568829 -1.24243  4.94203 165 151 116
0.659896 -1.28681  4.88174 115 94 63
0.885446 -1.23619  5.05758 146 135 113
0.900785 -1.23615  5.07638 79 70 53
0.731851 -1.22463  3.98963 36 31 9
0.857801  -1.1751  3.84489 216 204 180
 1.11069 -1.22064  5.00253 195 186 171
0.830206 -1.24886  4.95482 72 61 41
0.731338 -1.18868  3.94881 208 187 166
0.871085 -1.23643  5.03363 135 124 96
0.842234 -1.24851  4.91148 153 138 115
0.646638 -1.27068  4.96538 101 78 46
0.129476  1.12437  1.51557 208 219 225
0.13792 1.06249 1.58316 233 237 236
0.166178  1.08562  1.54804 195 197 194
0.122992  1.14605  1.58933 5 5 7
0.138711  1.10338  1.57115 226 230 229
0.208673  1.02034  1.60754 60 62 61
0.170797  1.05053  1.57436 177 161 146
0.198863  1.15882  1.52008 243 247 246
0.149358  1.08423  1.59302 199 192 176
0.184279  1.13844  1.44907 199 186 169
0.139989   1.0927  1.59413 192 194 183
0.158766  1.08913  1.55289 19 19 19
0.144266  1.05228  1.58592 25 21 18
0.138432  1.05639  1.60631 9 9 9
0.154597  1.15811  1.67184 221 217 208
0.196283  1.02265  1.60615 183 168 145
0.157299  1.17422  1.68943 90 102 62
0.147526  1.16377   1.6574 77 92 51
0.172452  1.05749  1.45095 67 82 51
0.146601  1.11718  1.57287 200 201 195
0.180069  1.05362  1.58683 193 177 162
0.120252  1.06965  1.45368 45 53 38
0.26914 1.01069 1.59978 159 181 195
0.125889  1.11262  1.58431 225 230 226
0.197935  1.04304  1.59816 166 153 144
0.176161  1.03717  1.59261 55 67 65
0.119503  1.09137  1.61323 86 81 78
0.13367 1.13223 1.59729 222 222 214
0.124697  1.12297  1.59991 228 230 227
0.166175  1.06996  1.60927 200 193 185
0.124913  1.09946   1.6072 233 229 226
0.395529  1.15523  1.59238 47 57 56
0.119766  1.11351  1.60862 228 226 229
0.395526  1.15112  1.59962 14 12 17
0.136985  1.05559  1.58198 229 229 227
0.231396  1.10065  1.54858 182 130 119
0.188888  1.15027  1.52118 244 246 243
0.156008  1.15917  1.66867 220 215 211
0.12145 1.08268 1.60015 219 218 214
0.129335  1.06005  1.45031 6 11 4
0.146507  1.18004   1.7075 217 214 205
0.201907  1.04378  1.59608 51 51 51
0.159934  1.11897  1.43694 63 75 39
0.201378  1.01597  1.62426 189 173 148
0.202946   1.0221  1.60241 19 13 15
0.399293  1.14679  1.58653 13 14 9
0.118346  1.09278   1.6104 92 87 83
0.135743  1.13358  1.52026 249 253 254
0.133036   1.1291  1.57302 121 109 93
0.409527   1.1446  1.58824 12 12 10
0.126707  1.06268  1.45516 70 87 43
0.161085  1.06544  1.44363 8 22 0
0.139782  1.13877  1.51423 16 25 30
0.136831  1.14005  1.51652 40 48 61
0.152238  1.16139  1.66575 60 65 33
0.185627  1.14731  1.51974 211 212 207
0.124167   1.1203  1.59465 161 164 169
0.118074  1.09012  1.61742 118 110 107
0.165921  1.05201  1.44776 58 74 35
0.213299  1.13008  1.51394 50 58 71
0.160934  1.06449  1.55301 161 160 166
0.12829 1.12458 1.58613 163 168 164
0.117941  1.10644  1.60016 234 228 230
0.133318  1.12371   1.5827 225 227 216
0.136608  1.13355   1.5267 164 178 187
0.156066  1.15349  1.66835 217 213 202
0.140453  1.09638  1.56778 44 45 49
0.248095  1.01681  1.58404 131 141 142
0.143861  1.18565  1.71069 52 52 50
0.407758  1.14135   1.5906 32 20 20
0.20821 1.01825 1.58775 237 242 246
0.192162  1.09557   1.4526 45 56 24
0.170617  1.07827  1.55011 33 43 55
0.139367  1.14214  1.52662 221 230 235
0.219718  1.12633  1.45079 48 61 31
0.19064 1.05133 1.59442 53 44 39
0.137529   1.1129   1.5735 215 216 211
0.152321  1.07763  1.61273 129 118 112
0.187698  1.09877  1.44984 87 101 48
0.209253  1.01009  1.61933 14 16 15
0.162189  1.07286  1.59202 42 37 41
0.170094  1.05142  1.44886 8 16 5
0.122456  1.10934  1.59338 174 175 170
0.121262  1.10158  1.60766 117 109 107
0.208179  1.13448  1.51729 252 253 255
0.169891  1.05124  1.44501 46 61 22
0.159301  1.06667  1.55255 67 68 73
0.402422  1.14958  1.59519 36 37 32
0.132213  1.10296  1.58651 231 232 234
0.119638   1.1109  1.60179 159 165 163
0.127994  1.09635  1.68467 176 176 174
0.148158  1.17863  1.68976 73 77 63
0.119369  1.06902  1.46483 90 110 51
0.187876  1.10882  1.51118 46 51 70
0.121644  1.17216  1.57153 22 21 26
0.230904  1.14151  1.51867 53 53 63
0.162248  1.07014  1.55166 53 56 63
0.158838  1.08589  1.43489 14 22 7
0.168899  1.05511  1.45125 86 96 62
0.203118  1.02514  1.58833 215 216 221
0.251465   1.1175  1.45801 47 50 31
0.197008  1.04684  1.59708 38 34 35
0.380155  1.15714  1.58275 106 115 122
0.149691  1.04921  1.56511 35 39 42
0.269895  1.00489  1.60155 18 19 21
0.405571  1.15324  1.59493 38 40 35
0.130631  1.06106  1.45455 94 113 57
0.161499  1.08797  1.51512 187 166 161
0.186595  1.15412  1.52152 250 251 253
0.17929 1.04546 1.43896 67 80 50
0.165643  1.06864  1.61053 237 228 221
0.139558  1.11922  1.52875 204 218 221
0.131759  1.12904  1.59724 78 72 74
0.41404 1.13952 1.58688 199 192 176
0.123162  1.10397  1.60697 136 131 128
0.134625  1.10795  1.58243 229 230 225
0.17056 1.09494  1.5093 56 62 78
0.137685  1.09493   1.5688 225 226 230
0.254356  1.08666  1.58135 17 17 9
0.238096  1.14677   1.5205 49 55 69
0.166056  1.13742   1.5123 234 235 237
0.140977  1.10915  1.57012 233 229 226
0.163906  1.04765   1.4408 74 90 53
0.156275  1.16034  1.51485 180 194 207
0.160463  1.08766  1.44841 76 89 46
0.126496  1.09098  1.66779 157 157 147
0.204327  1.01767   1.6185 186 174 160
0.203665  1.04072  1.59748 165 157 144
0.202305  1.04267   1.5961 48 44 45
0.162485  1.12199  1.51802 204 208 209
0.157432  1.06719  1.54589 122 125 132
0.20018 1.01392 1.62326 47 40 32
0.199017  1.01306  1.63234 200 184 161
0.112277  1.15948  1.57301 179 190 192
0.143099  1.11705  1.58257 221 202 196
0.157736  1.08518  1.43698 98 117 71
0.407012  1.14109  1.58515 146 134 118
0.155574  1.15572  1.66939 72 70 71
0.117442  1.10889  1.59567 207 206 211
0.21073 1.02929 1.59832 180 167 150
  0.142 1.04646 1.58163 207 208 213
0.138568  1.12264   1.5237 202 215 221
0.118443  1.06225  1.45752 66 84 36
0.148146  1.05191  1.45653 98 113 70
0.133686   1.0713  1.64418 209 212 205
0.192726  1.15186  1.51436 235 238 243
0.23781 1.01395 1.60137 109 84 64
0.230688  1.09992  1.54915 173 125 113
0.165908  1.13582   1.5185 241 247 247
0.120119  1.06636  1.45766 87 99 53
0.146418  1.10361  1.52454 217 208 199
0.149465  1.15752  1.67251 63 42 49
0.226631  1.14151  1.51098 213 215 214
0.422042  1.14124  1.58454 187 174 157
0.134851  1.05307  1.45681 89 105 56
0.119991  1.10949  1.59672 176 176 176
0.364789  1.16198  1.58397 30 33 38
0.13531 1.10985 1.52193 216 197 191
0.136795  1.11165  1.52783 204 186 176
0.24806 1.15687 1.50824 245 239 239
0.204012  1.01706  1.58937 193 199 213
0.220889  1.16022   1.5239 250 254 253
0.236585  1.14775  1.50629 234 238 241
0.144804  1.13416  1.51709 228 229 233
0.200751  1.06072  1.58754 50 55 61
0.141799  1.13339  1.65103 185 183 170
0.114645  1.10323  1.61711 216 215 211
0.201437  1.02452  1.59002 44 53 58
0.129045  1.14137  1.59413 172 158 149
0.136256  1.13175  1.59699 140 126 115
0.162273  1.07931  1.59746 170 161 152
0.199025  1.04466  1.59527 43 39 38
0.136014  1.12322  1.56705 156 137 130
0.178792  1.03968  1.59375 3 8 14
0.128472  1.08006  1.60789 11 8 15
0.250413  1.08742  1.57078 58 65 24
0.136921  1.12661   1.5881 160 150 140
0.139721  1.12722  1.58488 46 38 36
0.125457  1.10138  1.60693 163 158 152
0.157133  1.14865  1.65466 4 1 8
0.205464   1.0156  1.59366 15 18 27
0.20204 1.02788 1.59237 14 9 6
0.202188  1.02355  1.58874 237 241 240
0.226317  1.01651  1.59479 154 140 129
0.194724  1.04822  1.59913 173 163 154
0.207476  1.01529  1.60534 11 12 14
0.128843   1.0926  1.67199 118 66 78
0.207943  1.02381  1.60682 104 96 93
0.230884  1.01787  1.59728 157 149 138
0.203603  1.02327  1.61224 239 227 213
0.220148  1.00432  1.61808 13 13 15
0.214779  1.00999  1.61519 87 87 87
0.205767  1.02108  1.61031 181 133 133
0.375981   1.1584  1.56455 55 61 59
0.192649  1.04733  1.59373 164 155 148
-0.862098   1.63012   3.32312 72 81 62
-0.832801   1.49231   3.33062 218 195 164
-0.759151   1.42941   3.15251 166 149 119
-0.939504   1.25632   3.37972 1 12 0
-0.797347   1.82815     3.336 145 147 146
-0.936468  0.829479   3.41377 36 46 11
-0.773097   1.34965   3.16075 229 208 179
-0.884494    1.4882   3.52053 195 158 129
-0.890238   1.32097   3.43653 232 220 206
-0.910322  0.608365   3.45064 11 13 10
-1.00851 0.414652  3.66897 221 230 227
-0.86441  1.72884  3.31347 185 185 183
-0.668517   1.85093   2.93096 75 74 53
-0.792343   1.19186   3.13429 232 228 219
-1.01569 0.994153  3.56294 139 143 155
-0.87079  1.58993  3.44046 27 22 16
-0.776591   1.47527   3.16961 194 175 135
-0.983885   1.16638   3.45391 2 13 0
-1.01191 0.976523  3.49778 61 75 39
-0.808448   1.49226   3.28719 230 207 173
-0.717033   1.52108   3.03895 217 200 170
-0.759468   1.50745   3.13809 55 55 27
-0.745547   1.81255   3.14083 177 148 142
-0.89552  1.31087  3.37255 248 223 201
-1.01198 0.995654  3.52306 182 183 177
-0.759474   1.28372   3.13934 226 212 186
-0.628011   1.84396   2.85525 68 79 39
-0.70622  1.83809  3.11424 130 132 129
-0.697043   1.38678   2.99894 221 204 174
-0.704188   1.77945   2.97039 181 152 148
-0.676124   1.94805   2.98261 122 130 141
-0.75383  1.69742  3.02597 175 174 170
-0.660929   1.77458   2.89423 195 166 162
-0.83352 0.845688  3.24078 238 235 228
-0.665491   1.82084   2.93124 202 179 161
-0.789413   1.28932   3.19668 230 206 178
-0.852857   1.37247   3.36272 231 206 175
-0.959019  0.885483   3.41742 232 229 212
-0.788563   1.42297   3.18242 102 90 64
-0.781888   1.79613   3.18225 148 152 155
-0.859945  0.717792   3.31713 97 100 93
-0.983747  0.940839   3.46551 207 208 210
-0.818939   1.36174   3.27606 231 205 178
-0.769281   1.52562   3.18727 97 79 59
-0.915465  0.652543   3.34246 90 100 65
-0.776586   1.16984   3.06945 19 21 10
-0.762923   1.38233   3.15358 229 204 174
-0.932727   1.28303   3.57905 205 159 136
-1.07944  1.00594  3.69205 125 132 142
-0.990182  0.958622   3.45801 48 60 36
-0.859516   1.68901   3.16252 58 76 38
-0.748597   1.72941   3.09412 8 6 0
-0.786835   1.41364   3.12142 58 64 28
-1.03314 0.986657  3.55377 134 136 148
-0.777066   1.52645   3.20879 194 164 140
-0.986902   1.09057   3.47665 61 77 48
-0.648448   1.79982   2.87891 54 53 23
-0.789124   1.42293   3.15924 200 172 148
-0.650026   1.95655     2.871 183 175 172
-1.09464 0.917344  3.71774 80 81 86
-0.89526  1.45895  3.50779 227 192 160
-0.824317   1.93404    3.3655 183 183 183
-0.999878  0.832193     3.526 205 204 202
-0.76032  1.73714  3.12986 55 56 42
-1.0165 1.03063 3.53177 164 168 179
-0.84156  1.61843  3.08386 14 22 9
-0.795202   1.55356   3.25959 117 107 80
-1.02839 0.477891  3.69817 210 212 211
-0.820628   1.55428   3.32396 213 190 158
-0.860132   1.40242   3.39374 221 201 168
-1.09797 0.897506  3.73578 250 250 250
-0.87479  1.78929  3.48707 27 20 10
-0.838073   1.53533   3.38572 217 194 163
-0.803355   1.91725   3.30633 26 30 41
-0.737446   1.46863   3.07594 233 209 173
-0.94824  0.46201  3.51798 91 111 42
-0.875647  0.767659   3.30719 77 75 60
-0.802636    1.4205   3.22637 189 163 130
-0.902751   1.11735    3.1714 41 61 26
-0.715926   1.71747   3.00133 60 62 38
-0.739975   1.54259   3.06243 65 66 34
-0.756612   1.18938   3.05958 227 218 209
-0.759742   1.53007   3.14727 178 159 129
-0.976994  0.350764    3.6244 61 66 69
-1.05402  1.02901  3.61183 210 211 213
-0.810832   1.94127   3.43881 34 36 48
-0.750332   1.21234    3.0874 174 137 118
-0.685816   1.52237   2.94481 65 60 30
-0.817715   1.52023   3.32532 221 200 171
-0.902481   1.50281   3.53271 47 29 15
-0.690218    1.8763   3.07215 77 62 55
-0.772667   1.51393   3.17296 186 172 137
-0.655628   1.82359   2.89233 237 214 198
-0.795427   1.39163   3.22164 201 178 144
-0.691424   1.82878   3.00483 244 254 255
-0.911275   1.51771   3.56088 162 116 93
-0.622887   1.88035   2.84722 79 83 58
-0.672707   1.87549   2.95042 47 51 34
-0.828805  0.916599   3.21755 237 234 227
-0.84291 0.796799  3.28225 243 234 227
-0.878363   1.64632   3.34695 13 18 12
-0.675025   1.80995   2.98826 38 46 49
-0.92074  1.22205  3.57083 153 146 118
-0.795608   1.33024   3.22757 209 174 136
-1.10996 0.874119   3.7457 223 222 227
-1.00191 0.395121  3.66076 229 228 224
-0.719356    1.8913   3.15261 18 26 37
-0.835001   1.31287   3.30655 114 92 71
-0.844065  0.817342   3.27945 241 234 226
-1.01047  1.19048  3.51722 86 104 54
-0.924722   1.10133   3.14634 226 227 231
-0.706705   1.71315   2.97814 48 52 35
-0.930287    1.5481   3.61554 136 111 81
-0.827608   1.39577   3.32407 223 201 177
-0.891795   1.40636   3.49087 240 221 204
-1.06667  0.83672  3.68064 241 245 246
-0.770608   1.38261   3.17578 219 194 164
-0.840674   0.79322   3.26132 242 233 226
-0.73809  1.20566  3.03027 231 227 215
-0.765515    1.5714   3.17014 55 50 30
-0.685043    1.3454   2.96903 230 210 183
-0.831675  0.812284   3.25572 233 229 220
-0.847703   1.34282   3.34709 228 203 173
-0.803498   1.56171   3.27524 177 164 130
-0.87684  1.62813  3.20093 13 18 11
-0.847324   0.80076   3.30332 241 232 225
-0.652047   1.81563   2.87241 187 159 135
-0.726119   1.51285   3.06709 72 65 36
-0.795436   1.48151   3.25505 222 205 175
-0.77963  1.44082   3.1695 64 61 30
-0.684716   1.82844   3.01961 20 20 30
-0.75925  1.48787  3.13523 68 63 23
-0.662203   1.82932   2.90642 63 52 34
-0.843323   1.96753   3.47416 241 245 254
-1.00431 0.960349  3.48275 98 106 85
-0.889153   1.33338   3.44094 246 245 241
-0.622509   1.86789   2.84457 69 63 41
-0.818212   0.86668   3.18666 225 225 217
-0.86983  1.36854  3.41377 119 92 73
-0.829545    1.5492    3.3658 216 192 164
-0.834236  0.919432   3.24078 232 229 222
-0.695223   1.85736   3.07948 78 64 61
-0.737211   1.88212   3.17065 226 235 240
-0.657622   1.87495   2.92879 52 55 38
-0.802359   1.97686   3.37084 235 247 255
-0.912219   1.53945   3.61544 225 199 172
-0.772814   1.56433   3.18189 190 181 152
-0.730633   1.86843   3.14503 251 255 255
-0.696573   1.49312   3.00343 215 193 156
-1.04073 0.405751  3.75955 241 246 252
-0.82455  1.50308   3.3258 197 169 132
-0.741871   1.88889   3.12774 247 248 253
-0.73902  1.22376  3.07726 234 210 186
-0.732033   1.49973   3.07516 65 54 26
-0.82722  1.36289  3.30113 234 209 178
-0.825659   1.54833   3.34121 88 80 44
-0.827796   1.20902   3.21507 194 179 172
-0.779474   1.49049   3.20238 210 196 161
-0.738332   1.29775   3.07882 214 187 158
-0.805027   1.35107   3.24585 213 182 153
-0.870277   1.78023   3.48112 212 207 201
-0.826408  0.896528   3.21836 237 234 229
-0.688086   1.44904   2.98362 225 197 160
-0.806411   1.99144   3.45925 236 240 249
-0.998091   1.67666    3.5024 114 130 59
-0.630849   1.86431   2.86616 81 75 51
-0.676808   1.83369   2.93174 61 58 39
-0.754104   1.53434    3.1323 66 57 28
-0.788916   1.51505   3.24933 226 198 159
-0.956163  0.554294   3.73358 16 30 7
-0.788193   1.88041   3.23418 246 251 255
-0.689153    1.4033   2.97848 224 200 172
-0.72141  1.35436  3.04191 227 205 181
-0.811012   1.33844   3.26271 244 224 200
-0.835428  0.774679   3.25756 225 212 206
-0.818317  0.899258    3.1827 67 64 57
-0.658553   1.45688   2.93134 218 192 155
-0.844998   1.95213   3.47693 27 30 37
-0.700123   1.51236   3.01611 215 191 163
-0.876736   1.36984   3.42758 210 186 158
-0.832657  0.766847   3.24837 71 68 63
-0.750393   1.19318   3.04472 101 96 66
-0.872714   1.39194    3.4307 219 185 148
-0.799262    1.1671   3.14694 63 52 58
-0.756677   1.89414   3.21682 247 255 249
-0.803255   1.19181   3.15916 189 163 146
-0.633867   1.81424   2.85826 57 57 33
-0.867162  0.970198     3.256 77 87 63
-0.683585   1.89427   3.07538 177 133 106
-1.00407 0.854495  3.51243 61 60 68
-0.877214   1.41565   3.43822 227 190 161
-0.710145   1.85958   3.10247 242 243 248
-0.790237   1.34239   3.21087 173 137 103
-1.00565 0.906797  3.50788 211 209 214
-0.853863   1.91685   3.45932 25 24 40
-0.979551   1.12324   3.41009 9 26 8
-0.850186   1.15837   3.22268 214 206 187
-0.792206   1.43133   3.19624 214 190 164
-0.859002    1.3355   3.37082 203 183 150
-0.765974    1.4446   3.13929 176 152 116
-0.74119   1.5435  3.10452 191 179 153
-0.950374  0.448178   3.51896 27 42 3
-0.859954   1.64023   3.06673 57 77 24
-0.65052   1.9006  2.91472 79 63 29
-1.10277  1.36446   3.6104 46 52 64
-0.897004   1.40011   3.49887 174 138 112
-0.803332   1.38986   3.24538 227 210 182
-0.779571   1.39408   3.18988 221 195 162
-0.845202   1.38892   3.34138 219 195 159
-0.726156   1.22136   3.02454 165 146 114
-0.705144   1.50498   3.02468 219 199 164
-0.742369   1.56945   3.06305 35 26 19
-0.791543   0.40146   3.29039 8 11 0
-0.729208   1.51732   3.07906 193 174 142
-0.753057   1.96719   3.33511 5 12 22
-0.777015   1.48019   3.18253 198 188 139
-0.831788   1.53837   3.35783 107 87 63
-0.798694   1.34922   3.22174 211 173 137
-0.767883   1.35076    3.1562 226 207 177
-0.773662   1.22054   3.13389 136 105 85
-1.00546  1.20116  3.50766 20 33 7
-0.859101   1.78806   3.45304 21 18 3
-0.796214   1.36718   3.23555 225 205 170
-0.819637  0.879952   3.18848 78 78 70
-0.893238   1.42477   3.51013 212 200 188
-0.863542   1.54185    3.4472 174 130 101
-0.900626   1.37259   3.48897 175 135 100
-0.905137   1.50614   3.52171 208 202 178
-0.805654   1.38045   3.24615 212 192 168
-0.840236   1.84792   3.44835 135 134 132
-0.8358 1.63774 3.07065 17 32 1
-0.872611   1.35523   3.42164 214 188 163
-0.960316  0.436794   3.50847 25 40 1
-0.665889   1.43981   2.93743 221 192 162
-1.03547 0.401542  3.73372 200 197 192
-0.768042   1.91859   3.28194 62 66 75
-0.893961   1.39444    3.4748 205 178 149
-0.661845   1.90977   2.94854 65 57 38
-0.724748   1.87814   3.11884 235 243 254
-1.04465 0.874198  3.57146 131 131 139
-0.933743   1.10858   3.21629 100 111 113
-0.859922   1.80885   3.46621 223 223 225
-0.6874 1.53418 2.94865 220 207 191
-0.826527   1.16392   3.20845 129 120 113
-0.903519   1.63126   3.37935 1 8 1
-0.773874   1.36455   3.14977 231 202 172
-0.764526   1.42572   3.12505 211 190 159
-0.702595   1.97031   2.98765 172 138 113
-0.876141   1.61605   3.38766 8 22 0
-0.892386   1.43797    3.4782 223 192 163
-0.815444   1.53912   3.32252 210 184 157
-0.752329   1.43814   3.10313 83 65 25
-0.791475   1.37515      3.22 186 166 133
-0.83089 0.765571   3.2357 118 114 103
-0.790163   1.49171   3.23596 224 205 172
-0.94442 0.708419  3.28577 54 47 55
-0.805215  0.232491   3.44033 21 11 10
-0.783245   1.47851   3.20618 95 88 44
-0.66431  1.80263   2.9196 110 93 67
-1.08428  1.07146  3.71875 206 209 214
-0.84523   1.7819  3.39827 43 45 34
-1.07388 0.810168  3.67343 206 206 208
-0.728839   1.48296   3.06694 58 37 8
-0.777548   1.41077   3.19749 190 158 133
-0.799313   1.31096   3.23697 223 190 159
-0.954141   1.59256   3.56697 236 215 196
-0.860779   1.57174   3.42038 213 202 180
-0.854223    1.0931   3.30245 60 61 56
-0.834559   1.38392   3.31915 106 82 48
-0.762286   1.53154    3.1542 218 198 165
-0.921351   1.54011   3.54119 246 223 205
-0.899281   1.51689   3.51905 227 205 184
-0.650255   1.86695   2.91057 58 51 35
-0.806371   1.95733   3.47774 214 212 213
-0.897486    1.4256   3.34566 223 224 216
-0.848354   1.39874   3.36587 105 85 58
-0.76189  1.40032  3.13352 190 164 137
-0.903358   1.38883   3.49786 206 161 132
-0.911677   1.57413   3.53119 255 233 224
-0.85631  1.77792  3.42458 43 39 28
-0.794757   1.97484   3.35032 231 235 244
-0.785791   1.89817   3.32005 240 243 252
-0.712375    1.4763   3.03283 215 195 158
-0.834254   1.16945   3.23289 141 138 129
-0.948085  0.432523   3.54762 83 95 55
-0.891998   1.42611   3.41532 156 141 134
-0.886173   1.34664   3.44988 103 80 64
-0.837574   1.37549   3.31764 237 211 174
-0.756806   1.92631   3.28302 233 233 235
-0.792935     1.435   3.22859 87 68 35
-0.780459   1.42993    3.1666 141 130 102
-0.636713   1.87811   3.44012 202 200 203
-0.855564  0.933866   3.28725 238 228 226
-0.657364   1.86429   2.98944 129 131 130
-0.718887   1.87059   3.11938 68 76 95
-1.06122 0.809111  3.68003 198 198 200
-0.781453   1.49941   3.21349 144 123 92
-0.815033   1.15682   3.18808 198 194 191
-0.904045   1.55428   3.55337 230 208 185
-1.0729 1.03334 3.65755 192 193 195
-0.973004  0.351423   3.63341 207 211 212
-0.704233   1.93542   3.19244 226 225 223
-0.627163   1.88174    2.8608 221 213 200
-0.852422   1.52819   3.40197 223 196 169
-0.648867   1.77153   2.86561 149 149 147
-0.788937   1.45171   3.19369 202 178 150
-0.849173   1.34611   3.35643 221 194 167
-0.68047  1.83246  2.95438 227 211 198
-0.909972   1.13056   3.19421 59 74 45
-0.782356   1.42539    3.1735 90 84 58
-0.648564   1.90229   2.98476 150 152 151
-0.933026   1.30263   3.54762 17 26 31
-0.721677    1.4452   3.05268 207 185 148
-0.87358  1.46443  3.42855 83 77 77
-0.653872   1.91397   2.93321 90 60 34
-0.81548 0.245974  3.44901 75 62 54
-0.712229   1.51467   3.03694 214 200 165
-0.797038  0.413035    3.3071 72 90 48
-0.771434   1.36297   3.16278 236 210 187
-0.723782   1.71429   3.02728 46 44 29
-0.68321  1.43667  2.97423 219 184 146
-0.677311   1.49457   2.95785 194 169 139
-0.6849 1.75348 2.94424 150 153 160
-0.672615   1.81555   2.92865 244 225 208
-0.872225   1.46963    3.4309 87 68 61
-0.670402   1.45522   2.95662 211 184 154
-0.870089  0.547014   3.34501 22 37 8
-0.796027   1.45212   3.21835 76 55 38
-0.734355   1.22073   3.05893 212 184 163
-0.795509   1.27966   3.20958 221 192 162
-0.793926   1.74684   3.21777 102 98 86
-0.960635   0.78715   3.62655 217 217 219
-0.843995   1.49325    3.3549 169 155 129
-0.919201   1.64563   3.25038 22 36 10
-0.788301   1.74883   3.20972 145 139 125
-0.753593   1.72702   3.10578 33 29 18
-0.74823  1.80581  3.14126 237 218 212
-0.733585   1.41635   3.06267 112 94 58
-0.732164   1.86683   3.18162 198 201 206
-0.948043   1.07151   3.27316 35 43 22
-0.661249   1.88711   2.93116 133 100 67
-0.877422   1.33751   3.43057 173 164 147
-0.753689   1.55784   3.14679 83 74 45
-0.665149    1.8247   2.91824 238 226 212
-0.834185   1.77136   3.37673 52 45 35
-0.776314    1.5237   3.21988 203 174 144
-0.828444   1.76947     3.322 17 22 15
-0.761624   1.35641    3.1403 228 202 169
-0.702319   1.93917   3.20425 207 208 202
-0.79447  1.17377  3.13849 218 213 210
-0.86129  1.48506  3.40743 194 182 168
-0.909596   1.34996   3.49967 163 133 105
-0.872417   1.38641   3.41608 224 192 154
-0.702471   1.94244   3.20004 48 48 48
-0.768542   1.29809   3.16864 225 200 178
-0.797247  0.409192   3.29754 211 217 191
-0.998344  0.420202    3.6339 203 201 204
-0.992187  0.433697   3.60608 64 65 67
-0.89751  1.64256  3.20385 10 20 0
-0.847809   1.77466   3.42697 220 215 209
-0.748392   1.36213   3.10723 227 206 179
-0.881462   1.45642   3.41586 60 52 50
-0.824834   1.48716   3.32265 227 208 178
0.36057 0.90537 1.58143 254 254 254
0.413194 0.973034  1.45288 199 201 196
0.791554  1.10199  1.41137 175 163 163
0.814204  1.18829  1.22694 62 65 58
0.77868 1.05219 1.39861 202 198 195
0.735089   0.7247   1.4621 224 221 214
0.766019  0.83232  1.44147 205 190 167
0.827117 0.967656  1.41953 45 41 30
0.615474    1.338  1.51109 199 169 141
0.839003  1.12523  1.34074 86 93 62
0.373751 0.989001  1.56057 12 20 23
0.834287 0.858153  1.42385 7 11 10
 0.54434 0.597437  1.55434 211 207 195
0.825504  1.23393   1.4222 30 33 26
 0.79233 0.785648   1.4377 196 178 158
0.381495 0.980747  1.54451 219 221 210
0.455178 0.825311  1.54998 154 153 148
0.795007  1.06791  1.38379 111 103 90
0.609835  1.25344  1.51017 214 215 209
0.408962  1.04576  1.54995 89 120 60
0.469718 0.617704  1.59284 51 54 23
0.767478  1.13962  1.43281 186 172 159
0.408046 0.997652  1.46156 15 19 31
0.733326  1.02199  1.43434 48 58 33
0.808261  1.15863   1.3981 29 20 11
  0.4098 0.706646  1.63994 167 154 148
0.793308  1.22791   1.4373 31 40 35
0.785126  1.27619  1.45162 187 168 138
0.808997  1.08694  1.37022 233 221 209
0.482596  0.60084   1.5905 182 174 171
0.820842  1.22075  1.42331 30 33 16
0.822822 0.924732  1.42357 10 12 9
 0.76626 0.893184   1.4302 53 49 48
 0.43362 0.954556  1.44679 190 196 192
0.788309  1.23828  1.45122 171 141 117
0.418362 0.891738  1.54365 142 146 149
0.774518  1.07623  1.41131 37 49 25
0.610896 0.669277   1.5154 210 197 180
0.859211  1.22417   1.4256 151 148 141
0.826714  1.14131  1.37038 209 185 161
0.856923  1.24223  1.37191 82 80 67
0.463794  0.66379   1.5798 178 166 142
0.427602 0.703042  1.59391 192 188 176
0.479911 0.661317  1.57199 49 56 40
0.726788 0.746251  1.46457 224 224 216
0.608401  1.35432  1.51597 214 192 168
0.554293 0.615665  1.54022 31 34 27
0.761077   1.0159  1.41305 85 86 91
0.812571 0.655626  1.46311 43 46 53
0.628412  1.33828  1.49948 37 28 29
0.394825  1.00823  1.52994 102 102 100
0.427695 0.635539  1.60825 179 164 157
0.75911 1.10769 1.43027 64 67 50
0.798077 0.706465  1.49582 240 242 237
0.821551 0.780383  1.43547 25 25 23
0.517392 0.639925  1.55198 42 45 24
 0.37446 0.954024  1.54347 236 240 241
0.817934  1.12981  1.37539 74 74 62
0.412702  0.94385  1.44044 84 93 102
0.500366 0.622153  1.56238 59 60 52
 0.43751 0.915652  1.46894 47 50 55
0.774703  0.78651  1.44879 51 46 26
0.377233 0.950535  1.49121 205 210 206
 0.30627 0.652602  1.71179 203 161 123
0.835578  0.93716  1.41632 131 114 104
 0.78665 0.732388  1.44817 45 46 30
0.776043 0.802545  1.44335 207 199 178
0.837669 0.882517  1.42085 171 168 153
 0.41572 0.728418  1.63679 191 182 167
0.313962 0.869435  1.59816 201 198 191
0.811838  1.12981  1.19336 16 17 9
0.835275  1.00088  1.32273 118 109 94
0.733401  1.00206  1.44645 61 66 43
0.851409  1.19272  1.41737 36 33 26
0.378718 0.705186  1.64985 213 204 197
0.791011  1.01505  1.38382 101 90 68
0.422225 0.909178  1.52763 239 248 255
0.742783  1.08546  1.43184 17 26 7
0.81139 1.12411  1.2167 29 30 16
0.384647 0.951643  1.53816 21 21 23
0.339086 0.725581  1.67203 201 191 179
0.753504 0.970812  1.42445 207 192 169
0.762322  1.16935  1.44555 194 170 134
0.433193 0.663551  1.59621 128 119 104
0.426018 0.917373  1.48091 205 209 210
0.729983 0.968724  1.44224 170 163 153
0.600081  1.26743  1.51161 32 33 28
 0.45027 0.968165  1.44518 35 33 44
0.76946 1.00709 1.40545 207 210 203
0.821703  1.18212  1.18736 98 84 57
0.741592 0.965795  1.43666 76 69 53
 0.8293 1.11489 1.36231 206 194 170
0.744658 0.829804  1.45167 39 43 20
0.604324   1.3911  1.51991 213 188 158
0.413104  0.59797  1.64079 159 146 127
0.851081  1.28586   1.4205 42 48 38
0.742739  0.74613  1.45694 34 41 57
0.413965 0.664846   1.6455 163 137 110
0.796308  1.02175  1.37339 175 159 133
0.821858  1.15374  1.37795 53 50 35
0.619327 0.657004  1.51281 42 45 26
0.779602  1.21737  1.43963 195 170 148
0.586846  1.29711  1.50726 246 247 251
 0.45562 0.674313  1.58257 61 58 39
0.446828 0.725079  1.57167 190 166 140
0.372807 0.739228  1.64822 199 192 184
0.776786  1.16853  1.43423 176 152 128
0.625402  1.32148  1.50496 67 51 28
0.818644  1.17369  1.17459 153 128 98
0.424989 0.690639  1.59891 38 36 24
0.395658 0.861103  1.56417 120 120 122
0.795244  1.25918  1.46122 214 188 165
0.811196  1.13055  1.20712 111 109 96
0.391835 0.902019  1.53447 130 133 152
0.836896  1.23056  1.39748 76 67 50
0.351862 0.980728  1.61735 187 181 169
0.801338  1.04252  1.25769 201 191 181
0.546581 0.653997   1.5377 47 47 35
0.815928  1.17545  1.39604 224 217 207
0.533735 0.642414  1.54712 48 49 33
0.833575  1.13123  1.35559 168 158 148
0.748236 0.756766  1.45072 65 73 86
0.710216 0.838949  1.45752 52 48 36
0.83992 1.15514 1.35692 73 67 53
0.376768 0.975132  1.58926 4 12 15
 0.8082 1.17353  1.2468 53 56 37
0.815871  1.18997  1.40165 136 126 117
0.586088    1.309  1.50961 229 227 232
0.722884 0.973744  1.44963 57 56 35
0.837095  1.21583    1.392 56 49 33
0.407312 0.996337  1.52473 23 32 39
0.777625  1.11662  1.42073 45 54 51
0.845438  1.23518   1.3928 138 122 97
0.757724   1.0109  1.42576 162 155 145
0.589355   0.7541  1.51221 199 187 173
0.750675  0.83818  1.44684 193 177 154
0.350814 0.963255  1.60955 13 18 21
0.787851  1.20456  1.43757 149 143 121
0.575416 0.731266  1.52079 214 205 200
0.771306  1.11793  1.42753 153 146 128
0.820456  1.18143  1.39231 55 52 45
 0.38127 0.994896  1.58142 6 13 6
0.366607 0.654807    1.687 209 199 187
0.634063  1.30271  1.49694 66 93 104
0.769512 0.702307   1.4616 31 38 56
0.462181 0.698297  1.57076 183 165 145
0.732495 0.986195  1.43994 117 111 87
0.852975  1.24516  1.38771 107 95 81
0.749522 0.997314  1.42922 166 164 152
 0.34469 0.906217  1.57655 114 115 120
 0.30046 0.728429  1.68396 214 202 186
0.738473 0.978815  1.43657 181 172 165
0.372435 0.638151  1.68063 169 155 144
0.342482 0.707573  1.67722 184 172 160
0.748562  1.05792  1.43033 56 71 30
0.369078 0.963824  1.54315 106 73 84
0.84142 1.18524 1.36858 90 84 70
0.836458 0.918192  1.41638 43 41 28
0.841907  1.25971  1.41179 39 33 19
 0.82416 0.736985  1.43745 101 94 68
0.407954 0.933628  1.44574 210 215 209
0.463872 0.687752   1.5699 59 58 38
0.742202  1.06859   1.4294 35 42 24
0.492019  1.21643  1.54178 65 67 43
0.83223 1.19473  1.4259 68 57 61
0.835966 0.949949  1.42105 78 68 58
0.833268  1.22983  1.41298 34 34 22
0.754166  1.04152  1.42605 131 106 76
0.404203 0.948065   1.4465 200 201 196
0.348132 0.967074  1.61594 252 255 255
0.812208  1.03651  1.34945 161 144 116
0.847903  1.11035  1.32448 234 230 219
0.503903 0.654336  1.55804 155 139 114
0.813791  1.00223  1.34313 99 91 70
0.486227  0.70152  1.55753 49 44 25
0.816958  1.01709  1.41888 201 181 157
0.824469 0.764868  1.43922 173 153 126
0.817779 0.936358  1.34902 67 78 44
0.456904 0.718798  1.56854 41 38 19
0.360192 0.919734  1.57306 235 232 223
0.408531  0.97246  1.44382 198 198 188
0.339209 0.925475  1.63133 96 99 92
0.81679 0.98532 1.42535 182 168 157
0.334494 0.933612  1.60491 90 105 72
0.613903 0.714056  1.50225 83 23 49
0.839305  1.19974  1.37981 84 72 56
0.438288 0.652401  1.59652 58 55 36
0.349432 0.935535  1.56693 219 217 218
0.440462 0.913763  1.43227 185 173 159
0.857021   1.2032  1.41973 85 83 70
0.424904  1.05904  1.55796 3 9 5
0.346762 0.845676  1.61973 167 156 152
0.769013  1.32477   1.4553 53 50 33
0.851207  1.22406  1.37758 77 69 50
0.604924  1.37231   1.5125 206 182 170
0.463445 0.678761    1.575 186 168 144
0.419494 0.711338  1.63403 166 138 117
0.840819  1.04429  1.40627 64 57 39
0.632636  1.38395  1.50957 188 164 140
0.496418 0.685341  1.55457 32 30 15
0.823372  1.11372  1.36393 192 176 153
0.433231 0.671936  1.60137 67 64 47
0.716212  0.92948  1.44139 200 177 146
0.724856 0.956525  1.44836 178 166 152
0.611582 0.793889  1.49904 130 113 103
0.830132  1.18487  1.42468 53 45 42
0.363483  0.99164  1.60232 253 254 255
0.828782  0.63341  1.48737 208 208 196
0.370479 0.888949  1.57654 124 127 120
0.411065 0.840886  1.55589 247 246 252
0.638375    1.323  1.50143 123 92 72
0.421508  0.63631  1.61628 54 50 39
0.85548 1.11489 1.32287 65 61 50
0.720115  1.02614  1.45081 60 60 32
0.726179 0.813874  1.45309 50 47 32
 0.41144 0.633505   1.6273 47 43 32
0.829624 0.996949  1.33064 105 89 73
0.430726  0.86027  1.45903 204 205 209
0.838565   1.2404   1.4037 159 149 122
0.829771  1.05211  1.33557 104 90 77
0.800497  0.73993  1.44773 194 180 169
0.832696 0.909285  1.42368 66 59 41
0.833363  1.29631  1.44112 42 38 27
0.408967  1.02923  1.56555 170 163 153
0.596588 0.672789  1.52137 42 41 23
0.75395 1.26837 1.45228 211 167 140
0.638089   1.3102  1.49828 101 222 203
0.756133 0.770673  1.45019 56 49 31
0.798263 0.945212   1.3683 85 76 67
0.842851  1.10698  1.33073 87 81 67
0.397487 0.987881  1.49422 57 66 75
0.371196 0.987873  1.60271 8 9 11
0.303832  0.71979  1.68473 61 54 38
0.852149  1.20962  1.36851 48 43 21
0.369429 0.992227  1.57762 87 113 68
0.708249 0.821571  1.45586 28 26 13
0.344396 0.731182  1.66868 195 185 175
0.488321 0.650964  1.57044 129 117 95
0.816326 0.704814  1.44536 58 59 43
0.824726  1.25348  1.43016 68 59 42
0.821794  1.09624   1.3573 207 200 174
0.42648 1.02839 1.48269 28 37 46
0.42905 1.03885 1.47462 38 51 59
0.810949  1.10019  1.37089 222 216 202
0.846661  1.22015  1.38177 144 136 115
0.742688  1.00206   1.4321 66 61 39
0.323391 0.752806  1.67559 77 69 56
0.425212 0.664088  1.61161 69 60 55
0.833617  1.17446   1.4241 40 31 24
0.498599  1.22254  1.54233 161 137 111
0.430158 0.728888  1.62563 174 161 152
0.712868 0.650792  1.48374 39 33 19
0.767934 0.979934  1.43432 174 152 129
 0.32562 0.847152  1.67673 174 167 151
 0.47293 0.647338  1.58277 187 173 160
0.423168 0.691513  1.63184 20 19 15
0.617897 0.733753  1.49669 223 217 219
0.715151 0.851601  1.45199 40 28 14
0.830176 0.640101  1.46645 164 167 158
0.847807  1.09477  1.31965 83 86 67
0.792001  1.27522   1.4475 136 127 112
0.432327 0.893477  1.55192 161 164 173
0.405743 0.763843  1.62508 77 61 45
  0.7554 0.728485  1.45923 37 65 104
0.388999  0.65491  1.66683 29 32 5
0.457596 0.623178  1.59821 183 173 146
0.752012  1.02863  1.42415 102 82 49
0.779142 0.810088  1.44815 197 187 162
0.713462 0.805849  1.45283 41 44 27
0.317132 0.634667  1.71344 173 137 111
0.818347  1.04853  1.35171 67 61 45
0.738631   1.0519  1.44146 140 108 69
 0.37709 0.772109  1.63874 62 43 29
0.391885 0.646641  1.66591 194 189 170
0.721969  1.01289  1.45095 168 147 126
0.844401  1.14105  1.41584 52 55 38
0.426879 0.717976  1.63126 155 136 121
0.436237 0.675743  1.59157 60 50 40
0.742789  1.02718  1.42746 138 119 87
0.337209 0.676987  1.68779 48 51 34
0.414839  0.61423  1.62751 184 167 149
0.386709 0.982604  1.53783 187 187 187
0.331802 0.676404  1.69289 174 162 146
0.766246 0.818348  1.44673 188 170 148
0.614425 0.753678   1.4951 42 44 33
0.729643  1.14463  1.44258 208 195 176
0.774541 0.714853  1.45635 87 85 96
0.769329  1.14705  1.43394 179 165 154
 0.41991 0.693803   1.6383 87 66 49
0.799523  1.05086  1.37537 203 195 182
0.861006  1.21504   1.4241 70 63 47
0.550519 0.681998  1.53371 127 111 86
0.568616  1.30024  1.51697 244 247 252
0.426463 0.871159  1.46047 200 205 209
0.817368  1.12415  1.37699 62 58 46
  0.3598 0.946799  1.55547 23 23 21
0.434155  1.13971  1.56667 184 176 174
0.817672  1.11889  1.36937 199 183 160
0.750395 0.852781  1.45679 205 182 151
0.840438 0.627854  1.53749 69 78 47
0.463218 0.589831  1.59603 58 50 39
0.818381  1.03824  1.34492 90 81 64
 0.75235 0.915698  1.44305 166 132 105
 0.34399 0.973885  1.61631 121 118 127
0.409773 0.637559   1.6655 165 152 136
0.444803 0.938709  1.44396 201 199 200
0.753259  0.82787  1.44747 170 158 134
0.822207  1.11996  1.36454 78 66 44
0.380139 0.952206  1.53907 36 37 42
0.415811 0.857002  1.55142 156 156 156
0.615447  1.36765   1.4997 188 190 187
0.718589  0.75886  1.46206 49 59 68
0.398697  1.00932   1.5495 15 14 19
0.528332 0.700789  1.54117 127 108 91
0.727759 0.650594   1.4827 35 33 8
0.798185  1.10363  1.24762 181 182 168
0.316356 0.773539  1.67115 187 177 167
0.787031  1.22845  1.44116 53 47 21
0.777072  1.29816  1.45471 185 153 128
0.72376  1.0353  1.4452 138 119 89
0.805671  1.12573  1.24868 66 59 40
0.453711 0.931455  1.44375 190 190 190
0.812039  1.16375  1.21889 54 47 31
0.747626 0.931277  1.43691 200 179 152
0.448126 0.691454  1.57748 25 23 2
0.418028 0.826661  1.54929 248 249 253
 0.80359 0.763074  1.44179 162 144 120
0.764011  1.10196  1.42387 64 72 48
0.505512  1.22205   1.5401 45 38 22
0.419421 0.879629  1.55006 147 148 153
 0.34623 0.764843  1.65706 59 49 40
0.407471 0.650262  1.65474 196 172 146
0.768566 0.791831   1.4516 73 67 51
0.853041  1.18348  1.35682 210 198 184
0.372547 0.974429  1.60034 14 16 15
0.836461   1.1356  1.35203 53 49 24
0.408097  1.06991   1.5667 151 171 143
0.596128 0.740117  1.50383 64 58 46
0.833472  1.08255  1.33837 197 184 175
0.824601   1.1037  1.35642 85 73 49
0.797669 0.903604  1.37136 81 89 68
 0.42054 0.652393  1.62212 24 21 14
0.431833   1.0362  1.48866 69 82 90
0.561827  1.30842  1.52588 45 44 52
0.395929  0.82568  1.56969 189 186 181
0.381451 0.937461  1.54004 234 228 230
0.826375  1.17511  1.37933 79 73 57
0.568436  1.29876  1.52383 39 38 44
0.762897 0.908035  1.43608 210 186 162
0.760776 0.814137  1.45207 58 49 34
 0.71301 0.939397  1.44798 57 59 35
0.830317  1.11287  1.35246 109 94 71
0.753947 0.988155  1.42905 62 51 33
0.577233  1.29248  1.51623 246 246 254
0.862956  1.29072  1.41435 177 157 130
0.806508 0.744792  1.44566 55 46 29
0.746608  1.13064  1.44063 203 190 171
0.373956 0.957971  1.59342 70 83 92
0.397907  0.60679  1.63379 62 55 37
  0.8033 0.786441  1.43258 187 172 151
0.566024  1.32346  1.52206 27 30 39
0.728694 0.991279  1.44501 146 139 111
0.422595 0.629816  1.61187 179 161 137
0.755719  1.10158  1.43152 30 23 0
0.370664 0.946035  1.55129 18 18 16
0.722078 0.773916   1.4535 53 60 66
0.410942 0.610497  1.63219 62 50 36
0.362136 0.635377  1.69914 82 73 58
0.820748  1.06799  1.35253 199 173 156
0.746919 0.760256  1.45266 16 25 42
0.470943 0.719528  1.56222 45 35 25
0.451095 0.649633   1.5911 184 176 155
0.425039 0.669192  1.60456 181 172 157
0.491422 0.792068  1.53834 247 248 252
0.419525 0.725077  1.63272 206 189 181
0.846776 0.638641  1.52261 251 250 246
0.830377 0.961439  1.41775 80 73 57
0.314996 0.843607  1.66998 35 44 13
0.397309 0.591053   1.6966 86 68 46
 0.43314 0.863467  1.44327 199 204 210
0.426961  1.05915  1.54778 110 128 76
0.709136 0.932256  1.45199 63 58 29
0.577622 0.753426  1.51977 167 148 134
0.816692 0.756171  1.43934 50 39 17
0.602073 0.777346  1.50725 42 38 29
0.520221  1.22028  1.53032 36 43 49
0.516176 0.607054  1.56165 181 179 164
 0.82941 0.641086  1.48429 75 73 60
0.397611  1.05052   1.5799 236 251 255
0.838927 0.974079  1.32203 166 149 133
0.412603 0.606455   1.6272 199 177 154
0.798924 0.750002  1.45032 31 33 19
0.575352  0.74034  1.51777 176 163 147
0.432907 0.594519  1.62847 193 181 159
0.706714 0.827457  1.45801 180 172 159
0.747544  1.10767   1.4378 59 39 15
0.807967  1.07379  1.37033 113 104 87
0.851854  1.15104  1.32991 224 222 207
0.840662  1.07397  1.32391 109 99 89
 0.75785 0.885127   1.4352 223 201 178
0.58831 1.28227 1.51107 43 46 51
0.820444 0.687017  1.46502 242 245 254
 0.36063 0.712195  1.66358 215 201 190
0.560028 0.741752  1.52631 177 176 172
0.737388 0.645649  1.48194 209 191 167
0.424477 0.639214  1.61042 188 175 158
0.392299 0.585315  1.67645 174 143 115
0.816287  1.10177  1.36323 172 160 144
0.39877 0.85846 1.55702 153 151 152
0.724111  1.01883  1.43942 38 25 17
0.59655 1.37088  1.5221 211 185 162
0.722906 0.659221  1.47686 224 222 235
0.594723  1.23978  1.50749 192 193 187
0.804951   1.0537  1.40277 55 46 31
0.708824 0.832593  1.45739 78 74 62
0.735122  1.07623  1.43643 132 111 90
0.371865  1.00799  1.59248 211 213 200
0.63841 1.28624 1.49094 250 250 252
0.783064 0.763867  1.45972 85 82 65
0.628313  1.24135  1.50274 80 80 78
0.829395  1.28389  1.43825 30 26 15
0.377826 0.611536  1.70308 68 60 41
0.762718  0.76121  1.44804 178 170 151
0.708742 0.862277  1.45953 190 169 140
0.341021 0.641662  1.69373 184 171 155
0.453335  1.12055  1.57445 149 143 129
0.365848 0.924184   1.5589 210 206 195
0.620514 0.827165  1.49509 191 181 169
0.474641 0.594076  1.59365 39 37 25
0.411023 0.680528  1.64501 178 168 143
 0.77635 0.873177  1.44361 215 206 191
0.347087 0.650803  1.68802 198 186 174
0.720376 0.999362  1.45359 92 73 43
0.442136 0.682241    1.586 43 41 29
 0.40931 0.835738  1.55887 64 70 82
0.809697 0.792566  1.44047 196 180 164
0.806776  1.09644  1.37842 100 88 74
0.749529 0.812857  1.45184 182 175 159
0.733735 0.829834   1.4561 138 131 113
0.831595  1.16765  1.42244 18 14 5
0.754337  0.74862  1.44927 232 246 255
0.812022 0.868406  1.36985 125 120 98
0.803052  1.11394  1.22992 148 152 138
0.326176 0.739026  1.67937 77 64 55
0.832403   1.0996  1.33884 79 67 51
0.316646 0.658096   1.7023 79 66 57
 0.43504 0.725533  1.59343 92 84 82
0.441188 0.971024  1.44431 202 202 210
0.875169  1.29866  1.42862 92 76 50
0.800137   1.1385  1.39947 163 153 141
0.781254 0.776634  1.44953 50 44 28
0.742396 0.960435  1.43693 57 49 26
0.816849  1.14969  1.17735 121 113 74
 0.38605 0.607597  1.68928 65 58 42
0.804055 0.756393  1.44204 34 25 16
0.724539 0.709767  1.46689 238 239 243
0.776643  1.14269   1.4272 175 166 137
0.795801 0.803381  1.43469 188 175 158
0.816607  1.15632  1.38544 182 178 166
0.741863 0.917512  1.44105 211 182 152
0.465708 0.652836  1.58212 30 23 5
0.843147  1.08862  1.32497 96 93 76
0.754534  1.22872  1.44466 158 121 92
0.810628 0.695088  1.45146 233 233 241
0.453822  1.11989  1.55886 100 114 79
0.773137  1.12548  1.42729 68 62 50
0.621924 0.790035  1.48947 146 137 122
0.432687 0.944991   1.4266 68 72 81
0.852333 0.597948  1.55106 218 181 155
0.313906 0.768321   1.6763 189 181 170
0.817985  1.19992  1.41792 73 59 46
0.421053 0.672904  1.63677 136 115 98
0.402797 0.640938  1.66788 70 56 47
0.614954 0.661887  1.51599 204 193 175
0.823153  1.22157  1.40877 129 126 107
0.349873 0.960831  1.61591 24 30 30
0.855053  1.13329  1.32536 192 181 163
0.713895 0.773136  1.45467 240 238 249
0.780693    1.135  1.31555 206 185 156
0.386389  1.06481  1.55087 21 27 17
0.319101 0.661558  1.70648 196 183 167
0.823889  1.13239  1.36687 219 203 187
0.471686 0.668701  1.57285 161 149 135
0.608098 0.724817  1.49773 192 204 218
0.432234 0.723277  1.62151 10 9 7
0.844102   1.0792  1.32168 232 219 202
0.408405  1.06627  1.56139 69 84 53
0.789911   1.3022  1.45157 184 160 136
0.601797 0.757169  1.50406 125 126 108
0.770255 0.757476  1.44884 45 46 28
0.798258  1.11834  1.39458 252 253 248
0.850979  1.10537   1.3208 77 74 67
0.451518   1.1185  1.56664 19 20 22
0.833875 0.873703  1.41804 9 10 2
0.391695 0.982961  1.53248 14 19 25
0.755316 0.932247  1.42407 198 182 167
0.846576  1.08233  1.31826 83 71 55
0.759662  1.01933  1.41687 31 24 32
0.488361 0.663109  1.56394 134 120 91
0.77401 1.18236 1.43883 169 127 102
0.466408  1.00516  1.47909 170 178 180
0.731611 0.956509  1.44352 93 78 57
0.491611 0.752216  1.55078 49 43 45
0.761599 0.969625  1.42587 193 179 168
0.817949  1.20964  1.42015 50 42 29
0.455603 0.945811  1.44782 71 72 77
0.631483  1.23127  1.49977 33 28 22
0.810727 0.709766  1.45785 224 223 205
0.730057 0.662727  1.47518 39 45 61
0.630153  1.22614   1.5026 184 181 174
0.407542 0.646492  1.65771 190 173 147
0.483629 0.616382  1.58203 55 52 45
0.833599   1.0713  1.33403 167 159 146
0.355045  1.05598   1.5067 20 20 12
0.422266 0.580315  1.62689 159 149 137
0.80438 1.13714 1.26048 77 65 53
0.530426 0.604119  1.55481 54 50 38
0.806885  0.63637  1.47798 170 172 167
0.617425 0.680349  1.50669 20 26 42
0.843325  1.21872  1.38732 92 89 70
0.844234   1.0669  1.31701 226 220 204
0.733843  1.07371  1.44622 47 35 35
0.333061 0.700092  1.68096 187 167 140
0.763572  1.05027  1.42367 153 129 105
0.795451  1.06238  1.37961 86 73 64
0.534845 0.632558  1.54721 50 42 31
0.808806  1.14252  1.24219 107 108 90
0.802304 0.705529  1.45936 219 215 212
0.448887 0.606966  1.60763 187 180 164
0.814377  1.17867  1.21838 12 18 8
0.436454 0.701188  1.58344 127 125 126
0.750241  1.20161  1.43959 165 131 96
 0.74216 0.955143   1.4328 213 203 176
0.412934 0.620788  1.62532 56 47 30
0.414617   0.9328  1.44309 203 199 196
0.381813 0.621266  1.68454 62 54 41
0.824066 0.907425  1.42502 24 20 17
0.821788  1.13605   1.3713 186 173 154
0.836591 0.756847  1.43816 184 160 134
0.770179 0.617572  1.47693 130 93 75
0.438724 0.730794  1.59471 11 6 3
0.369158 0.762509  1.64645 187 180 170
0.707952 0.961354  1.44689 151 136 115
0.434078  1.05088  1.55717 29 34 28
0.831629  1.25563  1.42375 89 82 66
0.839524  1.19411  1.36858 79 77 62
 0.7857  1.0129 1.38859 217 206 188
0.467108 0.702774  1.56796 83 70 51
0.740654 0.938535    1.439 213 193 169
0.84304 1.32016 1.44543 86 78 65
0.757705  1.10981  1.43177 40 38 23
0.398782 0.609534  1.67585 176 169 159
0.759982  1.00246  1.42351 43 31 19
0.807146  1.06051    1.368 127 114 105
0.846792  1.05647  1.41148 86 75 69
0.381475 0.957705  1.45186 237 238 240
0.364912 0.659247  1.67829 46 39 29
0.799053 0.898909  1.37894 37 40 29
0.871905 0.583164  1.55528 201 168 149
0.71773 1.07608 1.44783 93 87 73
 0.36729 0.787203  1.64321 133 114 99
0.559542 0.626019  1.53566 180 169 147
0.722619 0.633479  1.48859 55 51 42
0.700183 0.715413  1.47234 241 244 253
0.842413  1.06109  1.32725 124 111 95
0.466881 0.666982  1.57582 100 87 68
 0.44681 0.684023  1.58263 198 185 166
0.725674 0.856902  1.46174 190 161 127
0.811646 0.844733  1.37978 201 191 179
0.390419 0.960364  1.53808 102 107 126
0.404201 0.738516  1.63609 206 197 190
0.841041  1.15442  1.35361 58 59 45
0.837061  0.90103  1.41827 19 20 14
0.759956  1.31669  1.45824 187 161 138
0.765429  1.09289  1.42723 80 90 55
0.847455 0.933653  1.41583 36 31 25
0.395827 0.936954  1.54043 187 187 189
0.771711 0.828253  1.44215 198 180 158
0.800441  1.24903  1.44624 59 59 59
0.734597 0.990081  1.43959 50 48 23
0.807513  1.14762  1.23835 61 55 41
0.600175  1.38748  1.52244 172 144 120
0.421345 0.949041  1.42616 34 40 52
0.752106 0.963597  1.42925 195 179 154
0.838164  1.17352  1.36651 214 211 206
0.816653  1.16512  1.19853 19 21 7
0.439352 0.966872   1.4462 206 207 212
0.404869 0.689587  1.64788 71 55 42
0.831596  1.17939   1.3816 173 162 142
0.720852 0.733234  1.46541 86 89 94
0.322084 0.770902  1.66967 193 184 175
0.786325 0.725949  1.45961 188 194 194
0.538915 0.633707   1.5442 197 185 173
0.793276 0.745971  1.45149 160 158 135
0.793234 0.758444  1.44897 61 49 35
0.616201 0.711569  1.50045 110 46 72
0.478247  1.05701  1.40822 149 141 139
0.493786 0.691464  1.55441 43 37 23
0.841004  1.29762  1.43606 58 51 35
0.802484 0.914095   1.3745 75 77 63
0.786027 0.748516  1.45321 52 53 35
0.815203  1.10974  1.37257 105 92 75
0.732758 0.977777  1.44207 81 68 59
0.405148  0.69521  1.64563 191 181 172
0.704304 0.922948  1.45132 62 50 34
0.832999 0.939126  1.41823 148 135 119
0.800457 0.951726  1.36776 216 204 190
0.469893 0.594017  1.59622 199 202 195
