ply
format ascii 1.0
element vertex 1156
property float x
property float y
property float z
property uchar red
property uchar green
property uchar blue
end_header
 0.137781 -0.105593   1.89885 255 255 255
-0.00337725   -0.318002     1.98021 255 255 255
0.148697 0.213436  1.87651 255 255 255
 0.327034 -0.233172   1.82155 255 255 255
 0.586607 0.0563605   1.68183 255 255 255
 0.454099 0.0872993   1.73715 255 255 255
0.167005 0.290102  1.86336 255 255 255
0.306633 -0.28817   1.8363 255 255 255
0.312315 0.312765  1.79551 255 255 255
0.327072 0.145261  1.79384 255 255 255
0.124515 0.220461  1.88712 255 255 255
 0.46814 0.198006   1.7259 255 255 255
  0.49408 0.0846628   1.71996 255 255 255
 0.120725 -0.023388   1.90001 255 255 255
0.639328 0.289025  1.64387 255 255 255
 0.458329 0.0525179    1.7413 255 255 255
0.203821 0.391854  1.84526 255 255 255
0.372285 0.291118  1.76726 255 255 255
0.418087 0.114251   1.7527 255 255 255
0.387744  0.10871  1.76761 255 255 255
 0.372048 -0.141116   1.79069 255 255 255
0.180299 0.264252  1.85877 255 255 255
-0.0590693   0.199114    1.97772 255 255 255
 0.276254 -0.314386   1.85052 255 255 255
0.384402 0.378123  1.75958 255 255 255
-0.034428 -0.344311   1.98941 255 255 255
0.489694 0.115874  1.71996 255 255 255
 0.532198 -0.147763   1.71896 255 255 255
 0.169697 0.0086787   1.87524 255 255 255
0.425134 0.139264  1.74969 255 255 255
 0.107802 -0.199053   1.91974 255 255 255
0.214342 0.164041  1.84622 255 255 255
0.114996 0.114599  1.89668 255 255 255
0.380634 0.309713  1.76325 255 255 255
-0.0217308   0.320267    1.95446 255 255 255
0.161537 0.109989  1.87253 255 255 255
0.0141361  0.159482   1.94308 255 255 255
-0.0625722    0.23025    1.97662 255 255 255
 0.14695 0.131827  1.87978 255 255 255
  0.23805 0.0632298   1.83965 255 255 255
0.333639 0.180918  1.78936 255 255 255
0.211149 0.376793  1.84077 255 255 255
 0.335507 -0.285491   1.82359 255 255 255
0.0145286  0.282361   1.93461 255 255 255
0.268904 0.264479  1.81672 255 255 255
0.642238 0.112322  1.65264 255 255 255
0.502269 0.236766  1.70936 255 255 255
0.0202655 -0.189749   1.95971 255 255 255
 0.386043 -0.123288   1.78271 255 255 255
0.282134 0.365569  1.80551 255 255 255
0.498552 0.225275   1.7112 255 255 255
 0.343478 -0.295999   1.82168 255 255 255
 -0.055294 -0.0107461    1.98828 255 255 255
0.339391 0.378544  1.78023 255 255 255
0.363321 0.384813  1.76775 255 255 255
-0.025441  0.204864    1.9606 255 255 255
 0.114158 -0.333101   1.92826 255 255 255
0.539071 0.363393  1.68779 255 255 255
0.129957 -0.32827  1.92019 255 255 255
-0.0474834  -0.268832    1.99902 255 255 255
0.198761 0.281195   1.8494 255 255 255
 0.635227 0.0595727   1.65924 255 255 255
 0.411886 0.0907138   1.75643 255 255 255
0.293067 0.387467  1.80246 255 255 255
 0.603063 -0.321613   1.70277 255 255 255
 0.116276 0.0797298   1.92001 255 255 255
  0.128525 -0.0887641     1.9022 255 255 255
 0.366079 -0.290407   1.80627 255 255 255
 0.493279 -0.138552   1.73443 255 255 255
 0.510993 -0.203505   1.73435 255 255 255
 0.56289 0.284797  1.68065 255 255 255
0.0157775  0.092174   1.94593 255 255 255
  0.57849 -0.112833   1.69714 255 255 255
0.625873 0.199038  1.65514 255 255 255
0.494572 0.205744  1.71376 255 255 255
 0.58056 0.203819  1.67644 255 255 255
0.392758 0.118906  1.76407 255 255 255
0.605795 0.143023  1.66991 255 255 255
0.0253733 -0.268927   1.96501 255 255 255
-0.0184637  -0.346401    1.98954 255 255 255
  0.498743 -0.0455297    1.72598 255 255 255
 0.664684 -0.217652   1.66233 255 255 255
 0.321978 -0.276017   1.82641 255 255 255
 0.508701 -0.241185   1.73822 255 255 255
 0.562728 0.0521597    1.6893 255 255 255
0.195468 0.173844  1.85238 255 255 255
0.432942 0.278821  1.74157 255 255 255
 0.30303 0.355473  1.79903 255 255 255
0.508621 0.258759  1.70576 255 255 255
0.388082 0.296582  1.75994 255 255 255
 0.259155 0.0922449   1.82736 255 255 255
 0.156593 -0.102074   1.88946 255 255 255
-0.0514429 -0.0237882     1.9867 255 255 255
  0.66194 -0.296397   1.67195 255 255 255
0.291595 -0.16271  1.82989 255 255 255
 0.310843 -0.151141   1.82095 255 255 255
  0.559495 -0.0263847    1.70196 255 255 255
0.441137 0.194084  1.73805 255 255 255
 0.178071 -0.190432   1.88384 255 255 255
0.580268 0.294487  1.67165 255 255 255
 0.462149 0.0156285   1.73796 255 255 255
 0.442899 -0.153257   1.75486 255 255 255
 0.373712 -0.280269   1.80485 255 255 255
-0.0883317   0.316572    1.98098 255 255 255
0.629694 0.114396  1.65815 255 255 255
0.0934674  0.182332   1.90248 255 255 255
  0.422266 0.00463941    1.75389 255 255 255
  0.200454 0.00976727    1.85931 255 255 255
 0.599896 0.0503719   1.67643 255 255 255
0.35135  0.3874 1.77452 255 255 255
 0.476007 0.0726842   1.72838 255 255 255
0.00951128    0.29737    1.94089 255 255 255
 0.447822 -0.234785   1.76568 255 255 255
  0.523431 -0.0832623    1.71741 255 255 255
 0.575043 0.0626462   1.68733 255 255 255
0.289388 0.106436  1.81297 255 255 255
 0.649588 -0.069093   1.66239 255 255 255
0.272823   0.3234  1.81456 255 255 255
0.604932 0.345439  1.65571 255 255 255
0.603813 0.272152  1.66019 255 255 255
 0.450291 -0.206718   1.76106 255 255 255
0.161353 0.139028  1.87227 255 255 255
0.470535 0.108799  1.72999 255 255 255
 0.483268 -0.130574   1.73876 255 255 255
0.558123 0.191676  1.68779 255 255 255
0.403325 0.384274  1.75121 255 255 255
0.475657 0.132766  1.72571 255 255 255
 0.135464 -0.257927   1.91232 255 255 255
0.398659 0.333809  1.75504 255 255 255
0.0825264 -0.288578   1.94033 255 255 255
 0.329965 0.0801682   1.79534 255 255 255
 0.478147 0.0830353   1.72666 255 255 255
0.0184267   0.11905   1.94222 255 255 255
 0.677858 -0.235142   1.66041 255 255 255
  0.35712 -0.321978   1.81655 255 255 255
-0.066942  0.155072    1.9827 255 255 255
  0.480575 -0.0487091    1.73648 255 255 255
0.205513 0.194107  1.84932 255 255 255
  0.118264 -0.0649873    1.90612 255 255 255
 0.510326 0.0131111   1.71807 255 255 255
 0.633684 0.0178796   1.66393 255 255 255
0.397145 0.263027  1.75544 255 255 255
 0.505689 0.0951508   1.71246 255 255 255
0.0921719 0.0964192   1.90708 255 255 255
  0.25189 -0.328504   1.86461 255 255 255
 0.21814 0.240735   1.8413 255 255 255
 0.286564 0.0954567   1.81432 255 255 255
 0.117245 0.0907182   1.89477 255 255 255
-0.0608357  0.0340123     1.9888 255 255 255
0.591325 0.304674  1.66589 255 255 255
 0.341937 -0.102985   1.80176 255 255 255
0.0722246  0.222547   1.91156 255 255 255
0.326031 0.264127  1.79023 255 255 255
 0.193574 0.0195291    1.8626 255 255 255
 0.23397 0.334722  1.83094 255 255 255
   0.30483 0.00832406    1.81034 255 255 255
-0.11323 0.251055  1.99787 255 255 255
-0.0808499 -0.0183762    1.99791 255 255 255
 0.361316 -0.144519   1.79685 255 255 255
 0.0120467 -0.0860996    1.96076 255 255 255
0.279506  0.39271  1.80816 255 255 255
  0.18736 -0.114923   1.87374 255 255 255
0.470395 0.220495  1.72377 255 255 255
0.0480929  0.192261   1.92297 255 255 255
  0.554194 -0.0143248    1.70005 255 255 255
0.0712337 0.0536229   1.91964 255 255 255
0.627722 0.160831  1.65821 255 255 255
 0.581459 0.0943888   1.68136 255 255 255
-0.0611186  0.0556675    1.98165 255 255 255
 0.626409 -0.215911   1.68331 255 255 255
-0.0296595   0.119563    1.96544 255 255 255
 0.249192 -0.161551   1.85061 255 255 255
  0.247144 0.00761504    1.83753 255 255 255
 -0.0972255 -0.00698491     2.00669 255 255 255
0.0358434  0.107872   1.93392 255 255 255
-0.0649328 -0.0738233     1.9951 255 255 255
0.330422 0.322978  1.78627 255 255 255
 0.105568 -0.358372   1.93566 255 255 255
0.599771  0.17301  1.66885 255 255 255
0.566751 0.163543  1.68386 255 255 255
0.377609 0.199375  1.76777 255 255 255
  0.110682 -0.0879483    1.90764 255 255 255
-0.040376 -0.326267   1.99733 255 255 255
0.587004 0.314023    1.667 255 255 255
 0.216691 -0.267793    1.8764 255 255 255
0.535678 0.102597  1.70193 255 255 255
 0.510724 -0.291063   1.74304 255 255 255
0.247234 0.195163   1.8299 255 255 255
  0.108203 -0.0427849    1.90775 255 255 255
 0.15103 0.248432  1.87454 255 255 255
0.445247 0.075341  1.74206 255 255 255
 0.364592 -0.243852   1.80402 255 255 255
 0.189469 -0.233544   1.88438 255 255 255
 0.588571 -0.312211   1.70762 255 255 255
 0.420217 0.0781602   1.75322 255 255 255
 0.624701 0.0770818    1.6639 255 255 255
0.172232 0.145068  1.86692 255 255 255
0.631689  0.32563  1.64447 255 255 255
 0.492621 0.0723369    1.7212 255 255 255
0.460541 0.373956  1.72514 255 255 255
0.140906 0.257045  1.87781 255 255 255
 0.433554 -0.284396   1.77801 255 255 255
-0.100983  0.201776   1.99559 255 255 255
 0.430112 -0.266756    1.7754 255 255 255
 0.191921 0.0373196   1.86287 255 255 255
 0.413433 -0.224725   1.78002 255 255 255
 0.358915 -0.165469   1.79986 255 255 255
0.650894 0.166634  1.64583 255 255 255
 0.27106 0.212787  1.81796 255 255 255
0.506815 0.105334  1.71226 255 255 255
0.522174 0.179808  1.70215 255 255 255
 0.564884 -0.161183   1.70759 255 255 255
 0.52172 0.194638  1.70335 255 255 255
  0.132769 -0.0432451    1.89654 255 255 255
0.263328  0.36432  1.81795 255 255 255
0.315983 0.131862  1.79924 255 255 255
0.0260538  0.107479   1.93891 255 255 255
-0.0887514 0.00352924    2.00266 255 255 255
 0.251116 -0.094389   1.84477 255 255 255
 0.399244 -0.302186    1.7942 255 255 255
-0.000769549     0.224966      1.94833 255 255 255
0.619122 0.132831  1.66446 255 255 255
0.317156 0.301325  1.79439 255 255 255
   0.52513 -0.0937641     1.7198 255 255 255
 0.334508 0.0011802   1.79708 255 255 255
  0.540626 -0.0936931    1.71134 255 255 255
 0.579421 -0.124697   1.69492 255 255 255
  0.413664 -0.0669199    1.76726 255 255 255
 0.30025 0.112765  1.80788 255 255 255
 0.267879 0.0841711   1.82312 255 255 255
0.624397 0.245466  1.65332 255 255 255
0.109602 0.228686  1.89288 255 255 255
0.243559 0.347631  1.82666 255 255 255
-0.0400333   0.270058    1.96408 255 255 255
-0.00713446    0.215644     1.95162 255 255 255
 0.262298 -0.164538    1.8455 255 255 255
0.583142 0.326321  1.66826 255 255 255
0.0684543 -0.275572    1.9462 255 255 255
0.408092 0.335897  1.74844 255 255 255
0.0701832  0.283975   1.90985 255 255 255
 0.157287 -0.302731   1.90836 255 255 255
 0.162254 0.0361785    1.8767 255 255 255
0.112443  -0.2449  1.92282 255 255 255
 0.277201 0.0897435   1.81915 255 255 255
0.157939 0.183863  1.87243 255 255 255
-0.0741154   0.309154    1.97812 255 255 255
0.381199 0.144615  1.76831 255 255 255
0.430601 -0.20725  1.77054 255 255 255
0.222623 0.377907  1.83531 255 255 255
  0.0978717 -0.00115358     1.90832 255 255 255
-0.0946969   0.269673    1.98755 255 255 255
 0.360525 0.0788781   1.78116 255 255 255
0.265011 0.041387  1.82764 255 255 255
0.432448 0.255704  1.74015 255 255 255
0.135837 -0.16915  1.90512 255 255 255
 0.014779 -0.357535   1.97616 255 255 255
0.170973 0.390411  1.85879 255 255 255
-0.0517787   0.230717    1.97154 255 255 255
 0.478273 -0.343455   1.76255 255 255 255
-0.101527  0.190889   1.99865 255 255 255
0.362025 0.323972  1.77181 255 255 255
 0.153221 -0.339305   1.91076 255 255 255
0.140418 0.343631  1.87474 255 255 255
 0.34198 0.296982  1.78111 255 255 255
0.326142 0.231882  1.79111 255 255 255
0.548437 -0.26042   1.7232 255 255 255
0.523308 0.124914  1.70528 255 255 255
  0.33873 -0.113926   1.80401 255 255 255
-0.0576575   0.320073    1.96931 255 255 255
 0.252944 0.0490833   1.83312 255 255 255
0.601684 0.061273  1.67555 255 255 255
0.409086 0.140613  1.75524 255 255 255
0.00538538   0.146796    1.94932 255 255 255
 0.208844 0.0925241   1.85296 255 255 255
 0.194479 -0.300421   1.88954 255 255 255
 0.161115 -0.189347   1.89573 255 255 255
0.382664 0.326308  1.76113 255 255 255
  0.14939 -0.251775   1.90585 255 255 255
-0.0262693    0.25087    1.95794 255 255 255
 0.254541 -0.296732   1.85933 255 255 255
0.0100077  0.269985   1.94016 255 255 255
-0.0107911  0.0213101    1.96207 255 255 255
0.0421186  0.304163   1.92547 255 255 255
0.392422 0.324905  1.75707 255 255 255
0.206093 0.103798  1.85326 255 255 255
 0.268716 0.0618325   1.82411 255 255 255
0.270685 0.224892  1.81796 255 255 255
  0.54871 0.0709682   1.69707 255 255 255
0.186497 0.195538  1.85872 255 255 255
0.187741 0.105915  1.86154 255 255 255
0.0690373  -0.14606   1.94076 255 255 255
0.602919  0.24948  1.66215 255 255 255
 0.545368 0.0989411   1.69716 255 255 255
0.0379207  0.258332   1.92826 255 255 255
 0.348242 -0.220169   1.80994 255 255 255
0.0213789  0.133939   1.94117 255 255 255
0.445897 0.108846  1.74015 255 255 255
 0.239177 -0.229389     1.862 255 255 255
0.613385 0.152987  1.66561 255 255 255
-0.10863 0.157087  2.00093 255 255 255
0.0617716 -0.154219    1.9395 255 255 255
0.387378 0.257748  1.76231 255 255 255
0.0640186  0.349121   1.91103 255 255 255
0.309372 0.113289  1.80156 255 255 255
0.0111296 0.0566457   1.94989 255 255 255
0.122271 0.147471  1.88772 255 255 255
 0.139008 -0.178857   1.90384 255 255 255
0.556543 0.128871   1.6908 255 255 255
 0.497613 -0.226831   1.74176 255 255 255
  0.0395842 -0.00703872     1.93982 255 255 255
0.179165 0.384161  1.85606 255 255 255
  0.612825 -0.0736672    1.67917 255 255 255
0.444106 0.283438    1.733 255 255 255
 0.41197 0.270276  1.75005 255 255 255
 0.393139 0.0747015   1.76584 255 255 255
 0.283419 -0.221715   1.83926 255 255 255
0.0691005  0.170422    1.9155 255 255 255
 0.361944 0.0281119   1.78299 255 255 255
0.535915 0.317781  1.69265 255 255 255
0.545102 0.316121    1.687 255 255 255
  0.63497 -0.171622   1.67584 255 255 255
0.0817243  0.253749   1.90657 255 255 255
 0.088292 0.0200687   1.91275 255 255 255
0.357235 0.071154  1.78378 255 255 255
0.233371 0.053334  1.84147 255 255 255
0.0235401  0.168845   1.93852 255 255 255
0.401762  0.32291  1.75264 255 255 255
0.0587453  0.193521   1.92009 255 255 255
 0.383455 0.0691509   1.77167 255 255 255
 0.191581 -0.291288    1.8891 255 255 255
0.358891 0.112431  1.78088 255 255 255
0.0950245  0.367709   1.89623 255 255 255
0.262345 0.170222  1.82252 255 255 255
 0.236493 0.0295896   1.84089 255 255 255
0.597564 0.311481  1.66146 255 255 255
 0.563761 0.0616807   1.69084 255 255 255
 0.0603651 -0.0528596    1.93139 255 255 255
0.432765 0.140904  1.74519 255 255 255
0.338322  0.20488  1.78611 255 255 255
0.394567 0.386914  1.75331 255 255 255
 0.215842 -0.111695   1.85996 255 255 255
 0.325287 -0.318381   1.82959 255 255 255
0.608131 0.258653  1.66091 255 255 255
 0.551682 -0.118921   1.70878 255 255 255
 0.546433 -0.101608   1.71155 255 255 255
 0.592437 -0.242075   1.69984 255 255 255
 0.322271 -0.231167   1.82333 255 255 255
 0.559337 -0.126005   1.70912 255 255 255
0.501565 0.112443  1.71515 255 255 255
 0.306875 0.0828978   1.80524 255 255 255
0.375931 0.152479  1.77089 255 255 255
0.0696851  0.246954   1.91399 255 255 255
0.637817  0.15578   1.6516 255 255 255
0.0843456  0.272873     1.905 255 255 255
0.411346 0.321439  1.74755 255 255 255
0.133048 0.218502   1.8829 255 255 255
  0.13145 0.0242678   1.89186 255 255 255
 0.252426 0.0652566   1.83135 255 255 255
0.288235 0.300954  1.80626 255 255 255
-0.0459002  -0.337988    2.00172 255 255 255
 0.322498 0.0741506   1.79861 255 255 255
 0.230014 -0.145656   1.85723 255 255 255
0.426692 0.122296   1.7481 255 255 255
-0.0422831  0.0125319    1.97962 255 255 255
 0.19439 0.112047  1.85654 255 255 255
0.113878 0.190396  1.89226 255 255 255
0.384928 0.204204  1.76412 255 255 255
0.0528967  0.325186    1.9191 255 255 255
-0.0723856   0.299066    1.97909 255 255 255
0.0352297 -0.213629   1.95775 255 255 255
0.336224 0.338244  1.78684 255 255 255
0.323331 0.054694  1.79863 255 255 255
 0.37026 0.057174  1.77691 255 255 255
 0.414837 -0.267009   1.78617 255 255 255
0.633618   0.1474  1.65396 255 255 255
0.227963 0.390812  1.83274 255 255 255
  0.20135 -0.114014   1.86666 255 255 255
 0.147782 -0.237268   1.90445 255 255 255
 0.541919 -0.114856   1.71355 255 255 255
 0.488062 -0.101286   1.73606 255 255 255
0.516052 0.357507  1.69896 255 255 255
  0.558317 -0.0410609    1.70064 255 255 255
 0.420309 -0.231659   1.77688 255 255 255
0.525396 0.355844  1.69416 255 255 255
0.420021 0.380887  1.74322 255 255 255
0.546118 0.297845  1.68676 255 255 255
 0.277687 0.0687731   1.82031 255 255 255
  0.543279 -0.0853284    1.70996 255 255 255
 0.374262 0.0123918   1.77696 255 255 255
 0.32373 0.171206  1.79425 255 255 255
0.213144 0.206577  1.84632 255 255 255
  0.438712 -0.0601894    1.75437 255 255 255
0.0572494 -0.326886   1.95505 255 255 255
 0.113108 -0.133813    1.9122 255 255 255
0.0292384  0.142257   1.93659 255 255 255
 0.289855 -0.243515   1.84084 255 255 255
0.505906 0.359003  1.70266 255 255 255
0.135729 0.363404  1.87651 255 255 255
0.00704881   0.138338     1.9481 255 255 255
-0.0882973  0.0387606     1.9996 255 255 255
0.454264 0.201369  1.73174 255 255 255
0.131944 0.330522  1.88054 255 255 255
0.463862 0.142184  1.72938 255 255 255
0.486881 0.362234   1.7124 255 255 255
 0.658768 0.0261533   1.65189 255 255 255
0.383008 0.245809  1.76385 255 255 255
 0.387965 -0.345817   1.80193 255 255 255
  0.578869 -0.0862736    1.69478 255 255 255
  0.436001 -0.0830546    1.75638 255 255 255
 0.314987 0.0819262     1.802 255 255 255
 0.36248 0.206634  1.77548 255 255 255
0.231808 0.325729  1.83306 255 255 255
0.26561 0.27371 1.81893 255 255 255
  0.30382 -0.328751   1.83802 255 255 255
 0.565562 0.0684989   1.68948 255 255 255
0.221726 0.230544  1.84032 255 255 255
 0.652823 0.0427327   1.65269 255 255 255
 0.225349 -0.153512    1.8615 255 255 255
0.461321 0.208322  1.72854 255 255 255
0.0263346  0.310651   1.93287 255 255 255
0.121302 0.168465  1.89034 255 255 255
  0.37895 0.0553953   1.77323 255 255 255
0.132953 0.353722  1.87949 255 255 255
0.570179 0.173675  1.68384 255 255 255
0.534923 0.354573  1.69015 255 255 255
0.305962 0.285672  1.79944 255 255 255
-0.0931958   0.240859    1.98951 255 255 255
0.0141212 -0.349081   1.97639 255 255 255
 0.320897 -0.254244   1.82604 255 255 255
0.321014 0.348263  1.78963 255 255 255
0.391586 0.278924  1.75912 255 255 255
0.0734374    0.1514   1.91448 255 255 255
0.133201 0.228134  1.88216 255 255 255
 0.307535 -0.249391    1.8299 255 255 255
0.150692 0.341272  1.87013 255 255 255
0.500495  0.26147  1.70824 255 255 255
0.600912 0.127708  1.67148 255 255 255
0.0430618 -0.060919   1.94077 255 255 255
0.0942377 -0.264088   1.93239 255 255 255
 0.508008 -0.259406   1.74084 255 255 255
 0.236495 -0.305277   1.86807 255 255 255
 0.196349 -0.126443   1.87216 255 255 255
0.506291 -0.30578   1.7472 255 255 255
 0.326375 0.0414403   1.79833 255 255 255
0.0572596  0.273551   1.91739 255 255 255
 0.627059 -0.259318   1.68288 255 255 255
 0.101387 -0.301657   1.93202 255 255 255
0.346877  0.32265  1.77781 255 255 255
0.334664 0.346414  1.78334 255 255 255
 0.54239 0.291387  1.68879 255 255 255
0.174009 -0.23483  1.89143 255 255 255
  0.26932 -0.153112   1.84021 255 255 255
 0.333676 -0.035129   1.80036 255 255 255
0.0871298  0.154531   1.90691 255 255 255
0.409159  0.34432  1.74854 255 255 255
 0.0346077 -0.0268023     1.9431 255 255 255
0.509898    -0.25  1.73888 255 255 255
-0.00843536    0.148558     1.95597 255 255 255
  0.51935 -0.247216     1.734 255 255 255
  0.490964 -0.0313007     1.7288 255 255 255
  0.447076 -0.0813159    1.75118 255 255 255
-0.0125761  -0.176249    1.97758 255 255 255
 0.513504 -0.304864   1.74226 255 255 255
 0.631394 -0.311686   1.68796 255 255 255
 0.620089 -0.233688   1.68896 255 255 255
-0.0105127   0.131912    1.95747 255 255 255
 0.0585573 -0.0797615    1.93473 255 255 255
0.461804 0.135348  1.73153 255 255 255
 0.26753 0.155298  1.82066 255 255 255
0.467436  0.18566  1.72806 255 255 255
 0.289177 0.0655795   1.81424 255 255 255
 0.305041 -0.171744   1.82636 255 255 255
0.503293 0.198963  1.71051 255 255 255
0.466418 0.176058  1.72766 255 255 255
0.0875612  0.311459   1.90207 255 255 255
0.201019 0.329871  1.84734 255 255 255
-0.0576257   0.113572    1.98109 255 255 255
 0.671418 -0.189796   1.65869 255 255 255
0.657611 0.159103    1.644 255 255 255
 0.343001 0.0806648    1.7893 255 255 255
0.101759 0.379536  1.89448 255 255 255
 0.626709 -0.227195   1.68226 255 255 255
 0.648299 0.0257098   1.65768 255 255 255
0.319042 0.260165   1.7936 255 255 255
-0.0191321    0.31529    1.95355 255 255 255
 0.366665 0.0642826   1.77868 255 255 255
0.143106 0.391295  1.87325 255 255 255
 0.430469 0.0653814   1.74961 255 255 255
-0.0800937   0.196954    1.98561 255 255 255
0.392659 0.225563  1.76009 255 255 255
0.468449 0.135164  1.72942 255 255 255
 0.586731 0.0450868   1.68205 255 255 255
0.260141 0.287078  1.81944 255 255 255
0.249834 0.397287  1.82304 255 255 255
-0.0670468   0.314416    1.97424 255 255 255
 0.537337 0.0135792   1.70656 255 255 255
 0.267948 0.0327747   1.82577 255 255 255
 0.226854 0.0234911   1.84705 255 255 255
 0.599716 -0.304898   1.70292 255 255 255
 0.496428 -0.297997    1.7499 255 255 255
-0.00361305   -0.331791       1.982 255 255 255
0.0772388 -0.318475   1.94725 255 255 255
  0.436554 -0.0687638    1.75548 255 255 255
0.152189 0.375174  1.86828 255 255 255
0.173809 0.340905  1.85925 255 255 255
0.0870185 -0.124853   1.92472 255 255 255
 0.16321 0.328683  1.86495 255 255 255
 0.19789 0.306139  1.84927 255 255 255
 0.160579 -0.043848   1.88268 255 255 255
  0.393793 -0.0623507    1.77437 255 255 255
 0.46689 0.365272  1.72143 255 255 255
 0.602956 -0.187708   1.69188 255 255 255
 0.28836 0.255064  1.81003 255 255 255
0.415472 0.373778  1.74495 255 255 255
 0.386238 -0.289214   1.79907 255 255 255
0.278978   0.3839  1.80858 255 255 255
0.0139391  0.223009   1.94055 255 255 255
0.476775 0.363523  1.71631 255 255 255
 0.188634 0.0285379   1.86473 255 255 255
 0.546242 -0.291752   1.72627 255 255 255
0.0926409   0.15963    1.9055 255 255 255
 0.17343 0.268292  1.86164 255 255 255
 0.316425 0.0129061   1.80529 255 255 255
-0.0946136 -0.0447969    2.00769 255 255 255
0.229873 0.207916  1.83718 255 255 255
0.0652316  0.254047   1.91397 255 255 255
0.0307376  0.358203   1.92765 255 255 255
0.00937043  0.0221747    1.95325 255 255 255
 0.040586 -0.178738   1.95247 255 255 255
0.186047 0.337127  1.85436 255 255 255
 0.546151 -0.141783   1.71195 255 255 255
 0.240656 0.0148018   1.84036 255 255 255
-0.0804631  -0.113221    2.00439 255 255 255
0.274642  0.28355  1.81417 255 255 255
 0.341551 -0.289883   1.81907 255 255 255
0.311496 0.265683  1.79658 255 255 255
 0.379907 0.0760291   1.77279 255 255 255
 0.19693 0.323345  1.84953 255 255 255
  0.306846 -0.0371333    1.81234 255 255 255
 0.161463 -0.235621   1.89796 255 255 255
0.121789 0.368436  1.88414 255 255 255
0.00200323   0.314425    1.94462 255 255 255
  0.123152 -0.0569255    1.90124 255 255 255
-0.0590336  -0.094407    1.99446 255 255 255
 0.224841 -0.254712   1.87031 255 255 255
-0.0452118  -0.231652    1.99607 255 255 255
0.107309 0.315334  1.89211 255 255 255
-0.103576 0.0902346   2.00421 255 255 255
  0.387364 -0.0214299     1.7748 255 255 255
 0.524408 0.0959752   1.70611 255 255 255
0.391231 0.271436  1.75926 255 255 255
0.265864 0.183755  1.82056 255 255 255
 0.45032 0.142299  1.73698 255 255 255
0.060346 0.165514  1.92134 255 255 255
0.104821 0.340327  1.89301 255 255 255
 0.400538 -0.310974    1.7932 255 255 255
 0.635667 -0.299512   1.68496 255 255 255
  0.412217 0.00511571    1.76177 255 255 255
-0.022393  0.149568   1.96219 255 255 255
0.0773297 -0.166826   1.93726 255 255 255
0.00488162  -0.302508    1.97763 255 255 255
 0.355599 -0.076488   1.79293 255 255 255
0.192636 0.317547  1.85253 255 255 255
  0.444711 -0.0650559    1.75142 255 255 255
-0.0820948   0.160308    1.98998 255 255 255
0.260805 0.303706  1.82042 255 255 255
-0.0607786   0.186028    1.97817 255 255 255
 0.578244 -0.246672   1.70799 255 255 255
 0.460686 0.0725707   1.73535 255 255 255
 0.269944 0.0691477    1.8234 255 255 255
0.491661  0.28699  1.71263 255 255 255
  0.594399 -0.0487015    1.68518 255 255 255
0.394125 0.216828  1.75913 255 255 255
 0.111511 -0.122592   1.91283 255 255 255
 0.434498 0.0924207   1.74637 255 255 255
-0.0573058   0.148853    1.97909 255 255 255
0.0486419 0.0453115    1.9324 255 255 255
0.534043 0.095118  1.70253 255 255 255
0.148766 0.352132  1.87102 255 255 255
 0.597979 -0.298308   1.70228 255 255 255
-0.0444994 -0.0576387     1.9849 255 255 255
  0.427254 -0.0372169    1.76329 255 255 255
 0.112151 -0.152943   1.91348 255 255 255
0.054002 0.289798  1.91851 255 255 255
0.457507 0.366891  1.72586 255 255 255
  0.633967 -0.0712609     1.6689 255 255 255
 0.633661 -0.241552   1.68167 255 255 255
 0.667157 -0.139191   1.65842 255 255 255
0.341162  0.11604  1.78821 255 255 255
 0.264546 -0.261709    1.8525 255 255 255
 0.629518 -0.298849   1.68756 255 255 255
0.353546 0.292513  1.77347 255 255 255
0.0131862 -0.366946   1.97899 255 255 255
  0.11485 0.0227121    1.9005 255 255 255
0.466864 0.129225     1.73 255 255 255
 0.19683 0.357343  1.84787 255 255 255
0.0851448 0.0269434   1.91392 255 255 255
   0.46071 -0.0781167    1.74408 255 255 255
-0.0159497   0.252387      1.955 255 255 255
 0.134986 0.0164987   1.89075 255 255 255
  0.382798 -0.0159602    1.77535 255 255 255
 0.179977 -0.064639   1.87521 255 255 255
0.101727 0.276298  1.89526 255 255 255
  0.644443 -0.0776443    1.66447 255 255 255
0.0453062 -0.202986   1.95147 255 255 255
  0.339957 -0.0383641    1.79741 255 255 255
0.479988 0.113504  1.72499 255 255 255
  0.345623 -0.0627282    1.79678 255 255 255
0.0781284 -0.310431   1.94404 255 255 255
0.132097 0.235781  1.88324 255 255 255
 0.43608 0.181612  1.74088 255 255 255
0.476344 -0.16668  1.74546 255 255 255
0.335158  -0.3115  1.82475 255 255 255
0.479286 0.192984  1.72087 255 255 255
  0.358903 -0.0631647      1.791 255 255 255
 0.228507 0.0446728   1.84442 255 255 255
0.285012 0.234943  1.81102 255 255 255
 0.297969 -0.222674   1.83411 255 255 255
0.615999 0.046243  1.67002 255 255 255
0.0333617  0.271733   1.92868 255 255 255
0.135392 0.316227   1.8789 255 255 255
 0.582228 -0.106033   1.69441 255 255 255
0.214305 0.167892  1.84597 255 255 255
 0.277167 -0.296325   1.84967 255 255 255
0.220793 0.184927  1.84216 255 255 255
 0.245173 -0.101767   1.84662 255 255 255
  0.30991 -0.256724   1.83107 255 255 255
-0.0328949 -0.0690373    1.98011 255 255 255
 0.555212 -0.272569   1.72078 255 255 255
0.182849 0.176591  1.86039 255 255 255
0.340112 0.196796  1.78479 255 255 255
0.0459702  0.217042   1.92562 255 255 255
0.188665 0.167306  1.85757 255 255 255
0.373046 0.370437  1.76499 255 255 255
0.258896 0.278069   1.8208 255 255 255
0.392094 0.198159  1.76121 255 255 255
-0.00707717  -0.0757795     1.96807 255 255 255
 0.034642 -0.150036   1.95306 255 255 255
 0.564464 -0.222972   1.71294 255 255 255
 0.245058 0.0750249   1.83548 255 255 255
 0.170375 -0.319426   1.90233 255 255 255
 0.653839 -0.127878   1.66398 255 255 255
  0.19238 -0.106204   1.87264 255 255 255
-0.128787  0.194421   2.00873 255 255 255
 0.193457 -0.153018   1.87532 255 255 255
0.212037 0.040784  1.85286 255 255 255
  0.561634 -0.0226199    1.69746 255 255 255
 0.372246 0.0276097   1.77844 255 255 255
 0.09706 0.323857   1.8972 255 255 255
-0.0582852   0.224671    1.97478 255 255 255
0.336609 0.290442  1.78387 255 255 255
0.0353954  0.351222   1.92596 255 255 255
0.411724 0.280238  1.74871 255 255 255
0.123615 0.310002  1.88521 255 255 255
-0.0154568 -0.0910714    1.97303 255 255 255
 0.279745 0.0818733   1.81855 255 255 255
0.0549369 -0.274704   1.95221 255 255 255
 0.0672719 -0.0966069    1.93673 255 255 255
0.206261  0.13266  1.85107 255 255 255
 0.198811 0.0964521   1.85575 255 255 255
0.052696 0.252287  1.92025 255 255 255
0.0487015   -0.1536   1.94647 255 255 255
-0.0918905  0.0267315    1.99896 255 255 255
0.0874467 -0.238037   1.93342 255 255 255
 0.153882 0.0349069   1.88128 255 255 255
 0.221097 0.0187506   1.84945 255 255 255
0.444983 0.274666  1.73383 255 255 255
  0.633116 -0.0298941    1.66705 255 255 255
0.419398 0.123783  1.75172 255 255 255
 0.505053 -0.244222   1.74038 255 255 255
0.302717 0.204574  1.80258 255 255 255
0.380547  0.18984  1.76598 255 255 255
  0.506379 -0.0420245     1.7226 255 255 255
  0.56281 -0.212719   1.71148 255 255 255
0.174597 0.228213  1.86316 255 255 255
0.454023 0.279534  1.72896 255 255 255
0.241651 0.341752  1.82736 255 255 255
  0.261507 -0.0710397    1.83727 255 255 255
 0.509197 -0.298693   1.74283 255 255 255
0.242717 0.169478  1.83201 255 255 255
 0.201849 0.0280785   1.85815 255 255 255
 0.341565 0.0190082   1.79327 255 255 255
  0.21858 -0.190405   1.86658 255 255 255
 0.354049 -0.303299   1.81496 255 255 255
0.619301 0.150198  1.66313 255 255 255
 0.203028 0.0514234   1.85669 255 255 255
 0.544667 0.0914866   1.69808 255 255 255
-0.0702155  0.0363081    1.99162 255 255 255
0.233365 0.201659  1.83618 255 255 255
-0.012307 -0.361794   1.98721 255 255 255
 0.677414 -0.261549   1.66202 255 255 255
  0.600007 -0.0868167     1.6853 255 255 255
0.0989685  0.235879   1.89871 255 255 255
  0.3387 0.188393  1.78641 255 255 255
   0.31915 -0.0374316     1.8066 255 255 255
0.259161 -0.17305  1.84733 255 255 255
  0.590099 -0.0131155    1.68518 255 255 255
 0.188205 -0.333279   1.89509 255 255 255
0.0563015 -0.062464   1.93504 255 255 255
 0.355978 0.0433617   1.78519 255 255 255
 0.561667 -0.193015   1.71319 255 255 255
 0.311747 -0.209292   1.82683 255 255 255
 0.249852 -0.273972    1.8601 255 255 255
 0.398604 0.0494537   1.76587 255 255 255
-0.0309165  -0.310126    1.99456 255 255 255
 0.142695 0.0463849   1.88565 255 255 255
0.115333 0.312968  1.88844 255 255 255
  0.532819 -0.0886461    1.71416 255 255 255
0.503146 0.105167  1.71462 255 255 255
0.320745 0.354625  1.78916 255 255 255
0.357192  0.23518  1.77595 255 255 255
 0.359895 0.0154714    1.7846 255 255 255
 0.556381 -0.112811   1.70773 255 255 255
0.208074 0.382025  1.84224 255 255 255
 0.606252 -0.198958    1.6909 255 255 255
 0.254411 0.0566461   1.83176 255 255 255
 0.647321 0.0764676   1.65322 255 255 255
  0.666341 -0.0111676     1.6501 255 255 255
  0.628521 -0.0132803    1.66875 255 255 255
  0.165845 -0.0564328    1.88072 255 255 255
0.492742 0.197545  1.71478 255 255 255
 0.567681 -0.195043   1.70844 255 255 255
 0.219095 0.0838342   1.84855 255 255 255
0.273541 0.124582   1.8192 255 255 255
 0.316971 0.0754382   1.80108 255 255 255
 0.122748 -0.171044   1.90972 255 255 255
0.102862 0.119136  1.90228 255 255 255
 0.31582 0.175482  1.79728 255 255 255
 0.252292 0.0229248   1.83455 255 255 255
  0.338401 -0.0299939    1.79743 255 255 255
 0.30106 0.330168   1.7995 255 255 255
0.0826051  0.122385   1.91101 255 255 255
0.0319846  0.235526   1.93069 255 255 255
0.624447 0.115086  1.66126 255 255 255
0.532378  0.21794  1.69708 255 255 255
-0.0270613   0.321848    1.95582 255 255 255
 0.552464 0.0920098   1.69389 255 255 255
0.627092 0.203535  1.65384 255 255 255
0.129749 0.359554  1.87992 255 255 255
-0.0946555   0.287726    1.98736 255 255 255
0.397749 0.197599  1.75826 255 255 255
 0.552209 -0.193719   1.71587 255 255 255
 0.216028 -0.284652     1.877 255 255 255
0.334608 0.396709  1.78249 255 255 255
0.0426026  0.107402   1.93298 255 255 255
0.156903 0.190968  1.87249 255 255 255
-0.0687165   0.324467    1.97428 255 255 255
 0.386035 -0.212985   1.79254 255 255 255
0.209001 0.212522  1.84582 255 255 255
 0.250162 0.0365248   1.83424 255 255 255
0.362419  0.24029  1.77276 255 255 255
0.641891 0.151244  1.65064 255 255 255
0.417965 0.259644  1.74686 255 255 255
-0.0288163  -0.335288    1.99054 255 255 255
  0.21585 -0.320524   1.88034 255 255 255
 0.113363 0.0447298    1.8999 255 255 255
 0.277654 -0.141205   1.83457 255 255 255
0.540135  0.27871  1.69131 255 255 255
 0.32392 0.185545  1.79506 255 255 255
-0.0139394   0.242098    1.95328 255 255 255
 0.295768 -0.315081   1.84033 255 255 255
0.634252 0.109585  1.65711 255 255 255
0.174702 0.191269  1.86206 255 255 255
 0.152277 -0.052873   1.88742 255 255 255
0.622764 0.266083  1.65237 255 255 255
  0.66112 -0.190187   1.66341 255 255 255
 0.600631 -0.253527   1.69767 255 255 255
0.236792 0.314964  1.83061 255 255 255
  0.582804 -0.0299667    1.68991 255 255 255
-0.0950721 -0.0281819    2.00622 255 255 255
0.0345978 0.0991598   1.93564 255 255 255
 0.255823 -0.288468   1.85927 255 255 255
 0.246866 0.0690855   1.83437 255 255 255
0.0149325  0.214476   1.94228 255 255 255
0.236931  0.03759  1.84116 255 255 255
 0.597527 -0.160064    1.6921 255 255 255
 0.518507 0.0207588   1.71446 255 255 255
 0.298027 -0.228753   1.83383 255 255 255
-0.0583932  -0.256357    2.00465 255 255 255
 0.553405 -0.323846   1.72487 255 255 255
-0.0770405  0.0357067    1.99482 255 255 255
0.0849955  0.265516    1.9059 255 255 255
0.196611 0.242912  1.85358 255 255 255
  0.395634 0.00893945    1.76908 255 255 255
0.569432 0.217438  1.68005 255 255 255
0.544029 0.264054  1.69033 255 255 255
   0.42081 -0.0148215    1.75939 255 255 255
0.276664 0.224482  1.81471 255 255 255
-0.082749  0.153483   1.98886 255 255 255
 0.158599 0.0570883   1.87844 255 255 255
 0.455066 -0.285795   1.76511 255 255 255
 0.196214 -0.223309   1.88097 255 255 255
  0.595232 -0.0152881    1.68292 255 255 255
 0.331922 -0.115285   1.80843 255 255 255
0.649547 0.115475   1.6492 255 255 255
  0.138633 -0.0508044    1.89332 255 255 255
  0.534348 -0.0449436    1.71061 255 255 255
 0.32623 0.190572   1.7919 255 255 255
 0.288956 0.0067257   1.81807 255 255 255
 0.301305 0.0786725   1.80923 255 255 255
  0.2058 0.304954  1.84571 255 255 255
0.650812 0.158148  1.64673 255 255 255
 0.433738 0.0109379   1.75065 255 255 255
0.412129 0.158779  1.75298 255 255 255
-0.0627097  0.0423113    1.98598 255 255 255
0.350063 0.210348  1.78038 255 255 255
0.232062  0.25475  1.83685 255 255 255
 0.349238 -0.245934   1.81198 255 255 255
0.0820998 -0.269437   1.93922 255 255 255
 0.376926 -0.226008   1.79664 255 255 255
-0.0129405   0.235506    1.95199 255 255 255
 0.317086 0.0699693    1.8008 255 255 255
0.275247 0.180089  1.81715 255 255 255
 0.432721 -0.215914   1.77102 255 255 255
 0.492879 -0.243786   1.74526 255 255 255
 0.121698 -0.322055   1.92434 255 255 255
  0.302071 -0.0416802    1.81563 255 255 255
0.612222 0.359271  1.65111 255 255 255
0.0313646  0.189188   1.93346 255 255 255
 0.13924 0.238615  1.87992 255 255 255
-0.0777912    0.14597    1.98917 255 255 255
-0.017911 -0.108187   1.97568 255 255 255
0.0457269  0.141906   1.92819 255 255 255
  0.542589 -0.0496192    1.70741 255 255 255
 0.620235 -0.305098   1.69324 255 255 255
0.0408143  0.149879   1.93021 255 255 255
-0.0717048   0.159743     1.9856 255 255 255
0.290823 0.198452  1.80827 255 255 255
-0.0560437   0.328613     1.9684 255 255 255
 0.353893 -0.287783   1.81347 255 255 255
 0.50826 0.296706  1.70426 255 255 255
0.342807 0.361773  1.77873 255 255 255
0.348547 0.176057  1.78209 255 255 255
0.201403 0.151557  1.85268 255 255 255
  0.37103 -0.226562   1.79987 255 255 255
0.669312 0.100869  1.64166 255 255 255
0.447049  0.13307  1.73798 255 255 255
0.354016 0.112634   1.7825 255 255 255
0.0647626  0.126467   1.91962 255 255 255
0.310711 0.170768   1.7992 255 255 255
-0.118479  0.179813   2.00355 255 255 255
  0.584241 -0.0127449    1.68724 255 255 255
0.309386 0.398894  1.79234 255 255 255
0.406823  0.26469  1.75202 255 255 255
0.396709   0.2828  1.75557 255 255 255
0.0166069 -0.288962   1.97184 255 255 255
  0.620964 -0.0276828     1.6717 255 255 255
-0.050154   0.15789    1.9751 255 255 255
0.231799 0.310129  1.83261 255 255 255
  0.186817 -0.0360311    1.87008 255 255 255
0.267157 0.293963   1.8177 255 255 255
0.0412832 -0.148586    1.9494 255 255 255
-0.0654749 -0.0133368    1.99186 255 255 255
0.399376 0.217536  1.75582 255 255 255
 0.57433 0.115327  1.68259 255 255 255
0.150592 0.186232  1.87518 255 255 255
0.361187 0.246706  1.77358 255 255 255
   0.41162 -0.0542127    1.76737 255 255 255
0.310594 0.224352  1.79922 255 255 255
0.355685 0.398372  1.77198 255 255 255
 0.360256 0.0537965   1.78223 255 255 255
0.453942 0.285173  1.73009 255 255 255
  0.253629 -0.0720224    1.84014 255 255 255
0.227033 0.259611  1.83658 255 255 255
  0.37018 -0.318901   1.80825 255 255 255
  0.105421 -0.0722612    1.91103 255 255 255
0.353875 0.105764   1.7829 255 255 255
0.251049 0.175456  1.82813 255 255 255
 0.176266 0.0534183   1.86969 255 255 255
 0.347564 0.0722795   1.78691 255 255 255
0.0201576  0.184297   1.93902 255 255 255
 0.206717 -0.299665   1.88332 255 255 255
-0.0211882 -0.0788908    1.97606 255 255 255
0.146036 0.373803  1.87216 255 255 255
0.339126 0.399872   1.7799 255 255 255
-0.137526  0.295648   2.00449 255 255 255
0.220298 0.312238  1.83778 255 255 255
0.489331    0.224  1.71667 255 255 255
0.0789588 -0.248753   1.93936 255 255 255
0.495181 0.104375  1.71865 255 255 255
0.457054 0.153807  1.73141 255 255 255
 0.33436 0.283081  1.78641 255 255 255
 0.0821197 -0.0491357    1.92026 255 255 255
0.655779 0.114924  1.64628 255 255 255
-0.0801542   0.268082     1.9819 255 255 255
 0.535089 -0.266004   1.72931 255 255 255
0.618468 0.258172   1.6553 255 255 255
-0.0693652   0.206938    1.98201 255 255 255
0.263795 0.298578   1.8191 255 255 255
0.325959 0.199905  1.79161 255 255 255
-0.00360074    0.234466     1.95078 255 255 255
  0.32222 0.0356239   1.80057 255 255 255
0.631326 0.132972  1.65673 255 255 255
 0.565147 0.0187242   1.69388 255 255 255
 0.487371 0.0570938   1.72471 255 255 255
-0.0272967  -0.261651    1.98862 255 255 255
 0.285358 0.0388982   1.81746 255 255 255
0.0353983  0.316255   1.92703 255 255 255
 0.536579 0.0626454   1.70306 255 255 255
 0.617357 -0.329101   1.69747 255 255 255
 0.117106 -0.292964   1.92528 255 255 255
0.337148 0.405153  1.77961 255 255 255
0.382307 0.115742  1.76886 255 255 255
0.180118 0.203885  1.86076 255 255 255
0.000945537     0.19079     1.94885 255 255 255
  0.58695 -0.192779   1.70045 255 255 255
 0.400558 -0.076878   1.77326 255 255 255
0.374331 0.205354  1.76906 255 255 255
0.626248 0.186033  1.65651 255 255 255
0.140276 0.100067  1.88458 255 255 255
0.294544 0.257362  1.80619 255 255 255
0.0873011  0.239369   1.90344 255 255 255
0.58152 0.17517  1.6766 255 255 255
 0.20234 0.257933  1.84861 255 255 255
0.151911 0.116614  1.87704 255 255 255
0.216586 0.304265  1.84121 255 255 255
0.527023 0.208722  1.69959 255 255 255
 0.25372 0.154155   1.8278 255 255 255
0.216198 0.195386   1.8446 255 255 255
0.299899 0.256446  1.80238 255 255 255
 0.133425 -0.154424   1.90444 255 255 255
 0.12146 0.361378  1.88412 255 255 255
  0.121581 -0.0463501    1.90113 255 255 255
0.0905551  0.202599   1.90337 255 255 255
0.618785 -0.17838  1.68355 255 255 255
0.074207 0.310855  1.90761 255 255 255
0.0461252  0.262657   1.92353 255 255 255
 0.132863 -0.291955   1.91723 255 255 255
 0.395594 -0.339596   1.79767 255 255 255
 0.602586 -0.182152   1.69322 255 255 255
 0.445665 0.0308526   1.74283 255 255 255
0.259157 0.301017  1.82099 255 255 255
 0.349136 -0.212185   1.80885 255 255 255
0.00583856  -0.078953    1.96174 255 255 255
 0.455507 -0.141816   1.75325 255 255 255
  0.347393 -0.0347918    1.79432 255 255 255
0.314262  0.12221   1.7988 255 255 255
 0.189461 0.0638239   1.86053 255 255 255
0.0890815 -0.330996   1.94023 255 255 255
0.276102 0.292549  1.81368 255 255 255
0.228365 0.302254  1.83575 255 255 255
0.246381 0.301843  1.82658 255 255 255
0.0514233 -0.268172   1.95266 255 255 255
0.621171 0.281489  1.65138 255 255 255
0.112332 0.150387  1.89566 255 255 255
 0.0286224 0.00902143    1.94414 255 255 255
  0.512065 -0.0349055    1.71945 255 255 255
0.0386925 0.0218246   1.93761 255 255 255
 0.392125 0.0999585   1.76513 255 255 255
0.168885 0.165155  1.86738 255 255 255
0.403881 0.198687  1.75541 255 255 255
 0.600145 -0.310415   1.70237 255 255 255
0.352223 0.279232  1.77692 255 255 255
 0.521262 -0.146096   1.72376 255 255 255
0.381246 0.131362   1.7682 255 255 255
  0.638251 -0.0475118    1.66582 255 255 255
0.364961 0.234128  1.77292 255 255 255
 0.310533 -0.318575   1.83607 255 255 255
  0.134454 -0.0989447    1.89827 255 255 255
 0.325015 0.0473893   1.79876 255 255 255
 0.34839 0.397563  1.77519 255 255 255
 0.12801 0.170471  1.88696 255 255 255
  0.443042 -0.0367026    1.74967 255 255 255
 0.480971 -0.290825   1.75635 255 255 255
0.359977 0.134722  1.77816 255 255 255
 0.132634 -0.273174   1.91544 255 255 255
 0.261014 -0.283135   1.85658 255 255 255
0.264494 0.251754  1.82101 255 255 255
0.0920189 0.0923893   1.90819 255 255 255
0.258964 0.136948  1.82573 255 255 255
 0.261709 0.0563862   1.82852 255 255 255
 0.168902 -0.240883   1.89503 255 255 255
  0.0587688 -0.00775417     1.92913 255 255 255
 0.346129 -0.304267   1.81724 255 255 255
0.27535  0.2982 1.81336 255 255 255
0.203023  0.22342  1.84899 255 255 255
0.0985885 -0.278272   1.93188 255 255 255
 0.248244 -0.217119   1.85583 255 255 255
-0.124238  0.208498   2.00483 255 255 255
 0.356159 -0.211127   1.80516 255 255 255
 0.249349 0.0577731   1.83469 255 255 255
0.051311 0.259971  1.92129 255 255 255
0.328598 0.368789  1.78623 255 255 255
 0.364995 -0.252561   1.80441 255 255 255
  0.392947 -0.0147574    1.77136 255 255 255
0.169504 -0.33003  1.90253 255 255 255
0.248309 0.255496  1.82843 255 255 255
0.101234  0.25159  1.89641 255 255 255
0.319101 0.107008  1.79843 255 255 255
0.384506 0.154684  1.76636 255 255 255
-0.0367222   0.303156     1.9613 255 255 255
0.419949 0.105002  1.75191 255 255 255
  0.158932 0.00755594    1.87975 255 255 255
  0.384901 -0.0269075    1.77655 255 255 255
  0.368749 -0.0347924    1.78409 255 255 255
   0.2157 -0.335323     1.882 255 255 255
0.407373 0.092124  1.75806 255 255 255
 0.394305 -0.212172   1.78715 255 255 255
 0.283103 -0.214873    1.8391 255 255 255
-0.000991556     0.199604      1.94879 255 255 255
 0.505772 -0.310885   1.74146 255 255 255
 0.107202 -0.307629   1.93064 255 255 255
 0.375171 0.0186219   1.77794 255 255 255
0.353195 0.205283  1.77931 255 255 255
 -0.0513486 -0.00376837      1.9863 255 255 255
 0.267718 0.0548367   1.82557 255 255 255
0.190269 0.229575  1.85605 255 255 255
0.0304671 -0.300362   1.96582 255 255 255
0.0912604  0.248894   1.90258 255 255 255
0.140256  0.14428  1.88239 255 255 255
0.140131 0.206466  1.88018 255 255 255
0.0311323  0.278475   1.93048 255 255 255
0.388849 0.244068  1.76089 255 255 255
0.528116 0.111222  1.70351 255 255 255
  0.158717 0.00195499    1.88107 255 255 255
-0.0371561  -0.276295    1.99477 255 255 255
 0.266676 -0.294399   1.85448 255 255 255
 0.311466 0.0491474   1.80583 255 255 255
 0.0246721 -0.0274154    1.94805 255 255 255
0.213266  -0.3256  1.88195 255 255 255
0.0686682 -0.294161   1.94724 255 255 255
0.194901  0.16639  1.85491 255 255 255
0.276958 0.260091  1.81364 255 255 255
 0.297918 0.0244776   1.81235 255 255 255
0.173731 0.356692  1.85887 255 255 255
-0.0507304   0.177686    1.97421 255 255 255
0.297391 0.249996    1.804 255 255 255
 0.140578 -0.233367   1.90714 255 255 255
 0.472019 -0.302205   1.76064 255 255 255
0.270232 0.199462  1.81882 255 255 255
0.495921 0.218524  1.71258 255 255 255
0.298043 -0.25279  1.83619 255 255 255
0.295542 0.031113  1.81393 255 255 255
  0.508927 -0.0475692    1.72166 255 255 255
0.341459 0.216993  1.78394 255 255 255
 0.334713 -0.291488   1.82192 255 255 255
 0.020781 -0.336769   1.97248 255 255 255
 0.33361 0.106017  1.79227 255 255 255
0.587749 0.348077  1.66401 255 255 255
-0.0680451   0.238708     1.9787 255 255 255
-0.0964667  0.0337329    2.00474 255 255 255
  0.605868 -0.0533308    1.68158 255 255 255
0.210867 0.245025  1.84504 255 255 255
 0.372856 0.0516675   1.77659 255 255 255
 0.375858 -0.264605   1.80099 255 255 255
 0.448812 0.0269785   1.74326 255 255 255
 0.555517 -0.235857    1.7173 255 255 255
 0.426859 0.0694041   1.75067 255 255 255
  0.541924 -0.0109477    1.70568 255 255 255
 0.323719 -0.146089   1.81417 255 255 255
  0.42783 -0.232092   1.77348 255 255 255
 0.204505 0.0189157   1.85786 255 255 255
0.428391  0.26936  1.74176 255 255 255
   0.4511 0.0949354   1.73839 255 255 255
 0.346071 0.0312188   1.79005 255 255 255
0.120813 0.156092  1.89071 255 255 255
  0.190075 -0.0589887    1.86963 255 255 255
  -0.05001 -0.0876611    1.98956 255 255 255
 0.141636 -0.264192    1.9108 255 255 255
 0.516447 0.0943955    1.7097 255 255 255
0.0227496  0.225078   1.93781 255 255 255
0.309942 0.158447  1.80203 255 255 255
 0.296142 0.0826095   1.81115 255 255 255
 0.422362 -0.314499   1.78501 255 255 255
 0.311198 -0.336232   1.83682 255 255 255
0.257384 0.236426  1.82422 255 255 255
 0.328831 -0.209553   1.81758 255 255 255
  0.60867 -0.244354   1.69356 255 255 255
0.154533 0.145998   1.8752 255 255 255
0.356022  0.12609  1.78006 255 255 255
0.0519517  0.296296   1.91978 255 255 255
0.547979 0.136752    1.694 255 255 255
0.333367 0.372048  1.78383 255 255 255
0.0868845  0.245186   1.90415 255 255 255
 0.032394 -0.156999   1.95329 255 255 255
0.378364 0.127923  1.77047 255 255 255
 0.293335 -0.248178   1.83825 255 255 255
 0.310122 -0.313058   1.83473 255 255 255
-0.0340579   0.251071    1.96218 255 255 255
0.568347 0.206132  1.68186 255 255 255
  0.563093 -0.0360217    1.69808 255 255 255
0.257345   0.2541  1.82443 255 255 255
 0.462279 0.0538544   1.73523 255 255 255
0.368621 0.167566  1.77298 255 255 255
0.0842152 -0.103102   1.92321 255 255 255
0.319402 0.337783  1.79141 255 255 255
 0.515566 0.0110982   1.71297 255 255 255
 0.469846 0.0222859   1.73414 255 255 255
 0.249201 0.0419219   1.83571 255 255 255
 0.293412 0.0467822   1.81347 255 255 255
0.295233 0.120218  1.80951 255 255 255
  0.57736 -0.298692   1.71234 255 255 255
  0.171318 -0.0532285     1.8784 255 255 255
 0.400856 0.0989306   1.76098 255 255 255
 0.528972 -0.241205   1.72942 255 255 255
  0.35578 -0.228617   1.80797 255 255 255
0.276032 0.377748  1.80935 255 255 255
 0.303946 -0.319093   1.83936 255 255 255
0.256086 0.329305  1.82176 255 255 255
 0.26845 -0.21958  1.84766 255 255 255
0.093152 0.102225   1.9074 255 255 255
0.228111 0.240693  1.83795 255 255 255
 0.211763 0.0187613   1.85507 255 255 255
 0.34591 0.227584  1.78145 255 255 255
 0.578396 0.0888685   1.68302 255 255 255
-0.0995278   0.177022    1.99617 255 255 255
 0.335635 -0.317769   1.82388 255 255 255
 0.523544 -0.203666   1.72815 255 255 255
0.301239 0.370797  1.79837 255 255 255
 0.370636 -0.059015   1.78579 255 255 255
0.489536 0.304103  1.71297 255 255 255
 0.271623 -0.247549    1.8477 255 255 255
 0.226665 -0.227627   1.86722 255 255 255
 0.234546 -0.286093   1.86777 255 255 255
   0.22504 -0.0552563    1.85262 255 255 255
0.0313505  0.166584   1.93431 255 255 255
  0.26258 -0.301785    1.8568 255 255 255
  0.1969 0.102743  1.85706 255 255 255
0.176874 0.173775  1.86349 255 255 255
0.389751 0.135261  1.76452 255 255 255
0.280028 0.063057  1.81867 255 255 255
0.0242739  0.243969   1.93413 255 255 255
0.0357352 0.0265059   1.94017 255 255 255
0.230474 0.400785  1.83156 255 255 255
 0.352706 0.0852424   1.78425 255 255 255
 0.225072 0.0879503   1.84361 255 255 255
0.0076286   0.30776   1.93949 255 255 255
0.026274 0.100337  1.93935 255 255 255
 0.447309 0.0563898   1.74252 255 255 255
 0.395007 0.0147088   1.76976 255 255 255
-0.0241366  -0.106927    1.97804 255 255 255
-0.0283967  -0.220546    1.98731 255 255 255
0.234474 0.223613  1.83508 255 255 255
0.263595 0.232229  1.82047 255 255 255
-0.133661  0.299935   2.00272 255 255 255
0.320757 0.299306  1.79163 255 255 255
-0.0333807 -0.0492364    1.97886 255 255 255
   0.37666 -0.0155334     1.7788 255 255 255
0.216584  0.18965  1.84363 255 255 255
 0.164666 0.0514819   1.87448 255 255 255
0.122561 0.253467  1.88729 255 255 255
0.00302636  -0.112151    1.96473 255 255 255
-0.0617946    0.24109    1.97599 255 255 255
   0.46072 -0.0171394    1.74102 255 255 255
 0.38154 0.049936  1.77279 255 255 255
0.0224292 -0.360455   1.97552 255 255 255
0.371478 0.202182  1.77169 255 255 255
  0.273524 -0.0191822    1.82773 255 255 255
0.431339 0.123147  1.74625 255 255 255
 0.345648 -0.276738   1.81568 255 255 255
-0.00253256  -0.0812412     1.96467 255 255 255
0.406044 0.389338  1.74813 255 255 255
0.0641893 0.0204221   1.92436 255 255 255
 0.525678 -0.168673   1.72493 255 255 255
 0.271702 0.0428691   1.82346 255 255 255
 0.174718 -0.134987   1.88277 255 255 255
