ply
format ascii 1.0
element vertex 1149
property float x
property float y
property float z
property uchar red
property uchar green
property uchar blue
end_header
  0.159526 -0.0437462    1.87977 255 255 255
  0.393026 -0.0628412    1.77093 255 255 255
0.467254 0.365039  1.71732 255 255 255
 0.601723 -0.188812   1.68754 255 255 255
0.288453 0.255294  1.80689 255 255 255
0.41591 0.37376 1.74114 255 255 255
 0.384747 -0.289898   1.79567 255 255 255
0.279438 0.384352  1.80545 255 255 255
0.0134217  0.223881   1.93791 255 255 255
0.477123 0.363259  1.71214 255 255 255
 0.187881 0.0286771   1.86185 255 255 255
 0.544799 -0.292749   1.72233 255 255 255
0.0920993  0.160225   1.90278 255 255 255
0.173409 0.268853  1.85887 255 255 255
 0.315824 0.0127175   1.80211 255 255 255
-0.0962947 -0.0440717    2.00439 255 255 255
0.229758 0.208229  1.83425 255 255 255
0.0649398  0.254855   1.91136 255 255 255
0.0307072   0.35925   1.92516 255 255 255
0.00817314  0.0227206    1.95034 255 255 255
0.0387764 -0.178482   1.94927 255 255 255
0.186259 0.337764  1.85157 255 255 255
 0.545122 -0.142742   1.70788 255 255 255
 0.239958 0.0147977   1.83739 255 255 255
-0.0823403   -0.11259    2.00099 255 255 255
0.274808 0.283858  1.81108 255 255 255
 0.340005 -0.290466   1.81578 255 255 255
0.311646 0.265863  1.79336 255 255 255
 0.379547 0.0757727   1.76936 255 255 255
0.197116 0.323932   1.8467 255 255 255
  0.306078 -0.0373645    1.80919 255 255 255
 0.159753 -0.235726   1.89484 255 255 255
0.121984 0.369292  1.88152 255 255 255
0.00175221   0.315476    1.94207 255 255 255
  0.121966 -0.0567243    1.89832 255 255 255
-0.0607989 -0.0938209    1.99115 255 255 255
0.223202 -0.25498  1.86717 255 255 255
-0.0474091  -0.231174    1.99253 255 255 255
0.107307 0.316139  1.88949 255 255 255
-0.104823 0.0911285   2.00117 255 255 255
  0.386717 -0.0218476    1.77138 255 255 255
 0.524033 0.0953798   1.70194 255 255 255
0.391416 0.271393  1.75566 255 255 255
0.265728 0.183937  1.81752 255 255 255
0.450141 0.141941  1.73318 255 255 255
0.0597475  0.166191   1.91863 255 255 255
0.104894 0.341174  1.89041 255 255 255
 0.398999 -0.311709   1.78978 255 255 255
 0.634126 -0.300598   1.68064 255 255 255
   0.41166 0.00468254    1.75824 255 255 255
-0.0232468   0.150403    1.95941 255 255 255
0.0756435 -0.166665   1.93411 255 255 255
0.00255954  -0.302161    1.97411 255 255 255
  0.354757 -0.0769042    1.78962 255 255 255
0.192793 0.318138  1.84971 255 255 255
  0.443951 -0.0656896    1.74777 255 255 255
-0.0830572   0.161272    1.98714 255 255 255
0.261015 0.304084  1.81738 255 255 255
-0.0615964   0.186957    1.97542 255 255 255
 0.576893 -0.247726   1.70385 255 255 255
 0.460316 0.0721103   1.73155 255 255 255
 0.269463 0.0691529   1.82036 255 255 255
0.491797 0.286669  1.70845 255 255 255
  0.593536 -0.0496927    1.68074 255 255 255
0.394167  0.21672  1.75557 255 255 255
 0.110075 -0.122482   1.90983 255 255 255
0.434191 0.092055   1.7427 255 255 255
-0.0582468    0.14975    1.97626 255 255 255
0.0476184 0.0458198   1.92957 255 255 255
 0.533648 0.0944877    1.6983 255 255 255
0.148961 0.352895  1.86834 255 255 255
 0.596487 -0.299361   1.69814 255 255 255
-0.046112 -0.056988   1.98172 255 255 255
  0.426553 -0.0377272    1.75968 255 255 255
 0.110615 -0.152855   1.91045 255 255 255
0.0538101  0.290651   1.91595 255 255 255
0.457887 0.366698  1.72181 255 255 255
  0.632962 -0.0723441    1.66425 255 255 255
0.632253 -0.24266  1.67725 255 255 255
 0.665908 -0.140389   1.65365 255 255 255
 0.3409 0.11594 1.78493 255 255 255
 0.262962 -0.262085   1.84932 255 255 255
 0.627986 -0.299946   1.68326 255 255 255
0.353799 0.292608  1.77006 255 255 255
0.0106606 -0.366544   1.97537 255 255 255
 0.113917 0.0230069   1.89767 255 255 255
0.466639 0.128829  1.72613 255 255 255
0.197117 0.357992  1.84504 255 255 255
0.0841571 0.0273205    1.9111 255 255 255
0.459917 -0.07879  1.74038 255 255 255
-0.0164457   0.253367    1.95238 255 255 255
 0.134079 0.0167426   1.88791 255 255 255
   0.38217 -0.0163641    1.77195 255 255 255
  0.178893 -0.0646031    1.87227 255 255 255
0.101587 0.277067  1.89262 255 255 255
0.643396 -0.07878  1.65976 255 255 255
0.043429 -0.20279  1.94824 255 255 255
  0.339223 -0.0386788    1.79416 255 255 255
 0.47971 0.113036  1.72105 255 255 255
  0.344817 -0.0630869    1.79352 255 255 255
0.0759593 -0.310351    1.9407 255 255 255
0.131892 0.236391  1.88054 255 255 255
0.436016 0.181349  1.73712 255 255 255
 0.475284 -0.167472   1.74173 255 255 255
 0.333527 -0.312089   1.82145 255 255 255
0.479215 0.192632  1.71687 255 255 255
  0.358105 -0.0635637    1.78768 255 255 255
  0.22788 0.0447446   1.84147 255 255 255
0.285047 0.235154  1.80791 255 255 255
 0.296571 -0.223091   1.83091 255 255 255
  0.61531 0.0453542   1.66534 255 255 255
0.0330586  0.272621   1.92611 255 255 255
0.135451 0.316958  1.87623 255 255 255
 0.581243 -0.107031    1.6901 255 255 255
0.214044 0.168182  1.84308 255 255 255
 0.275491 -0.296764   1.84646 255 255 255
0.220596 0.185226  1.83926 255 255 255
 0.244094 -0.101927   1.84358 255 255 255
 0.308423 -0.257204   1.82784 255 255 255
-0.0345134 -0.0684659    1.97694 255 255 255
 0.553815 -0.273566   1.71678 255 255 255
0.182558 0.176978  1.85757 255 255 255
0.340086 0.196803  1.78148 255 255 255
0.0455112  0.217824   1.92298 255 255 255
0.188357 0.167664  1.85474 255 255 255
0.373496 0.370544  1.76142 255 255 255
0.259034 0.278415  1.81778 255 255 255
0.392083 0.198042  1.75767 255 255 255
-0.00864983  -0.0753216     1.96495 255 255 255
 0.032913 -0.149707   1.94989 255 255 255
 0.563188 -0.223985   1.70884 255 255 255
0.244555 0.075099   1.8325 255 255 255
 0.168392 -0.319604    1.8991 255 255 255
 0.652651 -0.129044   1.65928 255 255 255
  0.19118 -0.106238   1.86965 255 255 255
-0.129738  0.195487   2.00587 255 255 255
 0.192104 -0.153123   1.87229 255 255 255
 0.211369 0.0408872   1.84994 255 255 255
  0.560898 -0.0235008    1.69318 255 255 255
 0.371742 0.0273124   1.77507 255 255 255
0.0970641  0.324696    1.8946 255 255 255
-0.0589624   0.225634    1.97211 255 255 255
0.336842 0.290583  1.78053 255 255 255
0.0353596   0.35222   1.92347 255 255 255
 0.41193 0.280119    1.745 255 255 255
0.123628 0.310755  1.88256 255 255 255
-0.0171023 -0.0906084    1.96987 255 255 255
 0.279315 0.0818723   1.81549 255 255 255
0.0528362 -0.274571   1.94887 255 255 255
 0.0657959 -0.0962943    1.93367 255 255 255
0.205874 0.132918  1.84819 255 255 255
 0.198299 0.0966686   1.85288 255 255 255
0.0523719  0.253108   1.91765 255 255 255
0.0470018  -0.15337   1.94334 255 255 255
-0.0933125  0.0274846    1.99586 255 255 255
0.0855509 -0.237946   1.93022 255 255 255
 0.153075 0.0351428   1.87843 255 255 255
0.220374 0.018801  1.84651 255 255 255
 0.44515 0.274471  1.72995 255 255 255
  0.632207 -0.0309921    1.66234 255 255 255
0.419182 0.123519   1.7481 255 255 255
 0.503759 -0.245126   1.73657 255 255 255
0.302684 0.204693  1.79942 255 255 255
0.380516 0.189726   1.7625 255 255 255
  0.505659 -0.0428123    1.71864 255 255 255
 0.561567 -0.213747   1.70738 255 255 255
 0.17445 0.228707  1.86036 255 255 255
0.454195 0.279329  1.72501 255 255 255
0.241952 0.342245  1.82439 255 255 255
   0.26056 -0.0712043    1.83422 255 255 255
 0.507746 -0.299645   1.73904 255 255 255
0.242506 0.169699  1.82905 255 255 255
 0.201122 0.0281856   1.85525 255 255 255
 0.341011 0.0187721   1.79001 255 255 255
 0.217156 -0.190619   1.86351 255 255 255
 0.352474 -0.303925   1.81163 255 255 255
0.618826 0.149409  1.65827 255 255 255
 0.202374 0.0515669   1.85379 255 255 255
 0.544245 0.0908418   1.69379 255 255 255
-0.0715635  0.0370506    1.98856 255 255 255
0.233235 0.201954  1.83324 255 255 255
-0.0148615  -0.361432    1.98353 255 255 255
 0.675883 -0.262673   1.65742 255 255 255
  0.599036 -0.0878883    1.68085 255 255 255
0.0986924  0.236578   1.89604 255 255 255
0.338647 0.188396  1.78311 255 255 255
  0.318398 -0.0376919    1.80342 255 255 255
 0.257866 -0.173326   1.84422 255 255 255
  0.589331 -0.0140697    1.68072 255 255 255
 0.186214 -0.333505   1.89186 255 255 255
 0.0549351 -0.0621384    1.93207 255 255 255
  0.35551 0.0431257   1.78187 255 255 255
 0.560459 -0.194082   1.70904 255 255 255
 0.310417 -0.209728   1.82362 255 255 255
 0.248199 -0.274323   1.85693 255 255 255
  0.39817 0.0490989   1.76237 255 255 255
-0.0333513   -0.30961     1.9909 255 255 255
 0.141901 0.0466688   1.88282 255 255 255
 0.11534 0.313748   1.8858 255 255 255
  0.531947 -0.0895429     1.7101 255 255 255
0.502825 0.104641  1.71056 255 255 255
0.321149 0.354893  1.78587 255 255 255
0.357279 0.235191  1.77254 255 255 255
 0.359346 0.0151821   1.78128 255 255 255
 0.555408 -0.113757   1.70356 255 255 255
0.208454  0.38268  1.83939 255 255 255
 0.604989 -0.200057   1.68657 255 255 255
 0.253866 0.0566706   1.82876 255 255 255
 0.646609 0.0755322   1.64828 255 255 255
  0.665381 -0.0123151    1.64516 255 255 255
   0.62766 -0.0143331    1.66404 255 255 255
   0.16476 -0.0563492     1.8778 255 255 255
0.492664 0.197178   1.7107 255 255 255
 0.566477 -0.196075    1.7043 255 255 255
 0.218577 0.0839744   1.84563 255 255 255
0.273236 0.124657  1.81615 255 255 255
 0.316567 0.0753365    1.7979 255 255 255
 0.121174 -0.170997   1.90668 255 255 255
0.102214 0.119626  1.89953 255 255 255
0.315714 0.175524  1.79408 255 255 255
 0.251637 0.0229073   1.83155 255 255 255
  0.337691 -0.0302949    1.79419 255 255 255
0.301384 0.330467   1.7963 255 255 255
0.0819218   0.12294   1.90827 255 255 255
0.0315576  0.236363   1.92808 255 255 255
0.623889 0.114243  1.65642 255 255 255
0.53228 0.21744 1.69271 255 255 255
-0.0273342   0.322901    1.95334 255 255 255
 0.552033 0.0913188   1.68956 255 255 255
0.626715 0.202715  1.64886 255 255 255
0.129938 0.360363  1.87729 255 255 255
-0.0951954   0.288803     1.9848 255 255 255
0.397738 0.197466  1.75469 255 255 255
 0.551022 -0.194717   1.71179 255 255 255
 0.214265 -0.284908   1.87383 255 255 255
0.335126 0.396973  1.77909 255 255 255
0.0417703  0.108015   1.93021 255 255 255
 0.15661 0.191436  1.86973 255 255 255
-0.0690638    0.32553    1.97182 255 255 255
 0.384784 -0.213604   1.78914 255 255 255
 0.20887 0.212902  1.84296 255 255 255
 0.249549 0.0365312   1.83125 255 255 255
0.362524 0.240293  1.76933 255 255 255
0.641355 0.150348  1.64562 255 255 255
0.418112 0.259514  1.74314 255 255 255
-0.0313181   -0.33482    1.98689 255 255 255
 0.213967 -0.320821   1.87713 255 255 255
 0.112496 0.0450851   1.89708 255 255 255
0.276502 -0.14149  1.83146 255 255 255
0.540158 0.278214  1.68682 255 255 255
0.323841 0.185573  1.79181 255 255 255
-0.0144597   0.243049    1.95066 255 255 255
  0.29407 -0.315583   1.83711 255 255 255
0.633653 0.108689  1.65222 255 255 255
0.174445  0.19171  1.85927 255 255 255
  0.151174 -0.0527625    1.88451 255 255 255
0.622537 0.265226  1.64733 255 255 255
  0.65978 -0.191352   1.65878 255 255 255
 0.599242 -0.254605   1.69344 255 255 255
 0.23701 0.315428  1.82766 255 255 255
  0.582006 -0.0309267     1.6855 255 255 255
-0.0966893 -0.0275037    2.00296 255 255 255
 0.033725 0.0997659   1.93287 255 255 255
 0.254131 -0.288846   1.85608 255 255 255
 0.246349 0.0691467   1.83139 255 255 255
0.0143866  0.215319   1.93962 255 255 255
 0.236296 0.0376296    1.8382 255 255 255
 0.596374 -0.161154   1.68776 255 255 255
 0.517941 0.0200627   1.71038 255 255 255
 0.296612 -0.229177   1.83063 255 255 255
-0.0607113  -0.255772    2.00099 255 255 255
 0.551879 -0.324853   1.72094 255 255 255
-0.0784058  0.0364558    1.99175 255 255 255
0.0847818  0.266287   1.90326 255 255 255
0.196552 0.243355  1.85074 255 255 255
  0.395084 0.00855473    1.76562 255 255 255
0.569252 0.216804  1.67545 255 255 255
0.544007 0.263562  1.68583 255 255 255
  0.420195 -0.0153091    1.75583 255 255 255
0.276662 0.224696  1.81163 255 255 255
-0.0837272   0.154409    1.98602 255 255 255
 0.157872 0.0573467    1.8756 255 255 255
 0.453645 -0.286643   1.76152 255 255 255
 0.194623 -0.223489   1.87787 255 255 255
  0.594449 -0.0162305    1.67843 255 255 255
 0.330927 -0.115672   1.80519 255 255 255
0.648912 0.114546   1.6442 255 255 255
  0.137506 -0.0506486    1.89042 255 255 255
  0.533593 -0.0457709    1.70652 255 255 255
0.326176 0.190608  1.78865 255 255 255
  0.288305 0.00659868    1.81498 255 255 255
 0.300891 0.0786146   1.80609 255 255 255
0.205944 0.305487  1.84286 255 255 255
0.650258 0.157214  1.64165 255 255 255
 0.433204 0.0104478   1.74703 255 255 255
0.412011 0.158565  1.74938 255 255 255
-0.0640157  0.0430462    1.98297 255 255 255
0.350077 0.210349  1.77702 255 255 255
0.232089 0.255126   1.8339 255 255 255
 0.347843 -0.246494   1.80868 255 255 255
0.0800793 -0.269337   1.93595 255 255 255
 0.375629 -0.226621   1.79327 255 255 255
-0.0134813   0.236465    1.94936 255 255 255
 0.316668 0.0698625   1.79762 255 255 255
0.275109 0.180241  1.81408 255 255 255
 0.431497 -0.216643   1.76748 255 255 255
 0.491591 -0.244659   1.74151 255 255 255
 0.119595 -0.322099   1.92106 255 255 255
  0.301278 -0.0419059    1.81249 255 255 255
0.612256 0.358286  1.64604 255 255 255
0.030776 0.189976  1.93078 255 255 255
0.139056 0.239217   1.8772 255 255 255
-0.0787938   0.146913     1.9863 255 255 255
-0.0196172  -0.107774    1.97247 255 255 255
0.0450183  0.142583   1.92547 255 255 255
   0.54181 -0.0504969    1.70327 255 255 255
 0.618699 -0.306168     1.689 255 255 255
0.0401194  0.150583    1.9275 255 255 255
-0.0726477   0.160702    1.98276 255 255 255
0.290762 0.198593  1.80515 255 255 255
-0.0563574   0.329708    1.96594 255 255 255
 0.352368 -0.288393   1.81015 255 255 255
0.508394 0.296317  1.69996 255 255 255
0.343236 0.361977  1.77533 255 255 255
0.348464 0.176014  1.77875 255 255 255
0.201067 0.151857  1.84981 255 255 255
 0.369724 -0.227156   1.79651 255 255 255
0.668575 0.099864  1.63653 255 255 255
0.446851 0.132721  1.73421 255 255 255
0.353752 0.112493  1.77917 255 255 255
0.0640512  0.127064   1.91688 255 255 255
0.310589 0.170818  1.79603 255 255 255
-0.119448  0.180814    2.0007 255 255 255
  0.583487 -0.0136964    1.68281 255 255 255
 0.30991 0.399265  1.78908 255 255 255
0.406988  0.26459  1.74835 255 255 255
0.396927 0.282743  1.75194 255 255 255
0.0143578 -0.288654   1.96837 255 255 255
  0.620094 -0.0287412    1.66707 255 255 255
-0.051048  0.158793   1.97231 255 255 255
0.231998 0.310599  1.82969 255 255 255
  0.185842 -0.0359689    1.86715 255 255 255
0.267345 0.294307  1.81464 255 255 255
0.0395818 -0.148319   1.94626 255 255 255
 -0.066981 -0.0126438    1.98871 255 255 255
0.399423 0.217389  1.75223 255 255 255
 0.57391 0.114608  1.67809 255 255 255
 0.15027 0.186713  1.87243 255 255 255
0.361308 0.246723  1.77015 255 255 255
  0.410878 -0.0547499    1.76385 255 255 255
0.310622  0.22448  1.79602 255 255 255
0.356212 0.398569  1.76849 255 255 255
 0.359824 0.0535638    1.7789 255 255 255
0.454122 0.284984  1.72613 255 255 255
 0.252667 -0.072168    1.8371 255 255 255
0.227073 0.260013  1.83366 255 255 255
 0.368579 -0.319575    1.8049 255 255 255
  0.104141 -0.0720494    1.90809 255 255 255
0.353593 0.105626  1.77958 255 255 255
 0.25087 0.175663  1.82515 255 255 255
 0.175566 0.0536273   1.86683 255 255 255
 0.347179 0.0721014   1.78362 255 255 255
0.0195241   0.18511   1.93633 255 255 255
 0.204883 -0.299921   1.88013 255 255 255
-0.0228125 -0.0783683    1.97289 255 255 255
0.146292  0.37461  1.86949 255 255 255
0.339655 0.400133  1.77649 255 255 255
-0.138118  0.296699   2.00194 255 255 255
0.220489 0.312744  1.83489 255 255 255
0.489316  0.22366  1.71257 255 255 255
0.0770039 -0.248662   1.93612 255 255 255
0.494865 0.103865  1.71464 255 255 255
0.456909 0.153486  1.72758 255 255 255
0.334567 0.283229  1.78308 255 255 255
 0.0808648 -0.0488449    1.91734 255 255 255
0.655122 0.113969  1.64123 255 255 255
-0.0807329   0.269138     1.9793 255 255 255
 0.533718 -0.266992   1.72538 255 255 255
0.618239 0.257318   1.6503 255 255 255
-0.0701349   0.207912    1.97928 255 255 255
0.263993 0.298939  1.81605 255 255 255
0.325932 0.199957  1.78836 255 255 255
-0.00413421    0.235418     1.94811 255 255 255
 0.321701 0.0354567   1.79737 255 255 255
0.630787 0.132106  1.65182 255 255 255
 0.564508 0.0179152   1.68955 255 255 255
 0.486939 0.0565449   1.72079 255 255 255
-0.0295537  -0.261204    1.98508 255 255 255
 0.284806 0.0388239   1.81439 255 255 255
0.0352445  0.317208    1.9245 255 255 255
 0.536101 0.0619727   1.69885 255 255 255
 0.615757 -0.330196   1.69326 255 255 255
 0.115088 -0.292978   1.92203 255 255 255
0.337694 0.405435  1.77621 255 255 255
0.382067  0.11554  1.76541 255 255 255
0.179908 0.204324  1.85795 255 255 255
0.000283904    0.191657     1.94615 255 255 255
 0.585727 -0.193816   1.69621 255 255 255
  0.399748 -0.0773937     1.7698 255 255 255
0.37434 0.20529 1.76559 255 255 255
0.625831 0.185239  1.65156 255 255 255
0.139655 0.100423   1.8818 255 255 255
0.29465 0.25757 1.80303 255 255 255
0.0870119  0.240106    1.9008 255 255 255
0.581213 0.174526  1.67197 255 255 255
0.202337 0.258397  1.84577 255 255 255
 0.15137 0.116981  1.87426 255 255 255
0.216742 0.304766  1.83832 255 255 255
0.526917 0.208205  1.69527 255 255 255
0.253477 0.154324   1.8248 255 255 255
0.216021 0.195717   1.8417 255 255 255
0.300014 0.256649  1.79921 255 255 255
 0.131928 -0.154367   1.90141 255 255 255
0.121632 0.362224   1.8815 255 255 255
   0.12043 -0.0461527    1.89824 255 255 255
0.0901568  0.203254    1.9007 255 255 255
 0.617552 -0.179503   1.67912 255 255 255
0.0741262  0.311715   1.90505 255 255 255
0.0458174  0.263513   1.92093 255 255 255
 0.130887 -0.292009   1.91401 255 255 255
 0.393961 -0.340342   1.79426 255 255 255
 0.601362 -0.183239   1.68887 255 255 255
 0.445192 0.0303749   1.73915 255 255 255
0.259358 0.301395  1.81796 255 255 255
  0.34785 -0.212715   1.80555 255 255 255
  0.004286 -0.0785152    1.95865 255 255 255
  0.45452 -0.142525    1.7496 255 255 255
  0.346674 -0.0351245    1.79104 255 255 255
0.314001 0.122177  1.79563 255 255 255
 0.188827 0.0640254   1.85767 255 255 255
0.0868677 -0.330935   1.93688 255 255 255
0.276294 0.292866  1.81058 255 255 255
0.228532 0.302719  1.83282 255 255 255
0.246569 0.302258  1.82359 255 255 255
0.0493362 -0.268002   1.94934 255 255 255
0.620992 0.280581  1.64633 255 255 255
0.111808 0.150916  1.89293 255 255 255
 0.0274291 0.00951096    1.94123 255 255 255
  0.511362 -0.0356741    1.71547 255 255 255
0.0375692 0.0223138   1.93474 255 255 255
 0.391842 0.0997133   1.76165 255 255 255
 0.16853 0.165563  1.86458 255 255 255
0.403872 0.198542  1.75181 255 255 255
  0.59862 -0.311472   1.69822 255 255 255
 0.35243 0.279325  1.77352 255 255 255
0.520242 -0.14698  1.71982 255 255 255
0.381052 0.131189  1.76475 255 255 255
  0.637288 -0.0486143     1.6611 255 255 255
0.365045 0.234128  1.76948 255 255 255
 0.308842 -0.319112   1.83281 255 255 255
  0.133156 -0.0988493    1.89533 255 255 255
 0.324535 0.0472305   1.79555 255 255 255
0.348916 0.397778  1.77173 255 255 255
0.127588 0.170988  1.88422 255 255 255
  0.442367 -0.0373008    1.74602 255 255 255
 0.479537 -0.291701   1.75266 255 255 255
0.359783 0.134598   1.7748 255 255 255
0.130725 -0.27323  1.91225 255 255 255
 0.259346 -0.283512   1.85338 255 255 255
0.264553 0.252041  1.81796 255 255 255
0.0912611 0.0928582   1.90542 255 255 255
0.258677 0.137078  1.82272 255 255 255
 0.261174 0.0563931    1.8255 255 255 255
 0.167191 -0.241016   1.89191 255 255 255
  0.0576012 -0.00738262     1.92625 255 255 255
 0.344546 -0.304877   1.81394 255 255 255
 0.27556 0.298529  1.81027 255 255 255
0.202915  0.22383  1.84613 255 255 255
  0.09658 -0.278239   1.92863 255 255 255
  0.24678 -0.217413    1.8527 255 255 255
-0.125122  0.209533   2.00203 255 255 255
 0.354886 -0.211673   1.80185 255 255 255
 0.248796 0.0578125    1.8317 255 255 255
0.0510034  0.260822   1.91868 255 255 255
0.329039 0.369063  1.78289 255 255 255
 0.363603 -0.253162   1.80108 255 255 255
  0.392325 -0.0151886    1.76792 255 255 255
 0.167484 -0.330196    1.8993 255 255 255
0.248359 0.255832  1.82543 255 255 255
0.101017 0.252305  1.89376 255 255 255
0.318797 0.106949  1.79524 255 255 255
0.384375 0.154524  1.76288 255 255 255
-0.0370874   0.304222    1.95877 255 255 255
0.419682 0.104687   1.7483 255 255 255
  0.158049 0.00773162    1.87689 255 255 255
  0.384235 -0.0273315    1.77313 255 255 255
  0.368051 -0.0351769    1.78074 255 255 255
 0.213765 -0.335629   1.87878 255 255 255
 0.407072 0.0918273   1.75451 255 255 255
 0.393071 -0.212809   1.78373 255 255 255
 0.281712 -0.215249   1.83594 255 255 255
-0.00162385    0.200473     1.94611 255 255 255
 0.504314 -0.311798   1.73775 255 255 255
 0.105111 -0.307621   1.92735 255 255 255
 0.374639 0.0182965   1.77455 255 255 255
0.353196 0.205271  1.77594 255 255 255
 -0.0527907 -0.00310616     1.98319 255 255 255
 0.267187 0.0548269   1.82253 255 255 255
0.190155 0.230023  1.85323 255 255 255
0.0282157 -0.300133   1.96237 255 255 255
0.0910008  0.249657   1.89992 255 255 255
0.139776 0.144722  1.87963 255 255 255
0.139857 0.206985  1.87746 255 255 255
0.0308379  0.279399    1.9279 255 255 255
0.388964 0.244005  1.75733 255 255 255
0.527773 0.110669   1.6993 255 255 255
  0.157812 0.00212452     1.8782 255 255 255
-0.0394884  -0.275797    1.99117 255 255 255
 0.264984 -0.294806   1.85128 255 255 255
 0.310974 0.0490274   1.80267 255 255 255
 0.0233486 -0.0269852    1.94509 255 255 255
0.211359 -0.32589  1.87874 255 255 255
0.0665304 -0.294029   1.94391 255 255 255
0.194602 0.166728  1.85206 255 255 255
0.277059 0.260356  1.81056 255 255 255
 0.297336 0.0243533   1.80924 255 255 255
0.173982 0.357401  1.85612 255 255 255
-0.0515574    0.17861    1.97145 255 255 255
0.297484 0.250195  1.80084 255 255 255
 0.138827 -0.233397   1.90402 255 255 255
  0.47055 -0.303083   1.75699 255 255 255
0.270147 0.199656  1.81577 255 255 255
 0.49589 0.218139  1.70845 255 255 255
 0.296548 -0.253238   1.83298 255 255 255
 0.294975 0.0310026   1.81082 255 255 255
  0.508191 -0.0483409     1.7177 255 255 255
0.341489 0.217028  1.78062 255 255 255
 0.333155 -0.292057   1.81865 255 255 255
0.0183795 -0.336445   1.96894 255 255 255
0.333313 0.105922  1.78903 255 255 255
0.587822 0.347284  1.65912 255 255 255
-0.0686993   0.239714    1.97604 255 255 255
-0.0978892  0.0345446     2.0016 255 255 255
  0.604963 -0.0543991    1.67706 255 255 255
0.210837 0.245447  1.84216 255 255 255
 0.372425 0.0513991    1.7732 255 255 255
 0.374438 -0.265241   1.79762 255 255 255
 0.448321 0.0264869   1.73956 255 255 255
 0.554216 -0.236874   1.71325 255 255 255
 0.426492 0.0690345   1.74705 255 255 255
  0.541246 -0.0118022    1.70149 255 255 255
 0.322617 -0.146491   1.81094 255 255 255
 0.426559 -0.232823   1.76996 255 255 255
 0.203749 0.0190062   1.85495 255 255 255
0.428557  0.26921  1.73797 255 255 255
 0.450796 0.0945247   1.73463 255 255 255
0.34556 0.03099 1.78678 255 255 255
0.120328 0.156611  1.88798 255 255 255
  0.189033 -0.0589709    1.86669 255 255 255
 -0.051731 -0.0870866    1.98631 255 255 255
 0.139781 -0.264289   1.90762 255 255 255
  0.51608 0.0938422   1.70558 255 255 255
0.0222614  0.225907   1.93517 255 255 255
0.309776 0.158482  1.79885 255 255 255
 0.295735 0.0825691   1.80803 255 255 255
 0.420826 -0.315277   1.78152 255 255 255
  0.30945 -0.336787   1.83355 255 255 255
0.257391 0.236709   1.8212 255 255 255
 0.327527 -0.210033   1.81433 255 255 255
 0.607292 -0.245442   1.68928 255 255 255
0.154086 0.146416  1.87242 255 255 255
0.355801 0.125956  1.77672 255 255 255
0.0517695  0.297184   1.91721 255 255 255
 0.54766 0.136145  1.68964 255 255 255
0.333818 0.372297  1.78046 255 255 255
0.0866113  0.245932   1.90151 255 255 255
0.0306449 -0.156725   1.95013 255 255 255
0.378156 0.127742  1.76703 255 255 255
 0.291848 -0.248611   1.83505 255 255 255
 0.308452 -0.313592   1.83148 255 255 255
-0.0346018   0.252103    1.95955 255 255 255
 0.56814 0.205509  1.67727 255 255 255
  0.562318 -0.0369486     1.6938 255 255 255
  0.2574 0.254409   1.8214 255 255 255
 0.461859 0.0533621   1.73145 255 255 255
0.368524 0.167465  1.76956 255 255 255
0.0827818 -0.102891   1.92023 255 255 255
0.319755 0.338033  1.78811 255 255 255
 0.514993 0.0104013   1.70894 255 255 255
 0.469333 0.0217292   1.73033 255 255 255
 0.248599 0.0419378   1.83272 255 255 255
 0.292894 0.0466996   1.81037 255 255 255
0.294943 0.120239   1.8064 255 255 255
 0.575882 -0.299726   1.70828 255 255 255
  0.170254 -0.0531573    1.87548 255 255 255
 0.400572 0.0986542   1.75745 255 255 255
 0.527675 -0.242174   1.72551 255 255 255
 0.354447 -0.229175   1.80465 255 255 255
0.276473 0.378193  1.80624 255 255 255
 0.302242 -0.319616    1.8361 255 255 255
0.256366 0.329737  1.81874 255 255 255
 0.267011 -0.219923    1.8445 255 255 255
0.0924294  0.102704   1.90464 255 255 255
0.228092  0.24106  1.83502 255 255 255
  0.21102 0.0188312   1.85214 255 255 255
0.345973 0.227629  1.77811 255 255 255
 0.577901 0.0881659   1.67853 255 255 255
-0.100466  0.177997   1.99334 255 255 255
 0.333988 -0.318367   1.82058 255 255 255
 0.522357 -0.204601   1.72423 255 255 255
0.301677 0.371158  1.79515 255 255 255
  0.36986 -0.059437   1.78243 255 255 255
0.489717 0.303784  1.70878 255 255 255
   0.2701 -0.247929   1.84452 255 255 255
 0.225123 -0.227882    1.8641 255 255 255
 0.232823 -0.286414   1.86461 255 255 255
  0.224079 -0.0553101    1.84964 255 255 255
0.0306856  0.167345   1.93161 255 255 255
0.260857 -0.30219   1.8536 255 255 255
  0.1964 0.102979  1.85419 255 255 255
0.176563  0.17417  1.86068 255 255 255
0.389568 0.135063  1.76103 255 255 255
 0.279544 0.0630289   1.81561 255 255 255
0.0238554   0.24484   1.93152 255 255 255
0.0346178 0.0270012    1.9373 255 255 255
0.230934 0.401407  1.82863 255 255 255
 0.352362 0.0850689   1.78094 255 255 255
 0.224579 0.0880933   1.84068 255 255 255
0.00739259   0.308725    1.93698 255 255 255
0.0253834  0.100974   1.93658 255 255 255
 0.446899 0.0559434   1.73881 255 255 255
 0.394471 0.0143387    1.7663 255 255 255
-0.0258562  -0.106464    1.97482 255 255 255
-0.0305166  -0.220113    1.98385 255 255 255
0.234414 0.223937  1.83214 255 255 255
 0.2636 0.23249 1.81744 255 255 255
-0.134233  0.301012   2.00017 255 255 255
0.321005 0.299499  1.78835 255 255 255
-0.0349307 -0.0486593    1.97573 255 255 255
  0.376027 -0.0159177    1.77542 255 255 255
0.216394 0.189971  1.84074 255 255 255
 0.163939 0.0517116   1.87165 255 255 255
0.122391 0.254133   1.8846 255 255 255
0.00135753  -0.111764    1.96158 255 255 255
-0.0624258   0.242085    1.97334 255 255 255
  0.460097 -0.0177606    1.73727 255 255 255
 0.381108 0.0496503   1.76938 255 255 255
0.0199486 -0.360171   1.97192 255 255 255
0.371473 0.202124  1.76823 255 255 255
  0.272765 -0.0193069    1.82467 255 255 255
0.431118 0.122832  1.74256 255 255 255
  0.34415 -0.277323   1.81238 255 255 255
-0.00410892  -0.0807998     1.96157 255 255 255
0.406534 0.389332  1.74437 255 255 255
0.0631278 0.0208447   1.92152 255 255 255
 0.524588 -0.169573   1.72098 255 255 255
0.271142 0.042833  1.82042 255 255 255
 0.173386 -0.135023   1.87977 255 255 255
0.0302987 0.0226968    1.9388 255 255 255
-0.120279  0.094193   2.00668 255 255 255
  0.24147 0.0424701   1.83646 255 255 255
0.236255 0.365662  1.82735 255 255 255
   0.59135 0.00382797    1.67868 255 255 255
0.131363 0.205498  1.88113 255 255 255
0.322514 0.134447  1.79162 255 255 255
0.0472508  0.316747   1.91805 255 255 255
-0.139326  0.279808   2.00465 255 255 255
  0.383928 -0.0106634    1.77123 255 255 255
 0.114889 -0.171192   1.91037 255 255 255
0.397965 0.252756  1.75222 255 255 255
 0.135073 -0.186975   1.90149 255 255 255
  0.123354 -0.0282224    1.89581 255 255 255
0.132995 0.324953  1.87707 255 255 255
 0.274023 0.0196182   1.82096 255 255 255
 0.273827 0.0255431   1.82048 255 255 255
-0.0426765   0.156046    1.96931 255 255 255
0.548344 0.317483  1.68128 255 255 255
0.375516 0.101921   1.7689 255 255 255
 0.280803 0.0567037   1.81548 255 255 255
0.528907 0.151186  1.69694 255 255 255
0.110918 0.279683  1.88851 255 255 255
0.206433 0.254661  1.84412 255 255 255
0.097374 0.319383  1.89484 255 255 255
-0.0135921  -0.183486    1.97456 255 255 255
-0.0949075   0.246286    1.98687 255 255 255
 0.49921 0.071344  1.71385 255 255 255
 0.255969 -0.340158   1.85735 255 255 255
 0.227441 -0.048809   1.84767 255 255 255
 0.259279 -0.132695   1.83935 255 255 255
0.360376  0.40477  1.76624 255 255 255
-0.134461  0.212252   2.00527 255 255 255
-0.0744801   0.211538    1.98005 255 255 255
0.118625 0.106472  1.89063 255 255 255
0.0892254 0.0887714   1.90729 255 255 255
0.375521 0.248004  1.76346 255 255 255
-0.0985895  0.0226718    2.00199 255 255 255
 0.292542 0.0514493   1.81036 255 255 255
 0.352846 0.0597776   1.78211 255 255 255
0.564672 0.194313  1.67899 255 255 255
0.0645676  0.337834   1.90981 255 255 255
0.180464 0.164147  1.85887 255 255 255
 0.22568 0.374666  1.83104 255 255 255
   0.402875 -0.00240199     1.76226 255 255 255
0.182723 0.136078  1.85864 255 255 255
0.367593  0.17248  1.76925 255 255 255
 0.470108 0.0176715   1.72915 255 255 255
0.0691138 -0.110318   1.92782 255 255 255
0.0690326  0.264792   1.91047 255 255 255
0.309876 0.214464  1.79611 255 255 255
 0.282427 -0.122235   1.82782 255 255 255
0.0504229 -0.123972   1.93769 255 255 255
 0.117941 -0.297234   1.91975 255 255 255
 0.432162 0.0501434   1.74538 255 255 255
0.368604 0.367141  1.76329 255 255 255
0.403536 0.143211  1.75427 255 255 255
0.386702 0.280807  1.75722 255 255 255
 0.377204 -0.319086   1.80158 255 255 255
-0.00332981     -0.3371     1.97677 255 255 255
0.483243 0.276612   1.7125 255 255 255
0.164382 0.375761  1.86061 255 255 255
0.185652 0.141621  1.85751 255 255 255
 0.340843 0.0299681   1.78929 255 255 255
 0.16435 0.161065   1.8671 255 255 255
0.0149029  0.133553   1.94211 255 255 255
0.0374266  0.267984   1.92526 255 255 255
0.129632 0.212807  1.88292 255 255 255
0.263655 0.215402  1.81833 255 255 255
-0.0701181  0.0303721    1.98785 255 255 255
0.0726732  0.322477   1.90614 255 255 255
 0.379896 0.0983402   1.76719 255 255 255
0.0258617 -0.286175   1.96242 255 255 255
0.200706 0.228587  1.84721 255 255 255
-0.00592044    0.314798      1.9442 255 255 255
 0.336336 0.0625037   1.78919 255 255 255
0.622212 0.177453  1.65366 255 255 255
0.475709 0.174387  1.71979 255 255 255
 0.292546 0.0195413   1.81187 255 255 255
 0.161068 -0.242628   1.89502 255 255 255
 0.441726 -0.046447   1.74748 255 255 255
 0.375429 -0.124592    1.7847 255 255 255
  0.55164 -0.229223   1.71365 255 255 255
-0.0318108   0.023726    1.97054 255 255 255
-0.00598917    0.192768     1.94882 255 255 255
 0.223868 0.0504556   1.84247 255 255 255
0.245326 0.218615  1.82707 255 255 255
 0.574598 -0.313699   1.70933 255 255 255
 0.330731 0.0889912   1.79054 255 255 255
0.00492722 -0.0112151    1.95346 255 255 255
0.0212567  -0.12343   1.95314 255 255 255
0.00192974  -0.277464    1.97273 255 255 255
 0.313774 -0.164412   1.81707 255 255 255
 0.238092 0.0926258   1.83438 255 255 255
0.141956 0.377383  1.87111 255 255 255
0.0975709 0.0207266   1.90606 255 255 255
-0.0298038   0.344025    1.95342 255 255 255
-0.110334   0.20645   1.99577 255 255 255
-0.00489385    0.303776      1.9432 255 255 255
 0.360131 0.0588996   1.77915 255 255 255
  0.126692 -0.0380152     1.8949 255 255 255
-0.0636595   0.327512    1.96918 255 255 255
0.0537151  0.123146   1.92054 255 255 255
0.257847 0.362522  1.81469 255 255 255
0.0478893  0.275376   1.92052 255 255 255
0.199972 0.291576   1.8445 255 255 255
0.494911 -0.16113  1.73276 255 255 255
 0.416899 0.0652679   1.75256 255 255 255
 0.173592 -0.057425   1.87401 255 255 255
 0.414709 -0.169716   1.76868 255 255 255
  0.27198 -0.174857    1.8374 255 255 255
 0.245304 0.0626332    1.8321 255 255 255
 0.238237 0.0825786   1.83411 255 255 255
-0.0863276   0.198907    1.98715 255 255 255
   0.196242 -0.00316069     1.85947 255 255 255
  0.238431 -0.0532702    1.84292 255 255 255
0.351783  0.16548  1.77774 255 255 255
  0.185394 -0.0635497    1.86923 255 255 255
 0.150078 0.0803584   1.87715 255 255 255
 0.259252 -0.297144   1.85314 255 255 255
0.185003 0.222172  1.85498 255 255 255
 0.334406 -0.183753   1.80857 255 255 255
 0.213679 -0.271975   1.87286 255 255 255
  0.516471 -0.0894371    1.71846 255 255 255
0.041065  0.27547  1.92389 255 255 255
0.136789  0.24403  1.87621 255 255 255
0.540041 0.296246  1.68683 255 255 255
 0.189094 0.0103048   1.86215 255 255 255
 0.224077 -0.326796   1.87288 255 255 255
 -0.046952 -0.0901929    1.98352 255 255 255
  0.126042 -0.0910649    1.89839 255 255 255
0.287348 0.201863  1.80654 255 255 255
 -0.107289 0.00252439    2.00799 255 255 255
 0.270395 -0.131123   1.83428 255 255 255
 0.167596 0.0345273   1.87122 255 255 255
   0.134258 -0.00789839     1.88839 255 255 255
0.173399 0.234553  1.85985 255 255 255
0.507976 0.300798  1.70033 255 255 255
0.0760299  0.326386   1.90465 255 255 255
-0.0332722  -0.127512     1.9799 255 255 255
-0.0871433  0.0238523    1.99664 255 255 255
 0.138648 -0.107705    1.8935 255 255 255
0.300012 0.119919  1.80345 255 255 255
 0.0172053 -0.0679521    1.95097 255 255 255
 0.238093 -0.262352   1.86047 255 255 255
 0.20633 0.403958  1.83962 255 255 255
 0.427118 0.0197443   1.74851 255 255 255
  0.3135 -0.23673  1.82347 255 255 255
0.390112 0.114194  1.76173 255 255 255
  0.156774 -0.0530934    1.88177 255 255 255
0.237109 0.322667  1.82821 255 255 255
 0.13036 0.328976  1.87871 255 255 255
 0.302976 0.0400117     1.806 255 255 255
-0.138097  0.233342   2.00676 255 255 255
 0.200772 -0.224264   1.87343 255 255 255
 0.24656 0.192279  1.82831 255 255 255
 0.29285 -0.25812  1.83516 255 255 255
0.168842 0.187324  1.86365 255 255 255
 0.282985 -0.260186   1.83998 255 255 255
 0.122624 0.0431517   1.89211 255 255 255
  0.417528 -0.0301775    1.75871 255 255 255
0.0732547  0.230982   1.90843 255 255 255
 0.118789 -0.292134   1.91884 255 255 255
0.157954  0.05161  1.87431 255 255 255
0.180293 0.109234  1.86044 255 255 255
 0.184915 -0.106471   1.87232 255 255 255
0.213043 0.128885   1.8447 255 255 255
  0.233284 -0.0337537    1.84411 255 255 255
0.0442974  0.342994   1.91927 255 255 255
    0.319195 -0.000413676      1.80101 255 255 255
-0.0420484  -0.281274    1.99271 255 255 255
0.459353 -0.27201  1.75814 255 255 255
0.0630983  0.206655   1.91493 255 255 255
0.314202 0.203126  1.79401 255 255 255
0.0938816 -0.192839   1.92265 255 255 255
0.256824  0.14224  1.82285 255 255 255
0.0927546  0.127326   1.90258 255 255 255
0.0980005  0.242725   1.89564 255 255 255
0.159783 0.231478  1.86696 255 255 255
-0.102477 0.0299609   2.00294 255 255 255
-0.125557  0.301716   1.99695 255 255 255
  0.30512 -0.298135    1.8352 255 255 255
-0.021287  0.157156   1.95814 255 255 255
-0.0301613 -0.0641172    1.97486 255 255 255
 0.516549 -0.285602   1.73343 255 255 255
0.626027 -0.19999  1.67623 255 255 255
0.0186762  0.312449   1.93272 255 255 255
 0.286944 -0.268902   1.83901 255 255 255
0.00567562 -0.0221544    1.95262 255 255 255
0.0507503  0.270511   1.91727 255 255 255
-0.0119511  -0.354854    1.98333 255 255 255
 0.16391 0.237785  1.86449 255 255 255
0.0955962 -0.187229   1.92231 255 255 255
  0.2069 0.218088  1.84473 255 255 255
0.122631 0.240544  1.88447 255 255 255
-0.0192126  -0.134054    1.97437 255 255 255
0.259593 0.209502  1.82146 255 255 255
  0.19799 0.0380952   1.85613 255 255 255
  0.140829 -0.0806453    1.89102 255 255 255
0.0417646 0.0263246   1.93353 255 255 255
0.0233743 0.0216946   1.94256 255 255 255
0.0758477  0.307259   1.90622 255 255 255
-0.00742543    0.178152     1.95036 255 255 255
0.0370963  -0.34976    1.9619 255 255 255
 0.394309 0.0678937   1.76172 255 255 255
0.0374536  0.188502   1.92799 255 255 255
  0.339739 -0.0635354    1.79858 255 255 255
 0.275505 -0.254376   1.84277 255 255 255
0.240041 0.249161  1.83079 255 255 255
-0.0226922  -0.232343    1.98176 255 255 255
  0.255256 -0.0484473    1.83454 255 255 255
0.0231506 -0.366817   1.96975 255 255 255
  0.100958 0.00601565    1.90533 255 255 255
0.108155 0.276524  1.89039 255 255 255
 0.04456 0.131236  1.92662 255 255 255
 0.330536 -0.247646   1.81704 255 255 255
-0.0746193    0.22744    1.97836 255 255 255
0.238529 -0.11769    1.848 255 255 255
 0.173097 -0.080505    1.8761 255 255 255
0.0897379  0.366579   1.89614 255 255 255
0.361939 -0.22061  1.79916 255 255 255
-0.0899569   0.230219    1.98598 255 255 255
 0.149528 -0.309356   1.90575 255 255 255
0.229832 0.311533  1.83226 255 255 255
0.265738  0.30347  1.81464 255 255 255
-0.0281137  0.0203367    1.96813 255 255 255
 0.277427 0.0421573   1.81809 255 255 255
-0.099019  0.131288   1.99678 255 255 255
0.0790808  0.155467   1.90886 255 255 255
-0.0359697   0.205875    1.96119 255 255 255
-0.118393  0.300584   1.99402 255 255 255
 0.100549 0.0247281   1.90367 255 255 255
 0.185946 -0.250217   1.88351 255 255 255
-0.0282837   0.292278    1.95503 255 255 255
-0.0653013   0.177189    1.97968 255 255 255
0.209988 0.302595  1.84105 255 255 255
0.0713908  0.102799   1.91472 255 255 255
0.276329 0.360223  1.80681 255 255 255
0.0828145 -0.287492   1.93602 255 255 255
0.0616869  0.248702    1.9117 255 255 255
 0.283093 -0.198794   1.83884 255 255 255
  0.49824 -0.220147   1.73561 255 255 255
 0.456507 -0.221802    1.7581 255 255 255
 0.334916 -0.135917   1.80437 255 255 255
0.0907637 -0.168696   1.92251 255 255 255
 0.17876 0.323071  1.85463 255 255 255
 0.389108 0.0368201   1.76647 255 255 255
0.351942 0.338657  1.77126 255 255 255
  0.48544 -0.240979   1.74887 255 255 255
0.0887265 -0.220306   1.92487 255 255 255
0.422014 -0.21787  1.77348 255 255 255
 0.16246 0.333949  1.86228 255 255 255
 0.483857 0.0980324   1.71864 255 255 255
 0.113728 -0.104651   1.90594 255 255 255
0.0149145 -0.279488   1.97062 255 255 255
 0.242525 -0.284287   1.85407 255 255 255
0.639301 -0.32795  1.68355 255 255 255
0.0193609  0.107999   1.94326 255 255 255
0.634785 0.300649  1.64114 255 255 255
 0.544536 0.0537086   1.69616 255 255 255
0.338934 -0.16703  1.80691 255 255 255
0.160899 0.139412  1.86948 255 255 255
 0.175391 -0.291587   1.89129 255 255 255
 0.125683 -0.238782   1.91059 255 255 255
 0.604682 -0.150942   1.67898 255 255 255
 0.547234 -0.282776   1.71938 255 255 255
0.357791 -0.16598  1.79654 255 255 255
 0.288129 -0.114361   1.82262 255 255 255
0.00963764    0.27094    1.93758 255 255 255
0.00642361    0.26039     1.9401 255 255 255
 0.137441 -0.178847   1.90078 255 255 255
  0.34352 -0.126159   1.79882 255 255 255
 0.372305 -0.162882   1.78855 255 255 255
0.366832  0.34575  1.76441 255 255 255
  0.52537 0.0441106   1.70397 255 255 255
 0.162131 -0.227973   1.89219 255 255 255
  0.39401 -0.230901   1.78482 255 255 255
 0.448555 0.0247527   1.73974 255 255 255
 0.276793 0.0897597   1.81609 255 255 255
  0.51674 -0.313835    1.7412 255 255 255
 0.268211 0.0618302   1.82108 255 255 255
 0.486221 0.0630965   1.72169 255 255 255
0.0639978 -0.199925   1.93822 255 255 255
0.213292 0.108158  1.84502 255 255 255
 0.0416715 -0.0605752    1.93779 255 255 255
0.364866 -0.23272  1.79856 255 255 255
 0.276066 -0.288055   1.84639 255 255 255
 0.532042 0.0538978    1.7006 255 255 255
 0.130561 0.0245361   1.88903 255 255 255
  0.33455 -0.241202   1.81437 255 255 255
 0.233075 -0.136964   1.85136 255 255 255
-0.0114212 -0.0881675    1.96648 255 255 255
0.0887805 -0.242798   1.92727 255 255 255
 0.368187 -0.182256    1.7939 255 255 255
0.508663 0.258376   1.7015 255 255 255
  0.58855 -0.111901    1.6869 255 255 255
0.0347578   -0.2784   1.95835 255 255 255
-0.00775847   -0.141369     1.96931 255 255 255
 0.490337 0.0613651   1.71817 255 255 255
 0.303825 -0.172126   1.82317 255 255 255
 0.089094 -0.342712   1.93628 255 255 255
 0.267279 -0.128458   1.83686 255 255 255
 0.580232 -0.216387   1.69961 255 255 255
 0.130718 -0.201532   1.90566 255 255 255
0.0179379 -0.342925   1.96968 255 255 255
 0.572223 -0.127234   1.69927 255 255 255
 0.490697 -0.310129   1.74776 255 255 255
 0.648549 -0.311697   1.67074 255 255 255
0.225963  0.20099  1.83579 255 255 255
  0.108784 -0.0602004    1.90509 255 255 255
-0.0237545  0.0277087    1.96531 255 255 255
0.0610105 -0.282411   1.94629 255 255 255
 0.322458 -0.287777   1.82315 255 255 255
  0.146183 -0.0934027    1.88869 255 255 255
0.554572 0.326027  1.67654 255 255 255
 0.531487 -0.127378   1.71422 255 255 255
 0.261635 -0.202533   1.84489 255 255 255
0.447315 -0.26782  1.76417 255 255 255
  0.131794 -0.0642322    1.89311 255 255 255
 0.568723 -0.295407   1.71244 255 255 255
  0.19118 -0.106238   1.86965 255 255 255
0.0928242  0.234249   1.89779 255 255 255
0.360052 0.288334  1.76997 255 255 255
0.0465492 -0.282328    1.9531 255 255 255
0.0283952 -0.327022   1.96434 255 255 255
 0.550705 -0.119875   1.70465 255 255 255
  0.66308 -0.275178   1.66409 255 255 255
  0.200303 -0.0727608    1.86254 255 255 255
0.0795716 -0.277199   1.93787 255 255 255
0.0800793 -0.269337   1.93595 255 255 255
 0.547769 -0.224404   1.71772 255 255 255
 0.397869 -0.224458   1.78247 255 255 255
 0.315164 -0.314847   1.83186 255 255 255
 0.536166 -0.311443   1.72701 255 255 255
 0.201122 0.0281856   1.85525 255 255 255
0.0986924  0.236578   1.89604 255 255 255
 0.25263 0.205772  1.82408 255 255 255
 0.114111 -0.275327   1.92031 255 255 255
0.0751797 -0.150784   1.92879 255 255 255
 0.0172053 -0.0679521    1.95097 255 255 255
  0.557537 -0.0419572     1.6964 255 255 255
  0.446269 -0.0819849    1.74753 255 255 255
  0.141967 -0.0993464    1.89111 255 255 255
 0.138927 -0.239431   1.90582 255 255 255
 0.615007 -0.239899   1.68685 255 255 255
 0.248199 -0.274323   1.85693 255 255 255
 0.267352 0.0327335   1.82274 255 255 255
0.220571 0.210818  1.83883 255 255 255
 0.194984 -0.235772   1.87909 255 255 255
0.362524 0.240293  1.76933 255 255 255
0.048281  -0.2738  1.95114 255 255 255
 0.204883 -0.299921   1.88013 255 255 255
  0.31753 -0.081276   1.80808 255 255 255
0.0819218   0.12294   1.90827 255 255 255
0.28734 0.39228 1.80142 255 255 255
 0.460316 0.0721103   1.73155 255 255 255
 0.107869 -0.242394   1.91703 255 255 255
  0.222436 -0.0425825    1.85046 255 255 255
0.0504229 -0.123972   1.93769 255 255 255
-0.0940875   0.107338     1.9952 255 255 255
0.361308 0.246723  1.77015 255 255 255
-0.000775197    -0.248272      1.97243 255 255 255
0.208688 0.194473  1.84355 255 255 255
-0.0176768   -0.10035     1.9713 255 255 255
0.297484 0.250195  1.80084 255 255 255
0.0352929  0.225943   1.92756 255 255 255
-0.0373641  0.0440157    1.97083 255 255 255
 0.16369 0.343198  1.86251 255 255 255
 0.625357 -0.228274   1.67788 255 255 255
 0.160195 -0.153923   1.88839 255 255 255
 0.020039 -0.322102   1.96838 255 255 255
 0.503759 -0.245126   1.73657 255 255 255
  0.18142 -0.254514   1.88756 255 255 255
   0.41261 -0.0719465    1.76327 255 255 255
 0.625889 -0.239293   1.68115 255 255 255
0.0844954 -0.251621    1.9323 255 255 255
  0.34785 -0.212715   1.80555 255 255 255
 0.37068 0.057071  1.77443 255 255 255
-0.00993787    0.347721     1.94504 255 255 255
  0.59035 0.0599946   1.67993 255 255 255
   0.14234 0.00829238    1.88531 255 255 255
0.0416405  0.322355   1.92095 255 255 255
 0.576586 -0.198928   1.69948 255 255 255
  0.20742 -0.138592   1.86412 255 255 255
 0.214185 -0.310358   1.87721 255 255 255
 0.597636 -0.216384   1.69117 255 255 255
 0.259055 -0.108966   1.83751 255 255 255
 0.191739 -0.279075   1.88336 255 255 255
0.116714 0.349658  1.88497 255 255 255
  0.148111 -0.0868669    1.88877 255 255 255
 0.431497 -0.216643   1.76748 255 255 255
 0.590342 -0.197112   1.69207 255 255 255
0.116621 0.237928  1.88688 255 255 255
 0.394105 0.0209113   1.76228 255 255 255
-0.01493 0.295112  1.94871 255 255 255
  0.455931 -0.0333718    1.73832 255 255 255
 0.469736 -0.184773   1.74561 255 255 255
0.195492 0.221285  1.85007 255 255 255
 0.325376 -0.241509   1.81751 255 255 255
0.326176 0.190608  1.78865 255 255 255
 0.669386 0.0492669   1.63949 255 255 255
 0.0925809 -0.0701859    1.91357 255 255 255
 0.559446 -0.228423   1.70718 255 255 255
 0.510547 0.0492786   1.71011 255 255 255
 0.201315 -0.320287   1.88204 255 255 255
 0.223868 0.0504556   1.84247 255 255 255
  0.126692 -0.0380152     1.8949 255 255 255
  0.270127 -0.0492837    1.82662 255 255 255
0.120451 -0.27615  1.91922 255 255 255
0.287145 0.265496  1.80495 255 255 255
 0.214932 0.0892314   1.84478 255 255 255
 0.525436 -0.307951   1.73236 255 255 255
0.431671 0.285442  1.73678 255 255 255
 0.269636 -0.296406   1.84908 255 255 255
 0.313774 -0.164412   1.81707 255 255 255
0.261654 0.247322  1.81888 255 255 255
0.00938784  -0.282136     1.9699 255 255 255
 0.144062 -0.272922    1.9045 255 255 255
 0.297336 0.0243533   1.80924 255 255 255
0.0832854  0.204449   1.90398 255 255 255
 0.374438 -0.265241   1.79762 255 255 255
  0.40718 -0.219334   1.77777 255 255 255
 0.461996 -0.250292   1.75628 255 255 255
0.00571999  -0.342779    1.97611 255 255 255
 0.198513 0.0331689   1.85595 255 255 255
  0.41587 -0.208354   1.77231 255 255 255
 0.191634 -0.264527    1.8825 255 255 255
0.134765 0.010594  1.88783 255 255 255
 0.368596 -0.212446   1.79456 255 255 255
0.270147 0.199656  1.81577 255 255 255
0.533397 0.293355  1.69113 255 255 255
0.450622 0.196352  1.72996 255 255 255
  0.32462 -0.037053   1.80012 255 255 255
 0.245304 0.0626332    1.8321 255 255 255
0.112892 0.246287  1.88875 255 255 255
 0.173592 -0.057425   1.87401 255 255 255
0.341489 0.217028  1.78062 255 255 255
0.368604 0.367141  1.76329 255 255 255
 0.411597 -0.246879   1.77844 255 255 255
-0.0192126  -0.134054    1.97437 255 255 255
0.0695653  -0.33322   1.94489 255 255 255
 0.382377 0.0418136   1.76909 255 255 255
0.420747 -0.24448  1.77404 255 255 255
0.489316 -0.17246  1.73692 255 255 255
 0.417817 -0.261356   1.77636 255 255 255
 0.650371 -0.192471   1.66471 255 255 255
  0.276822 -0.0555375    1.82525 255 255 255
0.181945 -0.13554  1.87584 255 255 255
 0.319963 -0.238008   1.82032 255 255 255
   0.17703 -0.0534159    1.87233 255 255 255
 0.246141 -0.212299   1.85255 255 255 255
 0.236638 0.0210498   1.83855 255 255 255
 0.182547 0.0253459   1.86414 255 255 255
0.627633 -0.27584  1.68392 255 255 255
 0.173097 -0.080505    1.8761 255 255 255
-0.0550738  0.0570202     1.9801 255 255 255
0.440157 0.287296  1.73177 255 255 255
0.384744 0.185032  1.76157 255 255 255
0.172252 -0.34186   1.8984 255 255 255
0.138242 -0.30301  1.91196 255 255 255
 0.371952 -0.278262    1.7998 255 255 255
0.370431 0.147921  1.77113 255 255 255
 0.204655 0.0372616   1.85326 255 255 255
 0.402871 -0.170974   1.77598 255 255 255
  0.296712 -0.0455946    1.81469 255 255 255
 0.469278 -0.250201   1.75331 255 255 255
 0.438632 -0.170367   1.75952 255 255 255
0.432185 -0.19539  1.76414 255 255 255
 0.527675 -0.242174   1.72551 255 255 255
  0.348104 -0.0847534    1.79422 255 255 255
0.227465 0.106332  1.83963 255 255 255
 0.391164 -0.150928   1.77925 255 255 255
  0.658775 -0.0431377    1.64984 255 255 255
 0.556209 0.0873501   1.68915 255 255 255
 0.500101 -0.288852   1.74283 255 255 255
 0.480101 0.0495393   1.72976 255 255 255
 0.283849 0.0559359   1.82337 255 255 255
 0.386465 -0.307558   1.79783 255 255 255
-0.035701  0.145865    1.9658 255 255 255
 0.40922 0.181124  1.75221 255 255 255
0.292461 0.194826  1.80381 255 255 255
0.270205 0.169123  1.81813 255 255 255
 0.550671 0.0322511   1.69996 255 255 255
 0.366314 -0.302332   1.80153 255 255 255
 0.468501 -0.334478   1.75813 255 255 255
0.569421 0.180676  1.67823 255 255 255
0.551604 0.158793  1.69182 255 255 255
0.0901226  0.351416   1.89477 255 255 255
0.163706 0.245288  1.86376 255 255 255
  0.3158 0.278057  1.78912 255 255 255
0.635599  0.13201   1.6515 255 255 255
 0.088205 -0.135902     1.924 255 255 255
0.127588 0.286421  1.87992 255 255 255
 0.306215 -0.344459   1.84036 255 255 255
0.194397 0.137471  1.85287 255 255 255
0.56589 0.23136 1.67866 255 255 255
  0.13646 -0.105492   1.89588 255 255 255
0.378383 0.163366   1.7658 255 255 255
0.587368 0.137425   1.6725 255 255 255
-0.0729874  0.0257722    1.99031 255 255 255
0.645658 0.329619  1.62868 255 255 255
