ply
format ascii 1.0
element vertex 1156
property float x
property float y
property float z
property uchar red
property uchar green
property uchar blue
end_header
-0.731959   0.72926  0.871148 255 255 255
-0.589225  0.910747  0.628712 255 255 255
-0.658227  0.887608  0.648469 255 255 255
-0.739877  0.850521  0.688996 255 255 255
-1.25968 0.346689  1.31026 255 255 255
-0.471986  0.807762  0.808481 255 255 255
-1.32593 0.112585  1.66643 255 255 255
-0.571575  0.801486  0.803208 255 255 255
-1.29723 0.209031  1.46809 255 255 255
-0.960187  0.605485  0.989383 255 255 255
-0.831884  0.840775  0.681833 255 255 255
-1.34968 0.134884   1.6194 255 255 255
-0.799469  0.879798  0.622458 255 255 255
 -1.0608 0.436086  1.25955 255 255 255
-0.63109 0.915966 0.607108 255 255 255
-0.924186  0.707866  0.855844 255 255 255
-0.822482  0.838902  0.687589 255 255 255
-0.739174   0.68316  0.942548 255 255 255
-0.303937  0.847451  0.785685 255 255 255
-0.720468  0.666812  0.979345 255 255 255
-0.750762  0.734376  0.861794 255 255 255
-1.28208 0.345685  1.31779 255 255 255
-0.939454  0.601785  0.988867 255 255 255
-0.59116 0.907488 0.636549 255 255 255
-0.696216  0.668868  0.976105 255 255 255
-0.452337  0.776792  0.863067 255 255 255
-0.976653  0.890859  0.565251 255 255 255
-0.582662  0.918677  0.614137 255 255 255
-1.01605 0.892034 0.554261 255 255 255
-0.458926  0.703396  0.932092 255 255 255
-0.809557  0.841293  0.685601 255 255 255
-0.638497  0.810164   0.77651 255 255 255
-0.560964   0.68236   1.00005 255 255 255
 -0.7179 0.739547 0.865286 255 255 255
-0.695311  0.758319   0.85293 255 255 255
-0.980136  0.706597  0.844976 255 255 255
-0.528757  0.866072  0.718841 255 255 255
-0.702069  0.891811  0.625265 255 255 255
-0.624543  0.921157  0.602437 255 255 255
-0.707786  0.735788   0.86935 255 255 255
-0.709533  0.888585   0.62908 255 255 255
-0.976061  0.702055  0.848118 255 255 255
-0.935859    0.7684  0.779748 255 255 255
-0.686124  0.888907  0.636015 255 255 255
-0.586356    0.9153  0.621563 255 255 255
-0.659957   0.87143  0.675685 255 255 255
-0.682985  0.508405   1.25573 255 255 255
-0.49224 0.825715 0.777182 255 255 255
-0.460822  0.820188   0.78874 255 255 255
 -0.5378 0.796237 0.818077 255 255 255
-1.10258 0.397815  1.29422 255 255 255
-0.775225  0.721109   0.86521 255 255 255
-0.691339   0.73129  0.879044 255 255 255
-0.997195  0.661326  0.918657 255 255 255
-0.883589  0.810265  0.726331 255 255 255
-0.650649  0.850874  0.717923 255 255 255
-0.657739   0.79943  0.789288 255 255 255
-0.699078  0.749809  0.859535 255 255 255
-0.678899  0.891687  0.631977 255 255 255
-0.472943  0.798719  0.822049 255 255 255
-0.569193  0.818314  0.779253 255 255 255
-1.02258 0.650673 0.925722 255 255 255
-0.533749  0.835392  0.763756 255 255 255
-0.989964  0.658595  0.922955 255 255 255
-0.884207   0.66304  0.937992 255 255 255
-0.532971  0.758013  0.871129 255 255 255
-0.599291  0.818063  0.774324 255 255 255
-1.35449 0.151103  1.58551 255 255 255
-0.606712  0.820938    0.7634 255 255 255
-0.850202  0.658495   0.96486 255 255 255
-0.626492  0.811274  0.779454 255 255 255
-0.932206  0.647075  0.956781 255 255 255
-0.716344  0.889981  0.624244 255 255 255
-0.862689  0.743996  0.827649 255 255 255
-0.564829  0.686169  0.982526 255 255 255
-0.577681  0.712541  0.936674 255 255 255
-0.567197  0.747377  0.872095 255 255 255
-0.927414  0.448109   1.29138 255 255 255
0.109574 0.266993  1.80118 255 255 255
0.337155 0.261965  1.77277 255 255 255
0.0672258   0.21433   1.93235 255 255 255
0.425146 0.301885  1.72486 255 255 255
0.324028 0.686096  1.21074 255 255 255
0.481658 0.302686  1.70358 255 255 255
0.263994 0.191611  1.87312 255 255 255
0.0926473  0.217394    1.5538 255 255 255
0.253367 0.693218  1.14915 255 255 255
-0.0368863   0.168937    1.95626 255 255 255
0.288296 0.692384   1.1779 255 255 255
-0.0311014   0.161538    1.96898 255 255 255
0.309407 0.210448  1.83914 255 255 255
0.105305 0.245996  1.54475 255 255 255
0.135567 0.294251  1.82633 255 255 255
-0.0319041   0.157244    1.98038 255 255 255
0.0237484  0.206291   1.89296 255 255 255
0.136197 0.322952   1.7859 255 255 255
-0.114346 -0.247304   1.58743 255 255 255
0.397646 0.269453  1.77355 255 255 255
0.384449 0.262269  1.77789 255 255 255
0.305205 0.347433  1.75871 255 255 255
0.0466046  0.267056   1.80458 255 255 255
-0.0540476   0.165084    1.95604 255 255 255
0.0398054   0.24712   1.82272 255 255 255
-0.100143 0.0770119   1.96048 255 255 255
-0.0538622   0.152253    1.98569 255 255 255
0.00572974   0.211373    1.88299 255 255 255
-0.0378306   0.167224    1.96112 255 255 255
0.0353952  0.208819    1.8986 255 255 255
0.396225 0.316269  1.69517 255 255 255
0.287678 0.389819  1.70032 255 255 255
0.233089 0.536487  1.45053 255 255 255
0.158381 0.244603  1.90499 255 255 255
0.159361 0.253147  1.89949 255 255 255
-0.0817962   0.155439    1.97101 255 255 255
0.0453275  0.323124   1.76597 255 255 255
0.318818 0.244249  1.79605 255 255 255
-0.0138453   0.226433    1.85726 255 255 255
0.0974397  0.251459   1.55706 255 255 255
0.0599308  0.354933   1.71379 255 255 255
0.486402 0.299203   1.7455 255 255 255
0.123007 0.311893  1.79568 255 255 255
  0.4479 0.332971  1.67594 255 255 255
0.277902 0.413084  1.59321 255 255 255
0.265164 0.360056  1.73257 255 255 255
0.0703206  0.336718   1.74686 255 255 255
0.432121 0.300231  1.72935 255 255 255
0.359832 0.241353  1.80416 255 255 255
0.349044 0.253961  1.79904 255 255 255
0.242778 0.687214  1.18751 255 255 255
-0.136568 -0.145259   1.81843 255 255 255
0.167513 0.550826  1.40682 255 255 255
0.113708 0.314666   1.7913 255 255 255
0.287888 0.211566  1.84167 255 255 255
0.0542502  0.340324   1.73593 255 255 255
0.0385093  0.244026   1.84319 255 255 255
0.0492293  0.303351   1.66355 255 255 255
0.0706483  0.199977   1.95753 255 255 255
0.0506565  0.366667   1.68794 255 255 255
0.0243801  0.254028   1.80945 255 255 255
0.285487 0.210966  1.84619 255 255 255
0.261265 0.692753  1.15684 255 255 255
0.228931 0.253998  1.89459 255 255 255
 0.37994 0.286953  1.74923 255 255 255
-0.0525313   0.154442    1.97955 255 255 255
0.362329 0.216524  1.85192 255 255 255
0.287521 0.416515  1.62294 255 255 255
 0.27154 0.204639  1.85197 255 255 255
-0.0356142   0.177112    1.90824 255 255 255
0.399865 0.260733  1.79243 255 255 255
  0.1745 0.528746  1.44807 255 255 255
0.269424 0.403299  1.61378 255 255 255
0.370095 0.295507  1.75733 255 255 255
0.405975 0.269135  1.77442 255 255 255
0.407642 0.254159   1.7968 255 255 255
0.354755 0.212698  1.85398 255 255 255
0.404264 0.266525  1.77736 255 255 255
0.196856 0.311737  1.81196 255 255 255
0.134719 0.245984  1.48593 255 255 255
0.0967007  0.336516   1.74491 255 255 255
0.050792 0.206515   1.8822 255 255 255
0.474898 0.283512  1.77123 255 255 255
0.418949 0.237506  1.83719 255 255 255
0.459572 0.321472  1.69933 255 255 255
0.408286 0.253113  1.80333 255 255 255
0.181764 0.351697   1.7487 255 255 255
0.43406 0.32147 1.69269 255 255 255
0.266033 0.384281  1.71404 255 255 255
 0.38145 0.278427  1.78876 255 255 255
0.219892 0.782195  1.04017 255 255 255
 -0.328723 -0.0947139    1.21004 255 255 255
 -0.32225 -0.110476   1.30657 255 255 255
-0.532812  0.702533  0.936837 255 255 255
-0.93965 0.729043 0.797808 255 255 255
-0.887658  0.743758   0.81715 255 255 255
-0.608519 -0.128186   1.26419 255 255 255
-1.01439 0.652039 0.925617 255 255 255
-0.724761 0.0119951   1.16125 255 255 255
-0.410619 -0.109341   1.24755 255 255 255
0.0382412   0.79736  0.962491 255 255 255
-0.991961  0.631163     0.945 255 255 255
  -0.3972 0.0584862   1.15267 255 255 255
 -0.376119 -0.0699146     1.2153 255 255 255
 -0.334825 -0.0278912    1.15465 255 255 255
-0.488625  0.656116   1.00568 255 255 255
-0.549054  0.731948  0.906068 255 255 255
-0.318468 -0.150152   1.17616 255 255 255
-0.390787 0.0326388   1.16751 255 255 255
-0.672603 0.0109616   1.16733 255 255 255
-0.946081  0.643596  0.949892 255 255 255
 -0.307929 -0.0778515    1.17932 255 255 255
-0.775217  0.662293  0.978277 255 255 255
 -0.770442 0.00438213    1.15463 255 255 255
 -0.158762 -0.0258227    1.13069 255 255 255
0.0689701  0.745784  0.955057 255 255 255
-0.540562  0.674093   1.03478 255 255 255
-0.0677102  -0.172231    1.29812 255 255 255
 -0.294586 -0.0404123     1.1844 255 255 255
 -0.4771  0.70151 0.910661 255 255 255
   -0.29126 -0.00313923     1.12046 255 255 255
-0.701635  0.803178   0.76512 255 255 255
-0.264795  0.818934  0.848659 255 255 255
-0.637526  0.746511   0.84435 255 255 255
-0.31309 0.678107  1.03739 255 255 255
-0.337935 -0.132753   1.20488 255 255 255
 1.43618 0.459491  1.36643 255 255 255
-0.882711  0.464854   1.27878 255 255 255
-0.820387  0.656999  0.971774 255 255 255
-0.880266  0.784138  0.733428 255 255 255
-0.881329   0.72233  0.834971 255 255 255
-0.385486  0.591212   1.20585 255 255 255
-0.336574  0.554506   1.28632 255 255 255
-0.238518 -0.106301    1.3085 255 255 255
-0.506035  0.685006  0.961416 255 255 255
-0.126239  0.691589   1.07457 255 255 255
-0.358439  0.683057  0.997444 255 255 255
-0.0970068   0.696576     1.0944 255 255 255
-0.526806  0.769533    0.8566 255 255 255
0.00751534   0.696665    1.12282 255 255 255
-0.270483 -0.100001   1.28487 255 255 255
-0.0336396    0.76738   0.927717 255 255 255
-0.0161789    0.69411    1.10056 255 255 255
 -0.277353 -0.0174519       1.14 255 255 255
-0.126852  0.666426   1.04841 255 255 255
-0.477616 -0.186613   1.39561 255 255 255
-0.181533  0.689011   1.02359 255 255 255
-0.320659 -0.148916   1.20999 255 255 255
-0.0466294   0.691148    1.04472 255 255 255
-0.162314 -0.123602   1.33564 255 255 255
-0.890761  0.802574  0.721629 255 255 255
-0.711999  0.685967   0.95255 255 255 255
0.0874248  0.791071  0.974001 255 255 255
-0.193098 -0.172383   1.38945 255 255 255
-0.413012  0.541053   1.28415 255 255 255
-0.567753  0.718943  0.937909 255 255 255
-0.850893  0.708366  0.863134 255 255 255
-0.0693008   0.691426    1.08949 255 255 255
-0.429002  0.689857  0.989062 255 255 255
-0.170835 -0.149452   1.32202 255 255 255
-0.66386 0.832806 0.728126 255 255 255
 -0.890207 -0.0363222    1.20312 255 255 255
0.0629017  0.782337  0.989715 255 255 255
 -0.6989 0.656734 0.998622 255 255 255
-0.0400157   0.697579    1.10508 255 255 255
-0.141135 -0.025717   1.12128 255 255 255
-0.829491  0.706935   0.86187 255 255 255
   1.281 0.489108  1.25698 255 255 255
-0.604774  0.827022  0.746039 255 255 255
0.00363983   -0.13945    1.27261 255 255 255
  -0.838767 -0.00738505     1.17165 255 255 255
0.0124121  0.752284  0.830776 255 255 255
-0.330457 -0.101474   1.23634 255 255 255
-0.417393  0.675516   1.02816 255 255 255
-0.60246 0.745105 0.880891 255 255 255
-0.964832 -0.009088   1.15592 255 255 255
-0.694254  0.667991  0.987079 255 255 255
0.372587 0.636018  1.23534 255 255 255
-0.261146  0.801915  0.885439 255 255 255
-0.757543  0.825539  0.718613 255 255 255
-0.550664  0.741628  0.876758 255 255 255
-0.915632  0.474718   1.24588 255 255 255
0.0983973  0.732717  0.964944 255 255 255
   1.301 0.478585  1.26483 255 255 255
-0.845363  0.671578  0.935646 255 255 255
-0.206105 -0.163774   1.39131 255 255 255
 -0.144414 -0.0336888    1.15876 255 255 255
 1.25779 0.484817  1.29443 255 255 255
-0.193384 -0.142197   1.35174 255 255 255
 1.26385 0.432643  1.35415 255 255 255
-0.738579  0.727491  0.845677 255 255 255
-0.1772 0.68038 1.07329 255 255 255
-0.621609  0.838543  0.728919 255 255 255
 -0.349509 -0.0551565    1.18789 255 255 255
 -0.277826 -0.0785693    1.15117 255 255 255
-0.505558  0.747731  0.896935 255 255 255
-0.654257 0.0138674   1.22627 255 255 255
  1.4535 0.417333  1.36833 255 255 255
-0.740504  0.680387  0.952168 255 255 255
-0.311001 -0.171169   1.20251 255 255 255
-0.619933   0.75598  0.858742 255 255 255
-0.51249 0.768865 0.861932 255 255 255
-0.91515 0.662882 0.933049 255 255 255
-0.202651   0.79368  0.897273 255 255 255
 -0.150633 -0.0346093    1.14058 255 255 255
 1.22099 0.481021  1.34043 255 255 255
-0.636776  0.738553  0.881957 255 255 255
-0.191548 -0.022036   1.11337 255 255 255
-0.776074  0.720903  0.880376 255 255 255
-0.309473  -0.11017   1.18691 255 255 255
-0.757981  0.677656  0.944233 255 255 255
-0.638721  0.694138   0.95761 255 255 255
0.0268655 -0.109498   1.23122 255 255 255
-0.262205  0.665101   1.04513 255 255 255
-0.51185 0.739151 0.903772 255 255 255
  -0.249671 -0.00410904     1.12899 255 255 255
-0.547533  0.767963  0.849961 255 255 255
-0.678225  0.770029  0.825206 255 255 255
-0.492203 -0.104439   1.25123 255 255 255
-0.216064  0.781968  0.906212 255 255 255
-0.162118 -0.131809   1.34039 255 255 255
 -0.172396 -0.0370825     1.1396 255 255 255
-0.789401  0.801109  0.741466 255 255 255
 1.25188 0.464801  1.33633 255 255 255
 0.013677 -0.109305   1.23835 255 255 255
 -0.312909 -0.0877595    1.18597 255 255 255
-0.557263  0.844125  0.743417 255 255 255
-0.425222  0.540672   1.26906 255 255 255
-0.613863 -0.124486    1.2593 255 255 255
-0.270629  -0.15527   1.24741 255 255 255
-0.190165 -0.198228   1.36295 255 255 255
 -0.431833 -0.0941705    1.23784 255 255 255
-1.04441 0.640395 0.926507 255 255 255
-0.181709 -0.128195   1.31636 255 255 255
-0.608873   0.84102  0.730311 255 255 255
-0.267541 -0.153233   1.36726 255 255 255
-0.0191025  -0.148917    1.28835 255 255 255
-0.859495  0.722048  0.854831 255 255 255
-0.241687 -0.101439   1.29738 255 255 255
 -0.752423 0.00262788    1.23442 255 255 255
-0.571745  0.749373  0.879329 255 255 255
-0.665079 0.0182135   1.22427 255 255 255
-0.483108  0.755305   0.88925 255 255 255
-0.990981  0.455659   1.26463 255 255 255
-0.296363  0.856574  0.786644 255 255 255
0.0151511 -0.100005   1.23626 255 255 255
0.472179 0.668635  1.25288 255 255 255
-0.52151 0.652408  1.00279 255 255 255
 -0.324802 -0.0932171    1.20614 255 255 255
-0.59759 0.812236 0.779409 255 255 255
-0.607395  0.749801  0.871722 255 255 255
-0.225826 -0.112313    1.3111 255 255 255
-0.592722 -0.131204   1.27932 255 255 255
-0.278277 -0.127659   1.25553 255 255 255
-0.346108 -0.011495   1.11533 255 255 255
-0.198097  0.681358   1.05034 255 255 255
0.0269336  0.735625  0.834581 255 255 255
-0.498438   0.76341  0.867199 255 255 255
-0.52621 0.772603 0.849566 255 255 255
0.0464306   0.78948  0.978896 255 255 255
-0.197457 -0.198922    1.3676 255 255 255
-0.46834 0.781143 0.862923 255 255 255
-0.0879497   0.776073     0.9613 255 255 255
-0.0342349   0.766533   0.831338 255 255 255
-0.749007 -0.200495    1.3667 255 255 255
-0.267472 -0.106608   1.29365 255 255 255
-0.975094  0.687249  0.858048 255 255 255
 -0.275794 -0.0688369     1.1508 255 255 255
-0.245578  0.557969   1.30309 255 255 255
 -0.741461 0.00220183    1.17275 255 255 255
-0.328966 -0.114434   1.20189 255 255 255
-0.457937  0.784031  0.853068 255 255 255
-0.737384 0.0117344   1.22166 255 255 255
-0.509204  0.647951   1.01463 255 255 255
-0.382911  0.541692   1.31158 255 255 255
-0.520251  0.747832  0.894271 255 255 255
 -0.149532 -0.0679705    1.16306 255 255 255
-0.654685   0.83042  0.734157 255 255 255
0.00907966   0.697791    1.09011 255 255 255
-0.220703  0.803562  0.885935 255 255 255
 -0.261399 -0.0169004    1.13155 255 255 255
-0.253175  -0.11547   1.31425 255 255 255
 -0.392498 -0.0985824    1.24029 255 255 255
-0.916084  0.796024  0.722506 255 255 255
-0.608448  0.534832   1.26236 255 255 255
0.380415 0.640748  1.22294 255 255 255
-0.754117  0.723766  0.871664 255 255 255
-0.226408  0.797364  0.870766 255 255 255
0.569093 0.667194  1.23883 255 255 255
 -0.401851 -0.0949167    1.23068 255 255 255
-0.877238 -0.106223   1.33364 255 255 255
 -0.4677 0.821036 0.793363 255 255 255
-0.447167 -0.105814    1.2577 255 255 255
-1.06555 0.579297 0.969114 255 255 255
-0.690048  0.470995   1.24821 255 255 255
-1.14523  0.13971  1.28338 255 255 255
 -1.07002 0.0400474   1.20015 255 255 255
-0.913842 0.0793092   1.18506 255 255 255
-0.587645  0.506357   1.27488 255 255 255
-1.10771 0.115269  1.22807 255 255 255
 -1.14922 0.0787212   1.27301 255 255 255
 -1.3106 0.167809  1.53612 255 255 255
 -1.225 0.14339 1.40776 255 255 255
 -1.18405 0.0419401   1.32336 255 255 255
-0.462503   0.55099   1.28599 255 255 255
  -1.00028 -0.0131482    1.19591 255 255 255
-0.590224   0.54151   1.22402 255 255 255
-0.860618   0.40252   1.41721 255 255 255
-1.29739 0.190828   1.4829 255 255 255
-1.15609 0.145237  1.28627 255 255 255
-1.39793 0.047487  1.72595 255 255 255
-1.28049 0.123299   1.5323 255 255 255
-1.11404 0.222922   1.2764 255 255 255
-0.54986 0.520533  1.27353 255 255 255
-0.559101  0.561957   1.22925 255 255 255
-1.41722 0.195849  1.51608 255 255 255
-1.44824  0.22569  1.43816 255 255 255
-0.908674   0.46421   1.27702 255 255 255
-1.28044 0.167087  1.50578 255 255 255
-1.08413  0.42071  1.28288 255 255 255
-0.678737  0.515295   1.24818 255 255 255
-0.634206  0.531613   1.22648 255 255 255
 -1.37379 0.0685077   1.73493 255 255 255
 -1.04324 0.0338875   1.19832 255 255 255
-0.985656  0.435271   1.28701 255 255 255
-1.41384 0.286368  1.38516 255 255 255
-1.18316 0.277248  1.35925 255 255 255
-1.31425 0.140857  1.56213 255 255 255
-0.602141  0.512117   1.30109 255 255 255
-1.30383 0.317486  1.35161 255 255 255
-0.485541  0.533787   1.27522 255 255 255
-1.17554 0.362822  1.30228 255 255 255
-0.694606 0.0261561   1.17355 255 255 255
-1.00136 0.420867  1.31394 255 255 255
-0.967318  0.488315   1.21421 255 255 255
-0.926758  0.472771   1.24611 255 255 255
-1.29077 0.152791   1.5344 255 255 255
-0.988416  0.498497   1.21613 255 255 255
-1.00552 0.451275  1.26434 255 255 255
-0.680307  0.512448   1.25903 255 255 255
-1.20345 0.360183   1.2978 255 255 255
-0.861343  0.495366   1.24119 255 255 255
 -1.44863 0.0821213   1.70602 255 255 255
-1.27943 0.291394  1.36723 255 255 255
-0.392598  0.545357   1.30324 255 255 255
-0.931076   0.48116   1.23003 255 255 255
-0.66551 0.506217  1.27689 255 255 255
-1.35994 0.242075  1.45888 255 255 255
 -0.6143 0.535706  1.26738 255 255 255
-1.21022 0.401896  1.26198 255 255 255
-0.643049  0.516571   1.26141 255 255 255
-0.443904   0.53414    1.2634 255 255 255
-1.20508 0.145324  1.40452 255 255 255
-1.34294 0.202088  1.49224 255 255 255
 -1.39174 0.0399714   1.71096 255 255 255
-1.03619  0.42734  1.29042 255 255 255
-1.00191 0.479682  1.21092 255 255 255
-0.735412  0.508533   1.24527 255 255 255
-0.581702  0.523787   1.26034 255 255 255
 -1.43423 0.0811353   1.70319 255 255 255
  -1.05937 -0.0016721      1.215 255 255 255
-0.880849  0.482489   1.24441 255 255 255
-1.26225 0.368437  1.29516 255 255 255
-0.541371  0.511062   1.25583 255 255 255
-1.35746 0.293071  1.38293 255 255 255
-1.22769 0.289235  1.35415 255 255 255
-1.19948 0.044597  1.34716 255 255 255
 -1.0369 0.422329  1.30936 255 255 255
-1.34483   0.1824  1.51819 255 255 255
-0.790588 0.0185668   1.16072 255 255 255
-0.886458  0.475387   1.26035 255 255 255
-0.586582   0.50276   1.24981 255 255 255
-1.30617 0.231241  1.44031 255 255 255
-1.32094 0.337676  1.32995 255 255 255
-0.756557   0.50574   1.24503 255 255 255
 -1.2826 0.178552  1.50281 255 255 255
-1.28508 0.316477  1.35348 255 255 255
-0.982577  0.429901   1.30867 255 255 255
-0.847874  0.499002   1.22864 255 255 255
 -1.3919 0.213027  1.49829 255 255 255
-1.13564 0.387488  1.28413 255 255 255
-0.56747 0.510318  1.23253 255 255 255
 -1.39816 0.0766359   1.69295 255 255 255
-1.02034 0.418506  1.31914 255 255 255
-0.319997  0.538315   1.33721 255 255 255
-1.22218 0.233552  1.41371 255 255 255
  -1.01288 -0.0652483    1.30947 255 255 255
-1.36625 0.194638  1.51073 255 255 255
-1.00949 0.150927  1.19952 255 255 255
  -1.369 0.149914  1.58785 255 255 255
-0.985447  0.483056   1.21388 255 255 255
-1.05946 0.423287  1.29959 255 255 255
-1.22258 0.248225  1.39982 255 255 255
-1.26881 0.176047   1.5106 255 255 255
  -1.4266 0.0503875   1.71244 255 255 255
-0.613286   0.50016   1.32726 255 255 255
 -1.16398 0.0744269    1.2861 255 255 255
-1.26917 0.339377  1.31919 255 255 255
-0.531218  0.552875   1.23362 255 255 255
-1.03505 0.402227  1.33184 255 255 255
-1.01343 0.429047  1.29203 255 255 255
 -0.952986 -0.0104206     1.1581 255 255 255
-0.455248  0.544403   1.29563 255 255 255
-0.92392   0.4753  1.24039 255 255 255
-0.86971 0.492827  1.23412 255 255 255
-1.26893 0.258622  1.39591 255 255 255
-1.10493 0.391316  1.29672 255 255 255
-1.38078 0.183579   1.5402 255 255 255
-1.28058 0.272382   1.3837 255 255 255
-0.975261  0.441762   1.28091 255 255 255
-1.20146 0.386279  1.27496 255 255 255
-1.29886 0.355313  1.30868 255 255 255
-0.652303  0.550557   1.20087 255 255 255
-0.819086  0.477641    1.2714 255 255 255
-0.543941  0.519853   1.30336 255 255 255
-0.987073  0.425449   1.31757 255 255 255
 -1.0185 0.429354  1.29155 255 255 255
-1.48654 0.237576   1.4139 255 255 255
-1.30427 0.205968  1.47512 255 255 255
 -0.984795 -0.0457625    1.28201 255 255 255
-1.35837 0.236452  1.45031 255 255 255
-1.28605 0.347409  1.31645 255 255 255
-1.06376 0.434716  1.25435 255 255 255
-1.18092 0.354141  1.31322 255 255 255
-0.650861   0.50538   1.29844 255 255 255
-0.615773  0.521356   1.29515 255 255 255
-0.440598  0.538029     1.311 255 255 255
-0.842035  0.478556   1.26463 255 255 255
-0.590145  0.527101   1.25781 255 255 255
-0.387992  0.532819   1.33337 255 255 255
-1.14262 0.101122  1.26717 255 255 255
-1.16803 0.311257  1.33533 255 255 255
-1.28247 0.291272  1.36681 255 255 255
-0.795316  0.507294   1.22857 255 255 255
-0.794494    0.5049   1.23384 255 255 255
-1.00228 0.489618  1.20145 255 255 255
-1.22685 0.250604  1.39913 255 255 255
-1.3152 0.33812 1.32798 255 255 255
-0.952975  0.437092   1.29851 255 255 255
 -1.3552 0.151329  1.58711 255 255 255
-1.13349 0.368673   1.3031 255 255 255
-0.959033  0.442032   1.27932 255 255 255
-1.00058 0.418272  1.32448 255 255 255
-0.986775  0.430953   1.28827 255 255 255
-0.47702 0.511346  1.33799 255 255 255
-1.24833 0.328101  1.32869 255 255 255
-1.16632 0.323698  1.33118 255 255 255
-1.04008 0.412846  1.31853 255 255 255
-0.780225  0.475029   1.26268 255 255 255
-0.993409  0.420632   1.31883 255 255 255
-0.451615  0.531518   1.32191 255 255 255
-0.411357  0.534438   1.32126 255 255 255
-0.664002  0.561626   1.17518 255 255 255
-1.18359 0.328041  1.32708 255 255 255
-1.09946 0.412142  1.27737 255 255 255
-0.881869   0.47717   1.24845 255 255 255
-0.735106  0.478996    1.2679 255 255 255
-0.454107  0.526258   1.33068 255 255 255
-1.17871 0.364277   1.2954 255 255 255
-0.594285  0.522517   1.28035 255 255 255
-0.659108  0.559299   1.17783 255 255 255
-0.533528  0.520957   1.31642 255 255 255
-1.23508 0.364123  1.29696 255 255 255
-0.559344  0.509454   1.32733 255 255 255
-0.520649  0.527431   1.30119 255 255 255
 -1.4336 0.191848  1.52538 255 255 255
-1.18417 0.367305  1.28352 255 255 255
-0.705077  0.494051   1.27251 255 255 255
-1.28056  0.34903  1.31828 255 255 255
-0.909246  0.496565   1.20792 255 255 255
-0.583013  0.619994   1.10737 255 255 255
-0.612158  0.551304   1.21146 255 255 255
-0.690804  0.561924   1.17468 255 255 255
-1.19459 0.332104  1.32286 255 255 255
 -0.879545 -0.0234504    1.20242 255 255 255
-0.582658   0.55034   1.21628 255 255 255
-1.02737 0.446197  1.26278 255 255 255
-1.02508 0.404678  1.33566 255 255 255
-0.413713   0.55442   1.26109 255 255 255
-1.26784 0.353932  1.30639 255 255 255
-0.420656    0.5392   1.31149 255 255 255
-0.424368  0.523599   1.33611 255 255 255
-1.14684 0.379512  1.29448 255 255 255
 -1.1742 0.351141  1.31559 255 255 255
-1.46797 0.137617  1.59521 255 255 255
-0.702567   0.49442   1.27886 255 255 255
 -1.18118 0.0549966   1.30955 255 255 255
-1.24356 0.322307  1.33212 255 255 255
-0.342069  0.543038   1.32533 255 255 255
 -1.2266 0.336696  1.32261 255 255 255
-1.25787 0.275488  1.37855 255 255 255
-0.908931  0.475394   1.24157 255 255 255
-1.13781 0.378168  1.29686 255 255 255
-0.578547  0.549938   1.21977 255 255 255
-0.342523  0.530058   1.34128 255 255 255
-1.09983 0.392562  1.29862 255 255 255
-1.18235 0.295001  1.35009 255 255 255
-1.42216 0.194371  1.52087 255 255 255
-1.25621 0.337707  1.31362 255 255 255
-1.18559 0.286837  1.35971 255 255 255
-0.417239  0.555547   1.25737 255 255 255
-0.900019  0.461804   1.27365 255 255 255
-0.784211  0.506051   1.23445 255 255 255
-0.609761  0.533484   1.28676 255 255 255
-1.11403 0.404892  1.28038 255 255 255
  -1.269 0.346947  1.31414 255 255 255
-0.760256  0.497222   1.25865 255 255 255
-1.14339 0.357764  1.31169 255 255 255
-1.12075 0.431051  1.24601 255 255 255
 -0.994397 0.00219315    1.17954 255 255 255
-0.760306  0.553118   1.16661 255 255 255
-1.27345 0.368894  1.29307 255 255 255
-0.783086  0.495331   1.25809 255 255 255
-1.23435 0.374235   1.2905 255 255 255
-1.19113 0.311454  1.33719 255 255 255
-1.17944 0.368114  1.28065 255 255 255
-0.546095  0.575543   1.18917 255 255 255
 -1.1574 0.382931  1.28938 255 255 255
-1.27466 0.282559  1.37216 255 255 255
-1.23407 0.263739  1.38555 255 255 255
-0.370606  0.549131   1.28846 255 255 255
-1.20269 0.352128  1.31443 255 255 255
-1.23044 0.316716  1.33311 255 255 255
-1.24372 0.376049  1.28805 255 255 255
-0.504924  0.575415   1.19618 255 255 255
-0.92515 0.499642   1.2063 255 255 255
-0.614158  0.616225   1.10242 255 255 255
-1.32668 0.277303  1.39418 255 255 255
-0.913135  0.464449   1.27004 255 255 255
-1.23709 0.382447  1.28089 255 255 255
-1.01312 0.425672  1.29532 255 255 255
-1.02757 0.477833  1.20689 255 255 255
-0.778318 0.0859762   1.32443 255 255 255
-1.21434 0.276397  1.36805 255 255 255
-0.607755  0.551639   1.21253 255 255 255
  -1.3874 0.0119553   1.82078 255 255 255
-0.77197  0.48593  1.27271 255 255 255
-1.04237 0.419551  1.31401 255 255 255
-0.751133  0.532569   1.19995 255 255 255
-0.573818  0.620186   1.10831 255 255 255
-0.512636  0.519752    1.3215 255 255 255
-1.32034 0.291082  1.38014 255 255 255
-1.25302 0.329618   1.3272 255 255 255
-0.916541  0.479626    1.2358 255 255 255
-1.18297 0.289936  1.35529 255 255 255
-0.796112  0.549595   1.15728 255 255 255
-0.850637  0.531768   1.17149 255 255 255
 -1.2053 0.386649  1.27572 255 255 255
-0.995395   0.48518   1.20529 255 255 255
-1.26681 0.334823   1.3254 255 255 255
-0.937302  0.480283   1.23272 255 255 255
-1.25858  0.32973  1.32751 255 255 255
-0.978261  0.434029   1.28693 255 255 255
-1.09303 0.411109  1.28804 255 255 255
-0.411634  0.552048   1.26027 255 255 255
-0.538723  0.523773   1.30296 255 255 255
-0.517567  0.560818    1.2212 255 255 255
-1.21032 0.346773  1.31599 255 255 255
-0.927094  0.489435   1.21579 255 255 255
-1.24105 0.334307  1.32094 255 255 255
-1.11627 0.411874  1.27379 255 255 255
-0.447584  0.543092   1.28521 255 255 255
-0.748931  0.494151   1.26742 255 255 255
-1.21107 0.335427  1.32102 255 255 255
-1.19799  0.33767  1.32063 255 255 255
-1.18081 0.307116  1.34096 255 255 255
 -1.36791 0.0635849   1.74631 255 255 255
-1.09332 0.413468  1.27845 255 255 255
-1.19446 0.281148  1.36326 255 255 255
-1.25631 0.277918  1.37635 255 255 255
-0.691789  0.500372   1.27365 255 255 255
-1.39739 0.171164  1.56293 255 255 255
-1.23667 0.379662  1.28347 255 255 255
0.0692624  0.147726   1.52995 255 255 255
-0.017136  0.191176   1.93254 255 255 255
-0.0282261   0.516195    1.44406 255 255 255
 0.0318753 -0.0448062    1.61492 255 255 255
-0.0174477   0.474601    1.48216 255 255 255
0.0963271  0.279898   1.56536 255 255 255
0.0710195  0.016366   1.60195 255 255 255
  0.179609 -0.0285083    1.34614 255 255 255
0.0569284 0.0197253    1.5794 255 255 255
-0.0991748   0.351082    1.36232 255 255 255
 0.0858052 -0.0434204    1.48781 255 255 255
 0.10861 0.386873  1.57326 255 255 255
0.061264 0.148721   1.3332 255 255 255
0.125156 0.200244  1.49037 255 255 255
-0.370969  0.539549   1.25165 255 255 255
0.0694045  0.178149    1.6116 255 255 255
-0.0456419    0.47156    1.47601 255 255 255
0.136028 0.489711  1.49223 255 255 255
 0.0702778 -0.0079095     1.5112 255 255 255
0.0996108  0.243609   1.54029 255 255 255
 0.38781 0.214731  1.86562 255 255 255
0.0944604  0.182967    1.5463 255 255 255
0.0309051  0.467228   1.52328 255 255 255
0.0930574  0.438809   1.58022 255 255 255
0.0953796  0.314971   1.57824 255 255 255
0.162138 0.118212  1.40041 255 255 255
-0.0699051   0.516135    1.41693 255 255 255
 0.151495 0.0129056   1.38303 255 255 255
-0.0481673    0.23884    1.31569 255 255 255
 -0.220437 -0.0266378    2.26423 255 255 255
-0.227415  0.540406     1.352 255 255 255
-0.0946816   0.589832    1.26402 255 255 255
  0.157968 0.00401725    1.36493 255 255 255
0.0601126  0.176899   1.59626 255 255 255
0.0920529   0.57477   1.37102 255 255 255
-0.0911789   0.234878    1.29904 255 255 255
0.194277 0.314061  1.80833 255 255 255
0.102302 0.222488  1.54487 255 255 255
 0.158087 0.0696254   1.39037 255 255 255
0.0836805  0.399769   1.53481 255 255 255
0.0252306  0.127729   1.64616 255 255 255
   0.176559 -0.00440141      1.3161 255 255 255
  0.0561783 -0.00823223     1.54791 255 255 255
-0.159972  0.265681   1.29005 255 255 255
0.0514469 0.0559714   1.57665 255 255 255
0.0922436  0.323275   1.59788 255 255 255
-0.0865526   0.270345    1.32018 255 255 255
 0.0201568 -0.0587145    1.59036 255 255 255
0.118193  0.39429  1.55475 255 255 255
-0.0522966   0.167819    1.90136 255 255 255
 0.170273 0.0592725   1.36348 255 255 255
0.150471 0.422767   1.6197 255 255 255
  0.181325 -0.0170048    1.31657 255 255 255
0.0938663  0.354894    1.6004 255 255 255
0.309718 0.198673  1.86099 255 255 255
0.168659 0.038653  1.34227 255 255 255
0.00209824   0.557055    1.36723 255 255 255
0.104305 0.238268  1.54567 255 255 255
0.0862064   0.34292   1.60971 255 255 255
  0.175755 0.00279354    1.33941 255 255 255
0.0601601  0.136784   1.58767 255 255 255
0.113266 0.240694  1.52221 255 255 255
  0.174612 -0.0191714      1.325 255 255 255
 0.254972 0.0735633   2.07952 255 255 255
    0.1572 -0.0339593    1.35741 255 255 255
  0.155287 -0.0159631    1.36756 255 255 255
0.138684 0.186731   1.4614 255 255 255
   0.172031 -0.00834626     1.33368 255 255 255
0.0733497 0.0449204   1.53172 255 255 255
0.140678 0.271365   1.4887 255 255 255
0.0473032 0.0819517   2.13227 255 255 255
 0.151129 0.0570482   1.33785 255 255 255
0.080976 0.136142  2.05866 255 255 255
0.131146 0.256956  1.49859 255 255 255
0.0682236  0.192621   1.96039 255 255 255
0.028284 0.131713   1.6446 255 255 255
0.121643 0.379403  1.55429 255 255 255
-0.105928 0.0553323   2.13879 255 255 255
-0.113987  0.497679    1.4407 255 255 255
0.0500819 0.0952846   1.59519 255 255 255
0.119656  0.34287  1.54608 255 255 255
0.148052 0.147266  1.43489 255 255 255
 -0.182535 -0.0918021    2.36742 255 255 255
0.0512461  -0.03057   1.54603 255 255 255
 0.0676925 -0.0657087    1.50568 255 255 255
0.0360137  0.130006    1.6224 255 255 255
0.0352003 -0.034874   1.57588 255 255 255
     0.17524 -0.000381521      1.33352 255 255 255
0.105723 0.250589  1.55124 255 255 255
0.0898371  0.473888   1.52208 255 255 255
-0.199743  0.506985   1.40269 255 255 255
0.121072 0.201154  1.49941 255 255 255
-0.210899  0.256337   1.40104 255 255 255
0.146124 0.136681  1.42979 255 255 255
  0.174905 -0.0189033    1.30314 255 255 255
 0.1127 0.27214 1.54036 255 255 255
0.0549433  0.172412   1.60783 255 255 255
0.0658255 0.0663538   1.27636 255 255 255
0.319804 0.200665  1.84868 255 255 255
 0.166814 0.0321501   1.36408 255 255 255
 -0.115068 -0.0539076    2.32109 255 255 255
0.0808775  0.560056   1.36315 255 255 255
 0.169169 0.0141828   1.35194 255 255 255
-0.184965 0.0416675   2.14345 255 255 255
  0.183118 -0.0261715     1.3154 255 255 255
  0.171193 -0.0162339    1.33285 255 255 255
0.0907196  0.279042   1.58296 255 255 255
   0.16575 -0.0277161    1.34507 255 255 255
 0.0716415 -0.0531273    1.50384 255 255 255
0.130816  0.19287  1.48055 255 255 255
0.151112 0.175513  1.42548 255 255 255
0.128857 0.513368  1.46804 255 255 255
  0.177486 -0.0316624    1.29507 255 255 255
0.156201 0.171221  1.42857 255 255 255
0.0975856  0.235524    1.5615 255 255 255
0.0649544  0.103753   1.56672 255 255 255
0.0584127  0.255617   1.40491 255 255 255
0.110135 0.217081  1.53137 255 255 255
0.143446 0.492811  1.50691 255 255 255
0.131144 0.485768  1.51319 255 255 255
 0.249301 0.0899124   2.03433 255 255 255
  0.16214 -0.010242   1.35111 255 255 255
-0.149078  0.507937   1.42169 255 255 255
0.0934297  0.266109   1.57595 255 255 255
  0.170372 -0.0221067    1.33697 255 255 255
   0.16294 -0.0463507    1.34481 255 255 255
-0.242698  0.555033   1.30541 255 255 255
0.153527 0.184606  1.43656 255 255 255
  0.14331 0.0917102   1.42649 255 255 255
-0.0643234   0.506631    1.41741 255 255 255
0.137306 0.421946  1.62786 255 255 255
0.142272 0.211953  1.46551 255 255 255
0.139161 0.146275  1.45083 255 255 255
-0.495064  0.544279   1.29162 255 255 255
 0.0709482 -0.0302247    1.50989 255 255 255
0.119226  0.55666  1.39578 255 255 255
0.388162 0.236325  1.84582 255 255 255
0.0892622  0.313876   1.59281 255 255 255
   0.070093 -0.00781742     1.51999 255 255 255
0.105035 0.304963   1.5611 255 255 255
-0.193815  0.558666   1.31648 255 255 255
0.142496 0.103776  1.36524 255 255 255
0.151129 0.206084  1.44863 255 255 255
0.143155  0.48276  1.51956 255 255 255
 0.172611 0.0181407   1.34616 255 255 255
0.133004 0.212425  1.48163 255 255 255
0.102209 0.359036  1.58598 255 255 255
 0.22882 0.415334  1.65683 255 255 255
  0.157688 0.00543898    1.30619 255 255 255
-0.151531 0.0865728   2.06252 255 255 255
-0.177589  0.556846   1.33481 255 255 255
 0.158409 0.0178382   1.37208 255 255 255
-0.0516703   0.559313    1.34806 255 255 255
0.144367  0.14107  1.43669 255 255 255
0.248279    0.296  1.82212 255 255 255
-0.0305696  0.0599705    1.82815 255 255 255
0.0939824  0.462648   1.52834 255 255 255
-0.0743864   0.177643    1.26585 255 255 255
0.107302 0.363235  1.57662 255 255 255
-0.194678  0.061681   2.11204 255 255 255
  0.186474 -0.0410767     1.2959 255 255 255
0.133795 0.245098  1.48895 255 255 255
0.0673219 0.0844801   1.29229 255 255 255
0.103561 0.538872  1.34837 255 255 255
  0.187769 -0.0442995    1.30192 255 255 255
 0.10648 0.418312   1.6303 255 255 255
 0.165804 0.0557347   1.37083 255 255 255
 0.137216 0.0874585   1.43202 255 255 255
0.102445 0.264876  1.55963 255 255 255
 0.167529 0.0488347   1.36579 255 255 255
 0.149154 0.0490691   1.40259 255 255 255
 0.0719702 -0.0443138    1.50403 255 255 255
0.121625 0.367975  1.55616 255 255 255
0.133455 0.237916  1.49073 255 255 255
  0.158212 -0.0135121    1.35591 255 255 255
0.0931794  0.292667   1.58674 255 255 255
 0.149837 0.0919862   1.41218 255 255 255
 0.14196 0.166183  1.45109 255 255 255
0.0546709  0.120732   1.58803 255 255 255
 0.147167 0.0346535   1.39939 255 255 255
0.0602309  0.549047   1.38459 255 255 255
  0.15328 0.0310435   1.32105 255 255 255
0.133862 0.222226  1.48228 255 255 255
0.0570917  0.104429   1.58109 255 255 255
 0.173997 0.0318101   1.34403 255 255 255
-0.141913 0.0432506   2.16039 255 255 255
0.0999618  0.246373   1.55563 255 255 255
0.109325 0.351226  1.57229 255 255 255
-0.413643  0.538508   1.31824 255 255 255
0.135709 0.221797  1.47653 255 255 255
 0.161987 0.0163065   1.36442 255 255 255
0.0620256 0.0863024   1.56849 255 255 255
0.122128 0.180869  1.48838 255 255 255
  0.174515 -0.0439245    1.32655 255 255 255
0.122757 0.309379  1.53034 255 255 255
 0.144934 0.0774617   1.34887 255 255 255
  0.180027 -0.0396539    1.31809 255 255 255
 -0.143088 8.9348e-05    2.23391 255 255 255
0.0604972  0.597923   1.31231 255 255 255
0.161756 0.345189  1.65329 255 255 255
0.146312 0.103395   1.4215 255 255 255
 0.152347 0.0366245   1.32422 255 255 255
 0.35598 0.196581  1.88382 255 255 255
 0.151591 0.0931168   1.40682 255 255 255
0.0967746  0.335072   1.58518 255 255 255
-0.0666731   0.557054    1.34315 255 255 255
0.162012 0.129224  1.40277 255 255 255
 0.0849405 -0.0081646    1.49316 255 255 255
0.0410301  0.474897   1.52077 255 255 255
0.096836 0.257383  1.56387 255 255 255
  0.163558 -0.0219601    1.28884 255 255 255
 0.017639 0.0192185   2.22997 255 255 255
-0.0176605   0.598301    1.28548 255 255 255
0.130703 0.245271  1.49705 255 255 255
0.156678  0.14854  1.41048 255 255 255
 0.115921 0.0919659   2.13421 255 255 255
0.169734 0.384503  1.69638 255 255 255
0.144581 0.244609   1.4716 255 255 255
0.132562 0.268094  1.50214 255 255 255
  0.190838 -0.0475968    1.29578 255 255 255
0.151657 0.199016  1.44022 255 255 255
0.0951211  0.453585   1.55528 255 255 255
 0.165335 0.0284578   1.36128 255 255 255
0.138711 0.155499  1.45305 255 255 255
0.134111 0.165732  1.46484 255 255 255
0.172641 0.388281   1.7067 255 255 255
0.105943 0.399179  1.65346 255 255 255
0.163172 0.132175  1.40046 255 255 255
  0.15984 0.0412074   1.37298 255 255 255
 0.250988 0.0749057   2.07426 255 255 255
0.0209316 0.0882328   1.62986 255 255 255
-0.00450869    0.201362     1.89246 255 255 255
0.0711803 0.0215488   1.52792 255 255 255
0.126701 0.233169  1.50061 255 255 255
0.0197605  0.160713   1.68099 255 255 255
0.208973 0.180767  1.92597 255 255 255
 0.458807 0.0655582   1.67525 255 255 255
 0.148862 0.0094349   1.38544 255 255 255
0.13392 0.47519  1.5255 255 255 255
 0.143615 0.0765863   1.41839 255 255 255
0.0657823  0.104139   1.30181 255 255 255
 0.166642 0.0973218   1.38376 255 255 255
 0.14058 0.127922  1.44147 255 255 255
 0.161238 -0.037642   1.34951 255 255 255
0.0812172  0.126989   2.06888 255 255 255
0.104066 0.455879  1.55545 255 255 255
0.0575166  0.154311   1.59983 255 255 255
0.130571 0.335946  1.52619 255 255 255
 0.0831145 -0.0259498    1.49272 255 255 255
0.12551 0.25532 1.50923 255 255 255
 0.174978 0.0190445   1.33264 255 255 255
   0.16658 -0.0245479    1.33662 255 255 255
0.231877 0.425019  1.54306 255 255 255
0.294635 0.428518  1.54365 255 255 255
-0.402959  0.535425   1.28138 255 255 255
-0.186959 0.0691789   1.14293 255 255 255
-0.208295  0.259412   1.25116 255 255 255
-0.0346715   0.473207    1.46536 255 255 255
-0.474604  0.582508   1.18112 255 255 255
-0.43106 0.594818  1.19542 255 255 255
0.223399 0.057726  2.06168 255 255 255
-0.383964  0.595614   1.20471 255 255 255
-0.19474   0.3309  1.27695 255 255 255
-0.279948  0.588526    1.2128 255 255 255
-0.328613  0.589177   1.20848 255 255 255
0.0816755 0.0352886   1.27092 255 255 255
-0.590035  0.519736   1.25958 255 255 255
0.259105 0.395609   1.5673 255 255 255
-0.0222651   0.147869    1.26931 255 255 255
0.0139695  0.513141   1.42805 255 255 255
-0.38608 0.151827   1.1649 255 255 255
0.270374 0.354331  1.74753 255 255 255
0.128756 0.428114  1.61275 255 255 255
-0.183236  0.506152    1.4163 255 255 255
0.127008   0.1992  1.41919 255 255 255
 0.249751 0.0830885   2.10277 255 255 255
0.248487  0.16402  1.91195 255 255 255
0.0445619  0.415239   1.52468 255 255 255
-0.0689541   0.141364    1.24507 255 255 255
  0.0954123 0.000750327     1.25535 255 255 255
-0.562709   0.50262   1.21715 255 255 255
-0.300049  0.253306   1.23279 255 255 255
0.329663 0.312505  1.78203 255 255 255
-0.166593  0.351244   1.33421 255 255 255
0.0514467  0.495301   1.48362 255 255 255
0.0622782  0.125752   1.31618 255 255 255
 0.30715 0.141567  1.98251 255 255 255
-0.294932  0.503134   1.38704 255 255 255
-0.393681  0.251754    1.1972 255 255 255
-0.338336  0.490068   1.38143 255 255 255
-0.526007  0.523631   1.22225 255 255 255
 0.13513 0.119067   1.3743 255 255 255
-0.619567  0.485329   1.28739 255 255 255
-0.340107  0.501718   1.37487 255 255 255
-0.432832  0.542228   1.26643 255 255 255
0.0712143  0.534816   1.42835 255 255 255
 0.150596 0.0494693   1.34327 255 255 255
0.0411865  0.540806   1.41106 255 255 255
0.183062 0.465397  1.55902 255 255 255
-0.354341   0.55389   1.29806 255 255 255
-0.0909455   0.534809    1.39357 255 255 255
-0.309714  0.495492   1.35829 255 255 255
-0.0564704   0.555662    1.36514 255 255 255
0.0599415  0.509085   1.47842 255 255 255
0.0608703   0.50335   1.47165 255 255 255
0.0688252 0.0226541   1.25102 255 255 255
-0.0612835   0.149432    1.25136 255 255 255
-0.0252555   0.434189    1.46925 255 255 255
 0.0664248 -0.0333894    1.21129 255 255 255
-0.398495  0.270464    1.2033 255 255 255
0.00722811 -0.0184758    1.19992 255 255 255
0.365871 0.297944  1.71998 255 255 255
-0.150767 0.0208112   1.10557 255 255 255
0.194368 0.436136  1.61261 255 255 255
 0.0699505 0.00270955    1.23685 255 255 255
 0.0691202 0.00336781    1.23941 255 255 255
-0.444454  0.529604   1.32293 255 255 255
0.0724449  0.174625   1.35894 255 255 255
-0.107996  0.555374   1.34042 255 255 255
-0.0429867   0.532337    1.39928 255 255 255
0.318105  0.19444  1.85061 255 255 255
-0.242026  0.361426   1.27248 255 255 255
0.205714 0.423212  1.65208 255 255 255
 0.0691816 -0.0259204    1.21579 255 255 255
0.057849 0.253553  1.40066 255 255 255
-0.261936  0.554312    1.2959 255 255 255
 0.077664 -0.036971   1.21511 255 255 255
0.360195 0.224039   1.8362 255 255 255
-0.419612  0.536644   1.25903 255 255 255
0.0856214  0.036595   1.27436 255 255 255
-0.178975  0.562211   1.30957 255 255 255
-0.611228  0.529918   1.28633 255 255 255
-0.254364  0.251951   1.24753 255 255 255
-0.0970871   0.290692    1.32908 255 255 255
0.0174134  0.511156   1.44964 255 255 255
 0.078815 0.0380467    1.2705 255 255 255
0.0400141  0.488394   1.49469 255 255 255
-0.0746576   0.457516    1.44781 255 255 255
0.0742936  0.157921   1.34837 255 255 255
-0.372627  0.168421   1.16546 255 255 255
0.0606928 0.0178595   1.24098 255 255 255
0.0347102  0.463817   1.52824 255 255 255
0.0271768 0.0567519   1.24081 255 255 255
0.382335 0.446213  1.62288 255 255 255
0.285272 0.112956  2.01171 255 255 255
0.190879 0.495272  1.51211 255 255 255
 0.0663582 -0.0278034    1.21307 255 255 255
-0.133322  0.495609   1.43986 255 255 255
-0.00279409    0.536849     1.40383 255 255 255
 -0.0573502 -0.00929937      1.1536 255 255 255
-0.406712   0.54157   1.29233 255 255 255
 0.0785483 -0.0176147    1.22946 255 255 255
0.246455 0.493283  1.52723 255 255 255
 0.14817 0.419955  1.63868 255 255 255
0.030681 0.324456  1.43616 255 255 255
-0.0738861   0.513214    1.42033 255 255 255
  0.0675568 -0.00967131     1.22411 255 255 255
 0.0851277 -0.0239999    1.23123 255 255 255
-0.0364869  0.0620363    1.20544 255 255 255
0.153985 0.421279  1.62885 255 255 255
-0.233787  0.594374   1.23955 255 255 255
-0.176837   0.32635   1.31026 255 255 255
0.140908 0.108971   1.3719 255 255 255
-0.521018  0.536345   1.26527 255 255 255
  0.3081 0.216468  1.84008 255 255 255
 0.36059 0.388569  1.62688 255 255 255
0.0299652  0.130207   1.29314 255 255 255
0.0292391  0.131416   1.29565 255 255 255
0.0469172  0.512997   1.44898 255 255 255
0.370015 0.313738      1.7 255 255 255
-0.369803  0.546435   1.25933 255 255 255
0.0269596  0.533695   1.42273 255 255 255
   0.165531 -0.00352009     1.31446 255 255 255
0.00861885   0.509308    1.44751 255 255 255
0.358836 0.364016  1.73916 255 255 255
-0.617248  0.532841   1.27517 255 255 255
  0.155514 0.00657326    1.31217 255 255 255
-0.0666821  0.0352824    1.17182 255 255 255
0.205505 0.363981  1.73472 255 255 255
  0.15327 0.0310092   1.33071 255 255 255
-0.067552 0.0526334   1.18204 255 255 255
0.365927  0.46885  1.59899 255 255 255
-0.143884 0.0495105   1.14842 255 255 255
-0.616401  0.519602   1.29433 255 255 255
-0.26066 0.555281  1.31256 255 255 255
-0.158729  0.511131   1.40972 255 255 255
0.079657 0.530617  1.43826 255 255 255
 0.159412 0.0343408   1.33544 255 255 255
-0.0696049   0.561452    1.35226 255 255 255
0.183106 0.445224  1.59309 255 255 255
-0.0431479  0.0494252    1.19347 255 255 255
 0.214344 0.0684458   2.03826 255 255 255
-0.0563029   0.534484    1.39594 255 255 255
0.183021 0.159095  2.04056 255 255 255
0.0413965  0.294421   1.41965 255 255 255
0.353781  0.30221  1.72206 255 255 255
0.191019 0.450449  1.58906 255 255 255
-0.138244 0.0420642   1.14314 255 255 255
-0.48461 0.514103  1.33146 255 255 255
-0.394953  0.564409   1.23432 255 255 255
0.314784 0.192311  1.85715 255 255 255
0.188277 0.482478  1.53743 255 255 255
0.322109 0.243522  1.79945 255 255 255
0.322355 0.193197  1.87404 255 255 255
0.299257 0.489541  1.54919 255 255 255
-0.226919  0.537456   1.27912 255 255 255
-0.043906  0.158377   1.26703 255 255 255
-0.47925 0.543027  1.28401 255 255 255
0.228735 0.381862  1.71967 255 255 255
0.0588755  0.106219   1.30143 255 255 255
0.0172755 0.0685466   1.24445 255 255 255
-0.376977  0.515251   1.35542 255 255 255
0.363729 0.310873  1.70413 255 255 255
-0.128881  0.548158   1.35578 255 255 255
0.362902 0.305985  1.70887 255 255 255
0.245397 0.493704  1.52742 255 255 255
-0.150347  0.100632   1.17769 255 255 255
 0.276005 0.0817963   2.21204 255 255 255
0.037273 0.497959  1.46725 255 255 255
0.420699 0.368989  1.61629 255 255 255
-0.0778913   0.157643    1.24755 255 255 255
0.376556  0.43893  1.62898 255 255 255
0.318606 0.387743   1.7108 255 255 255
0.0604837 0.0752363   1.28077 255 255 255
-0.316863  0.500525   1.37956 255 255 255
-0.469584  0.547712   1.25732 255 255 255
-0.0610494   0.555668    1.36627 255 255 255
0.0810127 0.0314159   1.26766 255 255 255
0.0596402  0.100797   1.29958 255 255 255
-0.398695  0.532741   1.27488 255 255 255
0.415034 0.425406  1.66052 255 255 255
-0.120838  0.574567   1.30202 255 255 255
-0.23009 0.547896  1.33632 255 255 255
-0.0844172   0.548258    1.36375 255 255 255
-0.409977  0.539795   1.31025 255 255 255
-0.132864   0.57469   1.29669 255 255 255
0.206183 0.374983  1.73316 255 255 255
-0.282676  0.601335   1.22718 255 255 255
0.0265089  0.503735   1.46761 255 255 255
-0.240961  0.558039   1.31466 255 255 255
-0.11453 0.570881  1.30664 255 255 255
-0.0659849   0.504112    1.43926 255 255 255
0.361004 0.447389  1.63625 255 255 255
0.0336541  0.501007   1.46172 255 255 255
0.197397 0.443708  1.59817 255 255 255
0.361632 0.374932   1.7164 255 255 255
-0.100229  0.523496   1.40878 255 255 255
-0.220222  0.519685   1.38932 255 255 255
-0.0825987   0.543633    1.38063 255 255 255
0.0559686  0.546594    1.4011 255 255 255
0.357792 0.368045  1.72043 255 255 255
-0.00822038    0.544641     1.38648 255 255 255
-0.268864  0.181274   1.20072 255 255 255
0.245021 0.475654  1.54453 255 255 255
-0.307401  0.559553   1.27538 255 255 255
0.290218 0.417381  1.64062 255 255 255
-0.205656  0.527933   1.28359 255 255 255
0.352604 0.369219  1.72145 255 255 255
-0.0395709  0.0486614    1.19567 255 255 255
-0.118867  0.566788   1.30697 255 255 255
0.358848 0.299733  1.72154 255 255 255
0.196945 0.427016  1.63008 255 255 255
0.0969194  0.453817   1.56366 255 255 255
-0.0791538   0.504949    1.43589 255 255 255
-0.294144  0.505836   1.38265 255 255 255
0.238608 0.420071  1.51093 255 255 255
0.0650314 0.0926073   1.29664 255 255 255
-0.132451  0.579237    1.2926 255 255 255
0.197525 0.444991  1.60073 255 255 255
-0.214944  0.568751   1.28785 255 255 255
0.267612 0.470024  1.54372 255 255 255
0.279359 0.189825  1.87889 255 255 255
0.321506 0.185645  1.89239 255 255 255
0.151552  0.12734  1.39723 255 255 255
0.228089 0.152688  1.92796 255 255 255
0.0433753  0.510368   1.45407 255 255 255
-0.68346 0.495173  1.27972 255 255 255
0.0692575  0.467669   1.53237 255 255 255
-0.628429  0.520185   1.27694 255 255 255
-0.0667521   0.125017     1.2326 255 255 255
0.00611308   0.519746    1.42255 255 255 255
0.121801 0.182766  1.40715 255 255 255
-0.318229  0.528134   1.35093 255 255 255
0.187032 0.431835  1.62248 255 255 255
-0.342006  0.518757   1.37891 255 255 255
0.000503197    0.507592     1.45046 255 255 255
-0.136205  0.547807   1.35808 255 255 255
-0.00466907   0.0772779     1.22973 255 255 255
-0.180398  0.498122   1.42286 255 255 255
-0.255395  0.591952   1.23617 255 255 255
0.179325  0.44062  1.60508 255 255 255
0.0752142  0.481803   1.51662 255 255 255
0.0522171  0.498092   1.47022 255 255 255
0.0427966  0.487813   1.50357 255 255 255
-0.531798  0.496345   1.23408 255 255 255
0.202007 0.458873  1.57814 255 255 255
-0.0716476     0.4958    1.45589 255 255 255
0.0520514  0.488243    1.4999 255 255 255
0.355845 0.377166  1.71246 255 255 255
0.103236  0.40849   1.5528 255 255 255
-0.108892  0.366845   1.37411 255 255 255
0.0675562  0.511904   1.46067 255 255 255
-0.466636   0.54393   1.29093 255 255 255
-0.478651  0.523767   1.32949 255 255 255
0.337869 0.470884  1.58515 255 255 255
