ply
format ascii 1.0
element vertex 1150
property float x
property float y
property float z
property uchar red
property uchar green
property uchar blue
end_header
-0.180935  0.498949   1.42413 255 255 255
-0.255943   0.59257    1.2374 255 255 255
0.178833 0.441707  1.60643 255 255 255
0.074698   0.4828  1.51803 255 255 255
0.0517179  0.499015   1.47153 255 255 255
0.0422383  0.488883   1.50498 255 255 255
-0.532053  0.496635   1.23521 255 255 255
0.201572 0.459979  1.57954 255 255 255
-0.0722053   0.496717    1.45724 255 255 255
0.0515145  0.489263    1.5013 255 255 255
0.355582 0.378269  1.71374 255 255 255
0.102813  0.40945   1.5541 255 255 255
-0.109073  0.367241   1.37507 255 255 255
0.0670358  0.512865   1.46207 255 255 255
-0.467298  0.544744   1.29232 255 255 255
-0.479032  0.524288   1.33077 255 255 255
0.337484 0.471625   1.5862 255 255 255
-0.0762549   0.460244    1.45301 255 255 255
0.289965 0.225317  1.82272 255 255 255
0.0838731  0.455733   1.55782 255 255 255
0.316492 0.475263  1.56622 255 255 255
-0.496937  0.540093   1.28321 255 255 255
0.271243 0.467515  1.54673 255 255 255
-0.367688  0.542747    1.3188 255 255 255
-0.346449  0.526331   1.35208 255 255 255
-0.299501  0.480692   1.33397 255 255 255
0.00297003     0.4743    1.50873 255 255 255
0.189943 0.443531  1.60495 255 255 255
-0.082883  0.172745   1.25927 255 255 255
 0.37405 0.256719  1.78155 255 255 255
-0.152201  0.160972   1.22185 255 255 255
-0.102974  0.547648   1.36438 255 255 255
-0.650448   0.50354   1.29101 255 255 255
-0.298673  0.552986   1.31118 255 255 255
-0.202051  0.546515   1.34603 255 255 255
0.088794  0.45868  1.55437 255 255 255
 0.32971 0.189021  1.88575 255 255 255
0.369927 0.320595  1.69753 255 255 255
0.188333  0.44921  1.59645 255 255 255
-0.160072  0.588004    1.2721 255 255 255
0.422568 0.434294  1.64875 255 255 255
-0.230453  0.544937   1.34426 255 255 255
0.377064 0.322904  1.68515 255 255 255
-0.0728827  0.0744048    1.19134 255 255 255
0.272535 0.198672  1.86258 255 255 255
0.272377 0.402459  1.64157 255 255 255
-0.0985673   0.263044    1.30956 255 255 255
0.00731281    0.54449    1.39342 255 255 255
-0.108399  0.528951   1.40056 255 255 255
0.150457 0.150348  1.41163 255 255 255
0.0965332  0.521018   1.45651 255 255 255
0.0947137  0.468968   1.53979 255 255 255
0.185538 0.377882  1.71666 255 255 255
0.0824114 0.0687992   1.29428 255 255 255
0.0208006  0.539468   1.40631 255 255 255
0.146363 0.176362  1.42632 255 255 255
0.311876 0.469822  1.56428 255 255 255
0.372692 0.312385  1.70237 255 255 255
0.0612346  0.539181   1.42361 255 255 255
 0.36567 0.256731  1.77525 255 255 255
0.201844  0.36756  1.73171 255 255 255
-0.548022  0.511967   1.32448 255 255 255
-0.156068  0.517159   1.40535 255 255 255
0.363487 0.302422  1.72048 255 255 255
0.291326  0.46048    1.557 255 255 255
 0.29802 0.475349  1.55356 255 255 255
-0.62926  0.47973  1.28866 255 255 255
0.0730615  0.465035   1.53763 255 255 255
0.0462363  0.471397   1.52406 255 255 255
-0.00721095    0.526543     1.41791 255 255 255
0.203697 0.432177  1.62225 255 255 255
-0.120736  0.527027   1.39794 255 255 255
0.298535 0.354763  1.72983 255 255 255
-0.352556  0.524199   1.35314 255 255 255
0.135557 0.174011  1.41547 255 255 255
-0.054872  0.482875   1.47952 255 255 255
0.00891987   0.541198    1.40051 255 255 255
0.280769 0.215296  1.83787 255 255 255
-0.0688159   0.547034    1.37389 255 255 255
-0.225945  0.550028   1.33528 255 255 255
0.0804014   0.49972   1.48689 255 255 255
-0.154763  0.234709   1.26415 255 255 255
0.206296 0.511719  1.49509 255 255 255
0.0469586  0.497293   1.47622 255 255 255
-0.139398  0.522218   1.40451 255 255 255
0.0461828  0.481607   1.51405 255 255 255
-0.507378  0.537648   1.27845 255 255 255
-0.367034  0.560729    1.2568 255 255 255
0.188934 0.495265  1.51953 255 255 255
0.322806 0.399018  1.69987 255 255 255
-0.0714975   0.540535    1.38585 255 255 255
0.291961 0.396192  1.68765 255 255 255
-0.0394722   0.518751    1.42818 255 255 255
-0.184524  0.514655   1.26309 255 255 255
-0.205577  0.529412   1.37012 255 255 255
0.181345 0.442652  1.60043 255 255 255
0.00921825   0.500948       1.47 255 255 255
0.212964 0.374374   1.7231 255 255 255
-0.276638  0.528835   1.36142 255 255 255
-0.0276564   0.444345    1.47693 255 255 255
-0.54999 0.560503  1.21333 255 255 255
-0.0771253   0.524137    1.40091 255 255 255
-0.0929863    0.53722    1.38622 255 255 255
0.0768833  0.492861    1.4937 255 255 255
-0.282202  0.268825    1.2501 255 255 255
0.230957 0.398987  1.68648 255 255 255
-0.50767 0.538455  1.27422 255 255 255
-0.406934  0.559421    1.2536 255 255 255
-0.260213  0.529264   1.36417 255 255 255
-0.00026571    0.505394     1.45873 255 255 255
-0.301508  0.549423   1.31793 255 255 255
0.205845 0.423488  1.63944 255 255 255
 0.15402 0.441173  1.59011 255 255 255
-0.398876  0.526818   1.34127 255 255 255
-0.427858  0.549466    1.2667 255 255 255
-0.221566  0.543594   1.34706 255 255 255
-0.243613  0.548559   1.33139 255 255 255
-0.161225  0.532633   1.37806 255 255 255
0.188513 0.480564  1.54407 255 255 255
0.0374957  0.483969   1.50503 255 255 255
0.0760194  0.487895   1.50243 255 255 255
-0.237124   0.54067   1.34876 255 255 255
0.343897 0.449283  1.62146 255 255 255
 0.24555 0.359177  1.75501 255 255 255
0.0808102  0.487181   1.50707 255 255 255
0.312957 0.460699    1.572 255 255 255
-0.0914627   0.527239    1.40421 255 255 255
0.00986795   0.487059    1.49346 255 255 255
  0.0195 0.220458  1.35092 255 255 255
0.257009 0.364695  1.73907 255 255 255
0.381338 0.270878  1.76707 255 255 255
0.0425154  0.516211   1.44634 255 255 255
-0.0228424   0.498947    1.46721 255 255 255
-0.336718  0.547469    1.3148 255 255 255
0.0282643  0.479653   1.50758 255 255 255
0.225014 0.476548  1.54772 255 255 255
0.303185  0.41649  1.65131 255 255 255
-0.268514  0.524224   1.37128 255 255 255
-0.299691  0.567003   1.26998 255 255 255
-0.140938  0.515274   1.41645 255 255 255
-0.139522  0.533346   1.38321 255 255 255
0.103782 0.456073  1.56348 255 255 255
0.306997 0.432533  1.61086 255 255 255
0.0398415  0.273906   1.40719 255 255 255
-0.437386  0.551253   1.26245 255 255 255
-0.263542  0.532879    1.3538 255 255 255
-0.0289336   0.524851    1.41628 255 255 255
-0.100232  0.521654   1.41312 255 255 255
-0.12464 0.497211  1.44418 255 255 255
-0.346535  0.562005   1.26031 255 255 255
-0.170918  0.343028   1.32699 255 255 255
-0.346961  0.539364   1.33026 255 255 255
0.294117 0.486823  1.54686 255 255 255
-0.166784  0.513751   1.40985 255 255 255
-0.52261 0.527927   1.2941 255 255 255
0.319061 0.487041  1.55601 255 255 255
0.131416 0.438715  1.59114 255 255 255
0.272025 0.207477  1.86115 255 255 255
-0.144293  0.511095   1.42018 255 255 255
-0.140377  0.510664   1.42213 255 255 255
-0.0979421   0.526598    1.40502 255 255 255
0.263248 0.190982  1.87513 255 255 255
-0.502604  0.538704   1.27644 255 255 255
0.0439551  0.507157   1.45815 255 255 255
0.0493168  0.478849   1.51615 255 255 255
-0.186957  0.591016   1.25553 255 255 255
0.125742 0.197323  1.42312 255 255 255
-0.00869015    0.506015      1.4296 255 255 255
0.0152142  0.507347   1.46013 255 255 255
0.0506041  0.470706   1.52172 255 255 255
0.165416 0.490258  1.51757 255 255 255
0.389575 0.332595  1.67374 255 255 255
-0.334615  0.556121   1.30199 255 255 255
-0.130456  0.045549   2.17227 255 255 255
-0.00669709    0.036235     2.20045 255 255 255
0.141906 0.176162  1.97913 255 255 255
0.0426417 0.0775257    2.1386 255 255 255
-0.00419176    0.067285     2.20224 255 255 255
-0.110284  0.131696   2.01584 255 255 255
0.0273098  0.129788   2.05905 255 255 255
0.0626982  0.142069   2.04257 255 255 255
 0.20241 0.355111  1.73464 255 255 255
  -1.3737 0.0943426   1.68124 255 255 255
-1.20133 0.134151  1.40229 255 255 255
   -1.07201 -0.00632347     1.20955 255 255 255
-0.942455 -0.192627   2.32364 255 255 255
 -1.23455 0.0470677    1.4427 255 255 255
-0.989579  0.302886    1.5082 255 255 255
  -1.02907 -0.0404575    1.21989 255 255 255
-1.35785 0.070218  1.73305 255 255 255
-0.187561  0.585599   1.27475 255 255 255
 -1.31187 0.0984041   1.70481 255 255 255
 -0.88164 -0.126797   1.34673 255 255 255
 -1.16215 -0.154641   2.25546 255 255 255
-0.514304  0.690353   1.01375 255 255 255
-1.17695 0.332518  1.33385 255 255 255
-0.966035  0.250331    1.4485 255 255 255
 -1.02287 0.0761934   1.17591 255 255 255
 -1.03285 0.0125588   1.20151 255 255 255
   -1.0362 0.00575127    1.19762 255 255 255
 -1.05108 0.0546177   1.18562 255 255 255
  -0.96188 -0.0278297     1.2498 255 255 255
 -1.19947 -0.135633   1.47303 255 255 255
-1.04501 0.426353  1.25996 255 255 255
-1.04727 0.422123  1.25697 255 255 255
 -0.740789 0.00302705    1.18726 255 255 255
-1.30575 0.165484  1.53731 255 255 255
  -1.03253 -0.0130895    1.21575 255 255 255
-0.95463 0.654435 0.909854 255 255 255
  -1.05635 -0.0310157    1.23074 255 255 255
   -1.01344 -0.00275508     1.19222 255 255 255
 -1.24079 -0.068838   1.51306 255 255 255
-1.05971 0.148352   1.1868 255 255 255
-0.757619  0.011124     1.162 255 255 255
0.0639424  0.696967   1.08993 255 255 255
-0.756997 0.0146722   1.18957 255 255 255
-1.23408 -0.10081  1.49919 255 255 255
-0.726109  0.695463  0.926779 255 255 255
-1.08363 0.516981  1.13652 255 255 255
-1.19027 0.354351  1.29792 255 255 255
-0.874256  0.623941  0.969844 255 255 255
-0.856716  0.104184    1.1623 255 255 255
-0.809832 0.0569845   1.15928 255 255 255
-1.16586 0.184967   1.2941 255 255 255
-1.23708 0.398094  1.25808 255 255 255
 -1.32211 -0.152502   1.95768 255 255 255
  -1.3133 -0.163688    1.9845 255 255 255
-1.19083  0.12769   1.3814 255 255 255
 -1.03753 -0.219465   2.39022 255 255 255
-0.996564  0.364342   1.55118 255 255 255
-0.827972  0.114371   1.15315 255 255 255
-0.04912 0.600305  1.29556 255 255 255
-0.942546 -0.019894   1.16055 255 255 255
-0.247246   0.66571   1.03754 255 255 255
 -1.17048 -0.125053   1.41587 255 255 255
-1.09776 0.207263  1.22796 255 255 255
-0.143518  0.580187   1.30007 255 255 255
-0.909679  0.488547   1.21901 255 255 255
-0.544274  0.137152   1.17339 255 255 255
-0.0395577   0.717385    1.06814 255 255 255
-1.11005 0.196635  1.23459 255 255 255
-0.958685  0.643908  0.928912 255 255 255
0.00438287   0.710351    1.06645 255 255 255
 -1.25851 0.0270244   1.49212 255 255 255
-0.32148 0.690452  1.01206 255 255 255
-0.767229 0.0236443   1.20354 255 255 255
 -1.43225 0.0721884   1.71064 255 255 255
-0.437647  0.657494  0.995342 255 255 255
-1.21829 0.125478  1.43081 255 255 255
  -1.27261 -0.0272784    1.56718 255 255 255
 -1.49441 0.0537727   1.65208 255 255 255
-0.859765  0.494622   1.22478 255 255 255
-0.985197 0.0198874    1.1714 255 255 255
-0.224273  0.559588    1.3061 255 255 255
 -1.39787 0.0504823   1.73322 255 255 255
 -1.33351 -0.136642   1.95971 255 255 255
  -1.00975 -0.0673903    1.30568 255 255 255
-1.11971 0.454847  1.21479 255 255 255
   -1.01988 -0.00347993     1.19127 255 255 255
-0.516389  0.659897  0.984935 255 255 255
 -1.2627 0.202562  1.47742 255 255 255
-1.39106 0.063552  1.73888 255 255 255
-0.121026  0.595548   1.27344 255 255 255
 -1.1552 0.265737  1.31479 255 255 255
-0.108115  0.589993   1.26686 255 255 255
   -1.0156 -0.0758986    1.32417 255 255 255
 -1.02231 0.0368841   1.18182 255 255 255
-0.865912  0.476321   1.24814 255 255 255
 -0.75939 0.0153818   1.23168 255 255 255
-0.857512 -0.126567   1.32345 255 255 255
 -1.40311 -0.101605   1.94969 255 255 255
-0.147703   0.55208   1.28712 255 255 255
-1.27733  0.16952  1.51901 255 255 255
 -1.09043 -0.124041   1.33296 255 255 255
  -1.02199 0.00706086    1.18697 255 255 255
   -1.0062 -0.0485357    1.27544 255 255 255
 -1.2155 0.142817   1.4031 255 255 255
  -1.56826 -0.0014848    1.91457 255 255 255
-1.14255 0.280531  1.31091 255 255 255
-1.12474 0.257818  1.26952 255 255 255
-1.13501 0.251153  1.27984 255 255 255
  -1.00114 -0.0337543    1.19835 255 255 255
 -0.97258 -0.100594   2.14148 255 255 255
-0.342069  0.562201    1.3056 255 255 255
-1.31461 0.154826  1.56075 255 255 255
 -0.936881 -0.0759674    2.08703 255 255 255
-1.10801 0.271471  1.25961 255 255 255
   -1.1892 0.00771416    1.88066 255 255 255
 -1.29319 0.0816206   1.65761 255 255 255
    -1.12 -0.121226   2.14956 255 255 255
-0.182644  0.687376   1.06754 255 255 255
-0.795893  0.660555  0.940161 255 255 255
-1.29863 0.102082  1.67943 255 255 255
0.0571481  0.682694   1.14549 255 255 255
  -1.02751 -0.0692616    1.27667 255 255 255
 -1.23833 -0.129333   1.92515 255 255 255
-0.302018  0.667015   1.03445 255 255 255
-0.989537 0.0140067   1.17781 255 255 255
  -1.137 0.164846   1.2628 255 255 255
   -1.23804 -0.00413452     1.43678 255 255 255
0.0311437  0.680738   1.09249 255 255 255
 -0.973291 -0.0196468     1.2479 255 255 255
 -0.986288 -0.0457979    1.27477 255 255 255
-0.796576   1.23018   2.35938 255 255 255
  -1.46675 -0.0666742     1.7171 255 255 255
-1.38803 0.171703  1.55838 255 255 255
-0.0904094   0.591515    1.28636 255 255 255
   -1.02246 -0.00264593     1.20807 255 255 255
 -1.22793 0.0619395   1.43669 255 255 255
   -1.06096 -0.00480932     1.21431 255 255 255
 -1.32951 -0.143324   1.97862 255 255 255
 -1.20176 0.0966472     1.389 255 255 255
-0.927047  0.271631   1.20197 255 255 255
-1.00123 0.690848 0.857821 255 255 255
 -1.29317 0.0861775   1.73684 255 255 255
-0.384118  0.555033   1.28614 255 255 255
-0.966684  0.486584   1.21386 255 255 255
-0.912449 -0.202312    2.2941 255 255 255
   -1.0393 -0.0613707    2.06955 255 255 255
-1.16113 0.128757  1.28712 255 255 255
0.0315056  0.712799   1.11693 255 255 255
  -1.04942 0.00752321    1.21776 255 255 255
 -1.24668 -0.115952   1.90034 255 255 255
 -0.982665 -0.0494255    1.28243 255 255 255
-0.972022  0.450876   1.27352 255 255 255
-0.771532  0.507479   1.21881 255 255 255
  -1.00363 0.00449182    1.18319 255 255 255
-0.00377104    0.579459     1.33837 255 255 255
-0.996345  0.637337  0.925917 255 255 255
-1.21549 0.106396   1.4187 255 255 255
 -1.39098 -0.135057   1.91611 255 255 255
 -1.04728 -0.025203    1.2199 255 255 255
-1.47962 0.145888  1.60346 255 255 255
-1.08338 0.417471   1.2856 255 255 255
0.0631431  0.718532   1.07088 255 255 255
-1.15542 0.120328  1.27661 255 255 255
-1.36353 0.237698  1.43567 255 255 255
-0.991218  0.486355   1.20786 255 255 255
 -0.949168 -0.0188723    1.23458 255 255 255
 -1.35482 -0.130458   1.87393 255 255 255
0.0339675  0.704549   1.07729 255 255 255
-1.44849 0.115986  1.61582 255 255 255
-1.2978 0.13364  1.5819 255 255 255
-1.41355 0.199569  1.51074 255 255 255
-1.00517 0.639221  0.92343 255 255 255
-0.805795  0.656739  0.967183 255 255 255
  -1.02295 -0.0892663    1.34722 255 255 255
 -1.30726 -0.154964   1.97763 255 255 255
 -1.38585 -0.144582   1.90415 255 255 255
 -1.11302 -0.160515   1.37835 255 255 255
-0.485835  0.541821   1.29159 255 255 255
 -1.23224 0.0809709   1.44692 255 255 255
-1.25323 0.422347  1.22489 255 255 255
-0.249666  0.564386   1.32364 255 255 255
-0.839074  0.654238  0.965155 255 255 255
-0.886813 -0.211422   2.26583 255 255 255
   -1.0358 -0.0630487    1.24323 255 255 255
-0.339209  0.677965  0.983076 255 255 255
-0.848139  0.491657   1.23429 255 255 255
-1.27438 0.187225   1.4956 255 255 255
  -1.3125 -0.159624   1.97389 255 255 255
 -1.43964 0.0828927   1.65058 255 255 255
  -1.47084 -0.0584131    1.69384 255 255 255
-0.681922 0.0127174   1.22098 255 255 255
-1.29581 0.306425  1.35773 255 255 255
-0.315762  0.694524  0.984244 255 255 255
 -1.2155 0.368417  1.29941 255 255 255
-0.59541 0.639756  1.01752 255 255 255
  -1.214 0.440242  1.20549 255 255 255
  -1.3249 -0.140174   1.96831 255 255 255
-0.772433 0.0051015   1.23842 255 255 255
-0.196202  0.558176   1.31496 255 255 255
  -1.00647 -0.0672035    1.30918 255 255 255
 -0.748493 0.00161224    1.19887 255 255 255
 -1.02883 -0.186271   2.33813 255 255 255
-1.23831 0.363669  1.29666 255 255 255
-1.26655 0.227324  1.43493 255 255 255
-1.14744 0.354076  1.31242 255 255 255
-0.325209   0.54443   1.32188 255 255 255
-0.854865 -0.126587   1.31255 255 255 255
-0.825487  0.661546   0.94062 255 255 255
-1.56271 0.016888  1.93015 255 255 255
-1.32471 0.161243  1.55263 255 255 255
0.0301726  0.682952   1.12231 255 255 255
  -1.4043 -0.108397   1.93757 255 255 255
-1.14519 0.370381  1.29736 255 255 255
  -1.05079 -0.0789815    1.26356 255 255 255
-0.783465 0.0150929   1.16304 255 255 255
-0.867857  0.493403   1.22858 255 255 255
-1.33984 0.290936  1.38698 255 255 255
-1.21759 0.469792  1.17886 255 255 255
-0.381723  0.684591  0.987125 255 255 255
-0.789803  0.526592    1.1934 255 255 255
  -1.49503 -0.0353613    1.99367 255 255 255
-0.602123  0.634743   1.02138 255 255 255
-0.327878  0.677854   1.02773 255 255 255
 -1.39115 -0.119578   1.94147 255 255 255
-0.110382  0.703167   1.08967 255 255 255
 -1.54683 0.0583006    1.7209 255 255 255
-0.361117  0.676427   1.03887 255 255 255
 -1.12967 -0.165353   2.28182 255 255 255
-0.0210143   0.727111     1.0849 255 255 255
-1.35959 0.195174  1.50913 255 255 255
 -0.807003 0.00930729    1.17105 255 255 255
-0.945035  0.489188   1.21135 255 255 255
-0.289872  0.563184   1.29922 255 255 255
 -1.45481 -0.033804   1.99585 255 255 255
-1.46238 0.135877  1.60264 255 255 255
 -1.14343 -0.223976   1.39588 255 255 255
 -0.991121 -0.0554991    1.29001 255 255 255
 -1.18396 0.0635454   1.31852 255 255 255
-1.33652 0.310928  1.35982 255 255 255
 -0.966046 -0.0168678     1.2275 255 255 255
-1.17509 0.180998  1.35727 255 255 255
-0.952808  0.636252  0.954168 255 255 255
-1.24928 0.318814  1.33058 255 255 255
  -1.3352 0.0240076     1.767 255 255 255
 -1.14811 -0.160775   2.26249 255 255 255
-1.20067 0.350584  1.31188 255 255 255
-0.827385  0.497905   1.22215 255 255 255
  -1.02687 -0.0942819     1.3545 255 255 255
-1.10478 0.469431  1.19356 255 255 255
-0.564785  0.680601  0.992697 255 255 255
 -1.31846 0.0756526   1.74494 255 255 255
-1.10452 0.326135  1.27571 255 255 255
  -1.30798 -0.0835609    1.87821 255 255 255
-0.121367  0.694946   1.10077 255 255 255
 -1.28976 0.0456239   1.80611 255 255 255
-1.24708 0.204268  1.47009 255 255 255
-0.792044  0.188701    1.1435 255 255 255
 -1.27209 0.0599692   1.81598 255 255 255
-1.31175 0.187449  1.50513 255 255 255
-0.00144543    0.715827     1.08514 255 255 255
 -0.4457 0.545781  1.27119 255 255 255
-1.30857 0.143496  1.57466 255 255 255
-0.794373  0.198405   1.14428 255 255 255
 -1.3009 0.133367  1.59461 255 255 255
0.0515012  0.700107   1.10202 255 255 255
  -1.4423 0.0775734   1.69877 255 255 255
-0.670217 0.0257771     1.631 255 255 255
0.00462387   0.562151    1.36958 255 255 255
 -0.88737 -0.230104   2.24228 255 255 255
-0.975047 -0.249968   2.26285 255 255 255
-1.27207 0.424063  1.22306 255 255 255
 -1.18911 -0.147797   2.23307 255 255 255
-1.23396 0.285261  1.36249 255 255 255
-1.15214 0.302615  1.32891 255 255 255
-0.870767  0.655139  0.935913 255 255 255
  -1.01477 -0.0539154    1.28302 255 255 255
-0.13271  0.69407  1.04363 255 255 255
-0.898065  0.493112    1.2149 255 255 255
-0.45856 0.662655   1.0081 255 255 255
-0.359283  0.688334  0.984993 255 255 255
  -1.3122 0.0629193   1.77298 255 255 255
 -1.37143 0.0570606   1.74937 255 255 255
 -1.04694 -0.190067   2.32975 255 255 255
-0.566492    0.6792  0.997651 255 255 255
 -1.43388 0.0762855   1.70782 255 255 255
  -1.4246 0.0681211   1.72143 255 255 255
-0.279949  0.612339   1.22377 255 255 255
-1.26852 0.258538  1.39597 255 255 255
  -1.50341 -0.0236021    1.96627 255 255 255
 -1.37575 0.0649967   1.74015 255 255 255
-1.28904 0.152269  1.56146 255 255 255
-0.449463  0.662948    1.0248 255 255 255
-0.655194  0.518797   1.25627 255 255 255
 -1.25127 0.0224579   1.45849 255 255 255
-0.331497  0.684023   1.03699 255 255 255
-1.00153 0.440163  1.28043 255 255 255
 -1.33268 -0.136388    1.8837 255 255 255
  -1.46049 -0.0508045    2.01073 255 255 255
-1.03998 0.636313 0.917322 255 255 255
-0.62999 0.521218  1.27161 255 255 255
-0.882828  0.478382   1.24274 255 255 255
-0.856477 -0.123788   1.32045 255 255 255
 -1.36295 0.0575907   1.75792 255 255 255
-1.30704 0.153391  1.55979 255 255 255
 0.10599 0.699545  1.15441 255 255 255
-1.27538 0.200867  1.47244 255 255 255
-0.170746  0.708584   1.01408 255 255 255
-1.31553 0.181296  1.51477 255 255 255
-0.790265  0.492627   1.25632 255 255 255
  -1.49578 -0.0735092    1.74322 255 255 255
 -1.32808 0.0809724   1.75123 255 255 255
-1.36425 0.167136  1.55776 255 255 255
 -1.54481 0.0673816   1.61055 255 255 255
  -1.25615 -0.0189413    1.93643 255 255 255
 -1.20297 -0.147332   2.23392 255 255 255
-0.305046  0.549816   1.31807 255 255 255
-0.988435 -0.249621   2.25658 255 255 255
-0.470423  0.654693   1.01934 255 255 255
 -1.26711 0.0507983   1.83003 255 255 255
-1.27241  0.15064   1.5276 255 255 255
  -1.47117 -0.0434406     2.0141 255 255 255
-1.26696 0.324178  1.33379 255 255 255
-1.28627 0.292651  1.36762 255 255 255
-0.0176096   0.585352    1.32803 255 255 255
 -1.48613 -0.052223   1.69199 255 255 255
-0.56815 0.689835 0.971782 255 255 255
-1.32107 0.116941  1.67208 255 255 255
-0.514541  0.690435  0.944443 255 255 255
-1.01367  -0.2383  2.41225 255 255 255
-1.08528  0.50795  1.14601 255 255 255
-0.981672  0.644172  0.921687 255 255 255
-1.16445  0.29855  1.33792 255 255 255
 -0.974317 -0.0929211    2.14303 255 255 255
-1.29879 0.326051  1.35011 255 255 255
-0.884286  0.478162   1.25319 255 255 255
-0.0903653   0.561317    1.34952 255 255 255
-0.914792  0.475419   1.24782 255 255 255
-0.916206  0.472676   1.24616 255 255 255
 -0.996764 -0.0472871    1.19516 255 255 255
 -1.27172 0.0571802   1.81326 255 255 255
-1.05548 0.585434 0.987783 255 255 255
-1.06424 -0.22581  2.39074 255 255 255
 -1.31998 -0.153899   1.97742 255 255 255
-1.15365 0.443482  1.19963 255 255 255
  -1.04618 -0.0223668    1.21863 255 255 255
-0.873896  0.657672  0.939542 255 255 255
-1.15589 0.354727  1.31249 255 255 255
 -1.39117 -0.281528   1.22337 255 255 255
 -1.4182 0.193247  1.52246 255 255 255
   -0.823498 -0.000481742      1.21383 255 255 255
 -1.10589 -0.129421   2.15182 255 255 255
-1.30764 0.328914  1.34247 255 255 255
  -1.22133 0.00724169    1.40593 255 255 255
-0.87878 -0.13958   2.2185 255 255 255
-0.336032   0.54663   1.31514 255 255 255
 -1.2521 0.340711  1.31665 255 255 255
-1.18136 0.455099  1.19929 255 255 255
-0.743513  0.509586    1.2311 255 255 255
 -1.38037 0.0623535   1.73973 255 255 255
  -1.03365 -0.0588488    2.06282 255 255 255
-0.914888  0.651084  0.926561 255 255 255
-0.994081 -0.174278   2.32357 255 255 255
 -1.30273 -0.161877   1.98641 255 255 255
-0.795558   0.50711   1.22001 255 255 255
-1.33024 0.142005  1.59088 255 255 255
-1.43454 0.191264  1.51996 255 255 255
-0.503695  0.670258  0.957489 255 255 255
-1.08282 0.339971  1.26182 255 255 255
  -1.4056 -0.112981   1.94161 255 255 255
-1.28771 0.277114  1.38079 255 255 255
 -1.02151 -0.216271   2.38653 255 255 255
  -1.33307 -0.0955804    1.87342 255 255 255
-1.25424 0.285881  1.36551 255 255 255
-1.01018 0.478267  1.21635 255 255 255
-0.927415 -0.182263   2.35057 255 255 255
-0.0246712   0.715998    1.07854 255 255 255
-0.857447  0.661491   0.93941 255 255 255
 -1.50788 -0.030336   1.99056 255 255 255
-0.585893  0.534471   1.26473 255 255 255
 -1.32809 0.0489067   1.77547 255 255 255
-1.23904 0.349662  1.30497 255 255 255
-1.14288 0.496285  1.14323 255 255 255
-0.982818  0.489316   1.20449 255 255 255
-0.867002  0.483877   1.24807 255 255 255
 -1.29126 0.0832871   1.76168 255 255 255
-1.39845 0.166346  1.56041 255 255 255
-0.848092  0.483347   1.26048 255 255 255
-0.829123  0.502327   1.21849 255 255 255
-1.20375 0.348462  1.31771 255 255 255
 -1.04147 -0.027351   1.21573 255 255 255
-1.24143 -0.11764  1.92191 255 255 255
-1.01045 0.461755  1.24092 255 255 255
-0.908064  0.645939  0.938523 255 255 255
-1.30029 0.298649  1.36678 255 255 255
 -1.40667 0.0677849   1.72522 255 255 255
-1.30503  -0.1588  1.98474 255 255 255
-1.22565 0.273413  1.37398 255 255 255
 -1.14735 -0.143191   2.24092 255 255 255
 -1.01587 -0.276838   2.29436 255 255 255
-1.23429 0.352334  1.30834 255 255 255
-1.31465 0.294002  1.37365 255 255 255
-1.18925  0.31399  1.33423 255 255 255
-1.36442 0.201347  1.50488 255 255 255
-0.841411  0.664169  0.932834 255 255 255
-0.871709 -0.236497   2.40131 255 255 255
-1.15256 0.357992  1.31013 255 255 255
 -1.29178 0.0733239   1.75933 255 255 255
  -1.50099 -0.0205337    1.96616 255 255 255
-1.35058 0.178462  1.53331 255 255 255
-0.376213  0.693942  0.978622 255 255 255
-1.28398 0.125756  1.60483 255 255 255
 -0.750951 -0.0233606     1.2796 255 255 255
-1.30546 0.111185  1.66748 255 255 255
-0.206889  0.555708   1.33991 255 255 255
-0.958315  0.530506   1.15405 255 255 255
 -1.25935 0.0779706   1.49545 255 255 255
-1.15093 0.082534  1.27676 255 255 255
  -1.23674 -0.0503231    1.48446 255 255 255
  -1.2771 0.0461315   1.55561 255 255 255
 -1.19899 -0.153177   2.24182 255 255 255
-1.17547 0.273749  1.34145 255 255 255
-1.23154 0.114895  1.75264 255 255 255
-1.09655 0.278284  1.24837 255 255 255
-1.07825 0.156266  1.83581 255 255 255
-1.27553 0.157549   1.5433 255 255 255
 -0.851001 -0.0547941    2.10651 255 255 255
-1.24855 0.106031  1.73413 255 255 255
-1.04426 0.131151   1.8809 255 255 255
-1.06875  0.12524  1.87832 255 255 255
-1.17831 0.135008  1.76962 255 255 255
 -1.36152 -0.129974    1.8841 255 255 255
-1.02892 0.110288  1.93292 255 255 255
 -1.1428 0.130695  1.83682 255 255 255
-1.07421 0.137582  1.86557 255 255 255
 -0.807986 -0.0923325    1.98279 255 255 255
-1.23822  0.11551  1.72286 255 255 255
 -1.11851 -0.121239   2.19958 255 255 255
  -0.80292 -0.0704506    2.04571 255 255 255
-1.04482 0.148411   1.8418 255 255 255
-1.22272 0.116311  1.74198 255 255 255
-1.08214  0.11307  1.89548 255 255 255
 -1.19624 0.0500513   1.35025 255 255 255
-1.28015 0.106322  1.57429 255 255 255
-1.19454 0.133609  1.40732 255 255 255
  -1.29766 -0.0494623    1.89103 255 255 255
 -1.24258 0.0083094   1.91344 255 255 255
-1.16751 0.131053  1.30672 255 255 255
-1.19682 0.222238  1.38748 255 255 255
-0.940201 0.0323025   1.20915 255 255 255
 -1.01045 -0.021694   1.20337 255 255 255
-1.29044 0.112525  1.64497 255 255 255
 -1.17389 -0.122059   2.03291 255 255 255
   -1.2562 -0.0423572    1.52598 255 255 255
  -1.22672 -0.0152714    1.41404 255 255 255
  -1.17216 -0.0651164    1.35794 255 255 255
  -1.2135 0.0083784   1.39121 255 255 255
  -1.1629 -0.146973   1.40808 255 255 255
  -1.14384 -0.0265779    1.30688 255 255 255
   -1.10319 0.000795485     1.59433 255 255 255
 -1.19665 0.0340232   1.36755 255 255 255
  -1.10956 0.00447852    1.51973 255 255 255
-1.21216 -0.03752  1.43021 255 255 255
  -1.35273 -0.0356153    1.81392 255 255 255
 -1.13495 0.0899961   1.24674 255 255 255
  -1.53808 -0.0440729    1.95991 255 255 255
  -1.24554 -0.0942896    1.55171 255 255 255
  -1.42262 -0.0711705    1.89681 255 255 255
-1.07353 0.470932  1.18533 255 255 255
-1.05672 0.150804  1.18624 255 255 255
-1.20626 0.106244  1.40729 255 255 255
-1.11152 -0.11657  2.13191 255 255 255
  -1.60376 -0.0309514    1.93403 255 255 255
 -1.25374 0.0360488   1.46111 255 255 255
  -1.02508 -0.0546612      2.076 255 255 255
 -1.30268 0.0990228   1.70364 255 255 255
-1.17647 0.110777  1.35305 255 255 255
  -1.47928 -0.0558431    1.70682 255 255 255
-1.16843 0.141469  1.28091 255 255 255
  -1.1904 0.0760002   1.30393 255 255 255
   -1.2791 0.00567099    1.56169 255 255 255
 -1.27755 0.0120825   1.57113 255 255 255
 -1.21066 0.0637457   1.40114 255 255 255
 -1.23041 -0.131404   2.00965 255 255 255
   -1.3993 -0.0259722    1.75938 255 255 255
 -0.961198 -0.0300456    1.17802 255 255 255
-1.13958 0.367711  1.30325 255 255 255
  -1.08005 -0.0799575    2.07379 255 255 255
  -1.36186 -0.0904323    1.84642 255 255 255
  -1.33253 -0.0476557    1.84745 255 255 255
  -1.26615 0.00424286    1.51491 255 255 255
 -1.19199 -0.134541   1.59222 255 255 255
-1.08415 0.212365   1.2111 255 255 255
 -1.25949 0.0254769   1.48708 255 255 255
  -1.1388 0.0100245   1.98323 255 255 255
-0.890843  0.491381   1.23999 255 255 255
-1.17943 0.233608  1.36988 255 255 255
  -1.26395 -0.0317144    1.54866 255 255 255
  -1.06124 -0.0398653    1.98082 255 255 255
 -1.24718 0.0850688   1.48286 255 255 255
 -1.00057 0.0592739   1.15279 255 255 255
   -1.26824 -0.00540484      1.5415 255 255 255
  -1.02569 -0.0522077    1.21445 255 255 255
-1.19457  0.15423  1.38245 255 255 255
  -1.33019 -0.0995515    1.88893 255 255 255
-1.45228 0.124731  1.63483 255 255 255
  -1.2241 -0.108019   1.94235 255 255 255
-1.18599 0.251466  1.36438 255 255 255
-1.00387 0.449722  1.26366 255 255 255
-1.22731 0.145394  1.45188 255 255 255
-1.07416 0.346822  1.25783 255 255 255
-1.06675 0.468577   1.1857 255 255 255
-1.21367 0.372154  1.28675 255 255 255
  -1.55284 -0.0599248    1.73131 255 255 255
  -1.12535 -0.0302884    2.00293 255 255 255
  -1.13066 -0.0362324    1.98834 255 255 255
-1.07753 0.497131   1.1689 255 255 255
  -1.24464 -0.0268597    1.95681 255 255 255
 -1.44122 0.0831935   1.69883 255 255 255
  -1.55187 -0.0403082    1.97936 255 255 255
-1.15792 0.236006  1.30641 255 255 255
  -1.42737 -0.0821889    1.84167 255 255 255
-1.14871 0.241352  1.29285 255 255 255
-1.27198 0.119691  1.52336 255 255 255
  -1.55737 -0.0282351    1.97131 255 255 255
-0.993783 0.0494383   1.15365 255 255 255
  -1.04571 -0.0469202    2.06036 255 255 255
-1.01959 0.100605  1.15765 255 255 255
  -1.04519 -0.0388132    1.99855 255 255 255
  -1.00819 -0.0704275    2.10987 255 255 255
  -1.37262 -0.0406967    1.78997 255 255 255
  -1.23738 -0.0736733    1.94988 255 255 255
  -1.27334 -0.0310907    1.90888 255 255 255
-1.20154 0.170349  1.40014 255 255 255
   -1.103 -0.142266   1.35533 255 255 255
 -1.3066 0.188104  1.49217 255 255 255
-1.20129 0.169359  1.37945 255 255 255
 -1.27605 0.0773709   1.54198 255 255 255
-1.22569 0.355941  1.30354 255 255 255
-1.26763 0.130765  1.60541 255 255 255
  -1.10531 -0.0132714    1.95184 255 255 255
 -1.29668 0.0461418   1.81969 255 255 255
   -1.02846 -0.00842262     1.19411 255 255 255
  -1.32001 -0.0533083    1.86563 255 255 255
 -1.29134 -0.157091   2.00241 255 255 255
 -1.28145 0.0577655   1.57418 255 255 255
-1.17212 0.132522  1.32849 255 255 255
-1.20573 0.119538  1.40178 255 255 255
   -1.212 0.0821408   1.40472 255 255 255
  -1.50145 -0.0730178    1.75567 255 255 255
-1.18462 0.114836  1.34627 255 255 255
-1.20131 0.124202  1.39002 255 255 255
  -1.45962 -0.0657534    1.69656 255 255 255
-1.15387 0.102919   1.2672 255 255 255
 -1.1877 0.112893  1.35833 255 255 255
 -1.28364 0.0260856   1.80485 255 255 255
  -1.50506 -0.0644379     1.7508 255 255 255
-1.19152 0.374089  1.26962 255 255 255
  -1.2502 -0.147307    2.0224 255 255 255
-1.27538 0.106222  1.60624 255 255 255
  -1.40824 -0.0974598    1.82703 255 255 255
 -1.24165 0.0322337   1.86015 255 255 255
 -1.41021 -0.117493   1.94363 255 255 255
-1.03899 0.150688  1.16835 255 255 255
  -1.06852 -0.0835041    2.01697 255 255 255
-0.91263 0.481154  1.24831 255 255 255
 -1.28777 0.0858074   1.69736 255 255 255
 -1.17304 -0.128604   1.41483 255 255 255
   -1.2308 -0.0755648    1.86521 255 255 255
 -1.28132 0.0532572   1.59597 255 255 255
 -1.24676 -0.146561   1.98803 255 255 255
-1.05977 0.472009  1.20526 255 255 255
-1.05858 0.474536  1.20647 255 255 255
 -1.34482 -0.137994   1.89544 255 255 255
-1.19417 0.358248  1.30688 255 255 255
  -1.09329 -0.0353845    1.26923 255 255 255
  -1.00989 0.00402363    1.18568 255 255 255
-1.17517 0.256023  1.35604 255 255 255
  -1.56275 -0.0461893    1.97368 255 255 255
   -1.0638 -0.0172705    1.22366 255 255 255
-1.46858 0.140842  1.59793 255 255 255
 -1.19357 -0.161039   2.00605 255 255 255
   -1.4933 -0.0729149    1.75713 255 255 255
-1.21124 0.342631  1.31811 255 255 255
-1.12627 0.458188  1.20544 255 255 255
-0.902763  0.486879   1.22829 255 255 255
 -1.11551 -0.114685   2.05423 255 255 255
 -1.14791 -0.153648   2.26814 255 255 255
   -1.37957 -0.00458336      1.8176 255 255 255
 -1.22802 0.0132901   1.40387 255 255 255
 -0.914384 -0.0169336    1.23397 255 255 255
-1.32428 0.163805  1.54102 255 255 255
  -1.35293 -0.0217508    1.81647 255 255 255
  -1.23261 0.00503117    1.40861 255 255 255
 -1.28729 0.0393702   1.80826 255 255 255
-1.28335 0.140543  1.57202 255 255 255
  -1.27587 -0.0803398    1.89213 255 255 255
  -1.37913 -0.0568099    1.76864 255 255 255
-1.23212 0.238114  1.42587 255 255 255
-1.30862 0.291509  1.38283 255 255 255
-1.27444 0.276048   1.3776 255 255 255
-1.28123 0.139555  1.60887 255 255 255
 -1.40894 -0.172445   2.22825 255 255 255
-1.20049  0.39072  1.27879 255 255 255
-1.17658 0.183477   1.3049 255 255 255
   -1.2078 0.00992731     1.8614 255 255 255
 -1.10745 -0.120212   1.33355 255 255 255
-0.986185 0.0315051   1.16529 255 255 255
 -1.38477 -0.153491    1.9165 255 255 255
-1.17335 0.273301   1.3459 255 255 255
-1.25427 0.267082  1.38488 255 255 255
 -1.15519 -0.163359   2.28433 255 255 255
  -1.53249 -0.0579736    1.71427 255 255 255
-1.22016 0.288493   1.3534 255 255 255
  -1.24583 -0.0557901    1.48999 255 255 255
 -1.27151 0.0702723    1.5291 255 255 255
-1.28961 0.104037   1.7129 255 255 255
   -1.3813 -0.0677187    1.76206 255 255 255
  -1.37337 -0.0370402    1.78315 255 255 255
 -1.43936 -0.054579   1.69955 255 255 255
   -1.04999 -0.00495486     1.21905 255 255 255
 -1.26337 0.0595036    1.4703 255 255 255
-1.21876 0.206968  1.44491 255 255 255
  -1.00445 -0.0534926    2.09039 255 255 255
 -1.35774 -0.075703   1.84761 255 255 255
-1.36932 0.185905  1.52312 255 255 255
 -1.43929 0.0995799   1.69581 255 255 255
 -1.38485 -0.088493   1.83816 255 255 255
-1.22779 0.360635  1.29888 255 255 255
 -1.30054 0.0544477   1.78979 255 255 255
 -1.3406 0.272409  1.39924 255 255 255
  -1.1711 0.0916233   1.28599 255 255 255
  -1.44995 -0.0465647    1.71293 255 255 255
-1.21551 -0.12196  1.92511 255 255 255
-1.17121 0.162278  1.29401 255 255 255
  -1.03409 -0.0990281    1.34505 255 255 255
  -1.28414 -0.0783288    1.87748 255 255 255
-1.56336 0.120297  1.59302 255 255 255
-1.38382 0.161606  1.56923 255 255 255
 -1.37382 -0.137761   1.92699 255 255 255
-0.898643  0.507331   1.20938 255 255 255
    -1.37042 -0.000569098      1.82382 255 255 255
-1.18228 0.363838  1.30359 255 255 255
-1.54615 0.136313  1.57631 255 255 255
 -1.25076 0.0636975   1.82688 255 255 255
-1.01433 0.479557  1.20204 255 255 255
 -1.28619 0.0796774   1.65511 255 255 255
-1.30469 0.203912  1.47537 255 255 255
-0.996094  0.490586   1.20461 255 255 255
 -1.31597 -0.137219   1.99375 255 255 255
 -1.36604 0.0121558   1.83966 255 255 255
  -1.42314 -0.0524646    1.72158 255 255 255
-1.25827  0.15278  1.51487 255 255 255
-0.977722 0.0088936   1.17085 255 255 255
 -0.994825 -0.0521238    1.26874 255 255 255
-1.33881 0.152903  1.57303 255 255 255
 -1.39847 -0.114148   1.93811 255 255 255
      -1.6 -0.0469919    1.66933 255 255 255
-1.06213  0.21762  1.19075 255 255 255
 -1.49612 0.0541717   1.64689 255 255 255
-1.05287 -0.07909   2.0819 255 255 255
  -1.39255 -0.0800622     1.8142 255 255 255
  -1.47618 -0.0602033    1.69929 255 255 255
-1.22183  0.12415  1.43277 255 255 255
-1.21764 0.207624   1.4461 255 255 255
 -1.17148 0.0862317   1.29246 255 255 255
 -1.28768 0.0518152   1.80366 255 255 255
-1.09274  0.43076  1.25386 255 255 255
  -1.21472 -0.0965118    1.94354 255 255 255
 -1.26661 -0.178796   1.99416 255 255 255
-1.34126 0.121262  1.65623 255 255 255
  -1.41205 -0.0307468    1.73245 255 255 255
 -1.0119 0.490779  1.20091 255 255 255
-1.31861 0.166969  1.53881 255 255 255
-0.833764   0.48396    1.2474 255 255 255
  -1.40948 -0.0357666    1.73898 255 255 255
-1.12257  0.46611  1.19947 255 255 255
-1.22146 0.117767  1.43438 255 255 255
-1.18425 0.247555  1.38834 255 255 255
 -1.38474 0.0773135   1.71443 255 255 255
-0.929624  0.496885   1.21709 255 255 255
   -1.0074 0.00420717    1.18341 255 255 255
-1.24183 0.132164  1.48542 255 255 255
-1.17198 0.249418  1.35988 255 255 255
-1.15442 0.233281  1.30097 255 255 255
 -1.04323 0.0170141   1.19588 255 255 255
 -1.25092 -0.113538   1.91599 255 255 255
-1.28607 0.293874  1.36842 255 255 255
-1.26102 0.044656  1.46047 255 255 255
-1.11337 0.213698  1.58578 255 255 255
 -1.21281 0.0265936   1.37746 255 255 255
-1.28096 0.332661  1.32677 255 255 255
-1.47436 0.172863  1.54445 255 255 255
-1.34475  0.13989  1.60066 255 255 255
 -1.29023 0.0434979   1.80187 255 255 255
    -1.0254 -0.00551497     1.19175 255 255 255
 -1.2018 0.358674  1.31054 255 255 255
  -1.02091 -0.0114455    1.19441 255 255 255
-1.22339 0.346199   1.3119 255 255 255
 -0.963429 0.00650436    1.17009 255 255 255
-1.16668 0.379371  1.28444 255 255 255
-1.16861 0.089036  1.28848 255 255 255
   -1.02786 -0.00683777     1.19747 255 255 255
 -0.958216 -0.0134931    1.15822 255 255 255
 -0.949717 -0.0457101    1.27488 255 255 255
-1.18712  -0.1663  2.26984 255 255 255
-1.32008 0.158239  1.54564 255 255 255
 -1.20657 0.0452136   1.34787 255 255 255
 -1.35601 0.0552013    1.7609 255 255 255
  -1.60193 -0.0562821    1.66255 255 255 255
 -1.06426 -0.037355    1.2576 255 255 255
-1.32963 0.128836  1.61657 255 255 255
-1.44802 0.217409  1.48408 255 255 255
-1.13631 0.314145  1.31463 255 255 255
-1.37899 0.182064   1.5373 255 255 255
-1.37114 0.246366  1.43949 255 255 255
  -1.41403 -0.0977694    1.93048 255 255 255
-1.19777 0.030849   1.8706 255 255 255
 -1.27825 0.0391202   1.81317 255 255 255
 -1.17906 0.0104342   1.89221 255 255 255
  -1.12156 -0.0186939    1.93316 255 255 255
-1.08085 0.474657  1.19952 255 255 255
-0.908292  0.482117   1.23145 255 255 255
  -1.49824 -0.0798434    1.75733 255 255 255
  -1.09253 -0.0207098    1.96387 255 255 255
 -1.30337 0.0479445   1.80516 255 255 255
-1.26342 0.326814  1.32941 255 255 255
-1.27095 0.182942  1.49967 255 255 255
  -1.49783 -0.0644922    1.76305 255 255 255
  -1.38662 -0.0612743    1.77017 255 255 255
 -1.25488 0.0539518   1.46797 255 255 255
-1.26259 0.324907  1.33329 255 255 255
-1.09273 0.385209  1.29004 255 255 255
  -1.08144 -0.0115504    1.95284 255 255 255
-1.33979 -0.12592  1.88282 255 255 255
-1.19243 0.249896  1.38326 255 255 255
-0.835897  0.503393   1.21705 255 255 255
-1.12029 0.459945  1.20441 255 255 255
-1.24935   0.1662  1.51538 255 255 255
 -1.04031 -0.111921   1.36694 255 255 255
  -1.17338 -0.0417014    1.34877 255 255 255
-1.23845 0.386265  1.28907 255 255 255
 -1.03081 -0.041753   2.04103 255 255 255
  -1.2869 0.0273628   1.80811 255 255 255
  -1.00651 -0.0849601    2.11054 255 255 255
-1.31243 0.114472  1.69459 255 255 255
-1.29254 0.324707  1.34576 255 255 255
-1.32454 0.119074  1.62665 255 255 255
 -1.34538 0.0478386   1.77534 255 255 255
   -1.34316 -0.00470138      1.8507 255 255 255
-1.05877 0.510122  1.14583 255 255 255
-1.47779 0.150073  1.59074 255 255 255
-1.18198 0.237309  1.38295 255 255 255
-1.40129 0.195621  1.52488 255 255 255
-1.29283 0.120443  1.64657 255 255 255
-0.898542  0.476803   1.24477 255 255 255
 -1.18851 -0.163106    2.0262 255 255 255
-0.857182  0.477259   1.26258 255 255 255
-1.08125 0.339299  1.25826 255 255 255
-1.13857 0.380365  1.28219 255 255 255
 -1.28655 0.0878964   1.63334 255 255 255
-1.20153 0.317408  1.33228 255 255 255
  -1.02195 -0.0255495    2.00287 255 255 255
-1.32611 0.144839   1.5334 255 255 255
-1.30423 0.299108   1.3667 255 255 255
-1.10553 0.468442  1.19917 255 255 255
 -1.32888 0.0530577   1.77204 255 255 255
  -1.49708 -0.0688029    1.76429 255 255 255
  -1.51471 -0.0362829    1.99012 255 255 255
 -1.17941 -0.169788   2.27374 255 255 255
-1.10642  0.28436  1.26002 255 255 255
  -1.04308 -0.0695243    1.23414 255 255 255
-0.858337  0.494625   1.22521 255 255 255
 -1.25637 0.0360522   1.86429 255 255 255
  -1.37038 -0.0849083    1.85524 255 255 255
 -1.34479 -0.125888   1.87356 255 255 255
-0.929586  0.483616    1.2239 255 255 255
-1.28283 0.048905  1.81355 255 255 255
  -1.38171 -0.0265177    1.79269 255 255 255
-0.864964   0.48879   1.23932 255 255 255
  -1.25921 -0.0170857    1.92693 255 255 255
-1.19295 0.240681  1.40028 255 255 255
-1.33325 0.142318  1.59476 255 255 255
 -1.3494 0.125406  1.65653 255 255 255
-1.11756 0.328156  1.31702 255 255 255
 -1.18301 -0.134078   1.98535 255 255 255
-0.875408  0.482207   1.24784 255 255 255
 -1.59389 -0.044877   1.70558 255 255 255
  -1.49353 -0.0880619    1.74883 255 255 255
  -1.11052 -0.0598641    2.04418 255 255 255
 -1.29601 0.0515073   1.80091 255 255 255
 -1.29362 0.0605016   1.81834 255 255 255
-1.33769 0.161513  1.55971 255 255 255
-1.29875 0.330633  1.33604 255 255 255
-1.39388 0.074663  1.71084 255 255 255
-1.09574 0.332668  1.27381 255 255 255
-1.31755 0.207424  1.47626 255 255 255
  -1.28141 -0.0960092    1.89384 255 255 255
  -1.386 0.180087  1.54982 255 255 255
 -1.23834 -0.113835   1.91275 255 255 255
-1.30346  0.31905  1.34863 255 255 255
-1.03782 0.487279  1.19928 255 255 255
 -1.12864 -0.147395   2.26384 255 255 255
-1.01229  0.48534  1.20344 255 255 255
 -1.39814 0.0769428   1.71042 255 255 255
 -1.04761 -0.112313   1.36504 255 255 255
-1.42504 0.199113  1.52169 255 255 255
-1.30691 0.151834  1.55873 255 255 255
-1.34472 0.156315  1.56944 255 255 255
-1.26981 0.175346  1.51082 255 255 255
 -0.979446 -0.0747326    1.31655 255 255 255
-0.999486  0.489388   1.20764 255 255 255
-1.32136 0.316686  1.35658 255 255 255
 -1.34932 -0.134956   1.88061 255 255 255
-1.32991 0.146451  1.58024 255 255 255
-1.27336  0.25734   1.4052 255 255 255
  -1.36993 -0.0337672     1.7761 255 255 255
-1.39665 -0.15011  1.92896 255 255 255
  -1.06995 -0.0303014    1.23238 255 255 255
-1.14757  0.34917    1.318 255 255 255
 -1.19959 0.0145565   1.88282 255 255 255
 -1.29947 0.0614516   1.78059 255 255 255
-1.15269  -0.1023  1.36114 255 255 255
-1.20105 0.223706  1.42173 255 255 255
 -1.2905 0.291358  1.37096 255 255 255
-1.31432 0.109427   1.6785 255 255 255
 -1.41152 0.0663389   1.72513 255 255 255
  -1.56509 -0.0507634    1.73343 255 255 255
  -1.24102 -0.0779201    1.92049 255 255 255
-1.16681 0.365983  1.29786 255 255 255
-1.2052 0.24636 1.41161 255 255 255
  -1.3052 -0.158599   1.98514 255 255 255
  -1.23217 -0.0251706      1.954 255 255 255
-1.28884 0.179485  1.50315 255 255 255
-1.28483 0.175947  1.51145 255 255 255
-1.20922 0.293263  1.34722 255 255 255
 -1.34609 0.0710411   1.73706 255 255 255
  -1.3288 0.0314843   1.77725 255 255 255
-1.30227 0.194513    1.484 255 255 255
-1.12404 0.455883  1.20974 255 255 255
-1.43138 0.195183  1.52196 255 255 255
  -1.09875 -0.0339698    1.26019 255 255 255
-1.11229 0.418054  1.25949 255 255 255
 -1.34367 0.0510954   1.77259 255 255 255
-1.28073 0.330053  1.33002 255 255 255
-1.28133 0.327479  1.32851 255 255 255
-1.28098 0.187367   1.4944 255 255 255
 -1.50883 -0.071893   1.73595 255 255 255
-0.866476  0.495357   1.22674 255 255 255
-1.2218 0.22343 1.42645 255 255 255
 -1.39107 -0.156086   1.92305 255 255 255
  -0.98272 -0.0384453    1.24699 255 255 255
-0.950706   0.45592   1.26348 255 255 255
   -1.5062 -0.0731419    1.74803 255 255 255
 -1.1098 0.471772   1.2111 255 255 255
 -1.12975 -0.171653   1.40574 255 255 255
-1.27946 0.226262  1.44355 255 255 255
 -1.41519 0.0759422    1.7094 255 255 255
   -1.421 0.0688983   1.71853 255 255 255
    -1.11731 -0.000225212      1.61178 255 255 255
-1.19052 0.257157  1.37932 255 255 255
 -0.949182 -0.0826828    2.12389 255 255 255
-1.24437 0.174381   1.5005 255 255 255
   -1.06258 -0.00245023     1.21494 255 255 255
  -1.34074 -0.0637931     1.7853 255 255 255
-1.37733 0.157535  1.59764 255 255 255
  -1.3709 0.0619179   1.74436 255 255 255
-1.00113 0.492179  1.20308 255 255 255
 -1.36745 0.0622621   1.74285 255 255 255
-1.44191 0.189475  1.52239 255 255 255
 -1.2292 0.185645  1.46872 255 255 255
-1.28606 0.110781  1.61809 255 255 255
 -1.41457 -0.120859    1.9459 255 255 255
 -1.23149 0.0664517   1.85876 255 255 255
-1.46977 0.146362  1.59592 255 255 255
-1.34457 0.161945  1.56946 255 255 255
-1.31845  0.11896  1.63702 255 255 255
 -1.31454 -0.155021   1.97179 255 255 255
  -1.53527 -0.0448181    1.99511 255 255 255
-0.822979   0.50134   1.23175 255 255 255
 -1.41851 0.0678494   1.72644 255 255 255
-1.36293 0.209718  1.49562 255 255 255
-0.908026  0.462504   1.27444 255 255 255
 -1.04239 0.0135398   1.19237 255 255 255
-1.27636 0.193097  1.48732 255 255 255
 -1.47765 0.0393756   1.76464 255 255 255
 -1.31257 0.0737777   1.75001 255 255 255
  -1.24319 -0.0208599    1.93221 255 255 255
  -1.0547 -0.043597   1.96988 255 255 255
-0.89676 0.496369  1.21095 255 255 255
-0.902186  0.469048   1.25932 255 255 255
  -1.21223 -0.0109257     1.3972 255 255 255
-1.35932 0.136414    1.636 255 255 255
 -1.3903 0.193789  1.52449 255 255 255
 -1.09317 -0.113411   2.13521 255 255 255
 -1.26364 0.0740369   1.83249 255 255 255
-1.36943 0.168522  1.55703 255 255 255
-1.35989 0.135419  1.62619 255 255 255
  -1.00358 -0.0377951     2.0151 255 255 255
  -1.2718 0.0816291   1.77169 255 255 255
 -1.38246 -0.090467   1.81993 255 255 255
-1.21582 0.262939  1.38432 255 255 255
-0.930133  0.466544    1.2561 255 255 255
  -1.254 0.178993  1.50109 255 255 255
-1.33952 0.234516  1.44533 255 255 255
 -1.40908 0.0638639   1.73008 255 255 255
-1.19035  0.24535  1.38765 255 255 255
   -1.5229 -0.0301958    1.97827 255 255 255
-1.21473 0.331801  1.32403 255 255 255
 -1.14401 -0.158245   1.40829 255 255 255
 -1.23383 -0.177243   1.98046 255 255 255
-1.25189 0.251852  1.40394 255 255 255
-1.38173 -0.15612  1.92394 255 255 255
-1.28438 0.268986  1.39496 255 255 255
 -1.2217 0.313961  1.33532 255 255 255
  -1.03705 -0.0645584    2.07348 255 255 255
   -1.5219 -0.0325532    1.98192 255 255 255
-1.33708 0.131782  1.62551 255 255 255
 -1.12754 -0.152802   2.26142 255 255 255
-0.974453 -0.010012   2.34411 255 255 255
  -0.98253 -0.0462183    1.26875 255 255 255
0.179809 0.322998  1.58948 255 255 255
 -0.13423 0.0721956    1.1711 255 255 255
-0.198342 0.0704794    1.1493 255 255 255
-0.430014  0.282885   1.19106 255 255 255
-0.645426  0.524053   1.29792 255 255 255
0.00629889   0.364601    1.42989 255 255 255
-0.320549 0.0755627   1.12385 255 255 255
-0.406571  0.249134   1.18938 255 255 255
-0.0949331   0.495995    1.45207 255 255 255
-0.629591  0.492931    1.3121 255 255 255
0.111039 0.373541  1.53837 255 255 255
-0.318345  0.389314   1.27415 255 255 255
  -0.135158 -0.00332515     1.11726 255 255 255
-0.0120371 -0.0289499    1.21233 255 255 255
-0.209608  0.490735   1.37617 255 255 255
0.0857267  0.453709   1.54117 255 255 255
0.294353 0.405399  1.67512 255 255 255
0.0180033   0.31693    1.4127 255 255 255
-0.179734  0.500016   1.41078 255 255 255
-0.0108257 -0.0740004    1.23952 255 255 255
-0.335485  0.173554   1.18345 255 255 255
 0.141434 0.0767516   1.35092 255 255 255
-0.397295  0.200793   1.18038 255 255 255
  0.035826 -0.0442814    1.21087 255 255 255
-0.0746124 -0.0302265    1.22488 255 255 255
0.307926 0.389093  1.69848 255 255 255
0.23519   0.407 1.63291 255 255 255
 0.30478 0.370756  1.71386 255 255 255
 0.0386537 -0.0507942    1.20929 255 255 255
-0.435472   0.54476   1.26849 255 255 255
-0.342188 0.0904303   1.12708 255 255 255
-0.353865  0.253565   1.22441 255 255 255
0.0621012  0.207142   1.37524 255 255 255
 -0.4173 0.197069  1.17428 255 255 255
 0.0297565 -0.0585421    1.22439 255 255 255
0.0405244  0.215682   1.36661 255 255 255
 0.151229 0.0480471   1.33975 255 255 255
-0.0692187   0.141467    1.24337 255 255 255
-0.233821  0.541898   1.34816 255 255 255
0.137544 0.092218  1.35776 255 255 255
-0.454803  0.872237     1.834 255 255 255
 0.148906 -0.035997   1.27901 255 255 255
0.274947  0.39502   1.6419 255 255 255
0.277912 0.341239  1.76338 255 255 255
0.053284 0.281703  1.42139 255 255 255
-0.44319  0.28519  1.19016 255 255 255
0.0580295   0.48399   1.51467 255 255 255
 0.0327461 -0.0851429    1.25878 255 255 255
0.00334839    0.32462    1.41084 255 255 255
 0.0490801 -0.0408646    1.19901 255 255 255
-0.355295  0.561296   1.25627 255 255 255
  0.110062 -0.0701543    1.21931 255 255 255
-0.306155  0.538901   1.30415 255 255 255
0.193202 0.440817  1.59144 255 255 255
  0.116401 -0.0828135    1.21595 255 255 255
0.0309583  0.485733   1.49861 255 255 255
 0.0954056 -0.0399357     1.2306 255 255 255
