ply
format ascii 1.0
element vertex 1108
property float x
property float y
property float z
property uchar red
property uchar green
property uchar blue
end_header
 0.133296 0.0712663   1.79747 255 255 255
 0.225186 0.0607875   1.75723 255 255 255
 0.225807 0.0577029   1.76341 255 255 255
 0.233031 0.0501878   1.73768 255 255 255
0.0930823 0.0343704   1.82783 255 255 255
0.0622991 0.0245071   1.84065 255 255 255
0.0770908 0.0844386   1.78204 255 255 255
0.0744808 0.0402023   1.82112 255 255 255
 0.194375 0.0662189   1.76306 255 255 255
 0.0361514 -0.0515163     1.8999 255 255 255
 0.141496 0.0848765   1.78206 255 255 255
  0.114146 -0.0240947    1.30311 255 255 255
 0.264905 -0.342986    2.0087 255 255 255
 0.166861 -0.386394   2.00031 255 255 255
 0.149968 0.0769361   1.78077 255 255 255
0.176152 0.121883  1.75743 255 255 255
-0.349419 -0.265963   1.56767 255 255 255
-0.0720926  0.0564356    1.28582 255 255 255
 -0.24808 0.0601114   1.23431 255 255 255
-0.0730176    0.13165    1.32744 255 255 255
-0.0612209   0.184184    1.32367 255 255 255
 0.286226 -0.389575    2.0393 255 255 255
  0.077829 -0.0505037    1.31797 255 255 255
-0.0256851   0.180648    1.34117 255 255 255
 0.397278 -0.248823   1.96304 255 255 255
 0.0713116 -0.0764597    1.30599 255 255 255
  0.092938 -0.0301811    1.89287 255 255 255
-0.200112 -0.027381   1.26072 255 255 255
 0.309615 -0.398373   2.03731 255 255 255
 -0.125595 -0.0855698    1.34392 255 255 255
0.433917  0.11867  1.69152 255 255 255
 0.0681157 -0.0620514    1.30202 255 255 255
 0.114925 -0.327222   1.98474 255 255 255
 0.104823 -0.410446   1.96815 255 255 255
 0.0972524 -0.0136423    1.88515 255 255 255
 0.282868 -0.372207   2.03945 255 255 255
 0.0325206 0.00231514    1.31588 255 255 255
  0.15318 0.0670189   1.79966 255 255 255
0.0846758 -0.064337    1.3127 255 255 255
 0.184159 -0.366267   2.00261 255 255 255
  0.371027 -0.0594635    1.85378 255 255 255
 0.107718 -0.350313   1.98033 255 255 255
 0.257238 -0.196502   1.92626 255 255 255
 0.130846 0.0881621   1.38604 255 255 255
0.133391 0.131698  1.40176 255 255 255
0.0278386  0.194852   1.41666 255 255 255
-0.391505 -0.292104   1.57222 255 255 255
0.21571 0.15126 1.69493 255 255 255
 0.115496 -0.377279   1.99257 255 255 255
  0.41795 -0.239615   1.98656 255 255 255
-0.320275 -0.248681   1.54935 255 255 255
 0.0634333 0.00779927    1.32345 255 255 255
  0.044934 -0.0313885    1.30536 255 255 255
  0.124741 -0.0615408    1.34467 255 255 255
 0.136336 0.0593072   1.80819 255 255 255
 0.109004 0.0366505   1.38725 255 255 255
-0.0433275  -0.424503    2.00859 255 255 255
0.194255 0.133697  1.72484 255 255 255
 0.198089 -0.403014   2.01391 255 255 255
  0.359121 -0.0849023    1.84724 255 255 255
 0.343075 -0.225946   1.92781 255 255 255
  0.104057 -0.0512882    1.33226 255 255 255
 -0.328194 -0.0159781     1.2587 255 255 255
  0.120878 -0.0145768    1.88434 255 255 255
 0.376761 -0.177376   1.98729 255 255 255
 0.0397953 -0.0254217    1.30519 255 255 255
 0.11223 -0.36535  1.97827 255 255 255
-0.0263717 -0.0109741    1.86106 255 255 255
0.0706025 0.0693768   1.34689 255 255 255
  0.123177 -0.0270014    1.35949 255 255 255
-0.0151879  0.0654237    1.32496 255 255 255
 0.111079 -0.348421   1.98312 255 255 255
 0.0633724 -0.0408846    1.31072 255 255 255
  0.122474 -0.0837828    1.32704 255 255 255
  0.110496 -0.0808984    1.33196 255 255 255
   0.11473 -0.0770266    1.32847 255 255 255
0.0350166 0.0731847   1.35918 255 255 255
 0.415403 -0.250439    1.9856 255 255 255
-0.130353 -0.136715    1.4424 255 255 255
-0.0153289 -0.0106916    1.86597 255 255 255
 0.269503 0.0306237   1.86016 255 255 255
 -0.219887 -0.0788994    1.30496 255 255 255
 0.21142 0.123361  1.72793 255 255 255
0.00984045  -0.445265    2.01746 255 255 255
0.0977204 -0.356825   1.97024 255 255 255
0.342363 0.159546  1.67001 255 255 255
  0.095126 -0.0776176     1.3113 255 255 255
0.195376 0.112907  1.73401 255 255 255
 0.263116 -0.234025   1.91498 255 255 255
  0.119509 -0.0725368    1.33158 255 255 255
-0.0523189  -0.425419    2.00808 255 255 255
0.00931253  -0.163823    1.42627 255 255 255
 0.140686 0.0727092   1.38556 255 255 255
-0.0650739  -0.120044    1.37812 255 255 255
 0.111441 0.0902403    1.4172 255 255 255
-0.381361 -0.302412   1.55298 255 255 255
 0.0948815 -0.0659621    1.32038 255 255 255
-0.0880073   0.182622    1.34989 255 255 255
  0.368956 -0.0371198    1.88098 255 255 255
   0.12655 -0.0682266    1.34231 255 255 255
0.0528513 0.0308691   1.34603 255 255 255
 0.109053 0.0207382   1.37745 255 255 255
-0.0749428  0.0490179    1.28465 255 255 255
0.0568728  0.123996    1.3538 255 255 255
 0.158569 -0.348588   2.00032 255 255 255
 0.0607411 -0.0520622    1.30413 255 255 255
 -0.118538 -0.0637805    1.33561 255 255 255
  0.28965 -0.184693    1.9577 255 255 255
-0.0832501  -0.046755    1.30392 255 255 255
 0.0390952 -0.0582767    1.29333 255 255 255
  0.347751 -0.0931479    1.83957 255 255 255
-0.0745931  0.0659227    1.28874 255 255 255
 0.268811 0.0765579   1.76449 255 255 255
  0.058545 -0.0627028    1.30344 255 255 255
 0.270722 -0.216307   1.92203 255 255 255
0.0515582 0.0550564   1.36031 255 255 255
0.0481973 0.0810011   1.75764 255 255 255
-0.244268  -0.27352   1.59421 255 255 255
  0.112996 -0.0384056    1.34623 255 255 255
  0.032899 -0.0359919    1.29291 255 255 255
-0.169594 -0.461972   2.04344 255 255 255
0.212834 0.131284  1.72464 255 255 255
 0.342937 -0.431198   2.07474 255 255 255
 0.250113 0.0455066   1.75267 255 255 255
 0.422228 -0.273868   1.98469 255 255 255
 0.258056 -0.380093   2.02303 255 255 255
  0.43067 -0.261729   1.98485 255 255 255
0.405414 -0.26736  1.98092 255 255 255
-0.560417 -0.262473   1.53539 255 255 255
  0.123956 -0.0590652    1.34216 255 255 255
 0.121768 0.0170931   1.38413 255 255 255
0.163077 -0.33905  1.99982 255 255 255
 0.407667 -0.305372   2.00459 255 255 255
 0.0695112 -0.0598713    1.30755 255 255 255
 0.0878984 -0.0691078    1.31344 255 255 255
  0.27654 -0.228375   1.91787 255 255 255
   0.37141 -0.0506736    1.85051 255 255 255
 -0.252791 -0.0732537    1.28998 255 255 255
 -0.25786 -0.117632   1.26625 255 255 255
 0.0460712 -0.0660282    1.28722 255 255 255
 0.168441 0.0824917   1.77742 255 255 255
-0.00579798   0.0667168     1.78459 255 255 255
  0.127668 -0.0526029    1.34737 255 255 255
 -0.23748 -0.110861   1.28253 255 255 255
 0.0824409 -0.0712701    1.32015 255 255 255
0.0367674 0.0611303   1.35088 255 255 255
  0.120231 0.00350079    1.35721 255 255 255
-0.239919  -0.29171   1.62887 255 255 255
0.0985699  -0.36328   1.97125 255 255 255
-0.0977187 -0.0897962    1.33607 255 255 255
 0.245054 -0.202388   1.92006 255 255 255
0.275765 0.106244  1.70575 255 255 255
 0.192616 -0.412102   1.99539 255 255 255
-0.519927 -0.286354   1.56168 255 255 255
 0.108869 -0.400028   1.96947 255 255 255
-0.247503 -0.115866   1.27464 255 255 255
-0.523073 -0.296206   1.58267 255 255 255
 -0.135724 -0.0203442    1.32758 255 255 255
0.116073 0.063735  1.79845 255 255 255
 -0.247398 -0.0956156    1.28258 255 255 255
0.197257 -0.37616  2.00322 255 255 255
  0.109982 -0.0579025    1.34089 255 255 255
 0.0339396 -0.0126362    1.29963 255 255 255
0.199915 0.121953  1.73764 255 255 255
-0.497237  0.332424   1.35222 255 255 255
0.128336 0.135373  1.40111 255 255 255
-0.327196  0.344253   1.35753 255 255 255
0.334517  0.18124  1.65221 255 255 255
 0.219598 0.0357539   1.78903 255 255 255
 -0.0385411 -0.00393302      1.8488 255 255 255
-0.186445  0.204579    1.3292 255 255 255
  0.221817 0.00612945    1.75814 255 255 255
-0.325396  0.114028   1.25572 255 255 255
-0.316927  0.186651   1.27669 255 255 255
-0.443811  0.329181   1.34329 255 255 255
0.0356243 0.0244671   1.33252 255 255 255
-0.0715543   0.125666    1.32579 255 255 255
 0.28226 0.112781  1.67442 255 255 255
 0.0423249 -0.0256691    1.29985 255 255 255
-0.43127  0.35886  1.33731 255 255 255
-0.0601389  0.0576339    1.29719 255 255 255
0.270566 0.131828  1.68008 255 255 255
 0.117908 0.0286448   1.39035 255 255 255
-0.0287779   0.122289    1.31234 255 255 255
0.0342347 0.0909196   1.36539 255 255 255
0.0331331 0.0668946   1.35098 255 255 255
 -0.0301404 -0.00398762      1.8531 255 255 255
  0.0464555 -0.00789867     1.87153 255 255 255
-0.0319238  0.0556226    1.78851 255 255 255
-0.278514  0.130901   1.26434 255 255 255
-0.350966  0.156397    1.2768 255 255 255
-0.216598  0.187853   1.29914 255 255 255
-0.298498  0.188641   1.29594 255 255 255
0.00753949   0.111568    1.36328 255 255 255
-0.314021  0.123985   1.25881 255 255 255
-0.289162 0.0589117   1.22783 255 255 255
-0.44932 0.343347  1.36553 255 255 255
-0.079085 0.0381919   1.25968 255 255 255
-0.311929  0.184661   1.29359 255 255 255
0.245705 0.114612  1.68373 255 255 255
0.0218911 0.0327974   1.74906 255 255 255
  0.075866 -0.0631671    1.32147 255 255 255
  0.338106 0.00277091     1.8919 255 255 255
0.349085 0.111233   1.7088 255 255 255
-0.302528  0.094054   1.24235 255 255 255
 -0.161069 -0.0110999    1.23102 255 255 255
 0.229778 -0.131338    1.9901 255 255 255
0.174954 0.136911  1.70139 255 255 255
  0.259598 -0.0981465    1.92664 255 255 255
-0.329272  0.186593   1.26784 255 255 255
 0.289419 -0.124407   1.94786 255 255 255
0.0280462 0.0957956    1.3493 255 255 255
 0.340028 -0.200952   2.06597 255 255 255
-0.100268  0.134292   1.32247 255 255 255
 0.166946 -0.125494   1.93205 255 255 255
  -0.15974 -0.0950255    1.36658 255 255 255
 -0.30594 0.0744981   1.21957 255 255 255
  0.244596 -0.0105008    1.81838 255 255 255
-0.300616 0.0626479   1.22931 255 255 255
-0.0256851   0.180648    1.34117 255 255 255
-0.0710269   0.262447    1.41093 255 255 255
  0.12096 0.0321347   1.83088 255 255 255
  0.110208 -0.0434282    1.33494 255 255 255
0.421706 0.110598  1.68821 255 255 255
 0.0394321 -0.0443614    1.92301 255 255 255
 0.367186 0.0942983   1.71634 255 255 255
  0.535933 -0.0208897    1.69704 255 255 255
 0.260809 0.0329588   1.84989 255 255 255
 0.117762 0.0249017   1.35927 255 255 255
 0.282476 0.0623644   1.73729 255 255 255
-0.288669 -0.295361   1.58855 255 255 255
  0.121047 0.00434803    1.36097 255 255 255
 0.163445 -0.113638   1.90255 255 255 255
 0.510471 0.0077965    1.7057 255 255 255
 -0.014327 -0.0315528    1.86926 255 255 255
 -0.197791 -0.0400385    1.29259 255 255 255
0.186057  0.14485  1.71778 255 255 255
  0.056936 -0.0332657    1.31874 255 255 255
 0.0274087 -0.0568189    1.28912 255 255 255
  0.141559 -0.0170462    1.36059 255 255 255
 0.288069 0.0798211   1.78673 255 255 255
  0.340044 -0.0139883    1.92574 255 255 255
 0.0115104 -0.0175144    1.28978 255 255 255
 0.0115104 -0.0175144    1.28978 255 255 255
0.180565 0.132641  1.72353 255 255 255
0.0642167 0.0975403    1.3507 255 255 255
0.222157 0.136409  1.71522 255 255 255
0.0497704 0.0574304   1.36115 255 255 255
0.0524616  0.125217   1.58452 255 255 255
0.0958607  0.059269   1.80944 255 255 255
-0.0951696 -0.0239834    1.32661 255 255 255
0.0488376 0.0321161   1.31644 255 255 255
 0.141862 -0.113962   1.86807 255 255 255
 0.377372 -0.189485   1.98691 255 255 255
 -0.109402 -0.0780281    1.35351 255 255 255
0.0621418 0.0679703   1.33813 255 255 255
 -0.130504 -0.0655479    1.33952 255 255 255
0.417696  -0.2081  2.02911 255 255 255
-0.252909 -0.104106   1.33233 255 255 255
  0.332158 -0.0638752    1.89593 255 255 255
 0.130652 0.0552196   1.37178 255 255 255
 0.0997154 -0.0965539    1.33341 255 255 255
 -0.243481 -0.0970111     1.3336 255 255 255
  0.0152383 -0.00822406     1.86761 255 255 255
 0.357777 -0.242868   2.04751 255 255 255
0.271594 0.109052  1.69985 255 255 255
0.0293532  0.132451   1.38434 255 255 255
0.268594 0.110811  1.68538 255 255 255
 0.049324 0.0549442   1.32689 255 255 255
  0.385978 -0.0724888    1.85442 255 255 255
  0.365724 -0.0682428    1.91489 255 255 255
 -0.269973 -0.0512798     1.2774 255 255 255
 0.14669 0.031459  1.82033 255 255 255
 0.143998 0.0896575   1.76331 255 255 255
-0.361402 -0.032439   1.27815 255 255 255
0.129349 0.113429  1.39712 255 255 255
 0.175153 -0.107286   1.86382 255 255 255
  0.120878 -0.0145768    1.88434 255 255 255
 -0.236648 -0.0730936     1.3002 255 255 255
 0.0296914 -0.0340632    1.28933 255 255 255
0.0828649  0.179574   1.38861 255 255 255
0.223113 0.042449  1.81691 255 255 255
 0.0742818 -0.0569261    1.92582 255 255 255
 0.383202 -0.179329   2.11993 255 255 255
-0.0445801  -0.166632    1.44861 255 255 255
 0.0866367 -0.0242648    1.88934 255 255 255
0.0795146 -0.111365   1.90293 255 255 255
 -0.353193 -0.0209741    1.28494 255 255 255
 -0.141325 -0.0137319    1.29945 255 255 255
 0.0167237 0.00522111     1.8582 255 255 255
  0.146949 0.00422474    1.88491 255 255 255
   0.13453 -0.0359714    1.35206 255 255 255
 -0.137285 -0.0171471    1.30467 255 255 255
0.00771653 -0.0286039    1.87606 255 255 255
 0.346617 -0.421973   2.07278 255 255 255
 -0.203896 -0.0643916    1.30864 255 255 255
0.122327 0.137579  1.40768 255 255 255
 0.0185605 -0.0154053     1.6133 255 255 255
 0.328983 0.0938764   1.71721 255 255 255
 0.336804 -0.454767   2.07199 255 255 255
 0.170539 -0.359507   2.00086 255 255 255
 -0.101887 -0.0217173    1.32354 255 255 255
-0.0956905 -0.0502512     1.3161 255 255 255
 0.102602 -0.370391   1.98127 255 255 255
  0.343755 0.00162276    1.90354 255 255 255
 0.0315352 -0.0687456    1.28703 255 255 255
-0.269802 -0.110534   1.33153 255 255 255
  0.319693 -0.0176812    1.92149 255 255 255
0.0161535 0.0979527   1.72978 255 255 255
 0.466661 -0.127473    1.9776 255 255 255
0.0838232 -0.387756   1.97578 255 255 255
0.359798 -0.17668  1.97897 255 255 255
 -0.156077 -0.0482584    1.30073 255 255 255
-0.567384 -0.278333   1.56084 255 255 255
0.138483 0.104798  1.39255 255 255 255
 0.147747 0.0580879   1.38723 255 255 255
  0.120249 -0.0960685    1.34122 255 255 255
  0.105804 -0.0919461    1.33094 255 255 255
-0.0452089  0.0205447    1.82437 255 255 255
 0.339765 -0.245758   2.02864 255 255 255
0.0518708 0.0397648   1.32201 255 255 255
 0.0653838 -0.0621226    1.30796 255 255 255
 -0.33287 0.0533046   1.22028 255 255 255
0.0491276 0.0776583   1.76914 255 255 255
-0.0314711  0.0309846    1.81709 255 255 255
  0.114522 -0.0101193    1.86815 255 255 255
 0.0949774 -0.0779007    1.31018 255 255 255
0.324245 -0.23108   2.0255 255 255 255
 0.299453 -0.223511   2.01096 255 255 255
  0.395745 -0.0927851    2.02499 255 255 255
 0.167176 -0.134872   1.90762 255 255 255
  0.059908 -0.0287623    1.30962 255 255 255
  0.133952 -0.0117556    1.36043 255 255 255
 0.181958 -0.398481   1.99379 255 255 255
-0.461001   0.34012   1.34653 255 255 255
  0.100302 -0.0674492    1.32893 255 255 255
 0.117475 0.0494877    1.4003 255 255 255
0.00318222 -0.0347062    1.88085 255 255 255
0.0170122 0.0384505   1.80848 255 255 255
-0.175965 -0.162193   1.45827 255 255 255
 0.386826 -0.232819   2.08304 255 255 255
 0.413916 -0.111739   2.04781 255 255 255
-0.0694517  0.0138358    1.82761 255 255 255
0.212834 0.131284  1.72464 255 255 255
 0.0646493 0.00175881    1.32558 255 255 255
   0.0984 -0.105445   1.88182 255 255 255
-0.00619273   0.0811614     1.76088 255 255 255
 -0.22238 -0.297231     1.632 255 255 255
  0.051047 -0.0649107    1.29658 255 255 255
 0.144388 0.0217225   1.37625 255 255 255
 0.086933 0.0916992   1.76474 255 255 255
  0.331473 -0.0819414    1.88872 255 255 255
 0.281276 -0.234157   1.92474 255 255 255
   0.32439 -0.0627007     1.9039 255 255 255
 0.0374294 -0.0344232    1.29435 255 255 255
 0.0678544 -0.0533925     1.3087 255 255 255
 0.106703 0.0670034    1.4007 255 255 255
  0.354523 -0.0873864    1.83762 255 255 255
0.0243918 0.0960529   1.72841 255 255 255
 -0.133241 -0.0204506    1.27718 255 255 255
0.150565 0.066992  1.38897 255 255 255
0.0649001 0.0455757   1.33472 255 255 255
  0.327415 -0.0706461    1.89804 255 255 255
 0.372496 -0.176271   1.98459 255 255 255
 0.0631282 -0.0525964    1.30904 255 255 255
0.0389139  0.112671   1.33649 255 255 255
0.0483776 -0.015604   1.30728 255 255 255
 0.121064 -0.347665   1.98409 255 255 255
 0.0390952 -0.0582767    1.29333 255 255 255
 -0.107394 -0.0901822    1.32757 255 255 255
 0.230432 -0.092092   1.92473 255 255 255
0.230185 0.165507  1.69066 255 255 255
0.0390319 -0.063316    1.2863 255 255 255
0.141328 0.068758  1.38802 255 255 255
 0.144595 0.0540265   1.38574 255 255 255
0.0644627 0.0895232   1.34738 255 255 255
0.0895289  -0.13323    1.3985 255 255 255
  0.130769 -0.0228943    1.35026 255 255 255
 0.276155 0.0379886   1.84293 255 255 255
 0.276155 0.0379886   1.84293 255 255 255
-0.0804713 -0.0244052    1.32177 255 255 255
 0.312883 -0.247844   1.93342 255 255 255
  0.13604 0.0134192   1.36739 255 255 255
0.0086682 0.0764122   1.76452 255 255 255
  0.111467 -0.0161178    1.35754 255 255 255
 -0.262093 -0.0818225    1.33076 255 255 255
 0.260643 0.0263972   1.86823 255 255 255
-0.00103857   0.0208168     1.84068 255 255 255
 0.147631 0.0960953   1.76732 255 255 255
-0.0724318 0.00582738    1.83049 255 255 255
-0.270913 -0.120462   1.31382 255 255 255
  0.318873 -0.0564248    1.90424 255 255 255
  0.0355538 -0.00680179     1.56459 255 255 255
  0.117281 0.00327253    1.37264 255 255 255
0.192308  -0.1674  1.86546 255 255 255
 0.0847469 -0.0614161    1.32332 255 255 255
  0.118057 0.00920367    1.37646 255 255 255
  0.130442 0.00623385    1.36192 255 255 255
 0.235786 0.0158074   1.76614 255 255 255
   0.32407 -0.0568886      1.906 255 255 255
  0.142671 -0.0124528    1.36374 255 255 255
 0.471378 0.0621609   1.67716 255 255 255
-0.571665 -0.338658     1.679 255 255 255
0.0383749  0.113248   1.71545 255 255 255
0.00809137 -0.0911708    1.31661 255 255 255
  0.17675 -0.123466   1.90524 255 255 255
0.067999  0.03146  1.33246 255 255 255
  0.372969 -0.0907983    1.91089 255 255 255
 0.236096 -0.090151   1.92655 255 255 255
 0.146157 0.0352511   1.37662 255 255 255
0.0579628 0.0238289    1.3275 255 255 255
  0.153196 0.00843903    1.87065 255 255 255
 -0.0666497 -0.00770529     1.85593 255 255 255
  -0.153292 -0.00743988     1.22363 255 255 255
  0.134774 -0.0245388    1.88859 255 255 255
 0.0346574 -0.0231894    1.29353 255 255 255
 0.155373 0.0722296   1.79617 255 255 255
 -0.361976 -0.0150382    1.27488 255 255 255
0.223793  0.13036  1.71455 255 255 255
 -0.225141 -0.0781649    1.30248 255 255 255
 0.0270259 -0.0546707    1.90241 255 255 255
-0.0177524 -0.0116797    1.27855 255 255 255
  0.340137 -0.0949099    1.83661 255 255 255
 -0.151971 0.00353252    1.23063 255 255 255
  0.137995 -0.0219109     1.3602 255 255 255
-0.0889831 -0.0322871    1.34047 255 255 255
0.220958  0.15877  1.70421 255 255 255
 0.160487 -0.138065   1.88858 255 255 255
-0.0331872  0.0570291    1.28135 255 255 255
0.165622  -0.1359  1.88796 255 255 255
 -0.151705 -0.0555448    1.31281 255 255 255
-0.113372 -0.118524     1.412 255 255 255
  0.365073 -0.0750625    1.91373 255 255 255
0.0182817 0.0804868   1.76506 255 255 255
-0.261052 -0.122534   1.31955 255 255 255
  0.143173 0.00704368    1.37204 255 255 255
 -0.116835 -0.0830881    1.36093 255 255 255
 -0.327224 0.00475929    1.20832 255 255 255
 0.122616 -0.100785   1.34999 255 255 255
 -0.162925 -0.0602401    1.31172 255 255 255
 -0.124595 -0.0191785    1.31207 255 255 255
-0.0204435 -0.0197184    1.28037 255 255 255
  0.352779 -0.0268012    1.94202 255 255 255
 0.14011 0.156677  1.41566 255 255 255
 0.0823586 -0.0368043    1.90529 255 255 255
 0.320149 -0.189348   2.03975 255 255 255
  0.141886 0.00216593    1.37164 255 255 255
0.130977 0.143104  1.40656 255 255 255
0.0545718 0.0960028   1.34544 255 255 255
  0.126557 -0.0849935    1.34512 255 255 255
 0.132536 0.0248561   1.37255 255 255 255
0.0483194 0.0152892   1.31712 255 255 255
  0.235075 -0.0340511    1.81856 255 255 255
-0.443677  0.354887   1.35128 255 255 255
0.0240223  0.116592   1.71785 255 255 255
  -0.124377 -0.00105109     1.26673 255 255 255
0.0784107 -0.104774   1.89067 255 255 255
  0.115328 -0.0444813    1.34104 255 255 255
-0.230953 -0.109747   1.28377 255 255 255
0.0800765  0.155409   1.37434 255 255 255
0.0185328  0.114148   1.72111 255 255 255
 -0.228735 -0.0375574     1.2743 255 255 255
-0.154334 0.0201965   1.23673 255 255 255
0.0642963 0.0322036   1.33062 255 255 255
-0.00174008   0.0506365     1.80077 255 255 255
 -0.136325 -0.0400635    1.29539 255 255 255
 0.331419 -0.197671   2.04017 255 255 255
 0.0556487 -0.0604089    1.92719 255 255 255
-0.00553652    0.122925     1.33187 255 255 255
-0.0985448 -0.0365044    1.35284 255 255 255
 -0.364466 -0.0147724    1.25425 255 255 255
 0.264617 0.0138933   1.87917 255 255 255
-0.187667 -0.157691    1.4645 255 255 255
-0.000919176      0.08047      1.76587 255 255 255
0.0303727 0.0474734   1.81021 255 255 255
-0.333861  0.349641   1.36025 255 255 255
-0.117376 -0.126362   1.44343 255 255 255
-0.506703 -0.295904   1.56652 255 255 255
  0.119505 -0.0605147    1.34277 255 255 255
0.00159088  0.0363172    1.81352 255 255 255
   0.13602 -0.0665271    1.35082 255 255 255
-0.516775  0.333196   1.33929 255 255 255
 -0.143446 -0.0258338    1.28999 255 255 255
-0.388429 -0.315985    1.5661 255 255 255
0.0399537  0.093203   1.73678 255 255 255
0.0935193 -0.125426   1.39108 255 255 255
 0.0837943 -0.0626519    1.31868 255 255 255
 0.215934 0.0332178   1.79658 255 255 255
-0.0760412 -0.0817841     1.3689 255 255 255
0.0645549 0.0269997   1.32694 255 255 255
-0.0632492 0.00694979    1.83855 255 255 255
0.0658509  0.139803   1.36287 255 255 255
 0.151865 -0.153262   1.92098 255 255 255
0.00256144  0.0445254    1.80557 255 255 255
 -0.076841 -0.0230842    1.32765 255 255 255
0.0500798  0.123304   1.39681 255 255 255
-0.330986 -0.311697   1.55451 255 255 255
0.316138 0.119332  1.68489 255 255 255
 0.220071 0.0653919   1.72157 255 255 255
0.00985351    0.00447    1.29666 255 255 255
 -0.361271 0.00308538    1.24437 255 255 255
 -0.206418 -0.0961209    1.32752 255 255 255
 0.0268228 -0.0847873    1.30482 255 255 255
-0.051362 -0.168808   1.45081 255 255 255
0.00929238  -0.148244    1.43817 255 255 255
-0.11247 0.128555  1.28774 255 255 255
-0.271509   -0.1127   1.32064 255 255 255
 0.166946 -0.125494   1.93205 255 255 255
0.00106735 -0.0558793    1.30081 255 255 255
 -0.094962 -0.0689191    1.35045 255 255 255
 0.494198 0.0360986   1.70954 255 255 255
 0.220758 0.0913875   1.72567 255 255 255
   0.141307 0.000474005     1.36672 255 255 255
-0.278144  0.188232    1.2551 255 255 255
 -0.167634 -0.0820547    1.34601 255 255 255
 0.148506 0.0976763   1.40014 255 255 255
-0.025139 -0.179971   1.47098 255 255 255
-0.0737128  -0.167691    1.44124 255 255 255
-0.131785 -0.319242   1.64148 255 255 255
  0.104194 -0.0451207    1.88681 255 255 255
-0.0919954 -0.0746462    1.35979 255 255 255
 0.142124 0.0113224   1.37224 255 255 255
-0.000741511    -0.161602      1.46765 255 255 255
0.0585399 0.0607062   1.61684 255 255 255
-0.0459757 -0.0578996     1.3325 255 255 255
  0.133857 -0.0430174    1.35844 255 255 255
 -0.200299 -0.0603349    1.29668 255 255 255
  0.123006 -0.0913199    1.35271 255 255 255
 0.253691 -0.185977   1.93403 255 255 255
  -0.16164 -0.0675862    1.30865 255 255 255
 -0.135615 -0.0339062    1.32359 255 255 255
 0.250033 0.0143978   1.84558 255 255 255
 -0.114732 -0.0466819    1.32054 255 255 255
0.238339 0.123992  1.53072 255 255 255
 0.20432 0.152007  1.69491 255 255 255
-0.0835905 -0.0812123     1.3617 255 255 255
 0.346299 -0.234002   2.04353 255 255 255
-0.0578464  -0.154654     1.4508 255 255 255
-0.188175 -0.151763   1.46196 255 255 255
 0.149889 0.0722991   1.39782 255 255 255
 -0.113451 -0.0700167    1.34213 255 255 255
-0.209805 -0.112388   1.38391 255 255 255
 -0.212346 -0.0438813    1.29058 255 255 255
 0.354099 -0.220969   2.03716 255 255 255
0.0560396  0.105552   1.34621 255 255 255
0.0301795 -0.130608   1.43028 255 255 255
0.200928 0.169149  1.67836 255 255 255
-0.042362 -0.157634   1.45581 255 255 255
 -0.215563 -0.0672539    1.32668 255 255 255
 -0.098473 -0.0569872    1.31856 255 255 255
-0.342462  0.192009   1.29446 255 255 255
 0.0386231 -0.0506942    1.91504 255 255 255
  0.137197 -0.0953569    1.33637 255 255 255
0.149919 0.152358  1.42428 255 255 255
 0.145695 0.0402037   1.38268 255 255 255
  0.347907 -0.0912157    1.83647 255 255 255
  0.13386 -0.075839   1.34768 255 255 255
 0.357843 -0.147825   2.08993 255 255 255
 0.0609398 -0.0119865     1.5726 255 255 255
 0.114465 0.0280015   1.83936 255 255 255
 0.354915 0.0272299   1.88109 255 255 255
  -0.18232 -0.0549239    1.31049 255 255 255
 0.151609 0.0847201   1.39525 255 255 255
0.0176245   -0.0624    1.5793 255 255 255
0.0380854 0.0306153    1.5815 255 255 255
  0.145316 -0.0263443    1.36078 255 255 255
-0.0230296 0.00693389    1.84666 255 255 255
 0.0250723 0.00395692    1.56757 255 255 255
 0.165661 -0.128898   1.90337 255 255 255
 -0.272788 -0.0797329    1.32828 255 255 255
0.0722842  0.165747   1.37956 255 255 255
0.259976 0.104426  1.70238 255 255 255
-0.0193394 -0.0338882    1.88271 255 255 255
-0.0135957   0.072345    1.77491 255 255 255
 -0.105681 -0.0626166    1.32981 255 255 255
 0.140775 0.0158745   1.36551 255 255 255
0.241838 -0.10236  1.91698 255 255 255
 0.038832 -0.132676   1.50813 255 255 255
-0.0619501    0.05334    1.27578 255 255 255
 -0.262093 -0.0818225    1.33076 255 255 255
 -0.093497 -0.0803291    1.35513 255 255 255
-0.132145 -0.100794   1.39292 255 255 255
  0.142629 -0.0097993    1.88787 255 255 255
 0.0439366 -0.0459355    1.29241 255 255 255
-0.017154 0.0489341    1.7967 255 255 255
0.284182 0.075674  1.72708 255 255 255
 0.421552 -0.118428    2.0638 255 255 255
0.0550047 -0.080403    1.4972 255 255 255
 0.309964 -0.045862   1.87297 255 255 255
  0.110661 -0.0102914    1.36111 255 255 255
 0.147395 0.0308631   1.37711 255 255 255
0.053318 0.123958  1.35254 255 255 255
 0.225327 0.0393819   1.78631 255 255 255
-0.385375 -0.057182   1.33461 255 255 255
  0.305945 -0.0594694    1.87362 255 255 255
 0.253635 0.0131043   1.87315 255 255 255
  0.324494 -0.0832268    1.89218 255 255 255
 0.100153 0.0898842   1.55841 255 255 255
-0.140767 -0.135357   1.43934 255 255 255
   0.31178 -0.0215756    1.93051 255 255 255
 0.0847469 -0.0614161    1.32332 255 255 255
-0.259646 -0.115425   1.34126 255 255 255
-0.0278159 -0.0529869    1.29478 255 255 255
 0.449653 0.0269086    1.8342 255 255 255
0.0931005  0.118193   1.64642 255 255 255
  0.107708 -0.0730997    1.33352 255 255 255
 0.212881 -0.195402   1.91683 255 255 255
  0.350611 -0.0617005    1.87949 255 255 255
-0.108581 -0.120112   1.41224 255 255 255
0.0625644 0.0799139   1.69198 255 255 255
  0.338106 0.00277091     1.8919 255 255 255
 0.368477 -0.196715   2.10097 255 255 255
 0.0414777 -0.0259691    1.57264 255 255 255
 -0.173514 -0.0249143    1.28748 255 255 255
 0.0978979 -0.0344409     1.3436 255 255 255
 0.325825 -0.154528   1.98718 255 255 255
-0.00809125    0.033661      1.8303 255 255 255
 -0.357344 -0.0337556    1.28977 255 255 255
 -0.12627 -0.101004   1.37413 255 255 255
 0.361006 -0.213795   1.92212 255 255 255
-0.0719532 -0.0110196     1.8472 255 255 255
 -0.146568 -0.0526888    1.33483 255 255 255
 -0.246585 0.00739481    1.22595 255 255 255
 0.354802 -0.227506   2.05593 255 255 255
 -0.170078 -0.0723024    1.33063 255 255 255
0.0664127  0.121841   1.59324 255 255 255
 -0.193146 -0.0470535    1.30714 255 255 255
  0.370747 -0.0525915    1.95023 255 255 255
 0.417335 0.0225947   1.76489 255 255 255
0.00576138  -0.197416    1.49965 255 255 255
  0.22751 -0.043926    1.8833 255 255 255
 0.376128 -0.066275   1.97305 255 255 255
0.0540284  -0.12435   1.49753 255 255 255
  0.13226 0.0488763   1.82358 255 255 255
 -0.324732 -0.0632286    1.31912 255 255 255
0.0945668 -0.380766   1.97124 255 255 255
   0.43097 0.00636467    1.74748 255 255 255
 0.0469439 -0.0130041    1.58563 255 255 255
 -0.286344 -0.0710094    1.31792 255 255 255
-0.338265 0.0404644   1.21199 255 255 255
0.239808 0.108661  1.69048 255 255 255
 -0.158258 -0.0497647    1.29981 255 255 255
 0.198535 -0.145994   1.97833 255 255 255
-0.573588 0.0147644   1.33194 255 255 255
 -0.129641 -0.0627371    1.32996 255 255 255
  0.103129 -0.0929947    1.88533 255 255 255
  0.230579 -0.0527492    1.83396 255 255 255
-0.383705 -0.095244   1.33694 255 255 255
  0.26397 -0.103781   1.89955 255 255 255
-0.231145 -0.110015   1.41902 255 255 255
-0.0106615  -0.179471    1.59289 255 255 255
   0.326279 -0.00645583     1.92779 255 255 255
-0.309243    0.1467   1.27261 255 255 255
 -0.198153 -0.0155285     1.2483 255 255 255
-0.459694  0.104434   1.28676 255 255 255
   0.417782 -0.00862019     1.77861 255 255 255
0.0254702 -0.166129   1.57346 255 255 255
 0.370881 -0.083401   1.91788 255 255 255
 0.376367 0.0835704   1.76711 255 255 255
0.111407  0.11639   1.5569 255 255 255
0.00109023     -0.158    1.57365 255 255 255
 0.353556 -0.163318   2.08203 255 255 255
-0.0236015  0.0678489    1.77234 255 255 255
 0.383368 0.0821404   1.78636 255 255 255
   0.159795 -0.00409094     1.87253 255 255 255
-0.0214926  -0.157503     1.4671 255 255 255
  0.108184 -0.0514682    1.93232 255 255 255
 0.145798 0.0432613   1.38082 255 255 255
-0.112184  -0.12482   1.42203 255 255 255
  -0.180145 -0.00343576     1.21737 255 255 255
  0.32529 0.0337175   1.82771 255 255 255
 -0.356331 -0.0292075    1.30909 255 255 255
 0.342206 -0.129307   1.92549 255 255 255
0.0917124 0.0766627   1.79589 255 255 255
 -0.137891 -0.0328669    1.31443 255 255 255
  0.23912 0.0130856   1.85077 255 255 255
0.161077 0.102231  1.74704 255 255 255
 0.271155 0.0433889   1.84855 255 255 255
  0.362587 -0.0569366    1.91211 255 255 255
-0.0797692 -0.0387679    1.31562 255 255 255
 0.323366 0.0557909   1.81815 255 255 255
 -0.289162 -0.0739109    1.30562 255 255 255
 0.261754 0.0494585   1.82809 255 255 255
-0.249427 -0.064356   1.30924 255 255 255
 -0.150794 -0.0598598    1.32439 255 255 255
  0.206506 -0.0739394    1.86393 255 255 255
 0.303683 -0.022481   1.92334 255 255 255
-0.522449  0.324856    1.3456 255 255 255
  0.222564 -0.0933819    1.91753 255 255 255
  0.385959 -0.0910384    1.91108 255 255 255
  0.47943 0.0156285   1.72897 255 255 255
 -0.217243 0.00606324    1.21823 255 255 255
 0.219702 0.0448002   1.84045 255 255 255
0.148798 0.126439   1.4119 255 255 255
 -0.238192 -0.0802595    1.39007 255 255 255
-0.0915006 -0.0033241    1.25306 255 255 255
-0.0351606    0.11548     1.3083 255 255 255
 -0.353063 -0.0391529    1.30621 255 255 255
 -0.251293 -0.0327189     1.2657 255 255 255
  0.171905 -0.0628399    1.89706 255 255 255
  -0.23587 -0.0672121    1.31533 255 255 255
-0.0381607  0.0496785    1.78918 255 255 255
0.0512812 0.0447088   1.81037 255 255 255
  0.268511 -0.0267358    1.81923 255 255 255
 0.277368 -0.073548   1.85909 255 255 255
  -0.331509 -0.00141074     1.21401 255 255 255
 0.10569 0.162399  1.50443 255 255 255
 0.412367 -0.117297   2.06622 255 255 255
-0.208013 -0.126755   1.46349 255 255 255
 -0.162656 -0.0884342    1.35545 255 255 255
 -0.101723 -0.0191954    1.29847 255 255 255
0.270284 -0.11336  1.91409 255 255 255
-0.0826736 -0.0438883    1.34991 255 255 255
0.218084 0.125205  1.53775 255 255 255
 0.336006 -0.221297   2.02681 255 255 255
 0.405826 -0.128485   1.93597 255 255 255
 -0.169135 -0.0401741    1.29589 255 255 255
-0.206704 -0.103315   1.35293 255 255 255
 0.0834885 -0.0691978    1.91321 255 255 255
  0.129473 -0.0524379     1.9237 255 255 255
-0.0176349  0.0352088    1.80502 255 255 255
  0.138001 -0.0222838    1.35095 255 255 255
   0.133998 -0.00972525     1.87397 255 255 255
-0.0318617  0.0456288    1.80076 255 255 255
 0.282754 -0.126661   1.92803 255 255 255
-0.180681 -0.119208   1.44147 255 255 255
-0.0209329 -0.0361671    1.32205 255 255 255
 -0.230767 -0.0764034    1.33652 255 255 255
 0.144895 -0.135034   1.89745 255 255 255
0.145422 -0.02623  1.36189 255 255 255
 -0.208712 -0.0869227    1.37435 255 255 255
 0.335504 -0.231957    1.9291 255 255 255
 0.0967581 -0.0845437    1.32304 255 255 255
 -0.233295 -0.0847918    1.33395 255 255 255
-0.0188373  -0.171842    1.45967 255 255 255
0.0326126  0.103384   1.33517 255 255 255
 -0.231884 -0.0456092    1.26677 255 255 255
-0.157991 -0.165042   1.45695 255 255 255
  0.367203 -0.0346889      1.949 255 255 255
 -0.116665 -0.0447702    1.31169 255 255 255
  0.343126 -0.0963555    1.89995 255 255 255
 0.326122 -0.233313   1.92846 255 255 255
  0.29658 -0.158766   2.05748 255 255 255
-0.537222  0.341066   1.34801 255 255 255
0.203277 0.115963  1.73992 255 255 255
0.0258266 -0.167633   1.47894 255 255 255
 0.352994 -0.155831   1.96396 255 255 255
0.131164 0.038614  1.41458 255 255 255
-0.013422 -0.182007   1.59175 255 255 255
  -0.15225 -0.0534893    1.31943 255 255 255
 -0.360108 -0.0215395    1.25462 255 255 255
 0.325793 -0.011983   1.92544 255 255 255
  0.127031 -0.0699108     1.8846 255 255 255
0.207806  0.17354    1.674 255 255 255
-0.0380202 -0.0362042    1.31248 255 255 255
-0.0073325  -0.180859    1.55012 255 255 255
-0.0171169  0.0861365    1.76333 255 255 255
0.253474 0.138242  1.67693 255 255 255
 0.315399 0.0709761   1.80388 255 255 255
0.0972683  0.171133   1.52885 255 255 255
0.0152596  0.107566   1.71795 255 255 255
0.285864 0.120975  1.66598 255 255 255
-0.278878  0.291037   1.31927 255 255 255
 0.214718 0.0890522   1.53599 255 255 255
-0.0445801  -0.166632    1.44861 255 255 255
0.00443317  -0.173534    1.56769 255 255 255
  0.40301 0.0881331   1.68974 255 255 255
 0.194044 0.0939549   1.54947 255 255 255
0.0845664 -0.328232   1.97661 255 255 255
0.347762 -0.21107  2.03669 255 255 255
 -0.190102 -0.0796905    1.34474 255 255 255
  0.397416 -0.0816558    1.93724 255 255 255
 0.369405 -0.095811   1.90791 255 255 255
0.0487889  0.114003   1.67145 255 255 255
 -0.285082 -0.0558139    1.28183 255 255 255
 0.173103 -0.097756   1.88893 255 255 255
 0.152476 0.0617632   1.39041 255 255 255
 -0.312082 0.00346866    1.23716 255 255 255
0.0654997   0.10853    1.6355 255 255 255
 0.208068 -0.102218   1.91598 255 255 255
 0.252325 -0.111213   1.92981 255 255 255
-0.0565032 -0.0687653    1.35093 255 255 255
  -0.232099 -0.00508475     1.25124 255 255 255
 0.401066 -0.119888   1.92164 255 255 255
-0.187073 -0.105732   1.35483 255 255 255
 0.258734 0.0175322   1.86564 255 255 255
0.0245725 -0.135522   1.42992 255 255 255
 0.393662 -0.086308   1.92034 255 255 255
 0.0940443 -0.0962094    1.88489 255 255 255
 -0.158764 -0.0735965    1.33826 255 255 255
-0.242869 -0.111426   1.36324 255 255 255
0.169342 0.150015  1.71873 255 255 255
-0.564605  -0.27946    1.5639 255 255 255
-0.0909033 -0.0255299    1.32562 255 255 255
 -0.219503 -0.0411696    1.27941 255 255 255
 0.241835 0.0402649     1.835 255 255 255
 0.374907 -0.130384   1.93472 255 255 255
 0.308417 -0.195827   1.95024 255 255 255
-0.00953633 0.000853219     1.80623 255 255 255
0.0756281 0.0746038   1.78576 255 255 255
0.161123 0.149001  1.71623 255 255 255
 0.162453 0.0155102   1.87612 255 255 255
-0.0641161 -0.0727312    1.35535 255 255 255
 -0.130293 -0.0158634    1.30719 255 255 255
0.210437 0.077679  1.58274 255 255 255
0.0539311  0.102756   1.72325 255 255 255
 -0.250205 -0.0833491    1.35985 255 255 255
 -0.171524 -0.0763536    1.34437 255 255 255
 0.340257 0.0185919   1.88478 255 255 255
 0.0161299 -0.0514352    1.58299 255 255 255
 0.0532989 -0.0489836    1.51267 255 255 255
-0.266928 -0.121423   1.37125 255 255 255
   0.144429 -0.00337675     1.36534 255 255 255
 -0.298465 -0.0612195    1.30966 255 255 255
 -0.118521 -0.0884814    1.37362 255 255 255
  0.305666 -0.0669254    1.86901 255 255 255
-0.253093 -0.105462   1.34277 255 255 255
 0.355787 -0.213213    2.0551 255 255 255
-0.116033 -0.152616   1.46954 255 255 255
0.186329 0.105004  1.74901 255 255 255
0.0481973 0.0810011   1.75764 255 255 255
-0.0721798  -0.173219    1.44532 255 255 255
0.119892 0.131875  1.46658 255 255 255
 0.191239 0.0835419   1.74976 255 255 255
  0.264098 -0.0335466    1.82913 255 255 255
-0.0120142  -0.185304    1.46995 255 255 255
0.0801462 -0.137876   1.42362 255 255 255
 0.394024 0.0813076   1.70554 255 255 255
   0.4591 0.0436211   1.72682 255 255 255
 0.346983 -0.132578   1.92615 255 255 255
  0.369756 -0.0285908    1.94801 255 255 255
-0.0797887 -0.0276348    1.33457 255 255 255
-0.238043  -0.13114   1.39224 255 255 255
0.0146049 0.0515993   1.30266 255 255 255
  -0.240034 -0.00339234     1.27188 255 255 255
0.0206003 -0.149741   1.54239 255 255 255
0.0430162 -0.044574   1.89958 255 255 255
 0.397011 -0.100347   1.93407 255 255 255
0.126208 0.146588  1.46486 255 255 255
 -0.165973 -0.0945421    1.43138 255 255 255
0.309058 -0.16542  2.06366 255 255 255
 0.267674 0.0563093   1.79382 255 255 255
0.165587 -0.12174  1.89039 255 255 255
-0.392491   0.34031   1.28916 255 255 255
 -0.360758 -0.0425725    1.30018 255 255 255
0.0239159 -0.150971   1.55193 255 255 255
 0.0708399 -0.0790584    1.30619 255 255 255
0.0238661 -0.146383   1.54591 255 255 255
 0.10467 0.101616  1.55225 255 255 255
  0.32192 -0.139896   1.91566 255 255 255
   -0.33851 -0.00252035       1.246 255 255 255
 -0.143893 -0.0498592    1.29995 255 255 255
 -0.255495 -0.0692917    1.32635 255 255 255
 -0.243126 -0.0350233    1.24982 255 255 255
0.0751597  0.105016    1.3609 255 255 255
  0.24029 -0.115629   1.91972 255 255 255
 0.308055 0.0130201   1.88789 255 255 255
0.0795037 0.0998403   1.35924 255 255 255
-0.277075   -0.0751   1.33675 255 255 255
 0.294294 0.0831591   1.74615 255 255 255
 0.166673 -0.112876   1.88356 255 255 255
0.149492  0.14857  1.42917 255 255 255
0.214689 0.121182  1.55296 255 255 255
 0.379542 0.0509071   1.85598 255 255 255
 0.360751 -0.214082   2.06051 255 255 255
 -0.258516 -0.0952044    1.33391 255 255 255
 0.0176089 -0.0485728    1.57371 255 255 255
 0.157641 0.0175875   1.85726 255 255 255
-0.461001   0.34012   1.34653 255 255 255
0.159098 -0.10517   1.8809 255 255 255
 -0.100716 -0.0287695    1.32039 255 255 255
 0.374811 -0.033421    1.9537 255 255 255
  0.373649 -0.0446728    1.95499 255 255 255
  0.404472 -0.0335806    1.88105 255 255 255
  0.387235 -0.0762583    1.92033 255 255 255
 0.404738 0.0393655   1.80472 255 255 255
 0.129236 0.0151108   1.36109 255 255 255
0.0685675  0.175024   1.57993 255 255 255
-0.164857 -0.107693   1.38171 255 255 255
  0.149238 0.00540999      1.846 255 255 255
 -0.31469 -0.113015   1.29429 255 255 255
  0.121047 -0.0903896    1.87629 255 255 255
 0.308097 0.0725688    1.7941 255 255 255
0.0483776 -0.015604   1.30728 255 255 255
 0.387662 -0.107497   1.91508 255 255 255
 0.194712 0.0937769   1.53755 255 255 255
 0.149757 0.0836447   1.40263 255 255 255
  0.112333 -0.0970165     1.3908 255 255 255
  0.106945 -0.0416092    1.34678 255 255 255
  0.165931 -0.0635753     1.8909 255 255 255
  0.152706 -0.0095219    1.88166 255 255 255
-0.151848 -0.164076   1.46868 255 255 255
 -0.159427 -0.0569379    1.31371 255 255 255
 -0.213971 -0.0402598     1.2814 255 255 255
 0.0844881 -0.0744582    1.31279 255 255 255
0.0359448  0.169255   1.63193 255 255 255
  0.308992 -0.0906814    1.89778 255 255 255
0.131421 0.135491  1.45538 255 255 255
  0.31151 0.0759221   1.76737 255 255 255
-0.32012  0.15292  1.27712 255 255 255
-0.178575 -0.028995   1.31505 255 255 255
  0.076781 -0.0602778    1.92496 255 255 255
  0.389223 -0.0835343    1.91212 255 255 255
  0.109982 -0.0579025    1.34089 255 255 255
 0.141849 0.0469627   1.39587 255 255 255
   0.13296 -0.0600121    1.35611 255 255 255
 0.340978 -0.213076    2.0285 255 255 255
-0.202624 -0.036463    1.2997 255 255 255
 -0.0291626 0.000889576     1.83038 255 255 255
0.306827 0.113742  1.67833 255 255 255
 -0.0673922 -0.00441237     1.26388 255 255 255
 0.346993 -0.120402   1.91508 255 255 255
0.0102528 -0.173292   1.58254 255 255 255
 0.235218 0.0243651   1.86031 255 255 255
0.0351748  0.200808   1.82005 255 255 255
 0.141609 0.0123419   1.36925 255 255 255
 -0.145753 -0.0198529     1.2776 255 255 255
-0.0808244 -0.0846023    1.37198 255 255 255
  0.396654 -0.0751968    1.92821 255 255 255
-0.0325689  0.0384956    1.80094 255 255 255
 0.340727 -0.221251   2.04134 255 255 255
 0.181954 -0.117903   1.89971 255 255 255
-0.0107245 0.00692201    1.83696 255 255 255
  0.318105 -0.0641155    1.89552 255 255 255
0.121606 0.040841  1.83129 255 255 255
 -0.327224 0.00475929    1.20832 255 255 255
 0.0211975 -0.0979703    1.53211 255 255 255
 0.465856 0.0393287   1.71816 255 255 255
-0.00128529   -0.102881     1.33776 255 255 255
 0.281872 -0.121962   1.90908 255 255 255
 -0.190113 -0.0142918    1.28611 255 255 255
  0.306074 0.00624467    1.82751 255 255 255
 -0.209253 -0.0328517    1.26999 255 255 255
 0.150243 0.0991239   1.40276 255 255 255
0.00564328  0.0593418    1.77955 255 255 255
 0.131109 0.0711719   1.77402 255 255 255
 0.122578 -0.117894   1.88642 255 255 255
  0.375517 -0.0389733    1.95329 255 255 255
 -0.367399 -0.0610759    1.34147 255 255 255
 0.359991 -0.113061   1.90313 255 255 255
 0.146881 0.0540634   1.81644 255 255 255
 -0.106703 -0.0783076    1.34178 255 255 255
0.0507537 -0.164607   1.45375 255 255 255
-0.135413 -0.109113   1.39413 255 255 255
 -0.225019 -0.0493623    1.31094 255 255 255
-0.342642  0.344603   1.36054 255 255 255
  0.22494 0.0445032   1.82574 255 255 255
-0.00759619  0.00118528      1.8491 255 255 255
 -0.195264 -0.0274888    1.28875 255 255 255
 -0.058105 -0.0687728     1.3479 255 255 255
   0.15558 -0.0627055     1.9405 255 255 255
  0.328997 0.00477923    1.89999 255 255 255
0.247957 0.109977  1.69005 255 255 255
 0.362852 -0.233249   2.04718 255 255 255
 0.165481 -0.405069    1.9891 255 255 255
 0.377222 -0.173818   2.08963 255 255 255
 -0.199738 -0.0438167    1.28719 255 255 255
 0.339223 -0.130221   1.91071 255 255 255
-0.213103 -0.127866   1.46447 255 255 255
-0.174473 -0.010269   1.26347 255 255 255
0.0487637 -0.172946   1.46379 255 255 255
  0.360669 -0.0828481    1.90483 255 255 255
  0.260138 -0.0142255    1.81463 255 255 255
  -0.132404 -0.00545443     1.23947 255 255 255
-0.555692 -0.268643   1.54849 255 255 255
  0.259737 -0.0180082     1.8064 255 255 255
 0.118881 -0.107513   1.36775 255 255 255
  -0.11149 -0.0864562      1.362 255 255 255
  0.341673 0.00188283    1.89163 255 255 255
0.167278 0.107175  1.74243 255 255 255
 -0.260493 -0.0741973    1.38684 255 255 255
 0.24865 0.138348  1.53877 255 255 255
0.119165 -0.10677  1.36244 255 255 255
  -0.07123 -0.0030401    1.84539 255 255 255
 0.162986 0.0326631    1.7856 255 255 255
 0.353088 -0.111771   1.90892 255 255 255
  0.346773 -0.0129638    1.92782 255 255 255
0.0961538 -0.123937   1.39383 255 255 255
  0.124652 -0.0186266    1.35377 255 255 255
-0.0456431 -0.0436827    1.32682 255 255 255
 0.0918414 -0.0207785    1.89096 255 255 255
 -0.115313 -0.0119587    1.26856 255 255 255
 0.129057 -0.132348   1.90365 255 255 255
 0.351799 -0.249811   2.03269 255 255 255
 -0.124595 -0.0191785    1.31207 255 255 255
 0.116787 -0.110455   1.36595 255 255 255
 -0.225463 -0.0693978    1.33986 255 255 255
 0.147496 -0.102549   1.87461 255 255 255
 0.348361 0.0301658   1.82849 255 255 255
 0.287436 0.0954593   1.70714 255 255 255
 0.418391 -0.105147   2.03649 255 255 255
  0.389612 -0.0693911    1.90655 255 255 255
-0.0395327  -0.131173    1.39079 255 255 255
 0.176156 -0.132044   1.90048 255 255 255
 -0.155777 -0.0933442    1.43272 255 255 255
0.0772937 -0.120374   1.44029 255 255 255
0.0425222 -0.139763   1.49501 255 255 255
0.0644526  0.148137   1.57439 255 255 255
0.0853641  0.164756   1.54088 255 255 255
  -0.119003 -0.00246683     1.27346 255 255 255
 0.357131 -0.102902     1.911 255 255 255
-0.00306966   -0.165065      1.4655 255 255 255
0.0080454 -0.173544   1.57818 255 255 255
 0.139364 0.0505069   1.40574 255 255 255
-0.355015 -0.061658   1.33726 255 255 255
 0.327187 -0.208347   2.02377 255 255 255
  0.17591 -0.146907   1.92509 255 255 255
 0.242717 0.0428298   1.83575 255 255 255
-0.244165 -0.059061   1.30132 255 255 255
-0.130374 -0.143302   1.44457 255 255 255
0.0642884 -0.160208   1.44133 255 255 255
  0.21249 -0.106372   1.91686 255 255 255
0.105372 0.105417  1.56073 255 255 255
 0.316529 -0.229881   2.02186 255 255 255
-0.200589 -0.103967   1.36483 255 255 255
 -0.352267 0.00519161    1.20767 255 255 255
-0.0889831 -0.0322871    1.34047 255 255 255
  -0.147064 -0.00336365     1.22044 255 255 255
 -0.248777 -0.0181393    1.25481 255 255 255
0.00647904  0.0647727     1.7596 255 255 255
-0.0492261  -0.145772    1.40863 255 255 255
0.0329925 0.0515021   1.80722 255 255 255
-0.134268 -0.164113   1.46894 255 255 255
 0.346071 0.0122935    1.8848 255 255 255
 -0.205206 -0.0410872    1.27989 255 255 255
0.240775 0.116157  1.53083 255 255 255
-0.135234 0.0029143   1.24142 255 255 255
-0.0880443 -0.0302752    1.32689 255 255 255
 -0.118835 -0.0144415    1.27282 255 255 255
 0.071021 0.0500919   1.34274 255 255 255
  0.256558 0.00502401    1.87224 255 255 255
-0.069847 -0.166012   1.44132 255 255 255
-0.00283094   0.0661634     1.76572 255 255 255
0.343853 -0.23709  2.03324 255 255 255
 -0.303826 0.00498448    1.21046 255 255 255
 -0.104393 -0.0719635    1.34697 255 255 255
  0.215601 -0.0984151    1.92444 255 255 255
0.346214 -0.16453  2.07493 255 255 255
0.073358 0.140568  1.54733 255 255 255
0.0483194 0.0152892   1.31712 255 255 255
 0.143519 -0.150094   1.91229 255 255 255
  0.320845 -0.0690254    1.89072 255 255 255
-0.152704  0.182368   1.30667 255 255 255
 0.0707558 -0.0192623    1.58075 255 255 255
 0.0334892 -0.0679871    1.28522 255 255 255
-0.0597049  -0.154974     1.4248 255 255 255
  0.236571 -0.0236433    1.82675 255 255 255
0.0673164 -0.157187   1.44133 255 255 255
0.0181028  0.064235   1.76113 255 255 255
 -0.134274 -0.0825576    1.36346 255 255 255
 0.129645 -0.041608   1.91632 255 255 255
0.136958 0.154828  1.41685 255 255 255
0.0549806 0.0558976   1.55059 255 255 255
   0.337451 -0.00758533     1.91447 255 255 255
0.0198554 -0.170309    1.4804 255 255 255
0.310479 -0.21014  2.02599 255 255 255
 -0.193421 -0.0257573     1.2995 255 255 255
 -0.071725 -0.0829804     1.3777 255 255 255
-0.00833263  0.00764264      1.7968 255 255 255
 -0.144746 -0.0146763    1.30454 255 255 255
 -0.121644 -0.0913744    1.36804 255 255 255
0.152994 0.131145  1.41786 255 255 255
-0.174675 -0.167052   1.45767 255 255 255
 0.194063 -0.104971   1.93461 255 255 255
 0.151449 0.0634835   1.81054 255 255 255
  -0.341691 -0.00552726     1.26101 255 255 255
 -0.151154 0.00467337    1.21891 255 255 255
 0.265612 -0.114263   1.91433 255 255 255
 -0.0856582 -0.00210033     1.25225 255 255 255
 -0.195593 -0.0371659    1.29822 255 255 255
0.0345011  0.040235   1.57517 255 255 255
0.0126779 0.0893159   1.73098 255 255 255
 0.0895625 -0.0701453    1.31882 255 255 255
  -0.36321 -0.0262514     1.2764 255 255 255
 0.381803 -0.184835    2.1202 255 255 255
 -0.238528 -0.0350485    1.26677 255 255 255
  0.326131 -0.0562947    1.91129 255 255 255
   0.21808 -0.0234507     1.8174 255 255 255
 0.178455 -0.106716   1.90714 255 255 255
 0.345167 0.0170089   1.88625 255 255 255
-0.15598 0.132628  1.27632 255 255 255
-0.0374407  0.0286344    1.80673 255 255 255
 -0.248202 -0.0971604    1.28432 255 255 255
 0.227806 0.0521249   1.82547 255 255 255
0.061991 0.186933  1.59163 255 255 255
 0.469064 0.0532497   1.69571 255 255 255
0.0878687 0.0417065   1.82456 255 255 255
 0.267532 0.0522619   1.80194 255 255 255
 -0.299579 -0.0741338    1.31514 255 255 255
 0.133119 0.0540621   1.37598 255 255 255
  0.31372 -0.189577   2.04475 255 255 255
 -0.344535 -0.0201891    1.27999 255 255 255
 -0.182158 -0.0218806     1.2675 255 255 255
 0.205467 -0.114057   1.91287 255 255 255
-0.0909589 -0.0957349     1.3923 255 255 255
 0.201691 -0.142962   1.92814 255 255 255
 0.143885 -0.101782   1.89364 255 255 255
  0.392461 -0.0855054    1.91924 255 255 255
 0.364892 -0.261963   2.03709 255 255 255
  0.32936 -0.220099   2.02212 255 255 255
 -0.126512 -0.0302846    1.32958 255 255 255
  0.379535 -0.0675862    1.91629 255 255 255
  0.15894 -0.120867   1.87833 255 255 255
 0.21715 0.041868  1.83791 255 255 255
  0.23944 -0.086414   1.92003 255 255 255
0.0384501 0.0609701   1.73678 255 255 255
0.0583335 0.0606609   1.33058 255 255 255
0.131955 0.179129  1.55463 255 255 255
