ply
format ascii 1.0
element vertex 1128
property float x
property float y
property float z
property uchar red
property uchar green
property uchar blue
end_header
  0.133457 -0.0461072    1.27166 255 255 255
-0.410506 -0.355543   2.40191 255 255 255
 0.410383 -0.209242   2.45329 255 255 255
-0.0797385  0.0992613    2.09966 255 255 255
 -0.371692 -0.0400217    1.16962 255 255 255
-0.226582 -0.447754    2.8916 255 255 255
-0.0974004  -0.123916    1.26956 255 255 255
 0.412778 -0.310966   2.57393 255 255 255
-0.126286 -0.066154   1.23267 255 255 255
-0.405133  0.184471   1.17843 255 255 255
 -0.245614 0.00667604    1.11992 255 255 255
 0.351687 0.0762335   2.19687 255 255 255
  -0.17533 -0.0878984    2.41358 255 255 255
  -0.3241 -0.384642   1.75784 255 255 255
-0.394426  0.289437      1.21 255 255 255
  -0.15209 -0.0886587     1.2258 255 255 255
0.0524083  0.193808   1.66339 255 255 255
 0.163593 0.0802961   2.08146 255 255 255
 -0.181039 -0.0583178    1.20224 255 255 255
  0.475395 -0.0411377    2.36554 255 255 255
 0.504464 0.0637756    1.9988 255 255 255
  0.462241 0.00749458    2.35397 255 255 255
 0.391936 0.0824591   2.04598 255 255 255
 0.0906952 -0.0884078    1.19456 255 255 255
0.0261262 -0.241851   1.44692 255 255 255
-0.12888 0.187584  1.24393 255 255 255
   0.26318 -0.0280908    2.21676 255 255 255
  0.488829 -0.0646256    2.39864 255 255 255
0.0648154 -0.150548    1.4738 255 255 255
-0.0596587  0.0838704    1.21057 255 255 255
0.135622  0.11132  2.07278 255 255 255
0.129139 0.117344  2.09025 255 255 255
0.187443 0.234122   1.8859 255 255 255
 -0.331026 -0.0761265    1.20082 255 255 255
-0.117785 -0.698235   2.87624 255 255 255
 0.517762 0.0379086   1.96486 255 255 255
  0.0470347 -0.00276126     1.61202 255 255 255
 -0.288442 -0.0853053    1.20461 255 255 255
 -0.169837 -0.0380818    2.28972 255 255 255
0.0557126 -0.156332   2.31656 255 255 255
-0.364123 0.0507548   1.10229 255 255 255
0.270627 0.187011  1.85496 255 255 255
 -0.136667 -0.0628263     1.1946 255 255 255
-0.680184 0.0304399   1.20683 255 255 255
-0.104496 -0.078419   1.22698 255 255 255
-0.243253 -0.376334   2.79924 255 255 255
0.0574904  -0.10471   2.27109 255 255 255
  0.263805 -0.0437485    2.11373 255 255 255
-0.396608 -0.114462   1.21077 255 255 255
-0.0392417  -0.142583    2.43011 255 255 255
 0.311387 -0.123219    2.2598 255 255 255
-0.239438 -0.133368   1.32452 255 255 255
-0.0260186  -0.226447    1.61008 255 255 255
 0.410764 0.0331392   2.31639 255 255 255
  0.49789 -0.236567   2.74438 255 255 255
-0.344813  0.184637   1.17301 255 255 255
  -0.18736 -0.0214715    1.14443 255 255 255
-0.537387  0.140801   1.17394 255 255 255
  0.605691 -0.0585008    1.89349 255 255 255
 0.507645 0.0166713    2.0108 255 255 255
0.0276294 -0.207248   1.57472 255 255 255
 0.330556 -0.259015   2.73525 255 255 255
0.00616093   0.125026    1.92474 255 255 255
  0.467019 -0.0908549     2.2965 255 255 255
-0.418212  0.229532   1.19045 255 255 255
-0.841638 -0.356153   1.62892 255 255 255
-0.471423  -0.24748   2.50098 255 255 255
-0.639797  0.481656   1.27994 255 255 255
-0.262299 -0.545043   2.99836 255 255 255
  0.15729 -0.105364   1.23755 255 255 255
0.455032 0.155527  2.00304 255 255 255
 0.11049 0.178879   1.6115 255 255 255
-0.00269045   -0.196949     1.57375 255 255 255
  0.47335 -0.406146   2.67057 255 255 255
-0.766314 -0.334639   1.60216 255 255 255
-0.0900061    0.14527    1.97376 255 255 255
0.467042 0.156171  2.03965 255 255 255
 0.162043 0.0391643   2.20813 255 255 255
  0.440163 -0.0437054    2.27448 255 255 255
0.00406065  -0.192248    1.39583 255 255 255
 0.0816192 -0.0356761    2.33985 255 255 255
0.0827718 -0.429669   2.84153 255 255 255
 0.165338 0.0553796   1.34907 255 255 255
-0.0939915  -0.152037    1.33232 255 255 255
  -0.168015 -0.00794834     1.11688 255 255 255
 0.397758 0.0857894   2.09966 255 255 255
  0.38138 -0.388611   2.61263 255 255 255
-0.0841083  -0.508628    2.94428 255 255 255
-0.334649 -0.607569   3.10635 255 255 255
 -0.378267 -0.0335542    1.19292 255 255 255
 0.423854 -0.164042   2.32251 255 255 255
0.0752434  0.157461   2.02765 255 255 255
 -0.112388 -0.0449675    1.21032 255 255 255
0.307305 0.136307  1.96559 255 255 255
 0.302083 -0.494463   2.93746 255 255 255
0.278695 0.060995  2.15459 255 255 255
0.170667 0.187972  1.94477 255 255 255
-0.558758 -0.415838   1.62772 255 255 255
0.324408 0.107587  2.15232 255 255 255
  0.456889 -0.0496209    2.27674 255 255 255
-0.0584906 -0.0490017    1.22397 255 255 255
  0.3931 0.120599  2.09053 255 255 255
 -0.287781 -0.0889204    1.18987 255 255 255
0.309074 0.115553  2.11278 255 255 255
 -0.238855 -0.0787889    1.19522 255 255 255
 -0.129496 -0.0745553    1.22058 255 255 255
  0.230638 -0.0762594    2.17451 255 255 255
  0.377422 0.00704088    2.30376 255 255 255
-0.73039 0.485769  1.27902 255 255 255
 0.249568 -0.105667   2.31506 255 255 255
 0.488043 -0.104199   2.26485 255 255 255
 0.574173 0.0437351   1.89883 255 255 255
 -0.203805 0.00236147    1.11109 255 255 255
0.258366 0.105102  2.11324 255 255 255
0.151952 0.173607  1.41731 255 255 255
 -0.237562 -0.0977393     1.2859 255 255 255
0.203336 -0.11674  2.28464 255 255 255
 -0.0713493 -0.00906466     1.16065 255 255 255
0.231576 0.219454  1.95672 255 255 255
0.128797 -0.10183   1.2137 255 255 255
-0.0485402   0.148144    1.25742 255 255 255
 -0.369623 -0.0462305    1.18792 255 255 255
 -0.242575 -0.0413679    1.15337 255 255 255
  0.178571 -0.0564368    2.25766 255 255 255
 -0.224209 -0.0822283    1.20299 255 255 255
 -0.180641 -0.0899801    1.17648 255 255 255
0.0308656 -0.370432   2.60418 255 255 255
-0.12183 0.122409   2.0178 255 255 255
-0.133708  -0.16915   2.52474 255 255 255
-0.607419  0.492111   1.34274 255 255 255
-0.00911385  -0.0748316     1.23315 255 255 255
0.00115279   0.117159    2.08242 255 255 255
   0.317114 -0.00540865     2.08128 255 255 255
  0.329962 -0.0760317    2.16494 255 255 255
  -0.335317 -0.00327731     1.09584 255 255 255
-0.277164 -0.369575    2.1047 255 255 255
0.0945013   0.24141    1.5514 255 255 255
  0.55914 -0.149376   2.64054 255 255 255
 0.160082 -0.920753   3.13411 255 255 255
 0.0496568 -0.0392827    1.19821 255 255 255
-0.232277 -0.154123   1.39186 255 255 255
-0.144602 -0.107834   1.25227 255 255 255
-0.0812266 -0.0269389    1.20383 255 255 255
 0.318705 -0.138277   2.30433 255 255 255
-0.0572631 -0.0563114    1.25575 255 255 255
0.234702 0.188942  1.60715 255 255 255
   0.078468 -0.00115218     1.24425 255 255 255
 0.517448 -0.163059   2.32795 255 255 255
 -0.153144 -0.0507677    1.19272 255 255 255
-0.0722843  -0.343515    2.60306 255 255 255
-0.190308 -0.125349   1.24274 255 255 255
  0.110952 -0.0365977    2.33091 255 255 255
-0.0988805   0.102897    2.06229 255 255 255
  0.167902 -0.0290968    1.29488 255 255 255
 0.126316 0.0294171   2.20285 255 255 255
-0.105981  0.113651   2.02709 255 255 255
 0.335213 -0.159884   2.34771 255 255 255
-0.187518 -0.144792   1.35974 255 255 255
 0.0384638 -0.0567429    1.20772 255 255 255
 -0.223738 -0.0926304    1.22809 255 255 255
  0.12677 -0.174139   2.27638 255 255 255
  0.179644 -0.0351574    1.30318 255 255 255
0.0258133 -0.211185   1.38419 255 255 255
-0.200734 -0.105784   1.27031 255 255 255
 0.373698 -0.347115   2.56568 255 255 255
 0.149873 -0.107076   1.22735 255 255 255
-0.221764 -0.102999   1.22208 255 255 255
0.00913166  -0.208959    1.38485 255 255 255
0.0291976  0.133174   1.29486 255 255 255
 0.44375 0.174867  1.90454 255 255 255
-0.213563 -0.057767   1.15222 255 255 255
-0.159099 -0.201528   1.37725 255 255 255
  0.471145 -0.0120583    2.36342 255 255 255
 -0.091146 -0.0576108     1.2106 255 255 255
 0.424967 -0.111626   2.25322 255 255 255
0.312457 0.187223  1.87296 255 255 255
 0.357422 -0.350593   2.56875 255 255 255
-0.150644 0.0624446   2.15312 255 255 255
-0.762631  0.516035   1.28504 255 255 255
-0.184016 -0.080229   1.19635 255 255 255
-0.0938846 -0.0156171    1.15721 255 255 255
0.220501  0.21187  1.95561 255 255 255
0.0603717 -0.204682   1.40993 255 255 255
-0.269141 -0.483158   3.06054 255 255 255
 0.444057 -0.209104   2.41266 255 255 255
 0.143799 0.0555182     1.398 255 255 255
-0.0294763  -0.229781    1.60814 255 255 255
   -0.1199 -0.0691982    1.20761 255 255 255
-0.368368 -0.026365   1.13175 255 255 255
0.449093 0.162353  1.90762 255 255 255
0.40984 0.02361 2.30817 255 255 255
   0.10539 -0.0661686    2.24498 255 255 255
-0.226836 -0.358174   2.75259 255 255 255
0.219654 0.292085  1.85366 255 255 255
-0.0133311 -0.0468555    1.22551 255 255 255
-0.450115 -0.506104   2.89973 255 255 255
-0.00678225   -0.225234     1.53252 255 255 255
-0.0793244   0.172503    1.95698 255 255 255
0.285303 0.230307  1.84201 255 255 255
0.375072 0.149934  2.09309 255 255 255
0.0847382  0.257204   1.58477 255 255 255
-0.0349131   0.201083    1.88728 255 255 255
0.326316 0.200567  1.82189 255 255 255
0.152365 -0.11305  1.23253 255 255 255
-0.392355  0.413718   1.27577 255 255 255
-0.196914 -0.754747   2.92385 255 255 255
0.234947 0.135823  1.59204 255 255 255
-0.0178874  -0.202449    1.36783 255 255 255
0.00255802  -0.216788    1.56382 255 255 255
 0.312165 -0.531221   3.01867 255 255 255
0.474474 0.152814  1.87364 255 255 255
0.210407 0.145027  1.61057 255 255 255
-0.141273 -0.593835   2.91253 255 255 255
-0.175904 -0.097183    1.2391 255 255 255
 -0.19754 -0.106457   2.34677 255 255 255
0.337819 0.199547  1.85343 255 255 255
-0.0765494 -0.0889139     1.2332 255 255 255
0.153039 0.150101  1.40838 255 255 255
  0.508757 -0.0885256    2.33327 255 255 255
 0.471222 -0.359381   2.66127 255 255 255
  0.49306 -0.115116   2.27665 255 255 255
 0.463216 -0.110985    2.2676 255 255 255
 0.263789 -0.944388   3.13669 255 255 255
0.0234476  0.196626   1.79338 255 255 255
0.485023 0.138265  2.12502 255 255 255
  0.42095 -0.042507   2.27807 255 255 255
 -0.280438 -0.0678529     1.1654 255 255 255
 0.177343 -0.113358   2.24242 255 255 255
 0.168552 0.0811251   1.36863 255 255 255
0.320452 0.209241  1.84504 255 255 255
-0.286933 -0.635241   3.11019 255 255 255
-0.321577 0.0038099   1.12422 255 255 255
0.0493431  0.181208   1.73082 255 255 255
 0.322919 -0.769812   3.17114 255 255 255
 0.218394 -0.119184   2.34401 255 255 255
 0.294623 -0.135435   2.33755 255 255 255
  -0.1864 -0.339903    2.6859 255 255 255
0.0439336 -0.939875   3.28255 255 255 255
-0.0245382 -0.0861111    1.25552 255 255 255
 0.185504 -0.665459   3.03899 255 255 255
-0.0397621   -0.81295    2.96563 255 255 255
-0.263786   -0.2977   2.73377 255 255 255
  -0.225994 -0.00874065     1.14412 255 255 255
 0.186305 -0.113601   1.25886 255 255 255
-0.0662109 -0.0426584    1.22117 255 255 255
0.0265814 -0.739073   2.85329 255 255 255
 0.508011 -0.148883   2.29955 255 255 255
-0.280578 -0.472805    3.0521 255 255 255
-0.166912 -0.128414   1.24554 255 255 255
0.308134 0.068218  2.18428 255 255 255
0.0619795 -0.164945   1.35026 255 255 255
 -0.38011 -0.488657   2.81399 255 255 255
 0.288432 -0.386185   2.57659 255 255 255
  0.499839 -0.0960839    2.29427 255 255 255
  0.05393 -0.110182   2.24595 255 255 255
-0.430403 -0.273026   1.55574 255 255 255
 -0.138031 -0.0906138    1.23353 255 255 255
-0.236918 -0.134514   1.25357 255 255 255
0.177445   0.2593  1.90763 255 255 255
-0.936198 -0.385726   1.61606 255 255 255
-0.0706381 -0.0339085    1.23356 255 255 255
-0.206576 -0.051696   1.16976 255 255 255
-0.505874 -0.791732   3.07399 255 255 255
0.282941 0.101633  2.12098 255 255 255
-0.617302  0.533122   1.28801 255 255 255
 0.475695 -0.166776   2.30701 255 255 255
0.0194102 -0.572722   2.91844 255 255 255
 0.328159 -0.286365   2.66526 255 255 255
-0.0790499  0.0434945    2.04737 255 255 255
0.0514838  0.154274   2.00916 255 255 255
0.0846334 -0.015303   2.31845 255 255 255
 0.356376 -0.502772   3.03579 255 255 255
0.167637 0.256437  1.89898 255 255 255
-0.199198 -0.265229   2.34713 255 255 255
  0.254578 -0.0139604    2.11145 255 255 255
0.171641  0.06863  2.20147 255 255 255
-0.0342861 -0.0903976    1.26067 255 255 255
 -0.117013 -0.0215359    1.21301 255 255 255
0.147167 0.200783  1.43793 255 255 255
0.232698 0.125177  1.65939 255 255 255
0.012005 0.197437  1.91527 255 255 255
 0.401927 -0.578949   3.16715 255 255 255
-0.247203 -0.101099   1.25066 255 255 255
0.438322 0.165607  1.94247 255 255 255
-0.253298 -0.380464   2.41256 255 255 255
-0.336015 -0.543933   3.14614 255 255 255
 -0.152925 -0.0937355    1.23898 255 255 255
 0.420888 0.0735666   2.24815 255 255 255
 0.0127979 -0.0555099    1.59724 255 255 255
 0.0688171 -0.0560916    1.48964 255 255 255
 0.414767 -0.345343   2.63627 255 255 255
-0.748983 -0.163429   1.23063 255 255 255
-0.26405  -0.1466  1.25909 255 255 255
   0.173896 -0.00634995     1.31437 255 255 255
 -0.296078 -0.0744936    1.19151 255 255 255
-0.335355  0.374546   1.26496 255 255 255
  0.0717578 -0.00498935     1.58186 255 255 255
-0.378036 -0.489856   2.81287 255 255 255
-0.0946484  -0.108617    1.27473 255 255 255
-0.644908 -0.418853    1.6109 255 255 255
  0.368932 -0.0648254    2.19401 255 255 255
-0.244843 -0.127161   1.22941 255 255 255
-0.22509 0.269129  1.26689 255 255 255
-0.114081 -0.186665   1.39952 255 255 255
0.203722 0.192402  1.95391 255 255 255
 -0.365566 -0.0635091    1.18495 255 255 255
0.00834451   0.164701    1.96431 255 255 255
0.364154 0.184967  1.92262 255 255 255
-0.049174 -0.210253   1.36166 255 255 255
 0.117442 -0.152454   2.27062 255 255 255
 0.165263 -0.164326   2.26848 255 255 255
0.118983 0.188562  1.48658 255 255 255
0.556323 0.118507  1.89577 255 255 255
0.196848 0.170498  1.99152 255 255 255
 -0.134647 -0.0126107    1.12888 255 255 255
 0.311786 -0.015343   2.10035 255 255 255
 0.289912 -0.338981   2.57654 255 255 255
0.0144207 -0.225446   1.39988 255 255 255
-0.627409 -0.502717   1.80855 255 255 255
 0.123538 -0.167361   1.34669 255 255 255
-0.941527 -0.323704    1.4984 255 255 255
-0.0231838  -0.797437    2.82599 255 255 255
0.466364 0.144223  1.89619 255 255 255
0.549803 0.090371  1.93682 255 255 255
 0.0981641 -0.0286186     1.2377 255 255 255
 0.432379 -0.169689    2.3109 255 255 255
   0.474052 -0.00121895     2.36929 255 255 255
 0.598283 0.0202254   1.88916 255 255 255
-0.0583763 -0.0364469    1.24391 255 255 255
-0.211242 -0.160459   1.26956 255 255 255
-0.0520494  -0.565655    3.05154 255 255 255
0.0254545 0.0605118   1.23874 255 255 255
   -0.24402 -0.00445504     1.16868 255 255 255
0.0309077 -0.184971   1.52063 255 255 255
0.0179727 0.0629523   1.23768 255 255 255
-0.0266712 -0.0219655    2.28744 255 255 255
 0.506395 -0.118317   2.32558 255 255 255
0.123509 0.209888  1.49035 255 255 255
 -0.16678 -0.114696   1.34727 255 255 255
0.314291 0.121658  2.04493 255 255 255
 0.165565 -0.152692   2.24322 255 255 255
  0.43489 -0.178949   2.30912 255 255 255
-0.556217  0.494505   1.23397 255 255 255
-0.379062 -0.050016   1.18132 255 255 255
0.0323361 -0.186835   1.53698 255 255 255
 0.123451 -0.100986   1.20771 255 255 255
0.0339426 -0.180792    1.5269 255 255 255
0.104721 0.156455  1.59856 255 255 255
-0.568177  0.505179   1.33057 255 255 255
 0.392387 -0.180827   2.30301 255 255 255
  -0.349231 -0.00331766     1.12849 255 255 255
 -0.115722 -0.0640343    1.19266 255 255 255
 -0.250222 -0.0841502    1.21437 255 255 255
 -0.228406 -0.0449593    1.13612 255 255 255
0.0725482    0.1392   1.33606 255 255 255
 0.275927 -0.142564   2.31409 255 255 255
 0.379583 0.0623025   2.23174 255 255 255
0.0814498  0.130173   1.32958 255 255 255
-0.0746239  0.0149298    2.22892 255 255 255
 -0.278822 -0.0905007    1.22504 255 255 255
0.345801 0.154834  1.95712 255 255 255
 0.160285 -0.136571   2.24948 255 255 255
  0.386993 0.00438238    2.34355 255 255 255
0.149012 0.207789  1.44741 255 255 255
0.232089 0.185014   1.6277 255 255 255
0.474629 0.115716  2.16863 255 255 255
-0.0226765   0.175622    1.95964 255 255 255
-0.250851 -0.114926   1.21988 255 255 255
 0.204809 -0.267111   2.59685 255 255 255
 0.0133126 -0.0513802    1.58615 255 255 255
-0.108913 0.0585903   2.13904 255 255 255
 0.164823 0.0701112   2.16017 255 255 255
-0.652218  0.506542   1.29188 255 255 255
   0.1511 -0.124118   2.23721 255 255 255
-0.0792014 -0.0381232    1.22539 255 255 255
 0.275452 -0.501835   2.85138 255 255 255
  0.483131 -0.0100371    2.37278 255 255 255
  0.480966 -0.0281412    2.37645 255 255 255
  0.494925 0.00231575    2.35515 255 255 255
-0.517253 -0.254827   1.50875 255 255 255
  0.491619 -0.0802514    2.29369 255 255 255
 0.496939 0.0926933     2.073 255 255 255
 -0.217103 -0.0369817    1.14152 255 255 255
 0.151672 0.0184125    1.3168 255 255 255
0.0225996 -0.725146   2.81496 255 255 255
0.0470108  0.273359   1.65975 255 255 255
  0.574296 -0.0224409    1.88084 255 255 255
-0.0403352 -0.0469959     2.3388 255 255 255
-0.147975 -0.130952    1.2798 255 255 255
 0.153906 0.0489066    2.1309 255 255 255
-0.298791 -0.135504   1.16639 255 255 255
 0.100228 -0.101351   2.21461 255 255 255
 -0.82585 -0.347073   1.60474 255 255 255
0.361483 0.154333  2.08446 255 255 255
 0.0801321 -0.0245883    1.22839 255 255 255
 0.489167 -0.129428   2.28266 255 255 255
-0.187577   0.31778   1.31011 255 255 255
0.211746 0.142562  1.59106 255 255 255
 0.113018 -0.255459   2.75834 255 255 255
0.161286 0.112291  1.39107 255 255 255
 0.156526 -0.119575   1.31489 255 255 255
  0.144433 -0.0547981    1.27421 255 255 255
  0.167808 -0.0571507    2.24963 255 255 255
 0.154455 0.0296326   2.21848 255 255 255
-0.156921 -0.200866   1.39564 255 255 255
-0.0723044   0.180791    1.94446 255 255 255
 -0.201044 -0.0228734    2.26106 255 255 255
 0.343344 -0.361326   2.57444 255 255 255
 -0.137604 -0.0712507    1.20802 255 255 255
 0.215476 0.0868899   2.19598 255 255 255
 -0.201211 -0.0505798    1.17276 255 255 255
-0.141668 -0.087898   1.24366 255 255 255
 -0.193048 -0.0231447    2.27638 255 255 255
  0.132966 -0.0950957    1.22062 255 255 255
0.00302195   0.275633    1.73782 255 255 255
-0.449193 -0.190018   1.41445 255 255 255
  0.52347 -0.213169   2.72338 255 255 255
 0.376695 -0.102442   2.25189 255 255 255
0.226718 -0.69163  2.97712 255 255 255
 0.0839898 -0.0819214    1.19122 255 255 255
-0.616716  0.489354    1.3243 255 255 255
0.131435 0.192281  1.47467 255 255 255
 -0.106159 -0.0317298    1.22707 255 255 255
0.370509 0.146274  1.99764 255 255 255
-0.387948  0.204135   1.19203 255 255 255
 -0.163304 -0.0379245    1.21067 255 255 255
 0.0257696 -0.0493226    2.34122 255 255 255
 0.138181 -0.537288   2.84676 255 255 255
  0.492538 -0.0919884    2.27317 255 255 255
0.058755 0.106453  1.30162 255 255 255
  0.156201 -0.0759905    1.25669 255 255 255
 0.163082 0.0600424   1.36449 255 255 255
0.00677125   0.179426    1.95007 255 255 255
  0.181647 -0.0787404    1.27405 255 255 255
 -0.196398 0.00368735    1.11125 255 255 255
  -0.19085 -0.0460386    1.19339 255 255 255
-0.116669 0.0475987   2.10499 255 255 255
0.352988 0.192288   1.8479 255 255 255
-0.0450776 -0.0106041    1.17363 255 255 255
 0.431168 -0.149855   2.28742 255 255 255
-0.534266  -0.38651   1.66106 255 255 255
0.00495322  -0.217289    1.59109 255 255 255
 0.271856 0.0815135   2.18376 255 255 255
-0.0207297   0.376625    2.10936 255 255 255
 0.45962 0.169851  2.03667 255 255 255
  0.170006 -0.0685427    1.27172 255 255 255
  0.16765 0.0139625   1.32367 255 255 255
 -0.129169 -0.0272654    1.17828 255 255 255
 0.260883 -0.637142   3.04224 255 255 255
-0.0519042  -0.104404    1.27575 255 255 255
-0.0316773 -0.0228534    1.16496 255 255 255
 -0.126995 -0.0669145    2.33597 255 255 255
0.0453771 -0.121458   2.25148 255 255 255
  0.506394 -0.0785329    2.31087 255 255 255
-0.109662  0.103311   2.03245 255 255 255
 0.435107 -0.328374     2.608 255 255 255
0.0732188 -0.354005   2.58305 255 255 255
 0.187075 -0.146053   2.27447 255 255 255
-0.089563 0.0577947   2.12087 255 255 255
-0.252226 -0.139967   1.18062 255 255 255
-0.46154  0.21789  1.18402 255 255 255
  0.391022 -0.0605259    2.24551 255 255 255
0.111103  0.10734  2.11218 255 255 255
 -0.337651 0.00539649    1.09414 255 255 255
-0.185272 -0.125628   1.22708 255 255 255
0.0328691 -0.118878   1.50769 255 255 255
 0.555942 0.0835395   1.92332 255 255 255
  0.45891 0.0868418   2.20472 255 255 255
0.0443506 -0.126532   1.23727 255 255 255
0.336824  -0.1525  2.28105 255 255 255
 -0.171413 -0.0218743    1.17773 255 255 255
 0.0465286 -0.0237022    1.20655 255 255 255
 0.344477 0.0647898   2.22094 255 255 255
  -0.19599 -0.0420387    1.16212 255 255 255
0.158724 0.133872  1.39661 255 255 255
-0.0636431   0.139921    2.01455 255 255 255
-0.0502155   0.132649    1.99315 255 255 255
0.130174 0.144785  1.98919 255 255 255
0.0951544 -0.145901   2.25243 255 255 255
  0.483843 -0.0192268    2.37054 255 255 255
 -0.394479 -0.0718268    1.22618 255 255 255
  0.44844 -0.138106     2.256 255 255 255
 0.205771 -0.541045   2.80908 255 255 255
0.149122 0.124324  2.08112 255 255 255
  0.24415 -0.315751    2.5489 255 255 255
 -0.201526 -0.0324783    2.27015 255 255 255
 -0.073488 -0.0976059    1.23638 255 255 255
0.0881463 -0.199581   1.38272 255 255 255
-0.245527 -0.529548   2.99859 255 255 255
-0.115822 -0.132958   1.29643 255 255 255
  -0.21519 -0.0610184    1.20175 255 255 255
-0.495423  0.508089   1.32702 255 255 255
0.259987 0.106994  2.09811 255 255 255
 0.227588 -0.578048    2.8495 255 255 255
-0.0874329  0.0496067    2.14869 255 255 255
-0.183148 0.0371445    2.1644 255 255 255
-0.0437274  -0.821285    2.83785 255 255 255
 0.171222 -0.214704   2.38343 255 255 255
 -0.184437 -0.0352996    1.18448 255 255 255
 -0.497873 -0.0976193    1.23097 255 255 255
-0.479148 -0.412695   1.75798 255 255 255
-0.0255368 -0.0862232    1.25154 255 255 255
  0.150619 -0.0538014    2.36992 255 255 255
0.409109 0.050606  2.26505 255 255 255
 0.352462 -0.370956   2.60673 255 255 255
0.0779616 0.0387777   1.27171 255 255 255
0.280116 0.190562  1.86237 255 255 255
0.510531 0.140947  1.88926 255 255 255
-0.0594522  -0.734365    2.85692 255 255 255
-0.0443225  -0.724019    2.81468 255 255 255
0.0236669 -0.737887   2.89542 255 255 255
 -0.131871 -0.0108843    2.24354 255 255 255
  -0.18418 -0.0551202    1.17913 255 255 255
 0.417726 -0.165065   2.28597 255 255 255
-0.172546  0.311954   1.30538 255 255 255
-0.234682 -0.155828   1.38934 255 255 255
-0.141951 0.0850993   2.07424 255 255 255
-0.159331 -0.016269   1.16052 255 255 255
0.0840839 -0.209849   1.39657 255 255 255
  0.451471 -0.0906618    2.26011 255 255 255
 0.305348 0.0139853   2.07441 255 255 255
 0.321632 -0.713397   3.21843 255 255 255
-0.11547 -0.01102  1.14297 255 255 255
-0.0801204  0.0551958    2.15034 255 255 255
 0.22585 0.141506  1.68279 255 255 255
-0.937723 -0.374046   1.62514 255 255 255
  0.305038 0.00700589    2.05384 255 255 255
-0.0321325 -0.0429443    2.35531 255 255 255
 0.158868 0.0722872   1.36327 255 255 255
 -0.051365 -0.0573268    2.31172 255 255 255
-0.0363987  -0.838067    2.80784 255 255 255
0.167133  -0.1319  1.28418 255 255 255
-0.0831683    -0.1066    1.26024 255 255 255
 0.419736 0.0510267   2.28485 255 255 255
0.178545 0.194908  1.93831 255 255 255
  0.150158 -0.0766733    1.24993 255 255 255
 -0.272628 -0.0889847     1.2867 255 255 255
0.269367 0.208117  1.61843 255 255 255
-0.190062  -0.24217   2.42998 255 255 255
 0.175072 -0.132371   1.26813 255 255 255
-0.202065 0.0485878   2.16426 255 255 255
 0.165044 0.0909089   2.03414 255 255 255
  0.446567 -0.0732083    2.27301 255 255 255
 0.439806 -0.136205   2.26952 255 255 255
 0.435465 0.0249377   2.33954 255 255 255
-0.265394 -0.313541    2.3163 255 255 255
0.143269 -0.15086    1.311 255 255 255
  0.157823 -0.0263628    1.29204 255 255 255
  0.130659 -0.0674208    1.24138 255 255 255
  0.178597 -0.0894114    1.26308 255 255 255
-0.278457 -0.479718   1.82068 255 255 255
-0.0155664 -0.0567322    1.23431 255 255 255
0.0561206 0.0156245   2.25482 255 255 255
-0.0942364 -0.0190163    1.17163 255 255 255
-0.0949048 -0.0186014    1.17196 255 255 255
  0.154551 -0.0633174     1.2638 255 255 255
  -0.10414 -0.0270954    1.21372 255 255 255
   -0.196668 -0.000924782      1.11274 255 255 255
0.0521589 0.0937016   1.28562 255 255 255
 0.172254 0.0865814   2.05365 255 255 255
 0.165586 -0.135269    1.2811 255 255 255
0.103504 0.189064  1.50767 255 255 255
 -0.218433 -0.0844309    1.23247 255 255 255
0.140525 -0.12137  2.20662 255 255 255
 0.427263 0.0813077   2.10938 255 255 255
  0.0440456 -0.00433811     2.26914 255 255 255
0.332937 0.168127  1.88783 255 255 255
 0.561223 -0.127985   2.56187 255 255 255
0.0729619  0.117699   1.32603 255 255 255
  0.492311 -0.0694473    2.26591 255 255 255
-0.000975098    -0.159317      1.29366 255 255 255
 0.177476 -0.169411   2.27653 255 255 255
0.0786749  -0.51719    2.9894 255 255 255
-0.154946 -0.113297    1.3498 255 255 255
0.0919851 -0.143966   1.40419 255 255 255
0.0682659 -0.171152   1.44672 255 255 255
  -0.33547 -0.0806957    2.35432 255 255 255
 0.319787 -0.302118   2.55387 255 255 255
0.0468188   0.23068   1.64129 255 255 255
0.0710968  0.249776   1.59858 255 255 255
-0.0707439    0.10518    2.08013 255 255 255
  -0.103913 -0.00665399     1.17987 255 255 255
 -0.35469 -0.367656   2.37348 255 255 255
   0.4461 -0.122128   2.27581 255 255 255
0.0244824 -0.201048   1.39604 255 255 255
0.00336137  -0.217374    1.58329 255 255 255
 0.156824 0.0671948   1.38181 255 255 255
 -0.379205 -0.0726101    1.22291 255 255 255
  -0.132784 -0.00644212     1.12701 255 255 255
 0.228298 -0.311532   2.54487 255 255 255
-0.0857839    -0.7872    2.86888 255 255 255
0.284231  0.10579  2.12301 255 255 255
-0.236912 -0.071907   1.19036 255 255 255
-0.0220314 0.00588106    2.24991 255 255 255
-0.109354 -0.175467   1.35003 255 255 255
 0.105316 -0.193858    1.3665 255 255 255
 0.234624 -0.127364   2.31032 255 255 255
-0.297205 -0.214134   2.59105 255 255 255
-0.129512 -0.562429   2.92465 255 255 255
0.104608  0.16334  1.61306 255 255 255
-0.197875 -0.278353   2.35021 255 255 255
-0.185517 -0.126272   1.25691 255 255 255
 -0.365686 0.00624612    1.09027 255 255 255
 -2.71416 -0.449745   2.26508 255 255 255
-0.0592061 -0.0440213    1.24129 255 255 255
  -0.134387 -0.00727188     1.12479 255 255 255
 -0.244039 -0.0236573    1.14545 255 255 255
  0.435327 -0.0999534    2.25455 255 255 255
-0.058948  0.144416   1.97619 255 255 255
-0.96027 -0.33212  1.50742 255 255 255
-0.014071 -0.176614   1.31424 255 255 255
-0.119572 0.0154569    2.2412 255 255 255
-0.0139829   0.123208    2.05197 255 255 255
-0.312534 -0.649839   3.14375 255 255 255
-0.131575 -0.200907   1.39323 255 255 255
  0.43284 0.0585426   2.22141 255 255 255
 -0.189913 -0.0519242    1.17122 255 255 255
-1.68516 -1.26825  4.13165 255 255 255
0.261767 0.174504  1.59836 255 255 255
0.247309 0.190349  1.63471 255 255 255
   -0.121249 -0.000697304      1.14634 255 255 255
-0.0657678  -0.039872    1.23371 255 255 255
-0.0999141 -0.0214183     1.1765 255 255 255
 0.085187 0.0612885   1.29237 255 255 255
 -0.121921 -0.0240359    1.20468 255 255 255
0.152572 0.105647  1.37983 255 255 255
  0.30497 0.0493881   2.19865 255 255 255
-0.0458129  -0.201522    1.35678 255 255 255
-0.0577146   0.140276    1.96008 255 255 255
0.0529781 -0.999636   3.27887 255 255 255
 -0.308581 0.00462643    1.09779 255 255 255
 0.227264 -0.203536   2.66913 255 255 255
-0.108135 0.0344362   2.20035 255 255 255
-0.0772228 -0.0893603    1.24708 255 255 255
 0.243471 -0.114638   2.31399 255 255 255
0.0605495  0.214233   1.59819 255 255 255
0.0706309 0.0147628   1.24932 255 255 255
-0.0544406 -0.0395006     1.2336 255 255 255
-0.308968 -0.208141    2.6005 255 255 255
  0.10848 -0.199427   2.35774 255 255 255
 -0.245824 -0.0231062    2.28594 255 255 255
0.0802565  0.109745   2.13009 255 255 255
0.0656003 0.0150785   1.23709 255 255 255
  0.394547 -0.0687742    2.23131 255 255 255
-0.0409111   0.124641    2.04886 255 255 255
 -0.191353 -0.0463522    1.15339 255 255 255
-0.202434  0.244389    1.2553 255 255 255
  0.077749 -0.0121546    1.60512 255 255 255
 0.0795298 -0.0873481    1.18871 255 255 255
-0.0303565  -0.187816    1.33548 255 255 255
   0.274321 0.000267785       2.095 255 255 255
0.108288 -0.19032   1.3673 255 255 255
  0.0649313 -0.00845669     1.22931 255 255 255
-0.0272255   0.135897    1.95282 255 255 255
-0.112462 -0.101385   1.26292 255 255 255
  0.0773078 -0.00565366     1.23846 255 255 255
 0.111664 -0.018488   2.31195 255 255 255
0.133415 0.215233  1.43076 255 255 255
0.0525021   0.09035   1.57366 255 255 255
 0.115139 -0.123273    2.2274 255 255 255
 0.424438 0.0299617   2.28641 255 255 255
0.0470262 -0.207819   1.41981 255 255 255
 -0.185137 -0.0327501    1.19715 255 255 255
 0.151147 0.0231946   1.31656 255 255 255
0.0675174 0.0578887   1.27605 255 255 255
-0.0440818  -0.102305    1.28469 255 255 255
  0.162606 -0.0583687    1.27408 255 255 255
-0.074144 0.0529186   2.02527 255 255 255
 -0.133074 -0.0199672    1.20884 255 255 255
-0.0604533 0.00810357     1.1561 255 255 255
-0.0971191  -0.111982    1.26776 255 255 255
-0.0555702  -0.628636    2.97891 255 255 255
0.155835 0.181115  1.42748 255 255 255
0.0789994 -0.100416   1.18561 255 255 255
-0.177661 -0.204141   1.37556 255 255 255
 -0.198039 -0.0199131    1.14494 255 255 255
  0.20662 -0.125234   2.35612 255 255 255
0.152799 0.140852  2.07764 255 255 255
-0.557998 -0.434694   1.69719 255 255 255
  -0.358798 -0.00562247     1.14563 255 255 255
-0.673291 -0.624611   3.18081 255 255 255
-0.831069 -0.335792   1.45883 255 255 255
0.181518 0.175901  2.01527 255 255 255
    -0.1374 0.000910728     1.12196 255 255 255
-0.526178  0.533534   1.26871 255 255 255
 0.313861 -0.140258   2.29561 255 255 255
 -0.228934 -0.0376621    2.28661 255 255 255
 -0.0658564 -0.00754078     1.16105 255 255 255
 -0.172301 -0.0490605    1.18579 255 255 255
-0.115528 -0.666897   2.87826 255 255 255
-0.131421 -0.025371   1.19889 255 255 255
 0.137819 -0.104766   1.21767 255 255 255
0.0270839 0.0712286   1.60536 255 255 255
-0.031067  0.170227    1.8954 255 255 255
  0.134645 -0.0894617    1.23152 255 255 255
 -0.379706 -0.0306819    1.15637 255 255 255
 -1.12487 -0.534307   1.93171 255 255 255
  0.158899 -0.0527825    1.27113 255 255 255
  -0.22844 -0.0441873    1.15584 255 255 255
 0.403931 -0.046984   2.28563 255 255 255
 0.0826478 -0.0939921    1.18185 255 255 255
-0.425851  -0.47703   1.84678 255 255 255
    0.25249 -0.00365467     2.05761 255 255 255
0.182128 -0.12771  2.29315 255 255 255
0.142004 0.129017  1.39092 255 255 255
 0.183589 -0.125559   1.25539 255 255 255
 0.428164 0.0707774    2.2493 255 255 255
-0.190461  0.172088   1.21051 255 255 255
-0.119505 0.0887955   2.04616 255 255 255
 -0.26477 -0.114366   1.18557 255 255 255
0.279667 0.105806  2.03984 255 255 255
0.0363082  0.294462   1.68107 255 255 255
0.555346 0.101963  1.88885 255 255 255
0.0634435   0.10847   2.09528 255 255 255
0.229812 0.248495  1.92174 255 255 255
0.314035 0.117451  2.06167 255 255 255
-0.265857 -0.403127   1.80292 255 255 255
 -0.302478 -0.0889678    1.19979 255 255 255
-0.891631 -0.402362   1.62228 255 255 255
-0.371572  -0.40872   1.75356 255 255 255
 0.149681 0.0693288   1.34429 255 255 255
0.146803 0.182424  1.97821 255 255 255
 -2.55501 -0.289639   1.87788 255 255 255
 -0.360906 -0.0232912    1.16344 255 255 255
-0.236823 -0.414771   2.75981 255 255 255
-0.490636  0.492305   1.21799 255 255 255
 -0.168452 -0.0292824    1.16405 255 255 255
 -0.361196 -0.0633048    1.17261 255 255 255
 0.217292 -0.138264   2.32288 255 255 255
-0.0655657  -0.117391    1.29839 255 255 255
 0.212348 -0.188185   2.35272 255 255 255
   0.1307 -0.119597   2.26158 255 255 255
 -0.235962 -0.0719997    2.34096 255 255 255
 0.0879746 -0.0407807    1.22262 255 255 255
   0.49791 -0.0947484    2.29276 255 255 255
-0.236963 -0.303372   2.32172 255 255 255
-0.327896 -0.383287    2.1603 255 255 255
-0.268702   0.27289   1.26055 255 255 255
-0.0202786    0.29926    1.79566 255 255 255
 -0.107387 -0.0396326    1.23197 255 255 255
  0.480441 -0.0663773    2.28696 255 255 255
 0.154456 -0.150766   2.22056 255 255 255
0.249617 0.104696  2.12303 255 255 255
  0.28977 -0.108704   2.29832 255 255 255
  0.276253 -0.0945147    2.31587 255 255 255
0.00603989   0.125705     1.9037 255 255 255
 0.068904 0.0745535   1.27988 255 255 255
0.125583 0.273603  1.63276 255 255 255
 0.329951 0.0889028   2.15788 255 255 255
-0.143666 0.0453773   1.14373 255 255 255
 -0.459207 -0.0343696    1.21316 255 255 255
  0.318591 -0.0338973    2.11182 255 255 255
-0.0888447   0.139644    1.97957 255 255 255
0.489149 0.149213  2.03324 255 255 255
-0.911014 -0.396801   1.64919 255 255 255
 0.175141 -0.111335   1.24566 255 255 255
-0.899671  -1.02004   3.36845 255 255 255
-0.0816153   0.133859    2.00609 255 255 255
-0.00183799   -0.212728     1.38053 255 255 255
 0.181409 -0.145935   2.32276 255 255 255
  0.138758 -0.0770188    1.24025 255 255 255
 -0.166778 0.00722041    1.11373 255 255 255
0.126115 0.172618  1.41255 255 255 255
  0.447347 -0.0820758    2.27843 255 255 255
0.282024 -0.13339  2.28512 255 255 255
-0.0580457 -0.0392406    1.23229 255 255 255
-0.110411   0.05162   2.17469 255 255 255
 0.113503 -0.172548   1.35905 255 255 255
 -0.169332 -0.0429759    1.17932 255 255 255
 -0.0239089 -0.00773613     2.24996 255 255 255
-0.0586042   0.153421    1.99204 255 255 255
-0.0282881   0.174354    1.88244 255 255 255
   0.08952 -0.0147285    1.24059 255 255 255
 -0.158607 -0.0802872    2.36652 255 255 255
-0.401811   -0.3995   2.39399 255 255 255
 0.0924282 -0.0672712    1.20849 255 255 255
-0.264455 -0.101984   1.19403 255 255 255
-0.0172014    0.17802    1.90642 255 255 255
0.226818   0.1838  1.60296 255 255 255
 0.166057 -0.145476   2.25264 255 255 255
-0.00439965    0.179445     1.94628 255 255 255
-0.0866086   0.155265    1.98417 255 255 255
0.0176149   -0.0369   2.33256 255 255 255
 0.386816 -0.289925   2.58952 255 255 255
  0.15144 0.0324649   1.32554 255 255 255
 0.167262 0.0580308   1.35324 255 255 255
0.0441194  0.126884   1.70428 255 255 255
  0.15299 0.0910432   1.36507 255 255 255
  0.105597 -0.0760579    1.21407 255 255 255
0.220347 0.223858  1.96169 255 255 255
 -0.358099 -0.0130807    1.08429 255 255 255
-0.297601 -0.134894   1.38476 255 255 255
 0.184926 -0.121572   1.25087 255 255 255
 -0.179991 -0.0977157    2.39328 255 255 255
  0.340033 -0.0684567    2.12538 255 255 255
-0.0680508  -0.201305    1.36263 255 255 255
 0.314353 0.0907577   2.17279 255 255 255
0.0755472 0.0659156   1.27997 255 255 255
0.303726 0.136707  1.96596 255 255 255
0.121515 0.166276  2.05034 255 255 255
 0.200612 -0.240349   2.71523 255 255 255
 0.107607 -0.097854   1.19517 255 255 255
-0.458516  0.390355   1.23124 255 255 255
-0.0218954   0.066793    1.93219 255 255 255
-0.264256   0.42414   1.30489 255 255 255
 0.160094 -0.142303   1.25559 255 255 255
0.532952 0.314828  1.74169 255 255 255
-0.279444  0.530964   1.31372 255 255 255
0.230899 0.302941  1.77926 255 255 255
0.143584 0.463861  1.54189 255 255 255
0.410955 0.194047  1.91927 255 255 255
0.0277668 0.0903239   1.27547 255 255 255
 0.373641 0.0758379   2.19769 255 255 255
0.0723523 0.0519385   1.27598 255 255 255
 0.11337 0.573238  1.41125 255 255 255
-0.00699917    0.470645     1.48344 255 255 255
-0.173274  0.397764   1.33759 255 255 255
-0.333455  0.567832   1.27436 255 255 255
-0.395127  0.556911   1.20915 255 255 255
-0.0103779   0.565476    1.32566 255 255 255
0.0214513 0.0506787   1.23907 255 255 255
-0.29081 0.606365  1.21446 255 255 255
0.0280199  0.112833   1.29808 255 255 255
-0.000657007     0.371606      1.44408 255 255 255
0.105203 0.383893  1.54559 255 255 255
0.446875 0.390754  1.59837 255 255 255
-0.125779  0.693306   1.12465 255 255 255
0.0351392  0.525612   1.41473 255 255 255
0.0118177  0.209657   1.35826 255 255 255
-0.0136293   0.567813    1.43117 255 255 255
-0.451135  0.324497   1.22817 255 255 255
-0.122687   0.52184   1.40964 255 255 255
 -0.099216 -0.0195933    1.22746 255 255 255
  0.369304 -0.0709976     2.2793 255 255 255
0.0576969  -0.03274   1.20868 255 255 255
 0.188416 -0.127403   1.25233 255 255 255
0.473533 0.205859  1.83796 255 255 255
0.193095 0.258538  1.61126 255 255 255
0.0855621  0.457236   1.54895 255 255 255
0.272278 0.133403  2.11857 255 255 255
0.349108 0.433662   1.6322 255 255 255
-0.119499  0.550013   1.29921 255 255 255
-0.0887273  0.0675498     1.1855 255 255 255
0.550439 0.279602  1.86328 255 255 255
0.123048 0.435304  1.49886 255 255 255
  0.319508 -0.0237477    2.15706 255 255 255
0.233369 0.500131  1.52736 255 255 255
0.114297 0.327598  1.64121 255 255 255
-0.100962   0.58715   1.31332 255 255 255
-0.0924215   0.576226    1.30702 255 255 255
-0.0364732   0.184047    1.89515 255 255 255
0.170228 0.158389  1.62063 255 255 255
0.217197 0.544945  1.42052 255 255 255
0.0583569  0.380873   1.48609 255 255 255
  0.276706 -0.0513949    2.05631 255 255 255
0.322804 0.501648  1.53561 255 255 255
  0.145137 -0.0549546    1.26528 255 255 255
0.0955699 -0.123403   1.52338 255 255 255
0.0229817  0.140417   1.29848 255 255 255
0.137725 0.555075  1.35509 255 255 255
0.354985 0.313996  1.70425 255 255 255
0.479561 0.312044  1.71971 255 255 255
5.22875e-05  -0.0326048     1.20414 255 255 255
0.0827794  0.410862   1.52281 255 255 255
 0.0698384 -0.0874582     1.1775 255 255 255
-0.107272 -0.015594   1.16368 255 255 255
0.400884 0.176628  1.93146 255 255 255
-0.0736308   0.139181    1.24156 255 255 255
0.0393377 0.0369834   2.19708 255 255 255
-0.230024 0.0251156   2.18615 255 255 255
 0.171621 -0.125666   1.25504 255 255 255
0.296296  0.02461  2.07894 255 255 255
0.0185153  0.311014   1.41335 255 255 255
0.0280914  0.115912   1.92787 255 255 255
 0.29746 0.287341  1.82417 255 255 255
 0.182346 0.0798618   2.06611 255 255 255
0.530009 0.348023  1.70597 255 255 255
-0.0963978   0.488314    1.46386 255 255 255
-0.0817328  0.0860958    2.11608 255 255 255
0.0674336 0.0119319   1.24242 255 255 255
0.226858 0.525239  1.42902 255 255 255
 0.453936 0.0264777   2.29245 255 255 255
-0.209539  0.166709   1.20694 255 255 255
-0.0505636 -0.0776187     1.2145 255 255 255
-0.22296 0.514397  1.39086 255 255 255
 0.19715 0.282782  1.86052 255 255 255
 0.369438 0.0877646    2.1195 255 255 255
-0.160049  0.498329   1.42931 255 255 255
  0.122846 -0.0942296    2.20503 255 255 255
0.211887 0.442926  1.53278 255 255 255
0.0849969 -0.120261    1.5044 255 255 255
-0.00393317  -0.0366565     1.21557 255 255 255
 0.40913 0.276266   1.7648 255 255 255
0.203701 0.387472  1.70182 255 255 255
-0.368608  0.102711   1.13176 255 255 255
-0.0985441 -0.0216591    1.21716 255 255 255
0.230048  0.40887  1.61378 255 255 255
 -0.139924 -0.0970441    2.40949 255 255 255
0.225055 0.392852  1.56161 255 255 255
 0.40881 0.433952  1.55836 255 255 255
0.309689 0.111709  2.05326 255 255 255
 0.412072 0.0787428   2.22899 255 255 255
0.358712 0.377981  1.71398 255 255 255
-0.145559  0.590596    1.2804 255 255 255
0.416134 0.293071  1.74119 255 255 255
 0.0727712 -0.0723398    1.19327 255 255 255
-0.0416307   0.572687    1.32057 255 255 255
 0.456823 0.0891712     2.198 255 255 255
 0.455691 0.0948526   2.21765 255 255 255
-0.00983407  -0.0483206     1.22253 255 255 255
0.0322523  0.518794   1.44465 255 255 255
-0.13797 0.541771  1.37485 255 255 255
0.236837  0.41646  1.64586 255 255 255
  0.165495 -0.0547093    1.32369 255 255 255
  0.315314 -0.0541571    2.08147 255 255 255
 -0.105036 -0.0627263    1.19137 255 255 255
 0.335533 0.0892113   2.18739 255 255 255
 0.0491777 -0.0290448    1.20022 255 255 255
-0.189163  0.556107   1.32657 255 255 255
   0.10035 -0.0477113    1.22949 255 255 255
-0.106721  0.114094     2.028 255 255 255
0.0905874  0.391688   1.53212 255 255 255
0.182478 0.468344  1.56323 255 255 255
 0.434061 0.0379745   2.30648 255 255 255
-0.150325   0.34718   1.33599 255 255 255
0.553806 0.274532  1.81749 255 255 255
0.195177 0.455713  1.59014 255 255 255
0.073301 0.378765  1.68862 255 255 255
 0.20227 0.545365   1.4201 255 255 255
0.158535 0.105936  1.38166 255 255 255
-0.146911  0.692733   1.06749 255 255 255
0.0703182  -0.15642   1.33739 255 255 255
 -0.111625 -0.0122089    1.19085 255 255 255
0.109844 0.321088  1.49846 255 255 255
0.396864 0.220257  1.87677 255 255 255
  -0.15824 -0.0313558    1.14339 255 255 255
 0.230174 -0.188377   2.64416 255 255 255
-0.00129878    0.331096     1.41661 255 255 255
0.189967 0.545529  1.42748 255 255 255
 0.298702 0.0958679   2.11492 255 255 255
0.143828 0.479036  1.48705 255 255 255
-0.161205  0.259837   1.28301 255 255 255
-0.0988519   0.549917    1.35703 255 255 255
0.0971064  0.406883   1.58369 255 255 255
0.214921 0.525181  1.44138 255 255 255
 0.444322 0.0660887    2.2567 255 255 255
-0.0666884 -0.0727003    1.21592 255 255 255
-0.218252 -0.105646   2.34818 255 255 255
-0.36167 0.549104  1.26932 255 255 255
 0.206106 -0.206743   2.66417 255 255 255
0.0872281 0.0666397   2.18608 255 255 255
0.452566 0.153364  2.00983 255 255 255
 0.170633 -0.112765   1.24383 255 255 255
0.383624 0.422461  1.62539 255 255 255
0.163976 0.356852  1.67628 255 255 255
0.109793 0.553448  1.35949 255 255 255
0.0716648  0.485545    1.4568 255 255 255
0.228696 0.477541  1.53372 255 255 255
0.226899 0.481278  1.53741 255 255 255
0.411602 0.105284  2.15411 255 255 255
0.153805 0.568202  1.37607 255 255 255
0.281879 0.407919  1.58837 255 255 255
0.0444566  0.187704   1.62847 255 255 255
  0.386046 -0.0712135    2.25327 255 255 255
 0.111384 -0.216546   2.38696 255 255 255
0.318232 0.108004   2.1547 255 255 255
-0.0205114 -0.0935576    1.24874 255 255 255
-0.0941251  0.0535084    2.15957 255 255 255
0.544632 0.156051  1.84401 255 255 255
  0.176658 -0.0959855    1.25489 255 255 255
0.252765 0.408153  1.50733 255 255 255
-0.108295  0.342135   1.34893 255 255 255
0.165364 0.537838   1.3907 255 255 255
0.116535 0.429756   1.5913 255 255 255
0.347794 0.344918  1.70526 255 255 255
-0.00689504    0.505623      1.4311 255 255 255
  0.168803 -0.0458232    1.28957 255 255 255
0.163949 0.549845  1.37678 255 255 255
0.0633169  0.374757   1.68436 255 255 255
-0.0113107   0.433479    1.47885 255 255 255
 0.19711 0.537977  1.44343 255 255 255
  -0.10869 -0.0230292    1.20706 255 255 255
 -0.140705 -0.0204237    1.18202 255 255 255
0.211945 0.558738  1.40772 255 255 255
0.469291 0.153807   1.9662 255 255 255
0.238636 0.478005  1.54301 255 255 255
0.144404 0.515837  1.47995 255 255 255
  0.0366035 -0.00120862     1.63857 255 255 255
  0.5402 0.266058  1.77476 255 255 255
0.268495 0.114722  2.14822 255 255 255
0.0592617  0.370982   1.69816 255 255 255
0.0712448 -0.112797   1.46014 255 255 255
0.510939 0.194076  1.84828 255 255 255
0.520419 0.166118  1.84527 255 255 255
0.141286 0.557674  1.39942 255 255 255
0.339404   0.3873  1.66774 255 255 255
0.227152 0.178191  1.91764 255 255 255
  0.0702 0.190355  1.97079 255 255 255
-0.131536   0.69176   1.06345 255 255 255
0.196946  0.19964  1.97423 255 255 255
-0.0436162  -0.105022    1.26535 255 255 255
0.489207 0.296185  1.75524 255 255 255
0.576469 0.223384  1.72024 255 255 255
0.200664 0.163152  1.93293 255 255 255
-0.0806759 -0.0822227    1.22526 255 255 255
-0.404745  0.531888   1.31488 255 255 255
 -0.1042 0.421243   1.4041 255 255 255
 0.35562 0.326453  1.69526 255 255 255
0.0987942  0.565476   1.38017 255 255 255
-0.205137  0.269323   1.27235 255 255 255
-0.531231   0.53997   1.22057 255 255 255
0.353171 0.364205  1.65727 255 255 255
0.0554567  0.280089    1.4187 255 255 255
0.171203 0.184217  2.01418 255 255 255
0.246079 0.403753  1.49777 255 255 255
-0.483117  0.546837   1.28584 255 255 255
 0.172047 -0.137061   1.26478 255 255 255
-0.0943021   0.152187    1.97639 255 255 255
0.377931 0.183308  1.95596 255 255 255
0.296945 0.127073  1.99356 255 255 255
0.128752 0.570237  1.37592 255 255 255
0.268063 0.417702  1.53304 255 255 255
0.320249 0.223353  1.79788 255 255 255
0.0468018  0.336342   1.45269 255 255 255
-0.0270092 -0.0784929    1.22973 255 255 255
  -0.16543 -0.0224174    1.18094 255 255 255
  0.26314 0.0935729   2.16173 255 255 255
0.133752  0.52823  1.34906 255 255 255
 0.176534 -0.125648   1.25123 255 255 255
0.0577593  0.349366   1.66432 255 255 255
-0.16984 0.377326  1.30808 255 255 255
 0.145294 -0.111022   1.22391 255 255 255
0.136946 0.561103  1.39173 255 255 255
0.124792 0.403505  1.55502 255 255 255
0.228804 0.492703  1.53305 255 255 255
0.336782 0.418006  1.67343 255 255 255
-0.0591541 -0.0355429     1.2439 255 255 255
0.502737 0.138238  2.08014 255 255 255
 0.175843 -0.217208   2.40655 255 255 255
-0.137943  0.500265   1.44229 255 255 255
0.0881611 -0.129588     2.194 255 255 255
  0.10445 -0.095037   1.19931 255 255 255
  0.323293 -0.0628898    2.08675 255 255 255
0.0474183   -0.1055   1.24231 255 255 255
-0.103266  0.502746   1.44528 255 255 255
-0.279959  0.544146   1.34419 255 255 255
0.0223437  0.204258    1.9177 255 255 255
 0.130407 0.0559873   2.21155 255 255 255
-0.185305  0.460949   1.36401 255 255 255
 -0.0949934 -0.00174639     1.17025 255 255 255
0.173738 0.063418  2.16375 255 255 255
0.0465347 -0.122867   1.22325 255 255 255
0.524012 0.250945  1.80246 255 255 255
0.262942  0.40748  1.51037 255 255 255
-0.433567      0.54   1.31073 255 255 255
 -0.21561 0.0341749   2.18501 255 255 255
 0.264707 0.0166603   2.08002 255 255 255
0.372015 0.473624   1.5661 255 255 255
0.203761 0.526912  1.44704 255 255 255
0.218551 0.530745  1.46216 255 255 255
0.290898 0.410228  1.64514 255 255 255
0.542404 0.358161  1.73956 255 255 255
  0.0557312 -0.00814249     1.52559 255 255 255
0.00849616  0.0662709    1.23978 255 255 255
-0.229388  0.527534   1.26145 255 255 255
0.205388 0.117005  1.59859 255 255 255
-0.152642  0.511701    1.4234 255 255 255
0.331889 0.404915  1.66726 255 255 255
-0.0057967   0.220706    1.86856 255 255 255
0.361086 0.385982  1.62298 255 255 255
0.351627 0.413027  1.62701 255 255 255
0.166034 0.535136  1.44275 255 255 255
0.0306436   0.54744   1.39401 255 255 255
0.111926 0.550529  1.41124 255 255 255
-0.292168  0.692394   1.06597 255 255 255
0.0085782 0.0658572   1.23921 255 255 255
-0.465668  0.515762   1.33869 255 255 255
-0.015697  0.192377   1.92698 255 255 255
 0.26246 0.382244  1.52345 255 255 255
0.029529 0.331616  1.43086 255 255 255
0.271311 0.384109   1.5671 255 255 255
0.160367 -0.14504  1.28794 255 255 255
0.473832 0.319572  1.69529 255 255 255
0.208346 0.422615  1.58574 255 255 255
-0.305728  0.549684   1.31554 255 255 255
-0.303215   0.56489   1.30898 255 255 255
 0.144741 -0.179752   1.30606 255 255 255
 0.155952 0.0937157   2.06905 255 255 255
0.162495 0.161597  2.04807 255 255 255
0.397561 0.271185  1.77645 255 255 255
-0.0795693 -0.0704081    1.23933 255 255 255
-0.166274  0.692042   1.03708 255 255 255
0.0373992  0.491759   1.49767 255 255 255
0.303059 0.242953  1.80159 255 255 255
0.361371 0.367165  1.72056 255 255 255
  0.157804 -0.0905998    1.24492 255 255 255
 0.134468 -0.197035   2.35141 255 255 255
 -0.158876 -0.0138152    1.19047 255 255 255
0.151731 0.549511  1.41789 255 255 255
0.15691 0.53774 1.40963 255 255 255
0.277497 0.424003  1.54638 255 255 255
0.0328199  0.532091   1.38035 255 255 255
 0.1085  0.3354 1.50114 255 255 255
0.0629781 0.0912102   1.29224 255 255 255
0.0256581 0.0586694   1.24651 255 255 255
0.0722742 -0.120676   1.46382 255 255 255
 0.49933 0.315155  1.73743 255 255 255
 -0.0850345 -0.00906275     1.15266 255 255 255
 0.336714 0.0712199   2.20233 255 255 255
0.0657204 0.0043373    1.2412 255 255 255
0.063298 0.212469  1.37148 255 255 255
0.0645388 0.0481652   1.26682 255 255 255
-0.171747  0.457037   1.40302 255 255 255
0.526306 0.134755   1.8528 255 255 255
-0.0699947   0.167562     1.9637 255 255 255
0.506797 0.261004   1.8102 255 255 255
 -0.076634 -0.0893639    1.24118 255 255 255
-0.0696435 -0.0919677    1.23643 255 255 255
 -0.209228 -0.0121978     2.2711 255 255 255
 0.18815 0.178951  1.99459 255 255 255
0.520297 0.149459  1.85525 255 255 255
 -0.13201 0.0783034   2.05177 255 255 255
0.454815 0.327259   1.6913 255 255 255
0.557308 0.279207  1.78396 255 255 255
0.179553 0.539488  1.40361 255 255 255
0.370011 0.420071  1.62057 255 255 255
0.125003 0.596994  1.32971 255 255 255
-0.289163  0.590443    1.2326 255 255 255
