ply
format ascii 1.0
element vertex 1132
property float x
property float y
property float z
property uchar red
property uchar green
property uchar blue
end_header
-0.158783 -0.200933   1.37862 255 255 255
  0.470905 -0.0112482    2.36168 255 255 255
-0.0907399 -0.0573804    1.21141 255 255 255
 0.424838 -0.110591   2.25185 255 255 255
0.312574 0.187333  1.87258 255 255 255
 0.357588 -0.348398   2.56641 255 255 255
-0.148675 0.0628411   2.15179 255 255 255
-0.756773  0.513538   1.28417 255 255 255
 -0.183582 -0.0799407    1.19734 255 255 255
-0.0942821 -0.0152379    1.15836 255 255 255
  0.2211 0.211683  1.95451 255 255 255
0.0605425 -0.204062   1.41085 255 255 255
-0.264821  -0.47941   3.05334 255 255 255
 0.443894 -0.207632   2.41072 255 255 255
 0.144267 0.0555073   1.39815 255 255 255
-0.0289809  -0.228906    1.60913 255 255 255
-0.119462 -0.069004   1.20835 255 255 255
-0.367781 -0.026168   1.13287 255 255 255
0.448995 0.162247  1.90636 255 255 255
 0.409767 0.0243019   2.30679 255 255 255
  0.106332 -0.0652465    2.24363 255 255 255
-0.224731 -0.355692   2.75112 255 255 255
0.220085 0.291829  1.85322 255 255 255
-0.0133873 -0.0465454     1.2265 255 255 255
-0.446767 -0.502773   2.89753 255 255 255
-0.00638791   -0.224448     1.53352 255 255 255
-0.0772792   0.172144    1.95542 255 255 255
0.285585 0.230136  1.84137 255 255 255
0.375214 0.149993  2.09151 255 255 255
0.0854818  0.256848   1.58464 255 255 255
-0.0331975   0.200661    1.88607 255 255 255
0.326477 0.200463  1.82125 255 255 255
 0.152415 -0.112784   1.23309 255 255 255
-0.390728  0.413054   1.27627 255 255 255
-0.194538 -0.750522   2.92134 255 255 255
0.235288 0.135716  1.59175 255 255 255
-0.0176583  -0.201872    1.36892 255 255 255
0.00294848  -0.215986    1.56479 255 255 255
 0.312614 -0.527862   3.01462 255 255 255
0.474245 0.152848  1.87275 255 255 255
0.210807 0.144916  1.61031 255 255 255
-0.138808 -0.590059   2.90904 255 255 255
 -0.175496 -0.0968495    1.24015 255 255 255
-0.194064 -0.106173   2.34162 255 255 255
0.338045 0.199321  1.85236 255 255 255
-0.0762764 -0.0886422      1.234 255 255 255
0.153401 0.149997  1.40857 255 255 255
   0.50842 -0.0875315     2.3313 255 255 255
 0.470877 -0.357238   2.66006 255 255 255
 0.492707 -0.114013   2.27545 255 255 255
0.462982 -0.10995  2.26609 255 255 255
 0.265092 -0.938523   3.12971 255 255 255
0.024258  0.19659  1.79345 255 255 255
0.484807 0.138302  2.12301 255 255 255
   0.42084 -0.0416388    2.27662 255 255 255
 -0.280002 -0.0675887     1.1665 255 255 255
 0.177912 -0.112277   2.24153 255 255 255
 0.168915 0.0810546   1.36873 255 255 255
0.320722 0.208996  1.84404 255 255 255
-0.284002 -0.631164   3.10696 255 255 255
 -0.320981 0.00395003    1.12522 255 255 255
0.050076 0.181164   1.7309 255 255 255
 0.323638 -0.765022   3.16515 255 255 255
 0.219204 -0.118156    2.3416 255 255 255
 0.294909 -0.134236   2.33615 255 255 255
-0.184485 -0.337561   2.68457 255 255 255
0.0458817 -0.933965    3.2766 255 255 255
-0.0242648 -0.0858059    1.25638 255 255 255
 0.186434 -0.661456   3.03522 255 255 255
-0.0372617  -0.807848    2.96026 255 255 255
-0.261752 -0.295452   2.73281 255 255 255
  -0.225505 -0.00858501     1.14502 255 255 255
 0.186393 -0.113337   1.25931 255 255 255
-0.0666731 -0.0421964    1.22253 255 255 255
0.0280596 -0.735015   2.85058 255 255 255
 0.507672 -0.147726   2.29762 255 255 255
-0.277634 -0.469431   3.04878 255 255 255
 -0.16657 -0.128036   1.24664 255 255 255
 0.308457 0.0686328   2.18275 255 255 255
0.0620928 -0.164445   1.35121 255 255 255
-0.377117 -0.485518   2.81199 255 255 255
 0.288678 -0.383939   2.57522 255 255 255
0.499518 -0.09509  2.29248 255 255 255
0.0547574 -0.109063   2.24549 255 255 255
-0.430143 -0.272168   1.55804 255 255 255
 -0.137641 -0.0903023     1.2345 255 255 255
-0.236547 -0.134108    1.2548 255 255 255
0.178035 0.259084  1.90704 255 255 255
-0.936845 -0.385125   1.61991 255 255 255
-0.0702038 -0.0337039    1.23432 255 255 255
 -0.206121 -0.0514729     1.1707 255 255 255
-0.502323   -0.7872    3.0718 255 255 255
0.283232 0.101976  2.12005 255 255 255
-0.619484  0.535177   1.29084 255 255 255
 0.475427 -0.165552   2.30543 255 255 255
0.0209408 -0.569242   2.91551 255 255 255
 0.328473 -0.284287   2.66253 255 255 255
-0.0781954  0.0441265    2.04792 255 255 255
0.0522648  0.154476     2.009 255 255 255
 0.0857673 -0.0145147    2.31659 255 255 255
 0.356666 -0.499534   3.03163 255 255 255
0.168246 0.256227  1.89843 255 255 255
-0.197417 -0.263448   2.34673 255 255 255
   0.25506 -0.0133756    2.11006 255 255 255
0.172218 0.069149  2.20067 255 255 255
 -0.034006 -0.0900794    1.26156 255 255 255
 -0.116515 -0.0213569    1.21378 255 255 255
0.147629 0.200558  1.43799 255 255 255
0.233039 0.125147  1.65908 255 255 255
0.013375 0.197178  1.91422 255 255 255
 0.401801 -0.575676    3.1661 255 255 255
-0.246768 -0.100733   1.25184 255 255 255
0.438252 0.165528  1.94118 255 255 255
 -0.25135 -0.378262   2.41221 255 255 255
-0.332704 -0.540126   3.14231 255 255 255
  -0.15253 -0.0934113    1.23998 255 255 255
0.420913 0.073917   2.2459 255 255 255
 0.0131148 -0.0549754    1.59823 255 255 255
   0.06944 -0.0557726    1.48991 255 255 255
 0.414623 -0.343213   2.63452 255 255 255
  -0.7481 -0.162905   1.23252 255 255 255
-0.263696  -0.14617    1.2604 255 255 255
   0.174059 -0.00621877     1.31475 255 255 255
 -0.295635 -0.0741954    1.19268 255 255 255
-0.334033  0.373974   1.26554 255 255 255
 0.0723234 -0.0046312    1.58221 255 255 255
-0.375045 -0.486713   2.81087 255 255 255
-0.0943326  -0.108248    1.27574 255 255 255
-0.646044 -0.418145   1.61473 255 255 255
  0.369123 -0.0640479    2.19205 255 255 255
-0.244468 -0.126784   1.23061 255 255 255
-0.224115  0.268817   1.26746 255 255 255
-0.113762 -0.186069   1.40081 255 255 255
 0.20422 0.192391  1.95328 255 255 255
 -0.366038 -0.0630857    1.18668 255 255 255
0.00997339   0.164414    1.96274 255 255 255
0.364194 0.185091  1.92212 255 255 255
-0.0489252   -0.20967    1.36281 255 255 255
 0.118473 -0.151332   2.26882 255 255 255
 0.165829 -0.163158    2.2679 255 255 255
0.119587 0.188305  1.48652 255 255 255
0.555905  0.11863  1.89475 255 255 255
0.197513 0.170453  1.99038 255 255 255
 -0.134863 -0.0123083    1.12994 255 255 255
 0.311973 -0.014691   2.09944 255 255 255
  0.29016 -0.336883   2.57514 255 255 255
0.0146793 -0.224803   1.40087 255 255 255
-0.628004 -0.501696    1.8125 255 255 255
 0.123575 -0.166869   1.34752 255 255 255
-0.946885 -0.323393    1.5044 255 255 255
-0.0212139  -0.792923    2.82236 255 255 255
0.466149 0.144301  1.89532 255 255 255
 0.549423 0.0904785   1.93528 255 255 255
 0.0984527 -0.0284923    1.23814 255 255 255
 0.432233 -0.168431   2.30934 255 255 255
    0.473808 -0.000441287       2.3675 255 255 255
 0.597722 0.0205699   1.88808 255 255 255
-0.0579627 -0.0362314    1.24467 255 255 255
-0.211349     -0.16   1.27111 255 255 255
-0.0501733  -0.562007    3.04833 255 255 255
0.0258501 0.0605507   1.23928 255 255 255
  -0.243492 -0.00428299     1.16963 255 255 255
0.0311796 -0.184271   1.52162 255 255 255
0.0183643  0.063002   1.23819 255 255 255
-0.0249696 -0.0212297    2.28545 255 255 255
 0.506062 -0.117234   2.32363 255 255 255
0.124124 0.209579  1.49024 255 255 255
-0.166392 -0.114238   1.34851 255 255 255
0.314491 0.121892  2.04405 255 255 255
 0.166164 -0.151488   2.24236 255 255 255
 0.434667 -0.177639   2.30804 255 255 255
-0.550832  0.491774   1.23274 255 255 255
 -0.378567 -0.0497317    1.18259 255 255 255
0.0326188 -0.186117   1.53796 255 255 255
 0.123552 -0.100745   1.20826 255 255 255
0.0342086 -0.180094   1.52789 255 255 255
 0.10531 0.156366   1.5986 255 255 255
-0.565914  0.504161   1.33114 255 255 255
 0.392366 -0.179535   2.30151 255 255 255
  -0.348617 -0.00315912     1.12955 255 255 255
 -0.115295 -0.0638588    1.19337 255 255 255
 -0.249775 -0.0838364    1.21548 255 255 255
 -0.227972 -0.0447617    1.13707 255 255 255
0.0730811   0.13908   1.33637 255 255 255
0.276264 -0.14136  2.31277 255 255 255
 0.379783 0.0626349   2.22942 255 255 255
0.0820185  0.130002   1.32974 255 255 255
-0.0732438  0.0157292    2.22823 255 255 255
 -0.278372 -0.0901626    1.22623 255 255 255
0.345909  0.15493  1.95633 255 255 255
 0.161099 -0.135487   2.24797 255 255 255
  0.386988 0.00515956    2.34224 255 255 255
0.149567 0.207455  1.44727 255 255 255
0.232477 0.184806  1.62732 255 255 255
0.474395 0.116028   2.1673 255 255 255
-0.0211579   0.175425    1.95841 255 255 255
-0.250456 -0.114569   1.22106 255 255 255
 0.205353 -0.265198   2.59547 255 255 255
 0.0135391 -0.0508395    1.58726 255 255 255
-0.108137 0.0593347    2.1399 255 255 255
   0.1654 0.0706002   2.15946 255 255 255
-0.648073  0.504717   1.29158 255 255 255
 0.151981 -0.123046   2.23561 255 255 255
-0.0787684 -0.0379156    1.22616 255 255 255
 0.275874 -0.498819   2.84881 255 255 255
   0.482863 -0.00923479     2.37094 255 255 255
  0.480701 -0.0272798    2.37461 255 255 255
  0.494602 0.00316671    2.35369 255 255 255
 -0.51703 -0.254028   1.51114 255 255 255
  0.491317 -0.0793006    2.29198 255 255 255
 0.496647 0.0929861   2.07173 255 255 255
 -0.217191 -0.0366867    1.14271 255 255 255
 0.152038 0.0184589   1.31705 255 255 255
0.0240479 -0.721223    2.8125 255 255 255
0.0478584  0.273015   1.65965 255 255 255
  0.573747 -0.0219671    1.87997 255 255 255
-0.0390341 -0.0459307    2.33788 255 255 255
-0.147644  -0.13054   1.28093 255 255 255
  0.15448 0.0494453   2.13032 255 255 255
-0.298481 -0.135159   1.16763 255 255 255
 0.100938 -0.100298   2.21407 255 255 255
-0.828009 -0.346438    1.6094 255 255 255
0.361641 0.154416  2.08305 255 255 255
 0.0803967 -0.0244491    1.22891 255 255 255
 0.488868 -0.128335   2.28095 255 255 255
-0.186856  0.317621   1.31093 255 255 255
0.212137 0.142446  1.59082 255 255 255
 0.113789 -0.253499   2.75719 255 255 255
0.161714 0.112153   1.3911 255 255 255
 0.156513 -0.119193   1.31563 255 255 255
  0.144527 -0.0545713    1.27479 255 255 255
 0.168403 -0.056229   2.24875 255 255 255
 0.155069 0.0302825    2.2177 255 255 255
-0.156586 -0.200253   1.39701 255 255 255
-0.0705561   0.180533    1.94322 255 255 255
 -0.198787 -0.0221023    2.25957 255 255 255
 0.343414 -0.359175   2.57299 255 255 255
 -0.137185 -0.0709901    1.20892 255 255 255
 0.216101 0.0872529   2.19441 255 255 255
 -0.200752 -0.0503579    1.17369 255 255 255
 -0.141804 -0.0874438    1.24504 255 255 255
 -0.191314 -0.0222125    2.27566 255 255 255
  0.133055 -0.0948501    1.22118 255 255 255
0.00397137   0.275345    1.73779 255 255 255
-0.448842 -0.189362   1.41643 255 255 255
  0.52314 -0.211441   2.72031 255 255 255
 0.376712 -0.101428    2.2506 255 255 255
 0.227657 -0.687475   2.97256 255 255 255
 0.0837313 -0.0815779    1.19217 255 255 255
-0.614488  0.488465   1.32499 255 255 255
0.132019 0.192002  1.47458 255 255 255
-0.105991 -0.031473   1.22801 255 255 255
0.370547 0.146423  1.99679 255 255 255
-0.386924  0.204009   1.19292 255 255 255
 -0.162819 -0.0377028    1.21155 255 255 255
 0.0269686 -0.0483346    2.33982 255 255 255
0.139133  -0.5341  2.84431 255 255 255
  0.492231 -0.0910184     2.2715 255 255 255
0.0591942  0.106429   1.30205 255 255 255
  0.156403 -0.0757818     1.2571 255 255 255
 0.163589 0.0599315   1.36443 255 255 255
0.00804629   0.179376    1.94923 255 255 255
  0.181839 -0.0785264    1.27441 255 255 255
 -0.196723 0.00399801    1.11237 255 255 255
  -0.19037 -0.0458109    1.19431 255 255 255
-0.115715 0.0482749   2.10556 255 255 255
0.353076 0.192225  1.84721 255 255 255
-0.0446311 -0.0104999    1.17422 255 255 255
 0.431024 -0.148678   2.28593 255 255 255
 -0.5348 -0.38565  1.66443 255 255 255
0.00536504  -0.216459    1.59204 255 255 255
 0.272293 0.0818945   2.18227 255 255 255
-0.0195401   0.376241    2.10882 255 255 255
0.459523 0.169719  2.03485 255 255 255
  0.170134 -0.0682943     1.2722 255 255 255
 0.167867 0.0140498   1.32399 255 255 255
-0.128693 -0.027099   1.17905 255 255 255
 0.261536 -0.633284   3.03821 255 255 255
-0.0516304  -0.104047    1.27671 255 255 255
-0.0314681 -0.0227193     1.1656 255 255 255
-0.125547 -0.065748   2.33543 255 255 255
0.0463396 -0.120273   2.25088 255 255 255
  0.506061 -0.0775846      2.309 255 255 255
-0.108727   0.10379   2.03303 255 255 255
 0.434894 -0.326337   2.60634 255 255 255
0.0743555 -0.351782   2.58119 255 255 255
 0.187646 -0.144851   2.27344 255 255 255
-0.0886167  0.0584344    2.12128 255 255 255
-0.251872 -0.139606    1.1818 255 255 255
-0.463197  0.218922   1.18622 255 255 255
  0.390996 -0.0596407    2.24423 255 255 255
0.111637 0.107803   2.1121 255 255 255
 -0.336854 0.00546925    1.09503 255 255 255
 -0.18532 -0.125233   1.22842 255 255 255
0.0330843 -0.118301   1.50873 255 255 255
 0.555552 0.0836411   1.92172 255 255 255
 0.458751 0.0871501   2.20283 255 255 255
0.0444419 -0.126214   1.23802 255 255 255
 0.336968 -0.151305   2.27971 255 255 255
 -0.170874 -0.0217616    1.17845 255 255 255
 0.0466568 -0.0235046    1.20722 255 255 255
 0.344594 0.0653458   2.21984 255 255 255
  -0.19553 -0.0418378    1.16302 255 255 255
0.159189 0.133681  1.39659 255 255 255
-0.06186 0.139842  2.01309 255 255 255
-0.0493256   0.132975    1.99346 255 255 255
0.130803 0.144959  1.98879 255 255 255
0.0959232 -0.144688   2.25176 255 255 255
  0.483571 -0.0183984    2.36871 255 255 255
 -0.393996 -0.0714756    1.22757 255 255 255
 0.448244 -0.136996   2.25455 255 255 255
 0.206473 -0.537908   2.80651 255 255 255
0.150031 0.124429  2.07963 255 255 255
  0.24453 -0.313748   2.54769 255 255 255
 -0.199862 -0.0314972    2.26969 255 255 255
-0.0731805 -0.0972921    1.23729 255 255 255
0.0882759 -0.199001    1.3836 255 255 255
 -0.24263 -0.525953   2.99506 255 255 255
-0.115519 -0.132532   1.29756 255 255 255
 -0.214722 -0.0607554    1.20275 255 255 255
-0.493101  0.507026   1.32732 255 255 255
0.260334 0.107309  2.09725 255 255 255
 0.228336 -0.574642   2.84618 255 255 255
-0.0864732   0.050285    2.14905 255 255 255
-0.182283 0.0379953   2.16553 255 255 255
-0.0416385  -0.816624    2.83413 255 255 255
0.171754 -0.21316  2.38282 255 255 255
 -0.183948 -0.0350965    1.18537 255 255 255
 -0.498963 -0.0970953    1.23331 255 255 255
-0.478719 -0.411477   1.76058 255 255 255
 -0.025262 -0.0859213    1.25239 255 255 255
  0.151309 -0.0527924     2.3688 255 255 255
 0.409184 0.0510361   2.26271 255 255 255
 0.352643 -0.368726   2.60432 255 255 255
0.0782347 0.0388786   1.27226 255 255 255
0.280307 0.190667  1.86209 255 255 255
0.510289 0.140793  1.88776 255 255 255
-0.0570152  -0.729881     2.8524 255 255 255
-0.0423127  -0.719874    2.81129 255 255 255
 0.025449 -0.733549   2.89156 255 255 255
 -0.129897 -0.0101392    2.24206 255 255 255
-0.183727 -0.054893   1.18005 255 255 255
 0.417624 -0.163842   2.28448 255 255 255
-0.171514  0.311583   1.30585 255 255 255
-0.234279 -0.155267    1.3908 255 255 255
-0.140381 0.0854975    2.0737 255 255 255
  -0.15885 -0.0161181    1.16131 255 255 255
0.0842411 -0.209238   1.39744 255 255 255
  0.451268 -0.0896889    2.25867 255 255 255
 0.305553 0.0145354   2.07354 255 255 255
 0.322277 -0.708875   3.21264 255 255 255
 -0.115008 -0.0109077    1.14366 255 255 255
-0.078439 0.0556769   2.14918 255 255 255
0.226381 0.141302  1.68206 255 255 255
-0.938573 -0.373557   1.62917 255 255 255
  0.305237 0.00756139    2.05301 255 255 255
-0.0306057 -0.0419519    2.35376 255 255 255
 0.159227 0.0722947   1.36354 255 255 255
-0.0499818  -0.056313    2.31058 255 255 255
-0.0347164  -0.833706    2.80545 255 255 255
 0.167094 -0.131527   1.28489 255 255 255
-0.0828634   -0.10625    1.26121 255 255 255
 0.419775 0.0514676   2.28244 255 255 255
0.179099 0.194885  1.93776 255 255 255
  0.150257 -0.0764382    1.25046 255 255 255
 -0.272136 -0.0885979    1.28796 255 255 255
 0.26967 0.207854  1.61799 255 255 255
-0.188156 -0.240369   2.42907 255 255 255
 0.175108 -0.132031   1.26869 255 255 255
-0.198753 0.0486141   2.16084 255 255 255
 0.165879 0.0910863   2.03276 255 255 255
  0.446361 -0.0722456    2.27165 255 255 255
 0.439635 -0.135087   2.26806 255 255 255
 0.435342 0.0256075   2.33783 255 255 255
-0.263741 -0.311668   2.31652 255 255 255
 0.143263 -0.150429   1.31179 255 255 255
  0.158043 -0.0261872    1.29246 255 255 255
 0.130681 -0.067167   1.24206 255 255 255
0.178739 -0.08918   1.2635 255 255 255
-0.276654 -0.477874   1.82124 255 255 255
-0.0152425 -0.0564993    1.23505 255 255 255
0.0569548 0.0163794    2.2543 255 255 255
-0.0938406 -0.0188994    1.17229 255 255 255
-0.0946369 -0.0184653    1.17267 255 255 255
   0.15475 -0.0631187    1.26423 255 255 255
 -0.103993 -0.0268277    1.21473 255 255 255
   -0.197017 -0.000606236      1.11387 255 255 255
0.0526163 0.0936794     1.286 255 255 255
 0.173032 0.0867942   2.05228 255 255 255
 0.165547 -0.134894   1.28181 255 255 255
0.104001  0.18895   1.5079 255 255 255
 -0.217983 -0.0841105    1.23355 255 255 255
 0.141152 -0.120281   2.20596 255 255 255
0.427137 0.081699  2.10832 255 255 255
  0.0452792 -0.00360959     2.26752 255 255 255
0.333078 0.168141  1.88713 255 255 255
 0.560817 -0.126734   2.55823 255 255 255
0.073675 0.117458   1.3261 255 255 255
 0.492007 -0.068551   2.26427 255 255 255
-0.000814256    -0.158873      1.29466 255 255 255
 0.178076 -0.168133   2.27551 255 255 255
0.0801086 -0.513833   2.98564 255 255 255
-0.154566 -0.112841   1.35102 255 255 255
0.0920975 -0.143457   1.40503 255 255 255
0.0684259 -0.170551   1.44767 255 255 255
 -0.334185 -0.0793835    2.35556 255 255 255
 0.319951 -0.300178   2.55234 255 255 255
0.0476181  0.230439   1.64128 255 255 255
0.071865  0.24945  1.59849 255 255 255
-0.069214  0.105418   2.07911 255 255 255
  -0.103418 -0.00652904     1.18056 255 255 255
-0.352672 -0.365544   2.37365 255 255 255
 0.445913 -0.121048   2.27433 255 255 255
0.0246941 -0.200446   1.39705 255 255 255
0.00377132  -0.216551    1.58424 255 255 255
 0.157171 0.0671824     1.382 255 255 255
 -0.378724 -0.0722654    1.22427 255 255 255
  -0.132476 -0.00636512     1.12768 255 255 255
 0.228728 -0.309542   2.54369 255 255 255
-0.0830841   -0.78234    2.86396 255 255 255
0.284519 0.106123  2.12207 255 255 255
 -0.236462 -0.0716325    1.19141 255 255 255
-0.0204927 0.00653345    2.24831 255 255 255
-0.109161 -0.174931   1.35134 255 255 255
 0.105408 -0.193305   1.36735 255 255 255
 0.235078 -0.126201   2.30909 255 255 255
-0.293816 -0.212254   2.58769 255 255 255
 -0.12712 -0.558841    2.9211 255 255 255
 0.10521 0.163239  1.61308 255 255 255
-0.196101 -0.276529    2.3498 255 255 255
-0.185157 -0.125882   1.25805 255 255 255
 -0.364725 0.00629104    1.09113 255 255 255
 -2.71718 -0.448104    2.2743 255 255 255
-0.0588037 -0.0438263    1.24199 255 255 255
  -0.134083 -0.00718384     1.12549 255 255 255
 -0.243561 -0.0234754     1.1464 255 255 255
 0.435168 -0.098942   2.25321 255 255 255
-0.0569856   0.144176    1.97456 255 255 255
-0.965557 -0.331869   1.51334 255 255 255
-0.0138925  -0.176125     1.3153 255 255 255
-0.118339 0.0163176   2.24105 255 255 255
-0.0131184    0.12357    2.05206 255 255 255
-0.309451 -0.645643   3.14039 255 255 255
-0.131254 -0.200299   1.39455 255 255 255
   0.4327 0.0590706   2.22015 255 255 255
  -0.18946 -0.0517053    1.17213 255 255 255
-1.66255 -1.25411  4.10842 255 255 255
0.262079   0.1743  1.59795 255 255 255
 0.24761 0.190228  1.63455 255 255 255
    -0.12077 -0.000595704      1.14702 255 255 255
-0.0653517 -0.0396577    1.23447 255 255 255
-0.0994451 -0.0212732     1.1772 255 255 255
 0.085626 0.0612685   1.29269 255 255 255
 -0.121599 -0.0238721    1.20544 255 255 255
0.152923 0.105618  1.38014 255 255 255
 0.305202 0.0499313   2.19756 255 255 255
-0.0455745  -0.200956    1.35792 255 255 255
-0.0568308    0.14057    1.96046 255 255 255
0.0552557 -0.993052    3.2715 255 255 255
 -0.307912 0.00471938     1.0987 255 255 255
 0.228131 -0.201827   2.66561 255 255 255
-0.106792 0.0351463    2.1999 255 255 255
-0.0768899 -0.0890492    1.24799 255 255 255
 0.244236 -0.113687   2.31142 255 255 255
0.0612982  0.214005    1.5982 255 255 255
0.0709955 0.0148319   1.24976 255 255 255
-0.0547853 -0.0390638    1.23489 255 255 255
-0.306507 -0.206268   2.59935 255 255 255
 0.109369 -0.197967   2.35647 255 255 255
  -0.24401 -0.0221316    2.28543 255 255 255
0.0813488   0.10996   2.12867 255 255 255
0.0660356 0.0151062   1.23746 255 255 255
  0.394508 -0.0678766    2.23006 255 255 255
-0.0394007   0.124737    2.04767 255 255 255
-0.191389 -0.046059   1.15455 255 255 255
-0.201649  0.244218   1.25596 255 255 255
 0.0780551 -0.0117415    1.60581 255 255 255
 0.0796803 -0.0871234    1.18933 255 255 255
-0.0301501   -0.18729    1.33658 255 255 255
   0.274606 0.000878633     2.09416 255 255 255
 0.108373 -0.189772   1.36815 255 255 255
  0.0652111 -0.00832627     1.22985 255 255 255
-0.026387  0.136176    1.9531 255 255 255
-0.112114 -0.101035   1.26392 255 255 255
  0.0776785 -0.00557618     1.23887 255 255 255
  0.112643 -0.0176486    2.31036 255 255 255
0.133997 0.214885  1.43065 255 255 255
0.0530243 0.0904785    1.5741 255 255 255
 0.115784 -0.122168   2.22695 255 255 255
 0.424323 0.0306161   2.28503 255 255 255
0.0472394 -0.207184   1.42076 255 255 255
 -0.184631 -0.0325414    1.19804 255 255 255
 0.151689 0.0231026   1.31651 255 255 255
0.0681382 0.0577809   1.27624 255 255 255
-0.0438134  -0.101943    1.28565 255 255 255
   0.16282 -0.0581792    1.27447 255 255 255
-0.0733065  0.0535095    2.02582 255 255 255
 -0.132564 -0.0197882    1.20963 255 255 255
-0.0603516 0.00821857     1.1569 255 255 255
-0.0968051  -0.111615    1.26878 255 255 255
-0.0533428  -0.624647    2.97465 255 255 255
0.156358 0.180827  1.42736 255 255 255
 0.079148 -0.100197   1.18616 255 255 255
-0.177344 -0.203544   1.37697 255 255 255
 -0.197484 -0.0197535    1.14579 255 255 255
 0.207167 -0.124031   2.35485 255 255 255
0.153702 0.140896  2.07613 255 255 255
-0.555966 -0.433147    1.6986 255 255 255
  -0.358211 -0.00543664     1.14675 255 255 255
-0.668988 -0.620516   3.17849 255 255 255
 -0.83471 -0.335455   1.46368 255 255 255
0.182265  0.17582  2.01396 255 255 255
  -0.136868 0.000997226     1.12264 255 255 255
-0.528464  0.535753   1.27148 255 255 255
 0.314078 -0.139083   2.29428 255 255 255
 -0.227221 -0.0366359    2.28618 255 255 255
 -0.0653957 -0.00744313     1.16166 255 255 255
 -0.171757 -0.0489173    1.18652 255 255 255
-0.112963  -0.66278   2.87415 255 255 255
 -0.131101 -0.0252092    1.19966 255 255 255
 0.137873 -0.104518   1.21823 255 255 255
0.0275977 0.0714508   1.60595 255 255 255
-0.030195  0.170372   1.89566 255 255 255
  0.134697 -0.0892022    1.23215 255 255 255
 -0.379161 -0.0304465    1.15757 255 255 255
 -1.12829 -0.533731   1.93865 255 255 255
  0.159178 -0.0526452    1.27141 255 255 255
 -0.227984 -0.0439766     1.1568 255 255 255
   0.40403 -0.0462127    2.28328 255 255 255
 0.0826929 -0.0937755    1.18245 255 255 255
-0.423517 -0.475112   1.84741 255 255 255
   0.252986 -0.00317483     2.05625 255 255 255
 0.182716 -0.126547   2.29209 255 255 255
0.142615 0.128742   1.3908 255 255 255
 0.183645 -0.125278   1.25588 255 255 255
 0.428164 0.0711361   2.24704 255 255 255
-0.189759  0.172001   1.21119 255 255 255
-0.118565 0.0893289    2.0468 255 255 255
-0.264441 -0.114048   1.18671 255 255 255
0.280158 0.105909  2.03827 255 255 255
0.0371982  0.294081   1.68095 255 255 255
0.554968 0.101978  1.88726 255 255 255
0.0648795  0.108489   2.09333 255 255 255
0.230307 0.248277   1.9209 255 255 255
0.314365  0.11759   2.0602 255 255 255
-0.265228 -0.401827   1.80479 255 255 255
 -0.302045 -0.0886453      1.201 255 255 255
-0.894431 -0.401845   1.62741 255 255 255
-0.369713 -0.407156   1.75447 255 255 255
 0.150047 0.0692867   1.34447 255 255 255
0.147707 0.182245  1.97688 255 255 255
 -2.55351 -0.288166   1.88341 255 255 255
 -0.36037 -0.023061   1.16462 255 255 255
  -0.2345 -0.412022    2.7581 255 255 255
-0.493779  0.495064   1.22088 255 255 255
 -0.167978 -0.0291082    1.16488 255 255 255
 -0.361684 -0.0628916    1.17431 255 255 255
 0.218148 -0.137223   2.32038 255 255 255
-0.0652949   -0.11699    1.29943 255 255 255
0.212898 -0.18679  2.35138 255 255 255
 0.131389 -0.118467   2.26078 255 255 255
 -0.234396 -0.0707825    2.34081 255 255 255
 0.0882344 -0.0406717    1.22309 255 255 255
  0.497593 -0.0937587      2.291 255 255 255
-0.235055 -0.301493   2.32135 255 255 255
-0.326156 -0.381383   2.16089 255 255 255
-0.267887  0.272746   1.26138 255 255 255
-0.0188702   0.298635    1.79488 255 255 255
 -0.106934 -0.0394079     1.2328 255 255 255
  0.480167 -0.0654669    2.28534 255 255 255
 0.155074 -0.149584   2.21978 255 255 255
0.249995 0.105037  2.12214 255 255 255
 0.289994 -0.107578   2.29738 255 255 255
  0.276588 -0.0934565    2.31457 255 255 255
0.00679524   0.125965    1.90394 255 255 255
0.0693936 0.0744989   1.28018 255 255 255
0.126258 0.273217   1.6325 255 255 255
 0.330112 0.0893059   2.15683 255 255 255
-0.143815 0.0455909    1.1448 255 255 255
 -0.460032 -0.0338552    1.21524 255 255 255
   0.31876 -0.0331859    2.11088 255 255 255
-0.0879124   0.139972    1.98005 255 255 255
   0.489 0.149032   2.0311 255 255 255
-0.911576 -0.396262    1.6529 255 255 255
 0.175216 -0.111075   1.24615 255 255 255
-0.895156  -1.01464    3.3674 255 255 255
-0.080684  0.134214   2.00651 255 255 255
-0.00160209   -0.212124     1.38158 255 255 255
 0.182024 -0.144691   2.32159 255 255 255
  0.138839 -0.0767739    1.24083 255 255 255
-0.166312   0.00731   1.11447 255 255 255
0.126732 0.172309  1.41249 255 255 255
  0.447158 -0.0811121    2.27696 255 255 255
0.282336 -0.13224  2.28386 255 255 255
-0.0584071 -0.0387993    1.23359 255 255 255
-0.108611 0.0520798   2.17333 255 255 255
 0.113562 -0.172035    1.3599 255 255 255
 -0.168797 -0.0428437    1.18004 255 255 255
 -0.0229665 -0.00687041     2.24983 255 255 255
-0.0569608    0.15333    1.99081 255 255 255
-0.0274177   0.174476     1.8827 255 255 255
 0.0897878 -0.0145834     1.2411 255 255 255
-0.157124 -0.079067   2.36597 255 255 255
-0.399586 -0.397249   2.39411 255 255 255
  0.092561 -0.0670661    1.20907 255 255 255
-0.264076 -0.101674   1.19511 255 255 255
-0.0156868   0.177778     1.9053 255 255 255
0.227276 0.183512  1.60249 255 255 255
 0.166665 -0.144286   2.25174 255 255 255
-0.0028994    0.17921    1.94501 255 255 255
-0.0847596   0.155124    1.98284 255 255 255
 0.0193881 -0.0361889    2.32972 255 255 255
 0.386855 -0.288018    2.5873 255 255 255
  0.15175 0.0325182   1.32582 255 255 255
  0.16758 0.0580163   1.35342 255 255 255
0.0447519  0.126995   1.70457 255 255 255
 0.153393 0.0909713   1.36519 255 255 255
  0.105719 -0.0758448    1.21463 255 255 255
0.220935  0.22364  1.96055 255 255 255
 -0.357284 -0.0129554    1.08523 255 255 255
-0.297132 -0.134355   1.38628 255 255 255
 0.184984 -0.121299   1.25136 255 255 255
 -0.177642 -0.0965941     2.3911 255 255 255
  0.340143 -0.0676403    2.12437 255 255 255
-0.067793 -0.200731   1.36382 255 255 255
 0.314682 0.0910555   2.17107 255 255 255
0.0760114 0.0658791   1.28029 255 255 255
0.303915 0.136941  1.96533 255 255 255
 0.12256 0.166175  2.04877 255 255 255
 0.201757 -0.238584   2.71118 255 255 255
  0.107302 -0.0974941    1.19615 255 255 255
 -1.10671 0.0971878   1.21016 255 255 255
-0.586385  0.688673  0.982813 255 255 255
-0.588689  0.185634   1.19651 255 255 255
  -0.973604 -0.00462313     1.17289 255 255 255
-1.06184 0.198992  1.21211 255 255 255
 -1.15189 0.0771843   1.27207 255 255 255
 -1.07597 0.0291465   1.19345 255 255 255
  -1.14553 -0.0318057    1.29672 255 255 255
-1.16495 0.139582    1.316 255 255 255
 -1.18387 0.0523218   1.34335 255 255 255
 -0.744126 0.00075675    1.18484 255 255 255
  -0.970016 -0.00738632     1.16972 255 255 255
-0.776043   0.55901   1.15606 255 255 255
 -1.0421 0.163246  1.17945 255 255 255
-0.608223  0.446458   1.23511 255 255 255
 -1.10379 -0.225581   1.50667 255 255 255
-0.975815 -0.229552   1.50067 255 255 255
 -0.960374 -0.0388176    1.17089 255 255 255
-0.852914 0.0728289   1.15997 255 255 255
-0.584187  0.571877   1.17459 255 255 255
  -0.763191 -0.00351359     1.20536 255 255 255
-0.834709  0.108963   1.14837 255 255 255
-0.587484  0.512365   1.24508 255 255 255
-1.08016 0.241586  1.21049 255 255 255
-1.02364 0.503891  1.21093 255 255 255
-1.25407 0.325287  1.32726 255 255 255
-0.446387  0.453978   1.42434 255 255 255
 -1.15027 0.0171357   1.30021 255 255 255
 -1.35034 0.0248251   1.74713 255 255 255
-1.14341 0.113751  1.26559 255 255 255
-1.06359 0.225418  1.19523 255 255 255
-1.09784 0.204729  1.22421 255 255 255
-1.13641 0.174434  1.25457 255 255 255
-0.0640717   0.697039    1.09223 255 255 255
-0.472849  0.605496   1.17858 255 255 255
-1.12524 0.181174  1.24063 255 255 255
-0.122436  0.716403   1.04984 255 255 255
-1.14606 0.173224  1.27468 255 255 255
-0.486705  0.216913   1.18164 255 255 255
-0.813521  0.498921   1.23118 255 255 255
 -0.955866 -0.0251098    1.17817 255 255 255
-1.11094 0.183798  1.24034 255 255 255
   -1.01409 -0.00110198      1.1727 255 255 255
-0.968102 -0.226253   1.47046 255 255 255
-0.979174 0.0464923    1.1666 255 255 255
-0.990359 0.0217471   1.15231 255 255 255
 -0.966899 -0.0373335    1.26352 255 255 255
 -0.973144 -0.0373074    1.18183 255 255 255
-0.979793 0.0117129   1.14543 255 255 255
-1.05611 0.160414  1.16978 255 255 255
-0.988077 0.0583298   1.16392 255 255 255
-1.15757 0.139068  1.27694 255 255 255
  -1.0013 0.0232777   1.13915 255 255 255
-0.904913  0.530381   1.15886 255 255 255
-1.04915 0.186629   1.1813 255 255 255
-1.04388 0.163953  1.17242 255 255 255
-0.634853  0.127614   1.17067 255 255 255
-0.45454 0.667464  1.03107 255 255 255
 -1.08159 -0.115402   1.29702 255 255 255
 -0.983892 -0.0281485    1.17356 255 255 255
-0.145487  0.607424   1.25643 255 255 255
0.0588921   0.71439   1.06877 255 255 255
-0.843824  0.487274   1.25156 255 255 255
-0.883761  0.687456  0.923595 255 255 255
 -0.906389 -0.0436739    1.21622 255 255 255
-0.983566  0.616414  0.988665 255 255 255
  -1.0154 0.0393551   1.17541 255 255 255
 -0.948411 -0.0172358    1.23765 255 255 255
-0.93303 0.476614  1.22827 255 255 255
-0.876917 -0.114429   1.33685 255 255 255
-0.978644 0.0055647   1.16177 255 255 255
-0.392042  0.546909   1.30599 255 255 255
-0.170184  0.596187   1.25729 255 255 255
  -1.06301 -0.0109449    1.20292 255 255 255
   -1.05858 -0.00040337     1.21832 255 255 255
-0.471432  0.660315  0.999216 255 255 255
-0.980958 0.0167179   1.15697 255 255 255
 -0.900496 -0.0334256     1.2063 255 255 255
0.101937 0.700666  1.15208 255 255 255
-0.740393  0.510621   1.23269 255 255 255
-1.15151  0.45664  1.20167 255 255 255
-1.15388 0.295081  1.33059 255 255 255
0.0725502  0.730775   1.10582 255 255 255
 -0.966977 -0.0261543    1.24398 255 255 255
-0.673971  0.510048   1.25292 255 255 255
 -1.42072 0.0645876   1.72547 255 255 255
-0.965188  0.306124   1.23684 255 255 255
-0.985163  0.481074   1.21398 255 255 255
 -1.1731 0.127188  1.32207 255 255 255
  -1.05386 -0.0694354    1.34032 255 255 255
-0.259634  0.555924   1.31745 255 255 255
-0.356548  0.565544   1.27603 255 255 255
 -1.40398 0.0743406   1.72827 255 255 255
-0.295029   0.68073    1.0229 255 255 255
-1.3404 0.11538 1.64557 255 255 255
0.0173293   0.68843   1.10517 255 255 255
 -1.18642 0.0677773   1.31449 255 255 255
-1.28108 0.170041  1.53164 255 255 255
-0.849247  0.475128   1.26464 255 255 255
-0.255354  0.578395   1.26238 255 255 255
-1.16483 0.289571  1.34781 255 255 255
-0.877062 -0.141453   2.23584 255 255 255
 -1.3579 0.052529  1.76542 255 255 255
-0.294154   0.60929   1.20728 255 255 255
-0.984242 -0.214211   1.52831 255 255 255
-0.588033  0.519191    1.3017 255 255 255
-0.755871 0.0187912   1.21405 255 255 255
-0.887487 -0.149973   2.22309 255 255 255
-1.08336 0.511588  1.14875 255 255 255
-0.980683  -0.19344   1.51594 255 255 255
-1.34757 0.227097  1.45547 255 255 255
-0.389338  0.559767    1.2647 255 255 255
  -1.01733 -0.0702682     1.3085 255 255 255
-1.33986 0.181449  1.52791 255 255 255
-1.16988  0.31542   1.3335 255 255 255
-1.30577  0.20035  1.48488 255 255 255
-1.18062 0.187855  1.30043 255 255 255
  -1.23012 -0.0153707    1.43177 255 255 255
  -0.9683 -0.231171   1.47158 255 255 255
-0.992858  0.430833   1.28844 255 255 255
 -1.0914 0.402115   1.2964 255 255 255
-0.889304 -0.138775   2.23415 255 255 255
 -1.11865 -0.176377    1.4056 255 255 255
-0.194233  0.579003   1.28234 255 255 255
  -1.0556 0.0341032   1.18438 255 255 255
   -1.24483 -0.00811342     1.92061 255 255 255
-1.22204 0.248726  1.40005 255 255 255
-0.250744  0.557379   1.29369 255 255 255
  -1.2246 0.0068903   1.40752 255 255 255
  -0.990905 -0.00914615      1.2237 255 255 255
-0.736001  0.666366  0.954614 255 255 255
-1.03959 0.489083  1.20531 255 255 255
-0.0130002   0.558318    1.34959 255 255 255
-0.750115  0.676302  0.953039 255 255 255
-0.453495  0.545987   1.28133 255 255 255
-0.385731  0.675235   1.02912 255 255 255
-0.893389 -0.202507   2.17917 255 255 255
-1.17227 0.424382  1.24265 255 255 255
-1.00683  0.48529  1.21151 255 255 255
-0.769427  0.504995   1.24485 255 255 255
-0.0416731   0.559677    1.34777 255 255 255
-0.244603  0.702491   1.00139 255 255 255
-0.906219  0.485122   1.22746 255 255 255
-1.22844 0.225452   1.4237 255 255 255
-0.297016  0.541169   1.32681 255 255 255
 -0.911865 -0.0393934    1.20873 255 255 255
0.0689517  0.712815   1.06847 255 255 255
-0.915627  0.466843   1.30077 255 255 255
-0.0691288   0.545716    1.32915 255 255 255
-0.886869  0.465606   1.27403 255 255 255
-1.27088 0.182315  1.49851 255 255 255
 -1.16097 0.0872977   1.23764 255 255 255
-0.386488  0.664655   1.02085 255 255 255
-0.365409  0.667524   1.02745 255 255 255
-1.00904 0.418389  1.32328 255 255 255
 -1.16485 0.0809268   1.28901 255 255 255
-0.860348    0.6665  0.938777 255 255 255
-1.02185 0.483225  1.20259 255 255 255
-0.119742   0.55784   1.33671 255 255 255
-1.16133  0.29367  1.33768 255 255 255
-0.782155  0.499201   1.25217 255 255 255
-0.977237  0.529169   1.15373 255 255 255
 -0.998951 -0.0496031    1.20654 255 255 255
-0.958474 -0.016864   1.15397 255 255 255
-0.55005  0.53569  1.23982 255 255 255
-1.11743 0.472482  1.19759 255 255 255
-0.970528  0.649293  0.939809 255 255 255
0.0262355  0.687601   1.13165 255 255 255
-0.986337  0.427644   1.31305 255 255 255
-1.09843  0.13034  1.21103 255 255 255
  -1.23669 -0.0189141    1.44546 255 255 255
-0.886463  0.479655   1.24732 255 255 255
-0.97567  0.44081  1.28055 255 255 255
-0.534471  0.505506    1.2383 255 255 255
-0.984944 -0.045441   1.28855 255 255 255
 -1.19792 0.0394625   1.34656 255 255 255
   -1.0842 -0.0255877    1.24811 255 255 255
 -1.31402 0.0779503   1.74789 255 255 255
 -0.1793 0.693951  1.08893 255 255 255
-1.18859 0.351711  1.31049 255 255 255
 -0.82326 0.0360909   1.16134 255 255 255
-0.120575  0.556298   1.32193 255 255 255
-0.764315  0.499407   1.25245 255 255 255
-0.884322  0.507284   1.20174 255 255 255
  -1.03985 -0.0265938    1.21682 255 255 255
-1.14068 0.459923   1.2023 255 255 255
-1.14109 0.460888  1.20174 255 255 255
-0.885555 0.0480423   1.18004 255 255 255
0.0369975  0.540476    1.4201 255 255 255
 -1.31235 0.0750523   1.75116 255 255 255
-1.42074 0.077965  1.70038 255 255 255
 -0.895244 0.00580525    1.19726 255 255 255
  -1.09755 -0.0978866    1.24173 255 255 255
-1.34627 0.118186  1.65021 255 255 255
-0.981528  0.426581   1.31361 255 255 255
-1.19479 0.338832  1.32103 255 255 255
 -0.996766 -0.0583006    1.28732 255 255 255
-0.135506   0.56136   1.32082 255 255 255
-0.824248  0.482781   1.26494 255 255 255
-0.529903  0.506561   1.23085 255 255 255
-1.36852 0.141663  1.61801 255 255 255
-0.924554  0.445541   1.27891 255 255 255
-0.540973  0.501423   1.21823 255 255 255
 -1.39927 0.0473941   1.72219 255 255 255
-0.753587 0.0235163   1.15458 255 255 255
-1.25421 0.285414  1.36524 255 255 255
-1.05664 0.470514  1.21119 255 255 255
-1.38107 0.162113  1.57445 255 255 255
-1.35559 0.130681  1.63107 255 255 255
   -1.15 0.459239  1.20086 255 255 255
-1.02137 0.416253  1.32496 255 255 255
-0.601877  0.535572   1.26755 255 255 255
-0.933912  0.449528   1.28958 255 255 255
-0.865107  0.660833  0.941315 255 255 255
-1.19274 0.352413  1.31255 255 255 255
-0.530641  0.503675   1.23552 255 255 255
-0.908771  0.494125    1.2169 255 255 255
-0.456772  0.389588   1.23206 255 255 255
-0.0209893  0.0673534     1.9323 255 255 255
-0.262694  0.423218   1.30546 255 255 255
 0.160062 -0.141941   1.25625 255 255 255
 0.53263 0.314423  1.74111 255 255 255
-0.278465  0.530424   1.31477 255 255 255
0.231232 0.302764  1.77921 255 255 255
0.144082 0.463217  1.54224 255 255 255
0.410926 0.194052  1.91848 255 255 255
0.0280897 0.0904551   1.27618 255 255 255
 0.373874 0.0760474   2.19522 255 255 255
0.0725339 0.0521712   1.27672 255 255 255
0.113822  0.57261  1.41192 255 255 255
-0.00641358    0.470337     1.48434 255 255 255
-0.171966  0.396977   1.33813 255 255 255
-0.332461  0.567377   1.27548 255 255 255
-0.393358   0.55572   1.20996 255 255 255
-0.0095315   0.564516    1.32623 255 255 255
0.0217997 0.0507719   1.23968 255 255 255
-0.289895  0.605797   1.21552 255 255 255
0.0285254  0.112819   1.29865 255 255 255
-0.000175117     0.371517      1.44502 255 255 255
0.105347 0.384129  1.54676 255 255 255
0.446722 0.390556  1.59862 255 255 255
-0.125346   0.69288   1.12561 255 255 255
0.0357695  0.524983   1.41542 255 255 255
0.0122838  0.209602   1.35893 255 255 255
-0.0129536   0.567228    1.43199 255 255 255
-0.449508  0.323893   1.22899 255 255 255
-0.12172 0.521148  1.41043 255 255 255
-0.0987252 -0.0195044    1.22806 255 255 255
  0.369552 -0.0701843    2.27676 255 255 255
 0.0579345 -0.0325977    1.20921 255 255 255
  0.18848 -0.127105   1.25281 255 255 255
0.473355 0.205719  1.83714 255 255 255
0.193191 0.258839  1.61212 255 255 255
0.0862226  0.456579    1.5493 255 255 255
0.272801 0.133502  2.11688 255 255 255
0.349085 0.433526   1.6327 255 255 255
-0.118308    0.5489   1.29977 255 255 255
-0.0881591  0.0674839    1.18605 255 255 255
0.550054 0.279005  1.86184 255 255 255
0.123253 0.435314  1.49986 255 255 255
  0.320077 -0.0234397    2.15384 255 255 255
0.233578 0.499715  1.52792 255 255 255
0.114422 0.327986  1.64239 255 255 255
-0.0998093   0.585977    1.31387 255 255 255
-0.0917578   0.575673    1.30793 255 255 255
-0.0349194   0.183807    1.89416 255 255 255
0.170434 0.158728  1.62128 255 255 255
 0.21739 0.544575  1.42123 255 255 255
0.0586337   0.38096   1.48716 255 255 255
  0.277249 -0.0508669    2.05442 255 255 255
0.322877 0.501218  1.53606 255 255 255
   0.14536 -0.0547687     1.2657 255 255 255
0.0959524 -0.122875   1.52388 255 255 255
0.0233367  0.140516   1.29923 255 255 255
0.138113 0.554486  1.35574 255 255 255
0.354924 0.314108  1.70467 255 255 255
0.479338 0.311663  1.71929 255 255 255
0.00035304 -0.0324597    1.20473 255 255 255
0.0830032  0.410977   1.52392 255 255 255
 0.070054 -0.087339   1.17793 255 255 255
 -0.106845 -0.0155547    1.16426 255 255 255
0.400807 0.176787  1.93097 255 255 255
-0.0731927   0.139198    1.24228 255 255 255
0.0404259 0.0376934   2.19617 255 255 255
-0.226989 0.0253698    2.1836 255 255 255
 0.171658 -0.125343   1.25559 255 255 255
 0.296676 0.0250559   2.07749 255 255 255
0.0189035  0.311042    1.4143 255 255 255
0.0293964   0.11592   1.92678 255 255 255
0.297683 0.287105  1.82375 255 255 255
 0.18337 0.079879  2.06391 255 255 255
0.529698 0.347654  1.70564 255 255 255
-0.0956263   0.487917    1.46475 255 255 255
-0.0804595  0.0866897    2.11572 255 255 255
0.0677367 0.0120478   1.24295 255 255 255
0.227019 0.524938  1.42974 255 255 255
 0.453869 0.0269467   2.28974 255 255 255
-0.209045  0.166736    1.2078 255 255 255
-0.0502054 -0.0774304    1.21514 255 255 255
-0.221783  0.513702   1.39173 255 255 255
0.197674 0.282529  1.86003 255 255 255
 0.369634 0.0879447   2.11751 255 255 255
-0.158906    0.4976   1.43005 255 255 255
  0.123819 -0.0933271    2.20338 255 255 255
0.211976  0.44295  1.53369 255 255 255
0.0853832 -0.119753   1.50493 255 255 255
-0.00358924  -0.0365412      1.2161 255 255 255
0.409052  0.27611  1.76456 255 255 255
0.204201 0.386839  1.70164 255 255 255
-0.366565  0.101585    1.1315 255 255 255
 -0.098063 -0.0215784    1.21776 255 255 255
0.230115 0.408962  1.61465 255 255 255
 -0.138486 -0.0957426    2.40891 255 255 255
 0.22511 0.392971  1.56252 255 255 255
0.408712 0.433754  1.55878 255 255 255
0.309965 0.111991  2.05218 255 255 255
0.412095 0.079176  2.22727 255 255 255
0.358781 0.377492  1.71373 255 255 255
-0.144738  0.589983   1.28132 255 255 255
0.416044  0.29284  1.74091 255 255 255
 0.0729836 -0.0722006    1.19374 255 255 255
-0.0406805   0.571652    1.32113 255 255 255
 0.456698 0.0894153   2.19575 255 255 255
 0.455596 0.0950575   2.21525 255 255 255
-0.00948781  -0.0481909     1.22307 255 255 255
0.0329672  0.518041   1.44524 255 255 255
-0.137269  0.541358   1.37582 255 255 255
 0.23691 0.416529  1.64668 255 255 255
  0.165857 -0.0545555    1.32391 255 255 255
 0.315897 -0.053804   2.07851 255 255 255
 -0.104578 -0.0625873    1.19201 255 255 255
 0.335828 0.0894892    2.1854 255 255 255
 0.0488335 -0.0285832    1.20123 255 255 255
-0.18823 0.555523  1.32749 255 255 255
  0.100597 -0.0475456    1.22998 255 255 255
-0.104637  0.114088   2.02645 255 255 255
0.0907741  0.391869   1.53326 255 255 255
 0.18279 0.467906   1.5637 255 255 255
 0.434051 0.0384978   2.30407 255 255 255
-0.149576  0.346992   1.33689 255 255 255
0.553422 0.273953  1.81621 255 255 255
0.195278 0.455777  1.59112 255 255 255
0.0738452  0.378528   1.68905 255 255 255
0.202548 0.544832   1.4207 255 255 255
0.158844 0.105939  1.38201 255 255 255
-0.146905  0.692884   1.06842 255 255 255
0.0703326 -0.155954   1.33829 255 255 255
 -0.111148 -0.0121588    1.19144 255 255 255
0.110133 0.321002  1.49912 255 255 255
0.396855 0.220147  1.87605 255 255 255
 -0.157671 -0.0313135      1.144 255 255 255
 0.230828 -0.186766    2.6419 255 255 255
-0.000823225     0.331039      1.41752 255 255 255
0.190209 0.545134   1.4282 255 255 255
 0.299029 0.0962215   2.11365 255 255 255
0.144059 0.478896  1.48795 255 255 255
-0.160132  0.259403   1.28358 255 255 255
-0.0980618   0.549319    1.35789 255 255 255
0.0976763  0.406405   1.58409 255 255 255
0.215104  0.52487  1.44211 255 255 255
 0.444284 0.0663886   2.25406 255 255 255
-0.0662951 -0.0725197    1.21656 255 255 255
-0.215823 -0.104474   2.34633 255 255 255
-0.359896   0.54792   1.27006 255 255 255
  0.20718 -0.205132   2.66038 255 255 255
0.0887659 0.0667414   2.18334 255 255 255
0.452483 0.153232  2.00804 255 255 255
 0.170767 -0.112541   1.24424 255 255 255
0.383558 0.422297   1.6258 255 255 255
0.164095 0.357129  1.67729 255 255 255
0.110253 0.552812  1.36014 255 255 255
0.0720829  0.485241   1.45765 255 255 255
0.228792 0.477474  1.53457 255 255 255
0.227213 0.480664  1.53777 255 255 255
0.411663 0.105413  2.15194 255 255 255
0.154152 0.567643  1.37673 255 255 255
0.281912 0.407917  1.58908 255 255 255
0.0446934  0.188227   1.62961 255 255 255
  0.386198 -0.0703664    2.25117 255 255 255
 0.112192 -0.215003   2.38592 255 255 255
0.318561 0.108239    2.153 255 255 255
-0.0201952 -0.0933126    1.24941 255 255 255
-0.0917209   0.053615    2.15665 255 255 255
0.544292 0.155282  1.84141 255 255 255
  0.176711 -0.0956829    1.25542 255 255 255
0.252804 0.408191  1.50816 255 255 255
 -0.1073 0.341635  1.34955 255 255 255
0.165674 0.537364  1.39138 255 255 255
0.117051 0.429251   1.5917 255 255 255
0.347799 0.344839  1.70551 255 255 255
-0.00616901    0.505014     1.43181 255 255 255
  0.168882 -0.0455227    1.29017 255 255 255
0.164271 0.549328  1.37744 255 255 255
0.0640612  0.374324    1.6846 255 255 255
-0.0107592   0.433276    1.47979 255 255 255
0.197407 0.537427  1.44401 255 255 255
 -0.108211 -0.0229556    1.20765 255 255 255
 -0.140216 -0.0203718    1.18262 255 255 255
0.212136 0.558173  1.40826 255 255 255
0.469161 0.153613  1.96443 255 255 255
 0.23886 0.477438  1.54336 255 255 255
0.144891  0.51511  1.48042 255 255 255
  0.0378085 -0.00111038     1.63803 255 255 255
0.539862  0.26563  1.77383 255 255 255
0.268899 0.115084  2.14699 255 255 255
0.0600328  0.370553   1.69837 255 255 255
0.0715117 -0.112324   1.46084 255 255 255
0.510681 0.193747  1.84694 255 255 255
0.520084 0.166104  1.84445 255 255 255
0.141673 0.557073  1.40007 255 255 255
0.339399 0.387218  1.66817 255 255 255
0.227745 0.178041  1.91654 255 255 255
0.0714756  0.190101   1.96942 255 255 255
-0.130838  0.691013   1.06425 255 255 255
0.197634 0.199475  1.97303 255 255 255
-0.0434667  -0.104691    1.26619 255 255 255
0.488961 0.295932  1.75486 255 255 255
0.576039 0.222559  1.71853 255 255 255
0.201374 0.163041  1.93176 255 255 255
-0.0802532 -0.0820283    1.22592 255 255 255
-0.40364 0.531509  1.31605 255 255 255
-0.103189  0.420644   1.40476 255 255 255
0.355619 0.326368  1.69546 255 255 255
0.0993393   0.56473   1.38073 255 255 255
-0.204907  0.269511   1.27355 255 255 255
-0.530613  0.540022   1.22203 255 255 255
0.353153  0.36412  1.65763 255 255 255
0.0557006  0.280264   1.41971 255 255 255
0.171782 0.184423  2.01362 255 255 255
0.246127 0.403786   1.4986 255 255 255
-0.481944  0.546397   1.28709 255 255 255
 0.172083 -0.136722   1.26535 255 255 255
-0.0922697   0.151998    1.97495 255 255 255
0.377991 0.183364  1.95512 255 255 255
0.297379 0.127047  1.99202 255 255 255
0.129081 0.569755  1.37666 255 255 255
0.268098 0.417708  1.53382 255 255 255
0.320389 0.223347  1.79764 255 255 255
0.0470868  0.336457   1.45373 255 255 255
-0.0266485 -0.0783442    1.23027 255 255 255
 -0.165088 -0.0222625    1.18174 255 255 255
0.263661 0.093849  2.16002 255 255 255
0.134136 0.527691  1.34971 255 255 255
 0.176608 -0.125351   1.25173 255 255 255
0.0579317  0.349802   1.66564 255 255 255
-0.16857 0.376571  1.30861 255 255 255
   0.1454 -0.110769   1.22442 255 255 255
0.137337 0.560513  1.39239 255 255 255
0.124928 0.403698  1.55614 255 255 255
0.229037 0.492132  1.53343 255 255 255
0.336779 0.417895  1.67389 255 255 255
-0.0587228 -0.0354127    1.24449 255 255 255
0.502447 0.138219  2.07818 255 255 255
 0.176512 -0.215685   2.40527 255 255 255
-0.136829  0.499516     1.443 255 255 255
0.0892699 -0.128609   2.19232 255 255 255
  0.104618 -0.0948713    1.19976 255 255 255
  0.323934 -0.0626069    2.08324 255 255 255
0.0476818 -0.105305   1.24281 255 255 255
-0.102218  0.501986   1.44595 255 255 255
-0.278919  0.543591   1.34522 255 255 255
0.0230034   0.20468   1.91812 255 255 255
 0.131754 0.0561586   2.20871 255 255 255
-0.18437 0.460458  1.36492 255 255 255
 -0.0945466 -0.00172062     1.17082 255 255 255
 0.174402 0.0639722   2.16269 255 255 255
0.0465449 -0.122556   1.22399 255 255 255
 0.52371 0.250589  1.80152 255 255 255
0.262975 0.407504  1.51117 255 255 255
-0.432356  0.539477   1.31195 255 255 255
-0.212024 0.0342079   2.18119 255 255 255
 0.265155 0.0171719   2.07874 255 255 255
0.371963 0.473424  1.56662 255 255 255
0.203958 0.526605  1.44778 255 255 255
0.218812 0.530214   1.4627 255 255 255
0.290933  0.41021  1.64578 255 255 255
0.542058 0.357705  1.73906 255 255 255
  0.0566994 -0.00804998     1.52542 255 255 255
0.00879313  0.0663782    1.24043 255 255 255
-0.227975  0.526446    1.2621 255 255 255
0.205607 0.117282    1.599 255 255 255
-0.151566  0.510989   1.42417 255 255 255
0.331891 0.404826  1.66773 255 255 255
-0.00438994    0.220368      1.8676 255 255 255
0.361052 0.385874   1.6234 255 255 255
0.351599 0.412918  1.62749 255 255 255
 0.16631 0.534737  1.44349 255 255 255
0.0314219  0.546599   1.39453 255 255 255
0.112296 0.550052  1.41197 255 255 255
-0.292036  0.692403   1.06696 255 255 255
0.00897821  0.0658987    1.23979 255 255 255
-0.464451  0.515365   1.33991 255 255 255
-0.0137376   0.191748    1.92504 255 255 255
0.262484 0.382317  1.52426 255 255 255
0.029889 0.331652  1.43183 255 255 255
0.271336 0.384173  1.56787 255 255 255
  0.16035 -0.144644   1.28862 255 255 255
0.473635 0.319368  1.69517 255 255 255
0.208423  0.42272  1.58668 255 255 255
-0.304726  0.549169   1.31661 255 255 255
-0.301435  0.563576    1.3096 255 255 255
