ply
format ascii 1.0
element vertex 1126
property float x
property float y
property float z
property uchar red
property uchar green
property uchar blue
end_header
 0.0975633 -0.0888775    1.20057 255 255 255
-0.0581418   0.130795    2.05475 255 255 255
-0.0675731  0.0522802    2.21136 255 255 255
-0.0535221 -0.0253858    1.23782 255 255 255
0.0748864  0.156469   1.34549 255 255 255
-0.566752 -0.409345    1.6401 255 255 255
0.367525 0.207268   1.8625 255 255 255
0.294445 0.345602  1.76251 255 255 255
0.182581 0.361836  1.76419 255 255 255
0.230166 0.149535  1.96417 255 255 255
 0.44334 0.319556  1.70668 255 255 255
0.548572 0.315837  1.73253 255 255 255
0.714187 0.256836   1.7396 255 255 255
-0.431913  0.567318    1.2439 255 255 255
0.359973 0.250921   1.7979 255 255 255
0.276574 0.511183  1.51006 255 255 255
 0.0290738 0.00664057    1.22423 255 255 255
-0.076869 -0.139956     1.311 255 255 255
  -0.295742 -0.00257673     1.08863 255 255 255
0.0461887  0.387393   1.53633 255 255 255
 0.482268 -0.280968    2.8496 255 255 255
-0.256737 -0.116484   1.18358 255 255 255
-0.269558 -0.308462   2.76595 255 255 255
-0.279246 -0.310909     2.784 255 255 255
 -0.20335 -0.210952   2.56105 255 255 255
-0.374743 -0.067223   1.19179 255 255 255
-0.187088 -0.108674   1.21656 255 255 255
 0.0444879 -0.0122818    1.59118 255 255 255
0.150633 0.503965   1.4921 255 255 255
0.0219669 0.0532396   1.22592 255 255 255
 -0.144601 -0.0114837    1.13166 255 255 255
  0.110687 -0.0387302    1.23809 255 255 255
 0.360801 -0.251508   2.68856 255 255 255
0.0757802 -0.103272   1.20549 255 255 255
-0.0236427  -0.198442    1.36868 255 255 255
-0.0819803  0.0703808    1.17994 255 255 255
0.0147796 -0.199235   1.57043 255 255 255
 0.041948 -0.174223   1.36291 255 255 255
0.667975 0.171122  1.75599 255 255 255
0.00830975  -0.785139    3.00967 255 255 255
-0.114984 0.0733126   1.16235 255 255 255
-0.399205 -0.130966   2.44906 255 255 255
-0.384525 -0.187939   2.50456 255 255 255
-0.133684   0.17193    1.2277 255 255 255
-0.229952 -0.130257   1.18489 255 255 255
-0.161618  0.181905   1.21789 255 255 255
 0.182278 -0.145344   2.29365 255 255 255
0.00870636   0.239955    1.35689 255 255 255
0.0959989  0.397078   1.65382 255 255 255
  0.21063 -0.678261   3.03117 255 255 255
-0.395565  0.307593    1.2184 255 255 255
 -0.158722 -0.0662489    2.38703 255 255 255
-0.193897  0.411138   1.32336 255 255 255
 -0.150634 -0.0529459     1.1824 255 255 255
-0.084971 -0.505549   3.04447 255 255 255
-0.306563 -0.393559    2.3888 255 255 255
0.680987 0.338292  1.74032 255 255 255
-0.235318   0.02032   2.24251 255 255 255
-0.153344  -0.76856   2.89264 255 255 255
-0.00146127    0.337091     1.41526 255 255 255
-0.291479 -0.369604    2.5195 255 255 255
0.0113527 -0.732355   3.00455 255 255 255
-0.0472201  -0.353583    2.74495 255 255 255
0.0520266 -0.071612   1.19733 255 255 255
0.309524 0.483093   1.5482 255 255 255
-0.194054 -0.103855   2.42889 255 255 255
  -0.324877 -0.00990265     2.35107 255 255 255
-0.474472 -0.253868   2.53755 255 255 255
0.0851766  0.519689   1.45956 255 255 255
0.512577 0.413823  1.51803 255 255 255
-0.260169 -0.415106   1.81665 255 255 255
0.716485 0.233637  1.74924 255 255 255
0.302724 0.133613  2.02315 255 255 255
-0.0628205 -0.0804386    1.24974 255 255 255
 -0.252868 -0.0967286    2.40979 255 255 255
 -0.149009 -0.0263964    1.16614 255 255 255
0.0294555  0.233488   1.36681 255 255 255
 -0.11436 -0.521487   2.93658 255 255 255
-0.265563 -0.408068   2.85275 255 255 255
 0.588386 0.0825465   1.92419 255 255 255
0.249298 0.177448  1.91613 255 255 255
-0.336869 -0.423109   2.84199 255 255 255
-0.435443  0.234941   1.18559 255 255 255
-0.0968749  -0.817046    2.91414 255 255 255
-0.716813 0.0186647   1.18108 255 255 255
0.0154601 -0.605654    3.0105 255 255 255
-0.542283 -0.695229   3.26155 255 255 255
-0.307487  -0.19965   2.55955 255 255 255
  0.170122 0.00254539    1.31924 255 255 255
-0.419863  0.240909   1.19906 255 255 255
-0.129129 -0.058918   1.19196 255 255 255
0.0951531  0.376591   1.70467 255 255 255
-0.316372  0.382551   1.27152 255 255 255
-0.382288 -0.823337   3.16533 255 255 255
 0.275686 -0.329976   2.57956 255 255 255
 0.276207 -0.330237   2.57874 255 255 255
-0.244943 -0.386368   1.82004 255 255 255
 -0.3781 0.277836  1.20191 255 255 255
 -0.154491 -0.0834983     1.2275 255 255 255
 -0.144895 -0.0934529    1.23977 255 255 255
-0.0558484    0.51626    1.41257 255 255 255
-0.0575424   0.518093    1.41632 255 255 255
 0.227366 -0.903969   3.19543 255 255 255
-0.266708  -0.51223   3.01249 255 255 255
-0.199649  0.153901   1.19117 255 255 255
 -2.54954 -0.244638   1.89939 255 255 255
-0.0545896  -0.811669    2.88541 255 255 255
-0.325905 -0.342837    2.1498 255 255 255
  -0.161212 -0.00615263     1.11895 255 255 255
0.338952 -0.74449  3.19447 255 255 255
-0.174774 -0.118798   2.49645 255 255 255
 0.373447 -0.338208   2.58441 255 255 255
-0.282124 -0.480277   3.05381 255 255 255
-0.0214919  -0.556821     3.1803 255 255 255
  0.58591 0.0528583   1.89162 255 255 255
 -0.29665 -0.627611   3.11366 255 255 255
0.154551  0.13931  1.40134 255 255 255
0.212356 -0.27129  2.56974 255 255 255
 0.283067 -0.666917   3.16886 255 255 255
0.0777024 -0.743267   2.99052 255 255 255
-0.447983 -0.148885   2.49425 255 255 255
 -0.320673 -0.0377944     2.3781 255 255 255
-0.0470734  -0.328274    2.64291 255 255 255
-0.0483948  -0.328599    2.64612 255 255 255
0.578962 0.011735  1.88796 255 255 255
 0.32837 -0.35333  2.60168 255 255 255
 0.543847 -0.415846   2.75929 255 255 255
-0.0821485  -0.100369    1.24702 255 255 255
-0.214818 0.0732701   2.14033 255 255 255
 0.180674 -0.250892   2.66136 255 255 255
 0.261904 -0.654787   3.10873 255 255 255
0.0997157 -0.145645   2.28715 255 255 255
-0.165105  -0.12645   1.23775 255 255 255
-0.328959 0.0156878   1.12363 255 255 255
  0.7883 0.110714  2.23286 255 255 255
 0.429076 -0.154341   2.29333 255 255 255
0.840116 0.221553  1.97151 255 255 255
0.134184 0.307359  1.50157 255 255 255
 0.296366 -0.500341   2.97421 255 255 255
0.0538094  0.412038   1.50027 255 255 255
0.0138479  -0.21313   1.38456 255 255 255
0.102043 0.397418  1.52642 255 255 255
-0.0414323  -0.197028    1.34804 255 255 255
0.0702154 0.0921259   1.29794 255 255 255
-0.183932 0.0842226   1.15686 255 255 255
 0.304558 -0.811634   3.21465 255 255 255
-0.00622831   -0.180497     1.32099 255 255 255
0.0646471  0.175988   2.06141 255 255 255
-0.307155 -0.476744   3.04195 255 255 255
 0.273841 -0.883082    3.0955 255 255 255
  0.58418 0.0329323   1.87933 255 255 255
0.485545  0.29494  1.76317 255 255 255
0.043688 0.367019  1.71681 255 255 255
-0.077412  -0.47458   3.11347 255 255 255
-0.204417 -0.116186   1.24037 255 255 255
-0.226554 -0.120724   1.20965 255 255 255
-0.302221  -0.42984   1.79896 255 255 255
-0.069289 -0.783144    2.9764 255 255 255
0.0252705 0.0140882   2.38865 255 255 255
0.0256091 -0.640868   2.95371 255 255 255
0.687924 0.189538  1.73198 255 255 255
 0.589805 0.0949923   1.89748 255 255 255
-0.698392 -0.332847   1.65229 255 255 255
-0.0552627 -0.0881593    1.25559 255 255 255
 0.167047 0.0175509   1.33199 255 255 255
 0.152067 -0.148569   2.26571 255 255 255
-0.783013  0.496535   1.27982 255 255 255
0.0323356 -0.191049    1.3935 255 255 255
-0.0970699  -0.542339    2.95514 255 255 255
  -1.89143 -0.0115422    1.58352 255 255 255
-0.00405083    0.144378     1.77672 255 255 255
-0.00784126  -0.0695846     1.23443 255 255 255
 -0.0890473 -0.00300009     1.14855 255 255 255
 0.104759 -0.092961   1.20123 255 255 255
0.450829 0.203164  1.92228 255 255 255
 0.457356 -0.367073   2.67426 255 255 255
-0.735574 0.0229789   1.17289 255 255 255
-0.0370085   -0.69957    3.01393 255 255 255
-0.454688 -0.170751   2.51365 255 255 255
  0.174321 -0.0539008    1.29004 255 255 255
 0.759267 0.0300642   2.08317 255 255 255
 0.0869173 -0.0876995    1.18626 255 255 255
0.848626 0.194091  1.97989 255 255 255
0.498063    0.268  1.82736 255 255 255
0.441034 0.261661  1.79951 255 255 255
  -0.21463 -0.0400131    1.13958 255 255 255
-0.230955  -0.26616   2.29918 255 255 255
-0.381289  0.216279   1.17589 255 255 255
 0.166749 -0.790926   3.17023 255 255 255
-0.427619 -0.372974   2.39709 255 255 255
-0.162067 -0.497732   3.02067 255 255 255
 -2.21277 -0.172278   1.68597 255 255 255
 -0.183076 -0.0591379    1.19837 255 255 255
0.612429  0.11319  1.91609 255 255 255
 0.353673 -0.808656   3.14285 255 255 255
 -0.173671 -0.0689851    1.18247 255 255 255
-0.290165  -0.39146   2.40795 255 255 255
 0.291205 -0.772763   3.11069 255 255 255
  0.18538 -0.113972   1.25032 255 255 255
-0.785119 -0.320116   1.58381 255 255 255
 0.226947 -0.252158   2.63303 255 255 255
0.441787 0.200405  1.91458 255 255 255
-0.0788962  0.0256836    2.23825 255 255 255
-0.0969724  -0.579677    2.88839 255 255 255
 -0.1327 0.112959  2.06736 255 255 255
0.258069 0.509758  1.50849 255 255 255
-0.360671 -0.349465   2.37309 255 255 255
-0.386448 -0.372491   2.39569 255 255 255
-0.538392 -0.314282   1.62415 255 255 255
   -2.0374 -0.0782944    1.68085 255 255 255
-0.131235 -0.078084   1.19797 255 255 255
 -0.112149 -0.0381501    1.22285 255 255 255
  0.28784 0.0793952   2.17432 255 255 255
-0.0882185  -0.513986     3.1624 255 255 255
-0.178243 -0.627082   2.93701 255 255 255
 0.277492 -0.331336   2.59937 255 255 255
0.491024 0.314883  1.72789 255 255 255
-0.0727006 -0.0576297    1.20941 255 255 255
 -0.348928 -0.0467032     2.3562 255 255 255
 0.24993 0.202008  1.62642 255 255 255
 0.269383 -0.627902   3.16932 255 255 255
0.224057 0.266265  1.87424 255 255 255
0.0688185  0.382589   1.66924 255 255 255
-0.268898  -0.46336   2.00388 255 255 255
-0.449921 -0.198151   2.53909 255 255 255
 -0.176161 -0.0597013    1.17796 255 255 255
-0.284251 -0.428816   1.79311 255 255 255
  0.52227 -0.345845    2.7381 255 255 255
-0.0950805  -0.354143    2.65546 255 255 255
-0.398345 -0.878231   3.17833 255 255 255
 0.0824682 -0.0816771     1.1797 255 255 255
  0.158191 -0.0590851    1.26535 255 255 255
-0.0485552 -0.0953589    1.26052 255 255 255
-0.217213 -0.231148   2.32067 255 255 255
0.853282 0.223713  1.99235 255 255 255
-0.323017 -0.289215   2.34617 255 255 255
0.0440943 -0.312677   2.60771 255 255 255
   0.4403 -0.334849   2.61953 255 255 255
 -2.17137 -0.176304   1.70568 255 255 255
-0.296261  0.469455   1.29137 255 255 255
-0.275343 -0.204712   2.39754 255 255 255
-0.391548  0.203093    1.1821 255 255 255
0.00961137  -0.660182    2.96595 255 255 255
 0.404405 -0.700713   3.20249 255 255 255
 0.359216 -0.331797   2.55999 255 255 255
0.159878 0.488284  1.51745 255 255 255
-0.322238 -0.345136   2.34083 255 255 255
-0.0274881  -0.181837    1.36526 255 255 255
 -0.112206 -0.0341026    1.21158 255 255 255
 -0.124205 -0.0683732    1.21834 255 255 255
-0.495735 -0.722531   3.20474 255 255 255
-0.414557 -0.378144   2.91163 255 255 255
-0.287202  0.445916    1.2843 255 255 255
 0.197133 -0.133538   2.29627 255 255 255
-0.189414 -0.176144   1.37704 255 255 255
 0.434518 0.0868714   2.24146 255 255 255
 0.198669 -0.228263   2.70382 255 255 255
 -0.40695 -0.271573     2.398 255 255 255
0.479139 0.339543  1.69422 255 255 255
0.145629 0.238648  1.45996 255 255 255
-0.115779 -0.619116   2.89218 255 255 255
 0.536849 -0.385043   2.73943 255 255 255
 -0.198128 -0.0526693     1.1604 255 255 255
0.162695 0.102189  1.38712 255 255 255
  0.13491 -0.858347   3.09098 255 255 255
 0.353835 -0.815379   3.24252 255 255 255
 0.767774 0.0320293   2.08527 255 255 255
-0.500288  0.416243   1.24895 255 255 255
-0.0721251 -0.0830234     1.2303 255 255 255
-0.0616798 -0.0695405    1.23424 255 255 255
0.0290026 -0.190799   1.37993 255 255 255
0.0782414  0.049113   1.62153 255 255 255
 -0.13158 -0.496968   3.01579 255 255 255
-0.190826 -0.128681   1.27327 255 255 255
 0.308716 -0.374593   2.61272 255 255 255
 -0.188694 -0.0496413     1.1765 255 255 255
 -0.20702 0.0101778   1.11504 255 255 255
0.443126 0.301577   1.7492 255 255 255
-0.0580269  -0.474443    3.12088 255 255 255
 0.450916 -0.312357   2.61592 255 255 255
 0.196251 -0.208339   2.71482 255 255 255
0.0535141  0.144183   1.31777 255 255 255
0.0772396 -0.155889   1.34049 255 255 255
0.213232 0.296162  1.86297 255 255 255
-0.0653658  -0.839909    2.98418 255 255 255
-0.277305   -0.3314   2.82181 255 255 255
 -0.451072 -0.0828335    1.23521 255 255 255
0.0234892 -0.504241   3.08968 255 255 255
0.0131504 -0.804061   2.91775 255 255 255
-0.0113571  -0.185656    1.37343 255 255 255
0.652733 0.198016   1.7347 255 255 255
 -0.26666 -0.355364   2.36855 255 255 255
-0.264765 -0.168659   2.57251 255 255 255
-0.334646 -0.177755    2.5062 255 255 255
-0.531702 -0.326172   1.62747 255 255 255
-0.178124 -0.356309   2.75417 255 255 255
-0.453516  -0.23468   2.55721 255 255 255
 0.215926 -0.736559   3.16155 255 255 255
  -0.19738 -0.0900134    2.40126 255 255 255
 -0.128248 0.00228844    1.12155 255 255 255
-0.0880499 -0.0133113    1.16094 255 255 255
-0.163628 -0.156142   2.52101 255 255 255
0.0241947  0.387272   1.46497 255 255 255
-0.424174 -0.231427   2.41095 255 255 255
 0.310066 -0.492896   3.01643 255 255 255
 0.118893 -0.070014    1.2277 255 255 255
-0.0959336 -0.0907452    1.24986 255 255 255
-0.235815 -0.441308   2.70997 255 255 255
 -0.23386 -0.325541   2.37832 255 255 255
 0.30086 0.243651  1.81858 255 255 255
0.470618 0.292269  1.75163 255 255 255
-0.421166 -0.149378   2.48723 255 255 255
0.597865 0.126102  1.89724 255 255 255
0.0422291 -0.279275   2.60426 255 255 255
 0.531664 -0.405367   2.72626 255 255 255
-0.320835 -0.411758   2.78502 255 255 255
-0.249429  -0.47181   2.72304 255 255 255
0.0686332 0.0510974   1.26504 255 255 255
 -0.192757 -0.0761613    1.21204 255 255 255
-0.0843104   0.083778    2.15957 255 255 255
 0.502044 -0.458438    2.7599 255 255 255
 0.333818 -0.753877   3.20309 255 255 255
-0.122685 -0.057164   1.18884 255 255 255
-0.0592371 -0.0687408    1.21119 255 255 255
0.0841714 0.0723204   1.29439 255 255 255
-0.452334 -0.566341   2.89165 255 255 255
 0.11802 0.450334   1.5691 255 255 255
0.00960192  0.0202732    2.31111 255 255 255
-0.388965  0.254923   1.19661 255 255 255
 -0.031738 -0.0117829    2.31765 255 255 255
  0.126615 -0.0723463    1.23194 255 255 255
0.186352 -0.11637  1.25161 255 255 255
-0.393239 -0.703762   3.12739 255 255 255
 -0.23544 -0.390001   1.81936 255 255 255
-0.335911 -0.273311   1.59541 255 255 255
  0.106574 -0.0985229    2.23085 255 255 255
0.524207 0.264235  1.82493 255 255 255
-0.749546 0.0482736   1.17285 255 255 255
 0.1481 0.22034 1.44956 255 255 255
 0.165959 0.0559844   1.35384 255 255 255
0.0328033  0.134313   2.08789 255 255 255
  0.401206 -0.0870466    2.24485 255 255 255
  0.182909 -0.0944309    1.26495 255 255 255
-0.175348 -0.100268   1.25462 255 255 255
0.0541162   0.37414   1.70432 255 255 255
0.00819373  -0.659765    2.90465 255 255 255
-0.169516  -0.23296   2.69874 255 255 255
-0.554849 -0.348247   1.63968 255 255 255
 0.363549 -0.362823   2.60918 255 255 255
  -2.02972 -0.0774816    1.61286 255 255 255
 0.173244 -0.679134   3.00961 255 255 255
0.149139 0.189114  1.43529 255 255 255
0.0730113 -0.263798   2.76986 255 255 255
 0.476255 -0.188066   2.72491 255 255 255
 0.194788 -0.226277   2.71052 255 255 255
-0.432344 -0.381244   2.43544 255 255 255
-0.250324 -0.327302   2.38202 255 255 255
 0.0708535 0.00487776     1.5879 255 255 255
 -0.163044 -0.0831359    2.39364 255 255 255
-0.103928 -0.999603   3.44323 255 255 255
0.0958588  0.106655   2.14756 255 255 255
-0.0723131  -0.447993    3.10036 255 255 255
 0.443852 0.0939788   2.22936 255 255 255
-0.287633 -0.474306   1.98124 255 255 255
0.0664883   0.10792   2.14216 255 255 255
-0.360561 -0.422261   1.79083 255 255 255
 0.660387 -0.227241   2.82096 255 255 255
-0.277551 -0.312573     1.675 255 255 255
0.0450986  0.415225   1.49851 255 255 255
-0.309954 -0.499703   2.01421 255 255 255
 -0.143479 -0.0654096    1.19119 255 255 255
-0.122282 -0.236625   2.72276 255 255 255
0.159096 0.121139  1.39264 255 255 255
-0.269712 -0.314218   2.36216 255 255 255
-0.0749261  -0.135572    1.31816 255 255 255
 0.0168136 -0.0607764    1.59253 255 255 255
 -0.105539 -0.0517407    2.37905 255 255 255
0.685955 0.282397  1.67539 255 255 255
-0.150893 -0.523363   2.93102 255 255 255
0.0431947 0.0631663   1.60165 255 255 255
0.276787  -0.3101  2.58964 255 255 255
 -0.192664 -0.0237401     2.3425 255 255 255
-0.621979 -0.320788   1.63154 255 255 255
-0.343087 -0.186781   2.49424 255 255 255
0.483115 -0.11633  2.27294 255 255 255
  0.178152 -0.0315136    1.30601 255 255 255
 0.451207 -0.132463   2.27514 255 255 255
-0.108528 0.0787585   2.14663 255 255 255
0.0896123 -0.257095   2.77507 255 255 255
0.606827 0.106321  1.92325 255 255 255
-0.0670551   0.079452    1.19759 255 255 255
-0.420742 -0.255652   1.54864 255 255 255
-0.095302 -0.570654   2.90859 255 255 255
-0.227217 -0.424503   2.79306 255 255 255
-0.407908  0.169298   1.17178 255 255 255
0.0677313   0.25244   1.39636 255 255 255
0.0521359 0.0215404   1.54403 255 255 255
-0.00743129  -0.0137242     1.18701 255 255 255
0.571162 0.312003  1.74341 255 255 255
0.046947 0.347373  1.44525 255 255 255
0.153496 0.366494   1.7365 255 255 255
-0.132042  -1.01942   3.48459 255 255 255
0.057643 0.154865   1.3294 255 255 255
 -0.363873 -0.0661224    1.20453 255 255 255
0.505483 0.265231  1.81854 255 255 255
 -0.331799 -0.0538497    2.35744 255 255 255
-0.241838 -0.312102   2.34273 255 255 255
 0.166456 -0.149078   2.27207 255 255 255
-0.137569 -0.067819   1.24018 255 255 255
 -0.251108 -0.0900529    1.20462 255 255 255
-0.342009 -0.370755   1.76947 255 255 255
 0.355318 -0.860789   3.14712 255 255 255
-0.376781 -0.109034    2.4194 255 255 255
    0.2655 -0.0908256    2.32015 255 255 255
0.0550431  0.236304   1.38373 255 255 255
0.440774 0.296002  1.75229 255 255 255
0.531639 -0.19944  2.74501 255 255 255
0.292715 0.194709   1.8948 255 255 255
 0.236709 -0.347973   2.55906 255 255 255
-0.353591 -0.169089   2.51721 255 255 255
 0.364562 -0.657906   3.18931 255 255 255
-0.242213 -0.419216   2.80345 255 255 255
 0.168023 -0.111883   2.19353 255 255 255
-0.121658 0.0178965   2.24739 255 255 255
-0.290041 -0.202855   2.37698 255 255 255
-0.352402 -0.114339   2.44302 255 255 255
 0.453595 -0.359585   2.62329 255 255 255
 0.231103 -0.681681   3.01898 255 255 255
 0.112473 -0.509447   2.94357 255 255 255
-0.199229  -0.24715   2.34566 255 255 255
 -0.187235 -0.0711012    1.18186 255 255 255
0.208845 -0.15615  2.27738 255 255 255
 0.602238 -0.448834   2.75297 255 255 255
-0.368525 -0.491388    2.8311 255 255 255
  0.27298 -0.574789   3.03604 255 255 255
0.123704 0.219196  1.43222 255 255 255
-0.230845 -0.324268   2.40517 255 255 255
-0.370208  -0.38743   1.76872 255 255 255
0.0448199  0.511799   1.45508 255 255 255
-0.109681  -0.26165    2.6381 255 255 255
-0.306829 0.0156626   1.09924 255 255 255
 0.274096 -0.767736   3.11681 255 255 255
-0.478085 -0.183615   2.52337 255 255 255
 -0.368925 -0.0525598    1.18978 255 255 255
 0.165618 -0.139013   2.27261 255 255 255
-0.0737171   0.169036    1.98473 255 255 255
 0.353023 -0.699834   3.22054 255 255 255
 0.140476 0.0775457   2.22316 255 255 255
-2.65701 -0.38914  2.24289 255 255 255
-0.380617 -0.361849   2.41174 255 255 255
  0.55437 -0.414286   2.77753 255 255 255
 0.0983202 -0.0260624    1.23888 255 255 255
-0.317477 -0.362585   2.37678 255 255 255
 -0.387334 -0.0974846    2.40435 255 255 255
 0.530222 -0.309196   2.93297 255 255 255
-0.313013 -0.396082   1.78932 255 255 255
-0.349604  0.275243   1.23873 255 255 255
-0.0311458 -0.0818462    1.64834 255 255 255
0.219656 -0.13718  2.34059 255 255 255
-0.109917  -0.29575   2.60153 255 255 255
0.093842 0.172813  1.62346 255 255 255
-0.087802  0.182639   1.25471 255 255 255
-0.0770082 -0.0723032    1.22992 255 255 255
 0.167493 0.0215319   1.32141 255 255 255
0.204873 0.291588  1.88929 255 255 255
 0.278837 -0.106251   2.31149 255 255 255
0.0642585 -0.158035    1.4619 255 255 255
 0.346453 -0.715392   3.09779 255 255 255
 -0.132822 -0.0651928    1.20205 255 255 255
  0.0404511 -0.00886052     2.33431 255 255 255
0.251963 0.472497  1.54453 255 255 255
0.132384 0.316867  1.51329 255 255 255
-0.0480299  0.0650424    1.19667 255 255 255
-0.550855 -0.393938    1.7001 255 255 255
 0.521231 -0.362673   2.74508 255 255 255
-0.306143 -0.401992   1.81079 255 255 255
-0.534691 -0.661739   3.22463 255 255 255
-0.552599 -0.229346    1.4906 255 255 255
-0.220941 -0.269245   2.75488 255 255 255
-0.102702 -0.215657    2.6822 255 255 255
-0.554352 -0.393463   1.69256 255 255 255
 -0.240503 -0.0925102     1.2089 255 255 255
-0.0550474 -0.0951012    1.24927 255 255 255
-0.199377 0.0264334   2.24022 255 255 255
0.201775 0.216175  1.97579 255 255 255
 0.574355 -0.489129   2.76849 255 255 255
-0.178213 0.0136508    1.1141 255 255 255
-0.250791 -0.415092   1.85597 255 255 255
0.716568 0.346128  1.71778 255 255 255
 0.594705 -0.138447   2.66118 255 255 255
 0.22202 0.300217   1.8559 255 255 255
 0.29737 -0.73155  3.09928 255 255 255
-0.101414 -0.117239   1.28797 255 255 255
0.140026  0.04595  2.23756 255 255 255
-0.549222 -0.335497   1.63062 255 255 255
 0.506504 -0.306501   2.91154 255 255 255
-0.720654 -0.117496   1.22358 255 255 255
0.0259606  0.349397   1.44336 255 255 255
 0.384461 -0.726756   3.16999 255 255 255
 0.239197 -0.543911   2.84426 255 255 255
 0.417669 -0.372656   2.60575 255 255 255
0.224559 0.268396  1.89805 255 255 255
  0.23485 -0.111952   2.31263 255 255 255
-0.0979616  -0.309558    2.63654 255 255 255
  -0.153405 0.000750081     1.10824 255 255 255
 0.0850045 -0.0585709    1.20346 255 255 255
 0.244702 -0.583678   3.05472 255 255 255
 0.540919 -0.426521    2.7306 255 255 255
 -0.213727 -0.0295835    1.14045 255 255 255
-0.0860948   0.137617    2.03401 255 255 255
 0.169755 -0.915027   3.14796 255 255 255
-0.335968 0.0169735   2.35665 255 255 255
0.0618725  0.368883   1.70706 255 255 255
 0.431631 -0.297238   2.58297 255 255 255
-0.154308 -0.159084   2.56436 255 255 255
0.0941828  0.138303   2.09606 255 255 255
-0.282273 -0.440305   1.80492 255 255 255
 0.053877 -0.282001   2.60262 255 255 255
-0.248087  -0.29044   1.63867 255 255 255
-0.340543 -0.425915   1.76663 255 255 255
0.0325962 -0.444978   2.96359 255 255 255
  0.394945 -0.0443527    2.26096 255 255 255
-0.246853  0.258608   1.24746 255 255 255
-0.0895709 -0.0082022    1.15613 255 255 255
 0.047764 0.0661346    2.1921 255 255 255
0.66021 0.29375 1.67545 255 255 255
0.202404 0.390369  1.71637 255 255 255
0.102372 0.407806  1.63908 255 255 255
-0.264333  -0.11374   1.18814 255 255 255
 0.548406 -0.262465   2.85752 255 255 255
0.0550792  0.290376   1.41673 255 255 255
0.0487103  0.293226   1.42429 255 255 255
-0.263004 -0.157616   2.54786 255 255 255
-0.331171 -0.306258   2.33389 255 255 255
0.529274 0.182738  1.85377 255 255 255
-0.0530127  -0.362667     2.6571 255 255 255
-0.609139 -0.769637   3.11848 255 255 255
 0.226556 -0.695551   3.02692 255 255 255
 -0.3462 0.261381  1.22787 255 255 255
-0.326765 -0.182581   2.53903 255 255 255
 0.32341 0.159799  1.95734 255 255 255
0.149495 0.372697  1.73017 255 255 255
 0.54503 0.126668   1.8707 255 255 255
 0.168002 -0.115688   1.29491 255 255 255
 0.602054 -0.476411   2.75075 255 255 255
 0.182892 -0.217166    2.7189 255 255 255
  0.56924 -0.137251   2.64708 255 255 255
-0.167946 -0.515214   3.05796 255 255 255
0.0108126  0.546648   1.38976 255 255 255
 -0.0841375 -0.00424883     1.15325 255 255 255
0.582748  0.10069  1.91814 255 255 255
 0.442665 -0.225216   2.78077 255 255 255
-0.568493 -0.250236   1.51882 255 255 255
0.0647974 -0.278448   2.59951 255 255 255
 0.0732542 -0.0913809    1.46557 255 255 255
0.44193 -0.3839 2.66713 255 255 255
-0.221715 -0.386096   1.81438 255 255 255
-0.822173 -0.665419   3.32072 255 255 255
-0.0627625   -0.35577     2.6608 255 255 255
  0.380441 -0.0231796    2.18567 255 255 255
 0.304093 -0.754751   3.09306 255 255 255
  0.22245 -0.557587    2.8665 255 255 255
-0.246891 -0.740224   3.01513 255 255 255
 0.231961 -0.338982   2.55498 255 255 255
  -0.16615 -0.0717552    2.40475 255 255 255
  0.150789 -0.0146022    1.29252 255 255 255
 0.166227 0.0450279    1.3492 255 255 255
 -0.247254 -0.0971536    1.20585 255 255 255
0.0480281  0.169412   1.32842 255 255 255
0.368425 0.387137  1.71217 255 255 255
0.256713 0.107555  2.03085 255 255 255
 -0.369635 -0.0625418    1.19535 255 255 255
-0.846112 -0.155464   1.29762 255 255 255
  0.372186 -0.0428121     2.1988 255 255 255
0.303116 0.074041  2.19992 255 255 255
0.427753 0.268469  1.80164 255 255 255
  0.397437 -0.0788232    2.24661 255 255 255
 0.301908 -0.692083   3.15785 255 255 255
-0.441311 -0.174977   1.41113 255 255 255
 0.350311 -0.354314   2.61332 255 255 255
 0.248038 -0.751723   3.14304 255 255 255
  0.136182 -0.0875333    1.22919 255 255 255
 -0.253228 -0.0462708    2.32115 255 255 255
0.0946656  -0.89314   3.19254 255 255 255
 0.54896 0.311444  1.74028 255 255 255
  0.418201 -0.0419656    2.28807 255 255 255
0.0904181  0.156957   1.62778 255 255 255
 0.557226 -0.487194   2.76647 255 255 255
 0.130025 0.0613872   2.22739 255 255 255
-0.170535  0.505865   1.42215 255 255 255
-0.348934 -0.368576   2.91514 255 255 255
 0.106185 -0.085143    1.2046 255 255 255
-0.320769 -0.314317   2.32922 255 255 255
-0.322094 0.0126125   1.12725 255 255 255
0.426356 0.314882  1.71023 255 255 255
 0.475398 -0.411929   2.73332 255 255 255
-0.110131 -0.158331    1.3352 255 255 255
-0.278742 -0.292057   2.34456 255 255 255
 0.343212 -0.364497    2.6153 255 255 255
-0.120695  -0.10287   2.45799 255 255 255
-0.0430191  -0.543721    2.91732 255 255 255
-0.236234 -0.476819   1.95992 255 255 255
-0.347927 -0.386053   1.78307 255 255 255
 0.345383 -0.301051   2.57393 255 255 255
 -2.63233 -0.290626   2.00674 255 255 255
 0.289598 -0.537193   3.06551 255 255 255
-0.245423  0.599622   1.23453 255 255 255
0.0620471  0.128032    1.3158 255 255 255
0.0101444 0.0458094   2.22334 255 255 255
-0.369117  0.531808    1.3348 255 255 255
0.0821372 -0.321926    2.6022 255 255 255
0.540927 0.310122  1.73822 255 255 255
-0.0832831   0.145199    2.02531 255 255 255
-0.402655 -0.380315   2.40868 255 255 255
 -0.178595 -0.0268389    1.15932 255 255 255
 0.387814 0.0236178   2.33853 255 255 255
 -2.61337 -0.277625    1.9934 255 255 255
-0.236214  0.598411   1.23696 255 255 255
-0.308119 -0.153853   2.48543 255 255 255
 0.603814 -0.459908   2.74637 255 255 255
0.0733686    -0.154   2.30483 255 255 255
-0.0877056  -0.214825    2.67705 255 255 255
0.159963 0.374071  1.72967 255 255 255
 0.265382 -0.317337   2.55989 255 255 255
  0.13996 0.0961185   1.35671 255 255 255
-0.589977 -0.313477   1.62356 255 255 255
  0.132164 -0.0776399    1.23451 255 255 255
 -0.252983 0.00814825    2.26363 255 255 255
-0.348423 -0.104795   2.42703 255 255 255
0.141831 0.572824  1.37213 255 255 255
-0.194308 -0.167759   1.37705 255 255 255
  -0.167987 -0.00184279     2.33953 255 255 255
-0.236017 -0.131608   1.21804 255 255 255
 0.0122185 -0.0651374    1.19697 255 255 255
 0.560537 0.0845033   2.14569 255 255 255
0.075257 0.215378  1.77924 255 255 255
  0.15346 -0.090252   1.25025 255 255 255
  0.435353 -0.0484456    2.20432 255 255 255
-0.0870398  -0.138888    1.32088 255 255 255
0.0444189    0.1597   1.82939 255 255 255
 0.422636 0.0553418   2.24095 255 255 255
-0.084578 -0.782902   3.06132 255 255 255
-0.225419  -0.12193   2.47607 255 255 255
  0.044518 -0.0122869    1.59119 255 255 255
 -0.160325 -0.0252362    1.18735 255 255 255
  0.134635 -0.0430179    1.27231 255 255 255
-0.411833 -0.327401   2.40968 255 255 255
 0.409072 -0.195382   2.45975 255 255 255
-0.0799063   0.118629    2.10836 255 255 255
 -0.368255 -0.0299794    1.17014 255 255 255
-0.237343 -0.418213   2.92176 255 255 255
-0.0959815  -0.117101    1.26969 255 255 255
 0.414184 -0.294929   2.56816 255 255 255
   -0.1244 -0.0592889      1.233 255 255 255
-0.242449 0.0138579   1.12024 255 255 255
 0.351239 0.0893699   2.20769 255 255 255
 -0.161722 -0.0655797    2.39308 255 255 255
-0.332991 -0.368836   1.76929 255 255 255
 -0.150223 -0.0815069    1.22592 255 255 255
0.0540498  0.204055   1.66815 255 255 255
0.158223 0.100527  2.10922 255 255 255
 -0.178696 -0.0510203    1.20237 255 255 255
   0.47457 -0.0291804    2.37274 255 255 255
 0.504779 0.0701615   2.00333 255 255 255
 0.461162 0.0207917   2.36793 255 255 255
 0.0897384 -0.0852596    1.19632 255 255 255
0.0273188 -0.235004   1.44632 255 255 255
-0.124407  0.194079   1.24528 255 255 255
  0.263266 -0.0143454      2.222 255 255 255
  0.487699 -0.0524151    2.40689 255 255 255
0.0603826 -0.143645     1.481 255 255 255
-0.0572258  0.0900262    1.21272 255 255 255
0.133471 0.129285  2.08597 255 255 255
0.132366 0.130604  2.08974 255 255 255
 -0.327919 -0.0663615    1.20097 255 255 255
-0.128515 -0.675908   2.90372 255 255 255
 0.518037 0.0435469    1.9691 255 255 255
 0.0477417 0.00695559     1.6157 255 255 255
 -0.285661 -0.0762097    1.20464 255 255 255
 -0.170058 -0.0148292    2.29792 255 255 255
0.0719301 -0.137001   2.27807 255 255 255
-0.362035 0.0602053   1.10436 255 255 255
0.272288 0.195355  1.85835 255 255 255
 -0.134524 -0.0563951     1.1946 255 255 255
-0.677113 0.0468061   1.21044 255 255 255
 -0.102758 -0.0720272    1.22717 255 255 255
-0.250993 -0.346657   2.82185 255 255 255
 0.0598453 -0.0878398    2.26188 255 255 255
 0.264135 -0.031529   2.11788 255 255 255
-0.393348 -0.103457   1.21082 255 255 255
-0.0677338  -0.114762     2.5108 255 255 255
 0.311194 -0.110041   2.26423 255 255 255
-0.237763 -0.123304   1.32513 255 255 255
-0.0251848  -0.216196    1.61105 255 255 255
 0.410624 0.0455802   2.32238 255 255 255
 0.494997 -0.220141    2.7546 255 255 255
-0.36692 0.204498  1.18948 255 255 255
 -0.184441 -0.0149695    1.14436 255 255 255
-0.535322  0.154639   1.17823 255 255 255
  0.605246 -0.0545549    1.90357 255 255 255
 0.507822 0.0230657   2.01505 255 255 255
0.0284783 -0.198418   1.57557 255 255 255
 0.326232 -0.239715   2.75963 255 255 255
0.0197146  0.131445   1.90665 255 255 255
  0.466355 -0.0799407    2.30204 255 255 255
-0.844241 -0.331795   1.63383 255 255 255
-0.472113 -0.216255   2.50964 255 255 255
-0.268078 -0.513058   3.01573 255 255 255
 0.154502 -0.101952   1.24208 255 255 255
0.455763 0.162893  2.00775 255 255 255
0.112236 0.187218  1.61543 255 255 255
-0.00183647   -0.187534     1.57483 255 255 255
 0.469198 -0.391657    2.6903 255 255 255
-0.768778 -0.311932    1.6066 255 255 255
-0.0897093   0.163052    1.98181 255 255 255
 0.46783 0.161933  2.03611 255 255 255
 0.162282 0.0548985   2.21432 255 255 255
  0.438799 -0.0312205     2.2892 255 255 255
0.00521731  -0.185557    1.39573 255 255 255
 0.0808856 -0.0164451    2.34835 255 255 255
 0.073947 -0.406802   2.87445 255 255 255
 0.166927 0.0590391   1.35064 255 255 255
-0.0928487  -0.144401    1.33271 255 255 255
  -0.165024 -0.00218996     1.11671 255 255 255
 0.398357 0.0953623   2.10396 255 255 255
 0.376702 -0.373612   2.63547 255 255 255
-0.0932343  -0.481826    2.97213 255 255 255
-0.348931 -0.575982   3.14314 255 255 255
 -0.374737 -0.0230631    1.19353 255 255 255
 0.423137 -0.152192   2.32714 255 255 255
0.0769676  0.171896     2.032 255 255 255
 -0.109236 -0.0402859    1.21087 255 255 255
 0.30784 0.146699  1.97281 255 255 255
 0.295453 -0.474773   2.96651 255 255 255
 0.279261 0.0735882   2.15938 255 255 255
0.171888 0.199838  1.95007 255 255 255
 -0.56706 -0.397733   1.63559 255 255 255
0.325123 0.119242  2.15698 255 255 255
  0.456444 -0.0387117    2.28227 255 255 255
-0.0607834 -0.0427472    1.22771 255 255 255
0.393854 0.130102  2.09479 255 255 255
 -0.284955 -0.0800694    1.18978 255 255 255
0.309936 0.126912  2.11717 255 255 255
  -0.23626 -0.0706696    1.19516 255 255 255
 -0.127607 -0.0678406    1.22075 255 255 255
  0.230643 -0.0625446    2.17948 255 255 255
  0.37735 0.0198498   2.30931 255 255 255
-0.737321  0.510089   1.29344 255 255 255
  0.249313 -0.0904643    2.32036 255 255 255
   0.48727 -0.0940985    2.27068 255 255 255
 0.574451 0.0469498       1.9 255 255 255
-0.205182 0.0106025   1.11445 255 255 255
0.258368 0.118285  2.12011 255 255 255
 0.15447 0.178041  1.41924 255 255 255
 -0.235518 -0.0882385    1.28644 255 255 255
 -0.0689175 -0.00423398     1.16063 255 255 255
0.236868 0.225689  1.94822 255 255 255
   0.12785 -0.0994946    1.21608 255 255 255
-0.0453003    0.15388    1.25887 255 255 255
 -0.366176 -0.0359711    1.18838 255 255 255
 -0.239568 -0.0338041    1.15333 255 255 255
  0.178374 -0.0404597    2.26384 255 255 255
 -0.221764 -0.0742343    1.20297 255 255 255
0.0283483 -0.347998   2.61387 255 255 255
-0.117949  0.139581    2.0193 255 255 255
-0.136592 -0.143518    2.5377 255 255 255
-0.0108159 -0.0690823    1.23653 255 255 255
0.00307757   0.133799    2.08673 255 255 255
  0.317644 0.00532895    2.08498 255 255 255
   0.33012 -0.0644665    2.16874 255 255 255
 -0.332756 0.00530099     1.0969 255 255 255
 -0.27793 -0.348238   2.10951 255 255 255
0.0992598  0.246935   1.55081 255 255 255
 0.556244 -0.134976   2.65607 255 255 255
 0.151941 -0.897602   3.15307 255 255 255
 0.0476177 -0.0343741    1.20189 255 255 255
-0.230979  -0.14319   1.39287 255 255 255
-0.142993 -0.100429   1.25249 255 255 255
-0.0791528 -0.0212353    1.20415 255 255 255
 0.318405 -0.124663   2.30877 255 255 255
-0.0556672 -0.0502177    1.25635 255 255 255
 0.23691 0.194401  1.60946 255 255 255
 0.0805155 0.00228932    1.24448 255 255 255
  0.51604 -0.152702   2.33521 255 255 255
 -0.150841 -0.0440779     1.1928 255 255 255
-0.0747287  -0.318958    2.61311 255 255 255
-0.188515 -0.117372   1.24272 255 255 255
  0.110523 -0.0181744    2.33841 255 255 255
-0.0972544   0.121915    2.06882 255 255 255
  0.168325 -0.0261564    1.29663 255 255 255
  0.12633 0.0458738   2.20971 255 255 255
-0.109464  0.134223   2.04264 255 255 255
 0.334757 -0.146033   2.35214 255 255 255
-0.186239 -0.135094   1.36055 255 255 255
 0.0384898 -0.0518029    1.20895 255 255 255
 -0.221516 -0.0842572    1.22821 255 255 255
 0.130903 -0.158212   2.27432 255 255 255
 0.180817 -0.032432   1.30398 255 255 255
0.0221768  -0.20494   1.38913 255 255 255
 -0.198894 -0.0971552    1.27068 255 255 255
 0.370403 -0.331603   2.58213 255 255 255
 0.147774 -0.104307   1.23092 255 255 255
  -0.21957 -0.0947742    1.22206 255 255 255
0.0101839 -0.202582   1.38459 255 255 255
0.0318563  0.138234   1.29649 255 255 255
0.443827 0.182021  1.90937 255 255 255
 -0.210762 -0.0507291    1.15198 255 255 255
-0.158064 -0.192258   1.37759 255 255 255
   0.470427 1.97454e-05     2.37073 255 255 255
-0.0892552 -0.0516699    1.21078 255 255 255
 0.424595 -0.100663   2.25755 255 255 255
 0.353983 -0.334898   2.58482 255 255 255
-0.146822 0.0814928   2.15546 255 255 255
-0.771913  0.542378   1.30123 255 255 255
 -0.180509 -0.0732072     1.1956 255 255 255
0.226645 0.218467    1.947 255 255 255
0.0615561 -0.198852   1.40946 255 255 255
  0.44276 -0.196437   2.41862 255 255 255
 0.144212 0.0615413   1.40166 255 255 255
-0.0286574  -0.219507     1.6091 255 255 255
  -0.12315 -0.0614252    1.21152 255 255 255
 -0.365221 -0.0168496     1.1325 255 255 255
 0.45039 0.166135  1.90534 255 255 255
 0.409696 0.0359367   2.31405 255 255 255
 0.0955919 -0.0451106    2.28138 255 255 255
-0.230158 -0.328711   2.76531 255 255 255
0.226696 0.295145  1.84364 255 255 255
-0.00574069  -0.0436117     1.22069 255 255 255
-0.455376 -0.471505    2.9155 255 255 255
-0.00584309    -0.21646     1.53296 255 255 255
-0.0723036   0.186445    1.95327 255 255 255
0.287229 0.238012  1.84518 255 255 255
0.375905 0.160943  2.09803 255 255 255
0.0873794  0.265164   1.58832 255 255 255
-0.0257243   0.211173    1.87959 255 255 255
 0.32811 0.207263  1.82465 255 255 255
 0.150881 -0.110698   1.23536 255 255 255
-0.390985  0.427751   1.28318 255 255 255
-0.216667 -0.734345   2.97388 255 255 255
0.236772 0.141316  1.59443 255 255 255
-0.0168676  -0.195815    1.36767 255 255 255
0.00342677  -0.207693    1.56456 255 255 255
 0.307618 -0.509084   3.03242 255 255 255
0.475412 0.158008  1.87755 255 255 255
0.212225 0.151264  1.61328 255 255 255
-0.151983 -0.567341   2.94204 255 255 255
 -0.174025 -0.0894407    1.23928 255 255 255
 -0.214753 -0.0777476    2.39423 255 255 255
-0.0790213 -0.0821125    1.23675 255 255 255
0.155213 0.154563  1.41032 255 255 255
  0.507653 -0.0776924    2.34076 255 255 255
 0.467379 -0.344557   2.68103 255 255 255
 0.462598 -0.100472   2.27266 255 255 255
 0.255221 -0.922886   3.15555 255 255 255
0.0247421  0.209373   1.79925 255 255 255
0.484796 0.149313  2.13475 255 255 255
  0.420681 -0.0319927    2.27955 255 255 255
 -0.277445 -0.0594808    1.16532 255 255 255
  0.177055 -0.0977229    2.24808 255 255 255
  0.17031 0.0849446   1.37033 255 255 255
-0.303445 -0.605709   3.15356 255 255 255
-0.318454 0.0124309   1.12499 255 255 255
0.0507409  0.192533   1.73601 255 255 255
 0.315801 -0.747537   3.18942 255 255 255
  0.204075 -0.0959645    2.40728 255 255 255
 0.294213 -0.120862   2.34266 255 255 255
 -0.18913 -0.311991   2.69723 255 255 255
0.0304586 -0.918008   3.32219 255 255 255
-0.0232069 -0.0806309    1.25588 255 255 255
 0.175402 -0.645776   3.07697 255 255 255
-0.0471137  -0.788236    2.98345 255 255 255
-0.266554   -0.2674   2.74599 255 255 255
  -0.222854 -0.00158087     1.14425 255 255 255
 0.184377 -0.111245    1.2623 255 255 255
0.0111145 -0.723385    2.9009 255 255 255
 0.506841 -0.138745   2.30602 255 255 255
-0.292516 -0.440447   3.08576 255 255 255
-0.165257 -0.120796   1.24553 255 255 255
 0.308202 0.0813231   2.19126 255 255 255
0.0630306 -0.159841   1.35021 255 255 255
-0.384792 -0.456414   2.82834 255 255 255
  0.28239 -0.370335   2.60473 255 255 255
  0.498918 -0.0857213    2.30079 255 255 255
 0.0534479 -0.0920258    2.25264 255 255 255
-0.427533 -0.256463   1.55591 255 255 255
  -0.13626 -0.0835805     1.2337 255 255 255
-0.234991   -0.1256    1.2536 255 255 255
0.179282 0.270166  1.91235 255 255 255
-0.938567 -0.359123   1.62084 255 255 255
-0.0688246 -0.0278985    1.23415 255 255 255
 -0.203861 -0.0444924    1.16967 255 255 255
-0.530218 -0.763511   3.12499 255 255 255
0.283692 0.113683  2.12575 255 255 255
 0.474825 -0.156044   2.31046 255 255 255
0.00766728  -0.550584    2.95703 255 255 255
 0.325068 -0.268141   2.68057 255 255 255
-0.0790708  0.0619199    2.05492 255 255 255
0.0520549  0.169678   2.01626 255 255 255
 0.0797643 0.00568482    2.34168 255 255 255
 0.351825 -0.480935   3.04954 255 255 255
0.169396 0.267464  1.90393 255 255 255
-0.204741 -0.241427   2.36284 255 255 255
 0.171821 0.0842148   2.20823 255 255 255
-0.0329951 -0.0846759    1.26108 255 255 255
 -0.11481 -0.015084   1.21347 255 255 255
0.149649 0.205618  1.44013 255 255 255
0.234292 0.131738  1.66223 255 255 255
0.0278281  0.202128   1.89273 255 255 255
 0.396181 -0.555996   3.18396 255 255 255
  -0.24499 -0.0919937     1.2509 255 255 255
0.438333 0.174188  1.94784 255 255 255
-0.262234 -0.356235   2.43342 255 255 255
-0.342766 -0.508608   3.16657 255 255 255
 -0.151122 -0.0863747    1.23917 255 255 255
 0.420463 0.0869209   2.25997 255 255 255
 0.0134556 -0.0455021    1.60041 255 255 255
 0.0671745 -0.0481193    1.49481 255 255 255
 0.410722 -0.329953   2.65705 255 255 255
-0.740381 -0.145966   1.23078 255 255 255
-0.262044 -0.137169   1.25906 255 255 255
   0.175168 -0.00332051     1.31546 255 255 255
 -0.293115 -0.0654643    1.19155 255 255 255
  0.072687 0.00368641    1.58555 255 255 255
-0.382731 -0.457681   2.82723 255 255 255
-0.0932626  -0.101712    1.27509 255 255 255
-0.652168 -0.399221    1.6177 255 255 255
  0.370734 -0.0546433    2.18963 255 255 255
-0.242704 -0.118476   1.22929 255 255 255
-0.113096 -0.177787   1.40007 255 255 255
0.205067 0.203635  1.95875 255 255 255
 -0.363075 -0.0532898     1.1856 255 255 255
0.0162658  0.175847   1.95731 255 255 255
 0.36583 0.192502  1.92351 255 255 255
-0.0482134  -0.203188    1.36153 255 255 255
 0.104024 -0.132655   2.31798 255 255 255
 0.165782 -0.149143   2.27278 255 255 255
0.121317 0.194705  1.48934 255 255 255
0.555451 0.123106  1.89959 255 255 255
0.212346 0.169764  1.95579 255 255 255
   -0.13548 -0.00499391     1.13167 255 255 255
   0.312236 -0.00423183     2.10421 255 255 255
 0.284425 -0.322359   2.60316 255 255 255
0.0154573 -0.219012   1.39948 255 255 255
-0.640203  -0.48238   1.82165 255 255 255
 0.124605 -0.163431   1.34638 255 255 255
-0.934779 -0.298599   1.49845 255 255 255
-0.0367235  -0.779896    2.86149 255 255 255
0.467301 0.149803  1.89995 255 255 255
 0.549845 0.0957501   1.94375 255 255 255
0.431603 -0.15816  2.31571 255 255 255
0.473334 0.010919  2.37672 255 255 255
  0.59808 0.0243079   1.89742 255 255 255
-0.0566703 -0.0304779    1.24457 255 255 255
-0.213214 -0.151547   1.27198 255 255 255
-0.0645985  -0.539921    3.09221 255 255 255
0.0274967 0.0652899   1.24003 255 255 255
-0.240856  0.003391   1.16902 255 255 255
0.0318548 -0.176898   1.52137 255 255 255
0.0198665  0.067695   1.23902 255 255 255
-0.0361863 0.00223892    2.31996 255 255 255
 0.505247 -0.107667   2.33263 255 255 255
0.126073  0.21585    1.493 255 255 255
-0.165402 -0.105456   1.34823 255 255 255
0.315333 0.131918   2.0488 255 255 255
 0.165089 -0.136914   2.24896 255 255 255
 0.432428 -0.166811   2.32744 255 255 255
-0.566147  0.517531   1.24936 255 255 255
 -0.375611 -0.0396885    1.18178 255 255 255
0.0332119 -0.178554   1.53787 255 255 255
   0.12145 -0.0981288    1.21066 255 255 255
0.0348345 -0.172663   1.52779 255 255 255
0.106317 0.164796  1.60246 255 255 255
  0.39181 -0.168722    2.3071 255 255 255
 -0.346098 0.00584947    1.12937 255 255 255
 -0.118012 -0.0568904    1.19599 255 255 255
 -0.247704 -0.0755429    1.21444 255 255 255
 -0.225435 -0.0379023    1.13594 255 255 255
0.0760644  0.143565   1.33652 255 255 255
 0.275549 -0.127972   2.31912 255 255 255
 0.380821 0.0725804   2.23075 255 255 255
0.0838387  0.134853   1.33135 255 255 255
-0.0680182  0.0327144    2.22389 255 255 255
 -0.276232 -0.0812532    1.22517 255 255 255
0.347103   0.1632  1.96046 255 255 255
 0.148002 -0.116914   2.29605 255 255 255
 0.386812 0.0175541   2.34835 255 255 255
0.151778 0.212526  1.44946 255 255 255
0.234192 0.190874  1.63022 255 255 255
0.474706 0.125243  2.17512 255 255 255
-0.248549 -0.106266   1.21978 255 255 255
 0.199507 -0.247544   2.62112 255 255 255
 0.0146569 -0.0417398    1.58827 255 255 255
-0.108698  0.078747   2.14678 255 255 255
 0.165086 0.0852468   2.16668 255 255 255
-0.65761 0.529305  1.30555 255 255 255
 0.144289 -0.107094   2.26299 255 255 255
-0.0773226 -0.0321132    1.22585 255 255 255
 0.268093 -0.483497   2.88401 255 255 255
0.482298 0.002022  2.38064 255 255 255
  0.480096 -0.0160601    2.38409 255 255 255
 0.494557 0.0137147   2.35929 255 255 255
-0.512891 -0.237367   1.50834 255 255 255
  0.490807 -0.0697212    2.30007 255 255 255
0.497114 0.100415  2.07866 255 255 255
 -0.215543 -0.0297676    1.14206 255 255 255
 0.153171 0.0216189   1.31796 255 255 255
0.00719154  -0.709656    2.86177 255 255 255
0.0494911  0.283187   1.66417 255 255 255
  0.574086 -0.0178309      1.891 255 255 255
-0.0454636   -0.02542    2.35789 255 255 255
-0.146534 -0.123127   1.28005 255 255 255
 0.154075 0.0638673   2.13739 255 255 255
-0.296058 -0.126881   1.16584 255 255 255
0.0998477 -0.084512   2.22093 255 255 255
-0.828124 -0.323372   1.60973 255 255 255
0.369918 0.154602  2.05353 255 255 255
 0.0816276 -0.0212043    1.22887 255 255 255
 0.488267 -0.119173   2.28842 255 255 255
0.213529 0.148549  1.59378 255 255 255
0.0993527 -0.232894   2.81447 255 255 255
0.163261 0.116474  1.39294 255 255 255
 0.157625 -0.116522   1.31488 255 255 255
  0.145609 -0.0518998    1.27474 255 255 255
   0.16767 -0.0410945    2.25565 255 255 255
 0.154491 0.0457354    2.2252 255 255 255
-0.155902 -0.191353   1.39609 255 255 255
  -0.199309 0.000144923     2.26531 255 255 255
 0.338215 -0.346027    2.6008 255 255 255
-0.135581   -0.0646   1.20809 255 255 255
 -0.198533 -0.0434168    1.17269 255 255 255
 -0.206981 0.00418367    2.31237 255 255 255
  0.132934 -0.0925265    1.22164 255 255 255
0.00510207   0.287655    1.74337 255 255 255
-0.444767 -0.175151   1.41405 255 255 255
 0.520528 -0.197413   2.73395 255 255 255
  0.376511 -0.0905936    2.25606 255 255 255
 0.221406 -0.669463   2.99045 255 255 255
0.133886 0.197943   1.4772 255 255 255
 -0.106553 -0.0243879    1.23065 255 255 255
0.371647 0.154777  2.00115 255 255 255
-0.384821  0.215349   1.19558 255 255 255
-0.160915 -0.030776   1.21097 255 255 255
 0.0162455 -0.0262038    2.37353 255 255 255
 0.128262 -0.517703   2.88411 255 255 255
  0.491751 -0.0818084    2.27923 255 255 255
0.0612172   0.11107   1.30298 255 255 255
  0.152526 -0.0720079    1.26321 255 255 255
 0.161863 0.0656097   1.37026 255 255 255
0.0127027  0.192317    1.9471 255 255 255
  0.175065 -0.0740719    1.28442 255 255 255
 -0.188304 -0.0387142    1.19351 255 255 255
-0.116836 0.0675879    2.1132 255 255 255
0.354691 0.198821  1.85052 255 255 255
 -0.0428485 -0.00599177     1.17372 255 255 255
 0.430545 -0.138596   2.29199 255 255 255
-0.542008 -0.368043   1.66921 255 255 255
0.00585725  -0.207848    1.59189 255 255 255
  0.27163 0.0955075   2.19232 255 255 255
-0.0189626   0.394307    2.11751 255 255 255
 0.170141 -0.066116   1.27306 255 255 255
 0.169021 0.0172442   1.32493 255 255 255
 -0.126726 -0.0211915    1.17836 255 255 255
 0.254013 -0.615809   3.06501 255 255 255
-0.0506162 -0.0981989    1.27613 255 255 255
-0.0321291 -0.0176501    1.16758 255 255 255
 -0.134579 -0.0437902    2.35965 255 255 255
0.0425149 -0.102501   2.26445 255 255 255
  0.505411 -0.0679594    2.31805 255 255 255
-0.109733  0.122315   2.04091 255 255 255
0.431386 -0.31353  2.62742 255 255 255
0.0710855 -0.332506   2.59169 255 255 255
 0.186692 -0.130268   2.27994 255 255 255
-0.0896987   0.077496    2.12909 255 255 255
 -0.24823 -0.132049   1.17927 255 255 255
  0.390933 -0.0489565     2.2499 255 255 255
0.111547  0.12288  2.11866 255 255 255
-0.335234 0.0140476   1.09537 255 255 255
-0.186202 -0.117669   1.22866 255 255 255
0.0337164 -0.110763   1.50935 255 255 255
 0.555958 0.0886487   1.93033 255 255 255
0.458626 0.098155  2.21563 255 255 255
0.0392822 -0.121233   1.24266 255 255 255
 0.336476 -0.139581   2.28536 255 255 255
 -0.170935 -0.0145605    1.17986 255 255 255
 0.345183 0.0769962   2.22465 255 255 255
 -0.193229 -0.0351261    1.16204 255 255 255
0.160891 0.138089  1.39849 255 255 255
-0.0535458   0.151771    2.00439 255 255 255
-0.0497934   0.149829    2.00069 255 255 255
0.130975 0.158228  1.99521 255 255 255
0.0946898 -0.128599   2.25848 255 255 255
   0.482989 -0.00724011     2.37832 255 255 255
  -0.39108 -0.0605901    1.22663 255 255 255
 0.447859 -0.127574   2.26053 255 255 255
0.197241 -0.52296  2.84228 255 255 255
0.151221 0.138058  2.08225 255 255 255
 0.238507 -0.298322   2.57472 255 255 255
  -0.214721 -0.00534439     2.30408 255 255 255
-0.0719428 -0.0916396    1.23645 255 255 255
0.0891951 -0.194619   1.38231 255 255 255
-0.256797 -0.499457   3.02943 255 255 255
-0.114522  -0.12543   1.29678 255 255 255
 -0.212656 -0.0531697    1.20186 255 255 255
-0.495823   0.52609   1.33739 255 255 255
0.260743 0.119224  2.10311 255 255 255
 0.221302 -0.558294   2.86987 255 255 255
-0.0877045  0.0696707    2.15716 255 255 255
-0.182895 0.0590105   2.17233 255 255 255
-0.058121 -0.803976    2.8749 255 255 255
 0.163733 -0.197953   2.41648 255 255 255
 -0.181807 -0.0282164     1.1846 255 255 255
 -0.494042 -0.0845668    1.23149 255 255 255
-0.478284 -0.392773   1.75944 255 255 255
-0.0241844 -0.0807898    1.25186 255 255 255
  0.150133 -0.0356739    2.37727 255 255 255
 0.410663 0.0606982   2.26267 255 255 255
 0.350246 -0.354264   2.61332 255 255 255
0.0800703 0.0426668   1.27246 255 255 255
0.285828 0.194256  1.85405 255 255 255
0.510547 0.145919  1.89131 255 255 255
-0.065793 -0.709884   2.87258 255 255 255
-0.0569172  -0.704506     2.8481 255 255 255
0.0122399 -0.718148   2.92979 255 255 255
 -0.13956 0.0125743   2.27188 255 255 255
 -0.181652 -0.0481431    1.17907 255 255 255
 0.417143 -0.153629   2.29015 255 255 255
