ply
format ascii 1.0
element vertex 1156
property float x
property float y
property float z
property uchar red
property uchar green
property uchar blue
end_header
 -0.953991 -0.0235182    1.17099 255 255 255
-1.00997 0.431533  1.28744 255 255 255
-0.575856  0.547489   1.22662 255 255 255
-0.49993 0.511942  1.33154 255 255 255
-1.19079 0.344246  1.31821 255 255 255
-0.994947  0.439087   1.27959 255 255 255
  -1.148 0.390508  1.28397 255 255 255
-1.22048 0.355982  1.30781 255 255 255
-1.15505 0.383171  1.28611 255 255 255
-0.220893  0.535626   1.36105 255 255 255
-0.250014  0.276512   1.27095 255 255 255
-0.376099  0.553521   1.27168 255 255 255
-0.28733 0.523969  1.38382 255 255 255
-0.261301  0.562866   1.29353 255 255 255
-0.16091 0.536017   1.3707 255 255 255
-0.185755  0.544314   1.35297 255 255 255
-0.200678  0.576149   1.27711 255 255 255
-0.661791  0.519188   1.25767 255 255 255
-0.769198  0.550245   1.16757 255 255 255
-0.126168  0.526218   1.39823 255 255 255
-0.64822 0.503743   1.2906 255 255 255
-0.107283  0.519397   1.41797 255 255 255
-0.888141  0.479481   1.26548 255 255 255
-1.23766 0.259302   1.3929 255 255 255
-0.459508  0.541497    1.3001 255 255 255
-0.446979   0.54521   1.27071 255 255 255
-0.230688  0.551148   1.33331 255 255 255
-0.0321698   0.499229    1.46444 255 255 255
-0.764866  0.509755   1.23548 255 255 255
-0.336716  0.523956   1.35247 255 255 255
-1.22125  0.33369  1.32421 255 255 255
-0.712654  0.531342   1.21646 255 255 255
-0.351149  0.306452   1.23818 255 255 255
-0.710104  0.487491   1.27771 255 255 255
-1.07239 0.409527  1.31334 255 255 255
 -0.3973 0.560275  1.25455 255 255 255
-0.458585  0.552053   1.25231 255 255 255
-1.20714 0.349671  1.31351 255 255 255
-0.459733  0.532041   1.31762 255 255 255
-0.119532  0.520334   1.40801 255 255 255
-0.310012  0.527431   1.34942 255 255 255
 -1.1781 0.370806  1.29509 255 255 255
-0.815233  0.514706    1.2159 255 255 255
-0.601398  0.549223   1.21608 255 255 255
-0.240041  0.574636   1.27133 255 255 255
-1.25171 0.260268  1.38845 255 255 255
-1.01936 0.445585  1.26193 255 255 255
-0.995075  0.450726   1.27624 255 255 255
-0.62309 0.538242  1.23313 255 255 255
-0.997632  0.483473   1.20907 255 255 255
-0.0292513   0.546786    1.38345 255 255 255
-0.472457  0.516199   1.33371 255 255 255
-0.37587   0.5396  1.31897 255 255 255
-0.381891   0.52557   1.34507 255 255 255
  -0.96942 -0.0306055    1.25544 255 255 255
-0.843294  0.486976   1.24605 255 255 255
-0.765148  0.506975   1.24065 255 255 255
-0.62852 0.528186   1.2626 255 255 255
-0.789583  0.504458    1.2382 255 255 255
-0.0449047   0.532421    1.40259 255 255 255
-0.467206   0.54322   1.29663 255 255 255
-0.0516603   0.538381    1.39282 255 255 255
-0.846026   0.33777   1.04947 255 255 255
-0.680508  0.531917   1.22292 255 255 255
-1.14906 0.384893  1.28954 255 255 255
-0.422926  0.554076   1.25989 255 255 255
-1.24817 0.335232   1.3214 255 255 255
-0.554574  0.551239   1.23826 255 255 255
-0.466137  0.529903   1.31821 255 255 255
-1.05536 0.402376  1.33426 255 255 255
-0.184406  0.530901   1.36863 255 255 255
-0.0342121   0.517291    1.43134 255 255 255
-0.590904  0.522466   1.28722 255 255 255
-0.180075   0.51645   1.39838 255 255 255
-0.0676257    0.56749    1.32166 255 255 255
   -0.936636 -0.000121137      1.19376 255 255 255
-0.120977  0.543931   1.36359 255 255 255
-0.15396 0.569829  1.30221 255 255 255
-0.431752  0.545111   1.30752 255 255 255
-0.759612  0.496135   1.26558 255 255 255
-0.695201  0.498368   1.27569 255 255 255
 -0.906495 -0.0374137    1.20815 255 255 255
-0.115934  0.577992   1.28422 255 255 255
-1.06801 0.436902   1.2533 255 255 255
-0.537597  0.513725    1.3228 255 255 255
-0.207443  0.533361   1.35983 255 255 255
-0.394412   0.53698   1.32252 255 255 255
-0.749336  0.511042   1.24644 255 255 255
-0.818727  0.500006   1.23456 255 255 255
-0.460949  0.516447   1.33985 255 255 255
-0.475177  0.548476   1.24434 255 255 255
-1.23993 0.343468  1.31048 255 255 255
-0.0361736   0.558956    1.35348 255 255 255
-0.999996  0.449603   1.25413 255 255 255
-0.167158  0.511219    1.2456 255 255 255
-0.275812  0.549068   1.32843 255 255 255
-0.437487  0.551497   1.26229 255 255 255
-0.278818  0.531702   1.35693 255 255 255
-0.0913811   0.582281    1.28719 255 255 255
-1.24512 0.340923  1.31736 255 255 255
-0.840076  0.478325   1.27235 255 255 255
-1.11662 0.395051  1.28784 255 255 255
-1.05395 0.442165  1.25332 255 255 255
-0.0781868   0.545388    1.37469 255 255 255
-1.21931 0.349037  1.30905 255 255 255
-0.299398  0.263174   1.24361 255 255 255
-0.744792   0.50898   1.24716 255 255 255
-0.538464   0.51601     1.318 255 255 255
-0.786851  0.488499   1.26758 255 255 255
-0.446062  0.542812   1.30002 255 255 255
-0.598993  0.544507   1.22845 255 255 255
-0.674815  0.500023   1.27982 255 255 255
-0.407164  0.553046   1.26789 255 255 255
-0.737127  0.534802   1.20671 255 255 255
-0.185075  0.534247   1.36486 255 255 255
-0.381948  0.562953   1.25133 255 255 255
-0.744273   0.44631   1.14815 255 255 255
-0.0122929   0.499194    1.47281 255 255 255
  -0.831314 -0.00294365     1.17403 255 255 255
-1.07465 0.418797  1.28956 255 255 255
 -0.933607 0.00191541    1.19776 255 255 255
-0.384642  0.555866   1.27148 255 255 255
-0.13784 0.529095  1.39113 255 255 255
-0.800124  0.485487   1.26434 255 255 255
-0.531306  0.508011   1.32959 255 255 255
-0.983567  0.123463   1.19593 255 255 255
-0.206211   0.56875   1.28766 255 255 255
-0.510208  0.552358   1.23684 255 255 255
-0.69985 0.479519  1.27498 255 255 255
-0.113183  0.598262   1.26856 255 255 255
-1.00692  0.44859  1.26159 255 255 255
-1.01337 0.449177  1.26039 255 255 255
-0.745127  0.503577   1.25378 255 255 255
-0.0646067   0.567914    1.31969 255 255 255
-0.169207   0.53289   1.36878 255 255 255
-0.434086  0.511648   1.34973 255 255 255
-0.505887  0.523092   1.31858 255 255 255
-0.983404  0.491941   1.20353 255 255 255
-0.782028  0.486578   1.26917 255 255 255
-0.0801291   0.539883    1.38342 255 255 255
-0.415461  0.529281   1.32775 255 255 255
-0.327774  0.504245   1.37571 255 255 255
-0.681992  0.500888   1.27911 255 255 255
-0.766249   0.47899   1.26635 255 255 255
-1.06176 0.413732  1.31716 255 255 255
 -1.2674 0.337583  1.31717 255 255 255
-0.0376489   0.559393     1.3479 255 255 255
-0.834957  0.477622   1.26637 255 255 255
-0.684416  0.495595   1.28067 255 255 255
-0.343642  0.533213   1.33875 255 255 255
-0.621886  0.545387   1.21968 255 255 255
-0.184774  0.563022   1.29193 255 255 255
-0.144624  0.517427   1.40685 255 255 255
-0.33206  0.51905  1.38556 255 255 255
-0.0333075   0.536122    1.40168 255 255 255
-0.441412  0.550486   1.26341 255 255 255
-0.252229  0.564616   1.30131 255 255 255
-1.23653 0.263571  1.38187 255 255 255
-0.287515  0.564963   1.28677 255 255 255
-1.27209 0.322758  1.33689 255 255 255
-0.378104    0.5353   1.32898 255 255 255
-0.980257  0.054525   1.17417 255 255 255
-0.244665  0.573326   1.27198 255 255 255
-0.211864  0.564331   1.29893 255 255 255
-1.20513 0.281742  1.35335 255 255 255
-0.270531  0.535787   1.35239 255 255 255
-0.477701  0.514816   1.33269 255 255 255
-0.432865  0.522589   1.33835 255 255 255
-0.437298  0.542396   1.30356 255 255 255
-0.308256  0.491942    1.3866 255 255 255
-0.764241  0.554989   1.16572 255 255 255
  -1.01776 -0.0639739    1.30266 255 255 255
-1.03663 0.168703  1.17709 255 255 255
-0.253498  0.552841   1.32643 255 255 255
-0.939995  0.202438    1.1941 255 255 255
-1.15317 0.358201  1.31045 255 255 255
-0.0978958    0.60877    1.35749 255 255 255
-0.972092  0.433481   1.28495 255 255 255
-1.03722 0.417134    1.328 255 255 255
-0.903968  0.462119    1.2788 255 255 255
 -1.1766 0.390856  1.27691 255 255 255
-0.613289  0.539539   1.23014 255 255 255
-0.836099  0.502264   1.23689 255 255 255
-0.379773   0.11359   1.13269 255 255 255
-0.407978  0.186609   1.18879 255 255 255
 -1.59292 0.0805328   1.59651 255 255 255
-0.379374  0.202706   1.18081 255 255 255
-0.378409 0.0778803   1.15689 255 255 255
-0.551901  0.131925   1.16691 255 255 255
-0.517065  0.135553   1.16406 255 255 255
-0.475689  0.143164   1.17341 255 255 255
-0.46185 0.200014  1.18227 255 255 255
 -0.953751 -0.0287546    1.21853 255 255 255
  -0.40677 -0.0243334    1.27654 255 255 255
-0.953781 0.0371715   1.19234 255 255 255
-0.327572 0.0773846   1.12481 255 255 255
-0.40293 0.205245  1.18928 255 255 255
 -0.282364 -0.0351245    1.19128 255 255 255
-0.867585  0.131621   1.16265 255 255 255
 -1.02847 0.0737036   1.17628 255 255 255
-0.859002  0.100637   1.15732 255 255 255
-0.820717 0.0843107   1.15057 255 255 255
-0.850222 0.0749191   1.16175 255 255 255
-0.884271 0.0929893   1.17592 255 255 255
 -0.369652 -0.0820025    1.22042 255 255 255
-0.193905  0.170008   1.21835 255 255 255
-0.877446 0.0654013   1.17766 255 255 255
-0.809387   0.14888   1.14675 255 255 255
-0.401894 0.0150352   1.27849 255 255 255
-0.345257  0.168557   1.17266 255 255 255
-0.802194  0.119373   1.14699 255 255 255
-0.903565 0.0514044   1.18217 255 255 255
-0.414626  0.226148   1.19114 255 255 255
 -0.437587 -0.0368448    1.28808 255 255 255
-0.340934 0.0956469   1.13206 255 255 255
  -0.396412 -0.00995918     1.26866 255 255 255
-0.977302 0.0128657    1.1622 255 255 255
-0.756584 0.0462978    1.1709 255 255 255
  -1.00165 -0.0592925    1.28294 255 255 255
-0.988456 0.0300697   1.15133 255 255 255
 -0.282077 -0.0536086    1.19972 255 255 255
-1.57164 0.139484  1.55943 255 255 255
 -1.00642 0.0634015   1.16223 255 255 255
 -0.381324 -0.0651819    1.19897 255 255 255
 -0.43939 -0.102884   1.25419 255 255 255
-0.387743  0.119327   1.16261 255 255 255
-1.59997  0.10902  1.58545 255 255 255
-0.541052 0.0360654   1.16926 255 255 255
 -0.961609 -0.0107575    1.16765 255 255 255
 -0.997061 -0.0707657    1.31101 255 255 255
-0.364657 0.0568638   1.11104 255 255 255
 -0.417572 -0.0516276    1.27708 255 255 255
-0.769779 0.0794127   1.14428 255 255 255
-1.55512 0.144131  1.54865 255 255 255
 -0.378247 -0.0906512    1.23366 255 255 255
-0.780962  0.133411   1.14214 255 255 255
  -1.00206 -0.0323088    1.20149 255 255 255
 -0.765704 0.00677327    1.17587 255 255 255
  -0.938089 -0.00847594     1.18293 255 255 255
 -0.991898 -0.0313869     1.2553 255 255 255
-0.297928 0.0809878   1.13161 255 255 255
-1.01951 0.150016  1.18527 255 255 255
 -0.980363 -0.0211918    1.18444 255 255 255
-1.32998 0.208931  1.46711 255 255 255
-0.314217  0.173939   1.19694 255 255 255
 -0.976391 -0.0247879    1.22911 255 255 255
-0.356851 0.0652119   1.11054 255 255 255
  -0.27327 -0.0182852    1.17844 255 255 255
-0.320407 -0.105907   1.23071 255 255 255
-0.277523  0.256252   1.24498 255 255 255
-0.315722  0.361963   1.26428 255 255 255
-0.299261 -0.105901   1.19157 255 255 255
-0.301702 -0.129465   1.18834 255 255 255
-0.395454  0.164084   1.16727 255 255 255
-1.58644 0.171677  1.50543 255 255 255
-0.108265  0.503899   1.43452 255 255 255
  -0.31161 -0.0897033    1.22273 255 255 255
 -0.382412 0.00612618    1.17935 255 255 255
 -0.282476 -0.0203345    1.18304 255 255 255
-0.959615 0.0202488   1.17691 255 255 255
-0.289051  0.258045   1.24308 255 255 255
-1.57948 0.158963  1.52357 255 255 255
-0.754723 0.0206701    1.1598 255 255 255
-1.35542 0.197763  1.49962 255 255 255
-0.180709  0.380464    1.3062 255 255 255
-1.55256 0.136738  1.57768 255 255 255
 -1.5764 0.154383  1.53124 255 255 255
 -0.299613 -0.0771489    1.20807 255 255 255
-1.58889 0.161576  1.51501 255 255 255
-0.336291 0.0871547   1.12831 255 255 255
-0.320422 0.0811064   1.13181 255 255 255
-0.0578206   0.500943    1.45226 255 255 255
-0.168654   0.30324   1.27596 255 255 255
-1.44711 0.120724  1.62553 255 255 255
-0.321904   0.16994   1.18097 255 255 255
 -0.276218 -0.0364346    1.18695 255 255 255
-0.171279  0.306845   1.27186 255 255 255
  -1.00394 -0.0717912    1.31337 255 255 255
   -1.02098 -0.00403421     1.20106 255 255 255
-1.43779 0.101867  1.65694 255 255 255
 -0.293989 -0.0921548    1.18401 255 255 255
-0.212587  0.283327   1.26891 255 255 255
-0.288865  0.266418    1.2472 255 255 255
-1.51134 0.137682  1.58009 255 255 255
  -1.65313 -0.0708326    1.74383 255 255 255
 -0.766139 0.00729551    1.16502 255 255 255
 -0.273564 -0.0362677     1.1819 255 255 255
 -1.43991 0.0926076   1.65799 255 255 255
-1.34079 0.176703  1.52152 255 255 255
-0.203063  0.267391   1.26347 255 255 255
-0.408584 0.0181309   1.28587 255 255 255
 -0.42165 -0.105031   1.24786 255 255 255
-0.0801391   0.505789    1.43679 255 255 255
 -1.44219 0.0788228   1.68751 255 255 255
-0.301794 -0.116691   1.19142 255 255 255
 -0.423718 -0.0461711    1.28382 255 255 255
 -1.47072 0.0388892   1.62563 255 255 255
 -0.287439 -0.0457006    1.22041 255 255 255
   -1.02106 -0.00964184     1.19914 255 255 255
 -0.297943 -0.0472411    1.21302 255 255 255
-0.993505  0.152069   1.22581 255 255 255
-1.43789 0.113033  1.63691 255 255 255
 -1.44774 0.0797069   1.68087 255 255 255
 -0.88323 0.0768111    1.2881 255 255 255
-0.310292 0.0783657   1.12794 255 255 255
-0.395063  0.170305   1.17114 255 255 255
 -1.44575 0.0563316   1.68514 255 255 255
  -0.324428 0.000457818     1.08931 255 255 255
-0.298021 -0.116722   1.18143 255 255 255
 -1.44334 0.0521919   1.68923 255 255 255
 -0.289538 -0.0411419    1.21017 255 255 255
-0.197982  0.275184   1.27757 255 255 255
  -0.7538 0.0094593     1.223 255 255 255
  -0.97633 -0.0175788    1.19501 255 255 255
-1.4842 0.13541 1.59226 255 255 255
-0.241536  0.716889   1.00692 255 255 255
0.232391 0.447897  1.57814 255 255 255
0.295588 0.445142  1.58197 255 255 255
0.135592 0.378875  1.66062 255 255 255
-0.179362  0.589031    1.2707 255 255 255
-0.250426    0.6867   1.09065 255 255 255
-0.314782  0.582113   1.23662 255 255 255
0.0670759  0.590513   1.32555 255 255 255
0.0167741  0.591964   1.31014 255 255 255
 0.35535 0.165982  1.89968 255 255 255
0.0987324  0.493485   1.47578 255 255 255
0.264191 0.399386  1.54389 255 255 255
0.0357594  0.339027   1.44688 255 255 255
0.242848 0.390481  1.69799 255 255 255
0.347861 0.211742   1.8549 255 255 255
0.477997 0.401095  1.57316 255 255 255
-0.0296611   0.595501    1.29756 255 255 255
0.195214 0.485619  1.53575 255 255 255
-0.150037  0.256566   1.28344 255 255 255
-0.186092  0.697956    1.0283 255 255 255
0.389396 0.248024  1.80493 255 255 255
-0.307861  0.695872  0.997843 255 255 255
-0.146401  0.691741   1.05074 255 255 255
-0.364668  0.680616  0.997968 255 255 255
-0.358101  0.695289  0.979575 255 255 255
0.506839 0.389471  1.57234 255 255 255
0.301171  0.21956  1.78358 255 255 255
0.278236 0.368402  1.73602 255 255 255
0.297091 0.412376   1.6915 255 255 255
-0.176724   0.71187   1.00768 255 255 255
0.0717567  0.192171   1.37559 255 255 255
-0.216484  0.740291  0.995173 255 255 255
-0.18683   0.5969  1.23817 255 255 255
-0.0786927   0.596346     1.2834 255 255 255
0.0850477  0.413594   1.52584 255 255 255
-0.000659024     0.484361      1.49069 255 255 255
-0.30541 0.685835  1.02009 255 255 255
0.299783 0.171154  1.92181 255 255 255
0.300897 0.170641  1.91905 255 255 255
0.324934 0.451822  1.58986 255 255 255
-0.375677  0.673379   1.04298 255 255 255
0.121654 0.542507  1.42557 255 255 255
0.302298 0.501174  1.53348 255 255 255
0.268009 0.455998  1.54743 255 255 255
 0.30394 0.485273  1.55304 255 255 255
0.491664 0.306863  1.74015 255 255 255
-0.0823177   0.692018    1.13624 255 255 255
0.435695 0.418745  1.58238 255 255 255
-0.22762 0.748229 0.982725 255 255 255
0.389395 0.223286  1.83004 255 255 255
-0.287896  0.717371  0.985299 255 255 255
-0.194782  0.729369  0.999266 255 255 255
-0.121587  0.593892   1.26939 255 255 255
-0.290935  0.695939   1.04462 255 255 255
-0.353188  0.679813     1.028 255 255 255
0.110093 0.523805  1.45488 255 255 255
-0.402204  0.682702   1.01395 255 255 255
0.349186 0.327128  1.71678 255 255 255
0.252476 0.486673  1.53576 255 255 255
-0.128565   0.71244   1.00671 255 255 255
0.402153 0.301749  1.72731 255 255 255
0.372837 0.297122  1.72678 255 255 255
-0.281224  0.729279  0.989359 255 255 255
0.164891 0.483323  1.52709 255 255 255
-0.566544  0.374456   1.29898 255 255 255
0.337107 0.420461  1.66193 255 255 255
0.0614166  0.207489   1.37627 255 255 255
0.265839 0.235772  1.85811 255 255 255
0.482763 0.269027  1.80242 255 255 255
-0.0418885    0.57245    1.32159 255 255 255
0.310842 0.295844  1.82278 255 255 255
-0.134031  0.690761   1.09296 255 255 255
0.241203 0.402559  1.68048 255 255 255
0.527262 0.409007  1.54105 255 255 255
0.279142 0.208968  1.84807 255 255 255
-0.161349  0.584003   1.27889 255 255 255
-0.107729  0.725307   1.01879 255 255 255
0.43462 0.27104 1.79601 255 255 255
 0.12686 0.532075  1.44674 255 255 255
-0.25079 0.270328  1.26216 255 255 255
-0.0454763   0.520616    1.42066 255 255 255
-0.295952  0.690061   1.03321 255 255 255
-0.29833 0.706298  0.98277 255 255 255
0.281726 0.499336  1.52677 255 255 255
-0.165992  0.725596   1.00776 255 255 255
-0.69658 0.483305  1.27878 255 255 255
0.171295 0.406112  1.67522 255 255 255
-0.167453  0.690375   1.05872 255 255 255
0.366833 0.405907  1.61791 255 255 255
0.432108 0.441305  1.59698 255 255 255
0.319279 0.134344  1.89554 255 255 255
0.0461985  0.338567   1.45305 255 255 255
0.321407 0.225325  1.78537 255 255 255
-0.289344  0.731905  0.980902 255 255 255
0.250695 0.498768  1.52311 255 255 255
0.312379 0.246981  1.77476 255 255 255
-0.199147  0.726171    1.0016 255 255 255
0.0664622  0.181472   1.36136 255 255 255
-0.0129226   0.541414    1.39477 255 255 255
-0.0109333   0.525506    1.42136 255 255 255
0.530762 0.379528  1.53241 255 255 255
-0.00734242    0.506115     1.43159 255 255 255
0.438261 0.329414  1.69322 255 255 255
0.491287 0.398043  1.55003 255 255 255
0.124938 0.191272  1.41755 255 255 255
-0.149911  0.535265   1.37705 255 255 255
0.145521 0.376226  1.66122 255 255 255
0.304867 0.371978   1.7165 255 255 255
0.298651  0.47054  1.55582 255 255 255
-0.203908  0.532751   1.36424 255 255 255
0.279318 0.355437  1.74573 255 255 255
0.0141645  0.541226   1.39574 255 255 255
0.328912  0.15204  1.94043 255 255 255
0.247077 0.350197  1.76286 255 255 255
0.245225 0.512623  1.49542 255 255 255
0.238756  0.47632  1.54116 255 255 255
0.131305 0.191627  1.42449 255 255 255
0.339385 0.295813  1.75852 255 255 255
0.0964598  0.533751   1.43755 255 255 255
-0.120689  0.700626   1.10285 255 255 255
0.178818 0.473292  1.54942 255 255 255
0.183642 0.455191  1.58325 255 255 255
-0.256439  0.524806   1.37475 255 255 255
-0.481451  0.549196   1.24918 255 255 255
0.310089 0.524703  1.49577 255 255 255
-0.354489  0.681932   1.01349 255 255 255
-0.415524  0.676802    1.0317 255 255 255
0.481422 0.342796  1.67829 255 255 255
-0.23408 0.541688  1.34741 255 255 255
0.148814 0.500296  1.50442 255 255 255
0.350304 0.391849  1.63718 255 255 255
-0.105543  0.570964   1.31081 255 255 255
-0.15992 0.530703  1.38029 255 255 255
 0.45576 0.315248  1.71528 255 255 255
0.307112 0.473908  1.56066 255 255 255
0.421659 0.334563  1.68328 255 255 255
0.524339 0.378377  1.54034 255 255 255
0.115684 0.262418  1.46195 255 255 255
0.358054 0.448394  1.61956 255 255 255
0.180882 0.501316  1.50695 255 255 255
0.265962 0.503225   1.5231 255 255 255
0.0563258   0.25798   1.40923 255 255 255
0.308584 0.242405  1.80464 255 255 255
-0.426148  0.685264   1.02456 255 255 255
0.421409   0.1284  2.11268 255 255 255
0.187493 0.371479  1.72683 255 255 255
-0.210718  0.520815   1.38512 255 255 255
0.195548 0.469096   1.5601 255 255 255
-0.226416  0.682402    1.0602 255 255 255
-0.227054  0.695021   1.02019 255 255 255
0.169298  0.52512  1.46769 255 255 255
0.183612 0.461937   1.5767 255 255 255
0.0612948  0.441918   1.52924 255 255 255
-0.0437516   0.535661    1.40145 255 255 255
0.0153494  0.526622   1.42303 255 255 255
0.344548 0.180731  1.90402 255 255 255
  0.2382 0.377564  1.72332 255 255 255
-0.100087  0.543067   1.37638 255 255 255
0.0621432  0.222772   1.38414 255 255 255
0.266184 0.496304  1.52991 255 255 255
-0.0712724   0.691213    1.08711 255 255 255
-0.239724  0.695369   1.07182 255 255 255
0.180335 0.533428  1.46045 255 255 255
0.172647 0.489564  1.51957 255 255 255
-0.100432   0.68579   1.13277 255 255 255
-0.113606   0.70883   1.05936 255 255 255
-0.137789  0.693008     1.043 255 255 255
0.260688  0.34682  1.76641 255 255 255
-0.0346453   0.522163    1.42397 255 255 255
-0.138555  0.538474   1.37117 255 255 255
0.0509399  0.482715    1.5068 255 255 255
0.104359  0.55046  1.41182 255 255 255
0.504941 0.295529  1.75568 255 255 255
0.0470702  0.301329   1.42932 255 255 255
0.273532 0.428677  1.54343 255 255 255
 0.44786 0.419138  1.58227 255 255 255
0.234146 0.424048  1.50477 255 255 255
0.539552  0.41283  1.53797 255 255 255
0.541544 0.404268  1.53187 255 255 255
 0.43003 0.300407  1.73513 255 255 255
-0.241954  0.698545   1.00578 255 255 255
0.00896204   0.460722    1.51172 255 255 255
0.133818 0.404411  1.65869 255 255 255
0.359535 0.388846    1.626 255 255 255
0.0257325  0.545774   1.40098 255 255 255
0.427427  0.29559  1.73736 255 255 255
0.187551 0.519636  1.48444 255 255 255
-0.136247  0.694047   1.05255 255 255 255
0.463473 0.293752  1.71094 255 255 255
0.299901 0.453436  1.56341 255 255 255
0.111928  0.60637  1.32638 255 255 255
0.184885 0.393296  1.69475 255 255 255
0.333351  0.44006  1.63169 255 255 255
0.316181 0.178229  1.89808 255 255 255
-0.108991  0.511699   1.42804 255 255 255
0.411288 0.195654  1.89661 255 255 255
-0.177222  0.688799   1.06051 255 255 255
0.0197956  0.490161   1.49369 255 255 255
0.392153 0.295393  1.74087 255 255 255
0.508112  0.40324  1.50545 255 255 255
0.359764 0.261793   1.7828 255 255 255
-0.188021  0.509749   1.40918 255 255 255
-0.0728917   0.351755    1.38437 255 255 255
-0.110727   0.71706   1.02294 255 255 255
-0.357352  0.682457   1.04024 255 255 255
-0.18165 0.713648  1.01313 255 255 255
0.402321 0.438417  1.52419 255 255 255
0.460511  0.31823    1.722 255 255 255
 0.32742 0.132316  1.93407 255 255 255
-0.115037  0.599921   1.26356 255 255 255
-0.00262835    0.491852     1.48066 255 255 255
-0.233656   0.67339   1.05683 255 255 255
0.0555589  0.195363   1.36314 255 255 255
-0.0950718   0.594957    1.27982 255 255 255
-0.237313  0.697494    1.0795 255 255 255
0.386739 0.306925   1.7104 255 255 255
-0.0127393   0.489827    1.48299 255 255 255
0.328178  0.35158  1.76382 255 255 255
0.0858559  0.534902    1.4369 255 255 255
0.270603 0.368179  1.72883 255 255 255
-0.236613  0.683883   1.03954 255 255 255
0.190349  0.47487  1.55456 255 255 255
0.122118  0.43844  1.58394 255 255 255
0.121164 0.437707  1.58538 255 255 255
0.244653 0.292063  1.81788 255 255 255
0.513682 0.397865   1.5264 255 255 255
0.217783 0.390516  1.69624 255 255 255
0.286076 0.518109  1.50606 255 255 255
-0.336138  0.276496   1.24328 255 255 255
0.0325374  0.523102   1.43444 255 255 255
0.484479 0.405646  1.55686 255 255 255
 0.26358 0.398631  1.55348 255 255 255
-0.166762  0.714169   1.03927 255 255 255
0.417892 0.430713  1.65388 255 255 255
-0.242015  0.257261   1.25652 255 255 255
-0.047885  0.515208   1.43082 255 255 255
0.128891  0.21355  1.43483 255 255 255
0.0160985  0.504783   1.46552 255 255 255
0.262138 0.296029  1.77931 255 255 255
0.331226 0.142038  1.92488 255 255 255
0.219637 0.525086  1.47619 255 255 255
0.279711 0.198426  1.86096 255 255 255
-0.118864  0.693908   1.06486 255 255 255
0.513856 0.420963  1.50261 255 255 255
0.0440051  0.549267   1.40051 255 255 255
0.315178 0.426594  1.63874 255 255 255
0.0622784  0.175078   1.35109 255 255 255
0.129629 0.149704  1.39072 255 255 255
0.464331 0.323366  1.74298 255 255 255
0.279286 0.256267  1.87738 255 255 255
0.181951 0.485784  1.53251 255 255 255
0.0458691  0.197173   1.35411 255 255 255
0.526433 0.386174  1.53333 255 255 255
-0.0963656   0.688942    1.12839 255 255 255
0.498097 0.390903  1.52758 255 255 255
-0.0819334   0.341961     1.3706 255 255 255
0.501104  0.42123  1.52506 255 255 255
0.0314651  0.537879   1.41423 255 255 255
-0.166143  0.509328   1.41656 255 255 255
0.531904 0.385764  1.51981 255 255 255
0.288138 0.208175  1.85035 255 255 255
0.132995 0.548442  1.42026 255 255 255
0.0503201  0.182832   1.34891 255 255 255
0.509413 0.412593  1.49544 255 255 255
0.169522  0.38195  1.68346 255 255 255
0.129252 0.421324  1.62595 255 255 255
0.505981 0.427712  1.51041 255 255 255
-0.0878183   0.512841    1.41767 255 255 255
0.292201 0.380221  1.71618 255 255 255
-0.0417193   0.698075    1.12981 255 255 255
0.120242 0.607956  1.32989 255 255 255
0.130794 0.218739  1.44322 255 255 255
0.372902 0.444224  1.62053 255 255 255
0.293694  0.28228   1.8368 255 255 255
0.196079 0.572179  1.39404 255 255 255
0.276009 0.465495  1.54109 255 255 255
0.333175 0.493282  1.55372 255 255 255
0.0605421  0.237572   1.39524 255 255 255
0.00820439   0.472496    1.51364 255 255 255
0.0538791  0.213382   1.37262 255 255 255
0.156373 0.491042  1.51566 255 255 255
0.471233 0.420743  1.53646 255 255 255
-0.168555  0.303886   1.26876 255 255 255
-0.126824  0.542766   1.36586 255 255 255
-0.112331   0.72524   1.01156 255 255 255
0.151536  0.52844  1.45973 255 255 255
-0.293402  0.702411  0.984393 255 255 255
0.0401039   0.32296    1.4378 255 255 255
0.00430011    0.46127     1.5056 255 255 255
0.533927 0.372172   1.6254 255 255 255
0.494438 0.384522  1.53929 255 255 255
0.109262 0.518027   1.4653 255 255 255
-0.230992  0.681623   1.04701 255 255 255
0.139252 0.552163  1.41741 255 255 255
0.0398275  0.304765   1.42563 255 255 255
0.466588 0.421264  1.52733 255 255 255
0.106715 0.334221  1.50077 255 255 255
0.183104 0.480025  1.54364 255 255 255
0.467071 0.337196  1.68294 255 255 255
0.134147 0.198608  1.43031 255 255 255
-0.0719496   0.250221    1.31393 255 255 255
0.482573 0.331793  1.71259 255 255 255
0.146295 0.435271  1.60342 255 255 255
0.353884 0.444444  1.64035 255 255 255
0.358445 0.441238  1.64089 255 255 255
0.190843 0.404041  1.67226 255 255 255
0.293951 0.504553  1.52198 255 255 255
-0.165173  0.747415   1.00191 255 255 255
0.489873 0.406881  1.51895 255 255 255
0.273982 0.487867  1.53772 255 255 255
-0.349369  0.698384  0.993683 255 255 255
-0.101473   0.69319    1.1224 255 255 255
0.368778 0.310803  1.71036 255 255 255
0.286099 0.489265  1.54098 255 255 255
 0.16818 0.424645  1.63021 255 255 255
-0.0194814   0.505982    1.46095 255 255 255
-0.226784  0.259764   1.26065 255 255 255
0.379347  0.47251  1.58944 255 255 255
-0.0813421   0.696785    1.05294 255 255 255
0.103089 0.530355  1.44412 255 255 255
0.505502 0.391592  1.53927 255 255 255
 0.48884 0.347096  1.67966 255 255 255
 0.49944 0.406404  1.51882 255 255 255
-0.22157 0.731494 0.999429 255 255 255
0.116269 0.404375  1.65676 255 255 255
-0.329227  0.526507   1.35837 255 255 255
-0.104684  0.689751    1.1238 255 255 255
-0.620263  0.503118    1.3089 255 255 255
-0.20202 0.545248  1.34651 255 255 255
0.517249 0.375129  1.59078 255 255 255
0.123868 0.232703  1.44599 255 255 255
-0.0580027   0.512103    1.42674 255 255 255
0.495955 0.406243  1.50462 255 255 255
0.0679643  0.417464   1.52595 255 255 255
-0.11835 0.699111  1.08534 255 255 255
-0.124675  0.536443   1.38201 255 255 255
0.466212    0.333   1.6865 255 255 255
-0.318516  0.533377   1.34194 255 255 255
0.462602 0.407422  1.53441 255 255 255
-0.171314  0.722841    1.0115 255 255 255
0.261935 0.477359  1.54007 255 255 255
0.134794 0.390288  1.66094 255 255 255
0.479753 0.408638  1.51774 255 255 255
0.122215 0.432368  1.59023 255 255 255
0.464593 0.228056  1.85786 255 255 255
0.511956 0.321406  1.72139 255 255 255
-0.15255 0.549918  1.35005 255 255 255
0.276336 0.477727  1.54397 255 255 255
-0.290918  0.263058   1.24416 255 255 255
0.260472 0.378848  1.72561 255 255 255
0.173736 0.456702  1.57977 255 255 255
0.118414 0.302386  1.48932 255 255 255
0.239978 0.392146  1.70229 255 255 255
-0.348781  0.705298   0.98275 255 255 255
-0.0272704   0.552493    1.37652 255 255 255
0.425825 0.317302  1.69539 255 255 255
0.0436193   0.32888   1.44642 255 255 255
0.110144 0.511526  1.46817 255 255 255
-0.230541  0.679037   1.05675 255 255 255
0.318258 0.387356  1.70533 255 255 255
0.287173 0.524847  1.48822 255 255 255
-0.332544  0.576271   1.25033 255 255 255
0.327917 0.509942   1.5241 255 255 255
-0.0529093   0.505642    1.44886 255 255 255
0.173734 0.369426  1.72602 255 255 255
0.291324 0.500433  1.52937 255 255 255
0.0338869  0.415338   1.49486 255 255 255
 0.39457 0.280491  1.75235 255 255 255
0.186875 0.524278  1.46737 255 255 255
0.280219 0.192291  1.86794 255 255 255
0.113529 0.273018  1.46482 255 255 255
0.249368  0.51225  1.50172 255 255 255
0.478539 0.333355  1.69718 255 255 255
-0.295705   0.25722   1.24025 255 255 255
0.0561199  0.205944   1.36859 255 255 255
0.206181 0.402661  1.76386 255 255 255
0.322986 0.469598  1.57453 255 255 255
-0.164987  0.739433   1.00163 255 255 255
-0.459904  0.531877   1.31721 255 255 255
0.0190376   0.45433    1.5111 255 255 255
0.409393 0.307701  1.72345 255 255 255
-0.000625157      0.50273      1.46614 255 255 255
0.388731 0.288271  1.73703 255 255 255
-0.358714  0.670717   1.02542 255 255 255
0.436919 0.428168  1.57945 255 255 255
-0.0510688   0.550624    1.37492 255 255 255
0.309891 0.527662  1.49194 255 255 255
0.129071 0.453521  1.56997 255 255 255
0.0101035  0.505378   1.46204 255 255 255
0.156525 0.453325  1.58024 255 255 255
0.0309896  0.318397   1.42698 255 255 255
0.234129 0.491738  1.52857 255 255 255
0.473772 0.341791  1.67473 255 255 255
0.335005 0.475372    1.577 255 255 255
-0.0323705   0.516463    1.43122 255 255 255
0.108563 0.529418  1.44569 255 255 255
0.345525  0.39638  1.63173 255 255 255
0.0998009  0.519902   1.45979 255 255 255
0.424395  0.31587  1.70472 255 255 255
-0.285238  0.732547  0.983962 255 255 255
  0.1073 0.446486  1.57433 255 255 255
0.264078 0.489876  1.53214 255 255 255
0.175778 0.485089  1.52818 255 255 255
-0.283214  0.540855   1.33734 255 255 255
0.398092 0.237164  1.82661 255 255 255
0.037342 0.520002  1.44078 255 255 255
-0.0625794   0.519211    1.41482 255 255 255
0.305141 0.307202   1.8249 255 255 255
0.175849 0.383968  1.70236 255 255 255
0.287687 0.285784  1.85355 255 255 255
0.489084 0.392621  1.54266 255 255 255
0.152345 0.518436  1.47013 255 255 255
0.253794 0.494061  1.52916 255 255 255
0.381606 0.286686  1.73753 255 255 255
0.380011 0.283954  1.74201 255 255 255
-0.175097   0.52106   1.39303 255 255 255
-0.229989  0.536094   1.35753 255 255 255
-0.0448374   0.508309    1.44788 255 255 255
-0.0244805   0.441841    1.47006 255 255 255
0.267541 0.519658  1.49908 255 255 255
-0.185412  0.698417   1.09068 255 255 255
0.440321 0.243246  1.82713 255 255 255
0.319917 0.472108  1.56984 255 255 255
0.349626 0.459367  1.61543 255 255 255
0.271854 0.402765  1.54683 255 255 255
0.052747 0.306048  1.43534 255 255 255
-0.0671323   0.570595    1.32538 255 255 255
-0.0703632   0.525158     1.4025 255 255 255
0.00320309   0.496343    1.47907 255 255 255
-0.42053 0.668434  1.03339 255 255 255
0.122749 0.448592  1.56979 255 255 255
0.285216 0.408496   1.6463 255 255 255
0.173771  0.49405  1.51275 255 255 255
-0.293233  0.693853   1.01773 255 255 255
0.323607 0.196277  1.86314 255 255 255
0.047632 0.474834  1.51847 255 255 255
-0.144982  0.692203   1.06106 255 255 255
-0.266628  0.684423   1.09086 255 255 255
-0.0957858   0.505544     1.4401 255 255 255
0.313636 0.529229  1.48836 255 255 255
-0.0350423   0.596957    1.29202 255 255 255
-0.245314  0.545906   1.33636 255 255 255
 0.39624 0.309421  1.71336 255 255 255
0.473231 0.402394  1.53587 255 255 255
0.365123 0.456446  1.61501 255 255 255
0.180973 0.527988  1.46171 255 255 255
0.338232 0.473373  1.58244 255 255 255
-0.126207  0.700827   1.10361 255 255 255
0.209111 0.479091  1.55013 255 255 255
0.208838 0.482866  1.54727 255 255 255
-0.0902502    0.56228    1.33288 255 255 255
0.373504 0.220897  1.85211 255 255 255
0.347125 0.470411  1.59341 255 255 255
-0.0151118   0.476694    1.50294 255 255 255
0.512336 0.323884  1.71455 255 255 255
0.149254 0.490006  1.51956 255 255 255
0.400248 0.245161   1.8118 255 255 255
0.228998  0.49045   1.5323 255 255 255
0.0373639  0.543316   1.40564 255 255 255
  0.4121 0.282552  1.75581 255 255 255
0.194249  0.42087  1.64454 255 255 255
0.0335784  0.512756   1.44987 255 255 255
 -0.3798 0.544695  1.31308 255 255 255
0.194167 0.493404  1.52637 255 255 255
0.355415 0.386319   1.6327 255 255 255
 0.15013 0.408435   1.6517 255 255 255
-0.438148  0.539452   1.30627 255 255 255
-0.236174  0.694346   1.08239 255 255 255
0.112573 0.530757  1.44697 255 255 255
-0.154627   0.52816   1.38909 255 255 255
0.464578 0.315683  1.71693 255 255 255
-0.0327177   0.535142    1.40106 255 255 255
-0.589749  0.510728   1.31449 255 255 255
0.296783 0.449801  1.56343 255 255 255
0.0993823  0.551285    1.4104 255 255 255
-0.138001  0.517731   1.40657 255 255 255
0.110979 0.418675  1.62503 255 255 255
-0.22794 0.713048  1.00949 255 255 255
-0.0830095   0.546013    1.37344 255 255 255
0.0160627  0.532232   1.42002 255 255 255
0.104275  0.56826  1.38243 255 255 255
0.472794 0.339498  1.67978 255 255 255
-0.117819  0.701763   1.10574 255 255 255
0.269652 0.492097  1.53251 255 255 255
0.443479 0.230313  1.85091 255 255 255
0.362306 0.213007   1.8564 255 255 255
-0.616503  0.504543   1.31186 255 255 255
-0.137808  0.528544   1.39092 255 255 255
-0.30905 0.539663  1.33452 255 255 255
0.176149 0.477819  1.54377 255 255 255
0.445556 0.227892  1.85503 255 255 255
0.265073   0.3912  1.70562 255 255 255
0.213685 0.574029  1.39932 255 255 255
 0.28152 0.488121  1.54316 255 255 255
0.270583 0.385419  1.71358 255 255 255
0.328187 0.402924  1.69741 255 255 255
0.319746 0.250374  1.79325 255 255 255
 0.28633 0.413419  1.64117 255 255 255
0.022721 0.573374  1.34994 255 255 255
0.321856 0.465532  1.57971 255 255 255
0.0249697 0.0931934   1.27398 255 255 255
-0.236131 0.0231536   1.12979 255 255 255
-0.114098  0.111905   1.18917 255 255 255
 -0.1532 0.303686  1.28387 255 255 255
-0.130001  0.208716   1.26362 255 255 255
-0.169333  0.398651   1.34104 255 255 255
-0.403686  0.181217   1.16442 255 255 255
-0.0764565   0.483673    1.44079 255 255 255
-0.259565  0.728095  0.987212 255 255 255
-0.20941 0.259649  1.25193 255 255 255
-0.0856853  0.0654687    1.18065 255 255 255
-0.0123432  0.0548087    1.22143 255 255 255
-0.0495862  0.0610264    1.19808 255 255 255
-0.452542  0.724454   0.95873 255 255 255
 -0.369567 -0.0372569     1.1677 255 255 255
-0.341583  0.738236  0.984432 255 255 255
-0.257277 0.0722935    1.1394 255 255 255
-0.129031 0.0696705   1.16779 255 255 255
0.0545344  0.431861   1.52322 255 255 255
-0.186689  0.070385   1.14771 255 255 255
 -0.157049 -0.0185463     1.1336 255 255 255
-0.159012  0.068589   1.15838 255 255 255
-0.199031  0.164072   1.20393 255 255 255
 0.0592465 -0.0337214    1.20557 255 255 255
-0.180526  0.258088   1.26944 255 255 255
-0.276441 -0.130961   1.16905 255 255 255
0.0508995  0.469559    1.5391 255 255 255
-0.329016 0.0764185   1.12762 255 255 255
-0.549672 -0.380055   1.64715 255 255 255
-0.0846858   0.227908    1.29435 255 255 255
-0.00431865     0.32976     1.41098 255 255 255
-0.551504  0.539047   1.23956 255 255 255
-0.238952 -0.140118   1.19524 255 255 255
-0.37171 -0.41882  1.79017 255 255 255
-0.563271  0.808388  0.795888 255 255 255
0.0264841 0.0699574   1.24606 255 255 255
-0.323544 -0.419653   1.78499 255 255 255
-0.167909   0.35574   1.34393 255 255 255
0.0720236  0.109911   1.31677 255 255 255
-0.102736  0.450824   1.43578 255 255 255
-0.143565  0.453937   1.40921 255 255 255
-0.0117221   0.430887    1.46951 255 255 255
 -0.189032 -0.0286254    1.12915 255 255 255
-0.498925  -0.37866   1.67243 255 255 255
 0.0877929 -0.0648979    1.20512 255 255 255
-0.348299  0.266914   1.24198 255 255 255
-0.202887  0.468791   1.36941 255 255 255
0.00145845   0.438364    1.49255 255 255 255
-0.439464  0.143551   1.16985 255 255 255
-0.454494  0.721333  0.938228 255 255 255
-0.191596   0.72691  0.996952 255 255 255
-0.642696 -0.385994   1.66661 255 255 255
  0.042406 -0.0287631    1.20626 255 255 255
-0.254253  0.679014   1.05315 255 255 255
-0.222882   0.70132   1.04907 255 255 255
-0.0940296  -0.170567    1.35296 255 255 255
0.130899 0.492983  1.49382 255 255 255
-0.258309  0.496015   1.37957 255 255 255
-0.184182  0.506938   1.41636 255 255 255
-0.112988  0.472672   1.43922 255 255 255
-0.417158  0.226592   1.19063 255 255 255
-0.649807 -0.341988   1.63977 255 255 255
-0.589926  0.358188    1.2459 255 255 255
-0.146698   0.57837   1.29595 255 255 255
-0.230583   0.68902  0.999929 255 255 255
-0.441812 -0.110368   1.25137 255 255 255
0.0853314 -0.077616   1.19587 255 255 255
-0.191727  0.520268   1.38485 255 255 255
  0.101471 -0.0478801    1.22922 255 255 255
0.168315 0.447084  1.58479 255 255 255
-0.036977 0.0666659   1.21083 255 255 255
-0.859709 -0.362115   1.64861 255 255 255
-0.443494  0.543154   1.28263 255 255 255
0.0605163 0.0560204   1.26966 255 255 255
-0.367912 -0.442063    1.7903 255 255 255
-0.467152  0.707789  0.945691 255 255 255
-0.504788   0.55149   1.24869 255 255 255
  0.0892284 -0.00576602     1.24888 255 255 255
  0.0780049 -0.00103166     1.24524 255 255 255
0.067903 0.165988  1.35171 255 255 255
-0.461405  0.719643  0.916671 255 255 255
0.122104  0.21936  1.43345 255 255 255
-0.868943  0.538274   1.15969 255 255 255
-0.0589853  -0.034817    1.20388 255 255 255
-0.159107  0.500396   1.42728 255 255 255
-0.17154 0.715687  1.00669 255 255 255
-0.282375  0.562199   1.28388 255 255 255
-0.533941  0.316061   1.15455 255 255 255
0.0502905   0.28942   1.43143 255 255 255
-0.00323984   0.0680377     1.23368 255 255 255
-0.0575121   0.237727    1.31636 255 255 255
 -0.375724 -0.0728573    1.22836 255 255 255
-0.190536  0.489451   1.39207 255 255 255
 0.0819582 -0.0891371    1.18823 255 255 255
 0.0512448 -0.0393427    1.19762 255 255 255
-0.634042 -0.412659   1.65863 255 255 255
0.0499884  0.139919   1.31864 255 255 255
-0.641314  0.700047  0.947111 255 255 255
0.0347949  0.511911   1.43496 255 255 255
-0.168471  0.517159   1.40812 255 255 255
-0.405805  0.243692   1.19412 255 255 255
-0.190259  0.158749   1.20621 255 255 255
-0.085005  0.351985   1.36821 255 255 255
-0.261606  0.064605   1.13054 255 255 255
-0.346174  0.711741  0.982348 255 255 255
-0.104882  0.567307   1.32183 255 255 255
0.0969497 -0.054419   1.22399 255 255 255
0.157092 0.448329  1.58639 255 255 255
-0.0760326   0.521984    1.40238 255 255 255
0.0290836  0.534484    1.4163 255 255 255
0.0458124   0.55683   1.37287 255 255 255
-0.302854  0.253379   1.23846 255 255 255
-0.100217  0.456875   1.43631 255 255 255
    -0.31937 -0.000956442       1.1359 255 255 255
0.0780848 0.0884419   1.30672 255 255 255
-0.0642107 -0.0650911    1.21627 255 255 255
-0.0842081   0.564794    1.32401 255 255 255
0.0612782 0.0845187   1.29091 255 255 255
 0.0925467 -0.0217793    1.24113 255 255 255
-0.297976  0.689218   1.00554 255 255 255
-0.667497 -0.393047   1.63848 255 255 255
-0.836876  0.435945   1.36962 255 255 255
-0.609106  0.405999   1.26488 255 255 255
0.157526 0.352375  1.63734 255 255 255
-0.160095  0.734392   1.00495 255 255 255
0.0160895  0.239725   1.36272 255 255 255
-0.462003  0.673624  0.969068 255 255 255
-0.262127  0.162099   1.19098 255 255 255
 -0.64276 -0.402357   1.66039 255 255 255
-0.464834  0.683238  0.956824 255 255 255
-0.369153  0.162822   1.16958 255 255 255
 -0.201535 -0.0426544    1.15872 255 255 255
0.0643258 0.0478875   1.26671 255 255 255
 -0.343451 -0.0128372    1.14733 255 255 255
0.136335 0.146403  1.39642 255 255 255
-0.274833  0.162633   1.18798 255 255 255
-0.0685334  0.0737614     1.1968 255 255 255
-0.679539  0.329635   1.24495 255 255 255
-0.462618  0.689631  0.940216 255 255 255
 0.0909523 -0.0622243    1.21187 255 255 255
-0.445619 -0.294202   1.58281 255 255 255
0.0535162  0.104275   1.29733 255 255 255
0.0532536  0.157161   1.33343 255 255 255
0.0304464   0.39635   1.48046 255 255 255
 0.0900941 -0.0519391    1.21703 255 255 255
0.0694004 0.0838268   1.29457 255 255 255
-0.209439  0.736398  0.997898 255 255 255
-0.229026  0.249964   1.25643 255 255 255
 -0.210368 -0.0504362    1.15395 255 255 255
0.131169 0.136624   1.3833 255 255 255
0.0269674  0.150227   1.30676 255 255 255
-0.163456  0.718758   1.01116 255 255 255
0.0401071  0.278615   1.40797 255 255 255
-0.0569489   0.160671    1.26324 255 255 255
-0.628951 -0.421366    1.6472 255 255 255
0.00245302   0.533723    1.41279 255 255 255
0.0629046 0.0228536   1.24756 255 255 255
-0.239941      0.25   1.25207 255 255 255
-0.473748 -0.445075   1.81447 255 255 255
-0.269815 0.0702226   1.13089 255 255 255
0.0811679 -0.024648   1.22876 255 255 255
-0.17473 0.511522  1.40973 255 255 255
-0.201827  0.527619   1.37208 255 255 255
-0.288098  0.690158   1.02104 255 255 255
-0.243113 -0.144873    1.1809 255 255 255
-0.264529 -0.140293   1.16994 255 255 255
-0.309367  0.541371   1.33851 255 255 255
0.114469 0.416834   1.6136 255 255 255
 -0.273352 -0.0944269    1.19367 255 255 255
0.112669 0.330458  1.50165 255 255 255
-0.126044  0.496578   1.44864 255 255 255
0.0510319  0.121346   1.30667 255 255 255
  0.0793663 -0.00276783      1.2434 255 255 255
-0.558614 -0.411625   1.65688 255 255 255
-0.0565431  0.0663599    1.19847 255 255 255
0.0687326  0.057957   1.27817 255 255 255
0.0201878   0.52627   1.42747 255 255 255
 -0.263154 -0.0959885    1.20067 255 255 255
 0.0753574 -0.0482977    1.20893 255 255 255
-0.776714 -0.341463   1.61658 255 255 255
0.0586104  0.413528   1.51824 255 255 255
0.118421 0.349921  1.68355 255 255 255
  0.071546 -0.0499067    1.20489 255 255 255
-0.0958253   0.344206    1.36498 255 255 255
0.00873657   0.564483    1.34992 255 255 255
-0.168152  0.530959   1.37564 255 255 255
0.135579 0.154008   1.3985 255 255 255
-0.254298 -0.142426   1.17509 255 255 255
0.0405154  0.353748    1.4616 255 255 255
-0.0506626  -0.149648    1.34202 255 255 255
0.0542906   0.15037   1.32838 255 255 255
-0.0131913   0.448111    1.48789 255 255 255
-0.202764 0.0691047   1.14979 255 255 255
-0.287086  0.161201   1.18457 255 255 255
0.175367 0.462999  1.56196 255 255 255
-0.0420245   0.165336    1.27561 255 255 255
-0.0781665   0.174832    1.25807 255 255 255
-0.195945 -0.188533    1.3839 255 255 255
0.0652588 0.0796086   1.28978 255 255 255
-0.326588  0.171951   1.18382 255 255 255
 0.0945325 -0.0600604    1.21583 255 255 255
-0.245814 -0.111865   1.20186 255 255 255
0.116818 0.252952  1.45222 255 255 255
0.0385003  0.214554   1.36337 255 255 255
-0.230091  0.690609   1.04594 255 255 255
-0.135733  0.566703   1.31609 255 255 255
0.142851  0.17705  1.43574 255 255 255
 0.0748985 -0.0186344    1.22834 255 255 255
0.132413 0.194226  1.42467 255 255 255
-0.465718  0.672639  0.982497 255 255 255
-0.0653715   0.520936    1.40616 255 255 255
0.046403 0.203064  1.35848 255 255 255
-0.644322  0.541631    1.2348 255 255 255
-0.289622 -0.110659   1.18002 255 255 255
-0.288369  0.696892   1.01356 255 255 255
 -0.46875 -0.400323   1.70029 255 255 255
-0.579495  0.539802   1.23378 255 255 255
-0.689644   0.52634   1.22812 255 255 255
-0.358037  0.277754    1.2459 255 255 255
-0.199873  0.272387   1.27101 255 255 255
0.119453 0.373598  1.68846 255 255 255
 0.09663 0.505486  1.47471 255 255 255
-0.777035 -0.354714    1.6732 255 255 255
-0.125756  0.526288   1.39714 255 255 255
0.130503  0.21895  1.44318 255 255 255
-0.229218  0.679844   1.04579 255 255 255
-0.254288  0.557973   1.29559 255 255 255
  0.067068 -0.0206209    1.22322 255 255 255
-0.216232  0.533274   1.36492 255 255 255
-0.290855  0.707109  0.991008 255 255 255
0.0578534   0.21824   1.37961 255 255 255
-0.412439  0.547059   1.26937 255 255 255
0.121889 0.388004  1.67034 255 255 255
-0.178214  0.697936   1.09075 255 255 255
-0.0645171   0.344901     1.3832 255 255 255
-0.302682 0.0701946   1.12371 255 255 255
0.0429411  0.182101   1.34266 255 255 255
0.0327095   0.56302    1.3566 255 255 255
 -0.32634 -0.404773    1.7838 255 255 255
 0.0763897 -0.0117523    1.23592 255 255 255
-0.255762  0.534249   1.35716 255 255 255
-0.292081   0.70192  0.988703 255 255 255
-0.0647531   0.353222    1.39348 255 255 255
-0.320848   0.18665   1.19033 255 255 255
0.147771 0.445182  1.58632 255 255 255
-0.130666 -0.158562   1.33149 255 255 255
-0.158292  0.743159   1.00761 255 255 255
-0.179738  0.562422   1.31009 255 255 255
   0.063611 -0.00783066     1.22753 255 255 255
0.128363  0.15634  1.39497 255 255 255
 -0.213387 -0.0465466     1.1477 255 255 255
0.0495377  0.127565   1.31031 255 255 255
-0.616031  0.694523  0.964903 255 255 255
-0.199908   0.56062   1.30747 255 255 255
-0.0955757   0.687989    1.12759 255 255 255
-0.0582042   0.576649    1.32023 255 255 255
0.0483197  0.284473   1.41818 255 255 255
-0.41778 -0.38865  1.74069 255 255 255
0.0742503  0.126241   1.33014 255 255 255
0.131223 0.374333  1.67029 255 255 255
-0.274766 -0.106948   1.18631 255 255 255
 0.0743551 0.00700121     1.2468 255 255 255
-0.00812994    0.484358     1.48888 255 255 255
0.123803 0.288966  1.48744 255 255 255
0.029845 0.337087  1.43799 255 255 255
-0.377202  -0.40273   1.78282 255 255 255
-0.533683  0.545937   1.24785 255 255 255
0.144975 0.371255  1.66067 255 255 255
-0.122496  0.698734   1.09492 255 255 255
-0.290467  0.716722   0.97525 255 255 255
0.0411089  0.203577   1.35521 255 255 255
 -0.652573 -0.0558383    1.23707 255 255 255
0.0345346  0.424483   1.50124 255 255 255
0.0144876 0.0735669   1.24882 255 255 255
-0.0522634  0.0668004    1.20147 255 255 255
0.0384283  0.299622   1.42229 255 255 255
0.044795 0.446381   1.5234 255 255 255
0.143603 0.380747  1.66436 255 255 255
 0.13627 0.213475  1.45507 255 255 255
-1.20307 0.338966  1.31459 255 255 255
-1.22096 0.306403  1.33942 255 255 255
 -1.1524 0.350669  1.31492 255 255 255
-1.27411  0.34578  1.31875 255 255 255
-1.11241 0.393859  1.29029 255 255 255
-1.28053 0.356264  1.30775 255 255 255
-1.23459 0.318368  1.32803 255 255 255
 -1.2447 0.361776  1.29924 255 255 255
-1.25562  0.36635   1.2949 255 255 255
-1.26737  0.34066  1.32504 255 255 255
-1.21092 0.277435  1.36459 255 255 255
 -1.2638 0.356474  1.30445 255 255 255
-1.25414 0.334311  1.32452 255 255 255
 -0.983942 -0.0157485    1.18909 255 255 255
-1.27386 0.312792  1.34683 255 255 255
-1.17374  0.37114  1.29901 255 255 255
-1.22322 0.315376  1.33154 255 255 255
-1.21156 0.281209  1.35852 255 255 255
-1.24727 0.334495  1.31996 255 255 255
-1.05577 0.444458  1.24997 255 255 255
-1.17434 0.350563  1.31493 255 255 255
-1.26093 0.369883   1.2875 255 255 255
-0.793904  0.484358   1.24738 255 255 255
-0.315302  0.515846   1.36005 255 255 255
-0.719464  0.490141   1.26364 255 255 255
-0.671025  0.502551   1.28274 255 255 255
 -0.5621 0.554931   1.2231 255 255 255
 -0.5121 0.533957  1.25605 255 255 255
-0.502848   0.54844   1.24606 255 255 255
-0.868459  0.538016   1.16122 255 255 255
-0.330278  0.533254   1.34125 255 255 255
-0.759691  0.482521   1.27022 255 255 255
-0.982325  0.455652   1.26359 255 255 255
-0.514732  0.486896   1.36679 255 255 255
-0.421166  0.518901   1.34036 255 255 255
-0.392607   0.52292    1.3472 255 255 255
-0.0691682   0.513852    1.41911 255 255 255
-0.0855518   0.526978     1.4006 255 255 255
-0.669122  0.504575   1.27462 255 255 255
0.00281121   0.482356     1.4977 255 255 255
-0.852601  0.494726   1.23833 255 255 255
-0.466609  0.477284   1.37934 255 255 255
-0.60582 0.550708  1.21682 255 255 255
-0.722887  0.514225   1.22176 255 255 255
-0.708803  0.501681   1.26543 255 255 255
-0.939041  0.474352   1.24694 255 255 255
-0.496199  0.555132     1.237 255 255 255
-0.995465  0.455245   1.25306 255 255 255
-0.437404  0.560812   1.24335 255 255 255
0.0224778  0.495852   1.48516 255 255 255
-0.362288  0.521012   1.35337 255 255 255
0.0202078  0.499424    1.4708 255 255 255
-0.372143  0.533423   1.33296 255 255 255
-0.62239 0.524909  1.28101 255 255 255
-0.26883 0.525295  1.36829 255 255 255
-1.27681 0.476481  1.42563 255 255 255
0.0704139  0.492004   1.49392 255 255 255
-0.46945 0.538849  1.29358 255 255 255
0.0833859  0.488919   1.50251 255 255 255
-0.520081  0.548124   1.23644 255 255 255
-0.21815 0.544041  1.34639 255 255 255
-0.210206  0.527113   1.37353 255 255 255
