ply
format ascii 1.0
element vertex 1133
property float x
property float y
property float z
property uchar red
property uchar green
property uchar blue
end_header
0.362501 0.373546  1.75363 255 255 255
-0.609591  0.532756   1.26854 255 255 255
  0.154723 0.00823984    1.31767 255 255 255
0.205411 0.368104  1.73405 255 255 255
  0.15264 0.0323763   1.33194 255 255 255
-0.0693731  0.0544016    1.18193 255 255 255
0.366973 0.472496  1.59896 255 255 255
-0.145025  0.051121   1.14731 255 255 255
-0.606145  0.517428   1.28592 255 255 255
-0.158806   0.51522   1.40741 255 255 255
 0.158697 0.0363154   1.33941 255 255 255
-0.0701145   0.566714    1.35159 255 255 255
-0.0454772  0.0513289    1.19449 255 255 255
0.214204 0.071704   2.0387 255 255 255
-0.0558351   0.537521     1.3934 255 255 255
0.182687 0.166943  2.06084 255 255 255
0.040493 0.298522  1.42003 255 255 255
0.354238 0.304932  1.72109 255 255 255
0.191176 0.454884  1.58908 255 255 255
-0.140289 0.0439209   1.14299 255 255 255
-0.471996  0.507897   1.32015 255 255 255
-0.391423  0.565764   1.23007 255 255 255
0.314972 0.195201  1.85682 255 255 255
0.188877 0.485437  1.53593 255 255 255
 0.32238 0.246452  1.79878 255 255 255
0.322533 0.196133  1.87365 255 255 255
  0.2997 0.492196   1.5476 255 255 255
-0.227536  0.542593   1.27807 255 255 255
-0.0455591   0.161303     1.2673 255 255 255
-0.481303  0.550139   1.28312 255 255 255
0.228901 0.385734  1.71878 255 255 255
0.0575343  0.108614   1.30259 255 255 255
0.364134 0.313573  1.70306 255 255 255
-0.12958 0.553149  1.35481 255 255 255
0.363335 0.308665  1.70786 255 255 255
0.245851 0.497413  1.52679 255 255 255
-0.151467  0.102798   1.17703 255 255 255
 0.277111 0.0876192   2.23163 255 255 255
0.0359676  0.505067   1.46865 255 255 255
 0.42123 0.371948  1.61663 255 255 255
-0.0794952   0.160448    1.24749 255 255 255
0.377652 0.442636  1.62926 255 255 255
0.320401 0.395607  1.71971 255 255 255
0.0595102 0.0770744   1.28154 255 255 255
0.0796029 0.0331538   1.27045 255 255 255
0.0585671  0.102945   1.30013 255 255 255
-0.398625  0.537583   1.27276 255 255 255
0.415597 0.428415  1.65977 255 255 255
-0.120462  0.578557   1.30037 255 255 255
-0.231225  0.553724   1.33542 255 255 255
-0.0849455   0.553489    1.36293 255 255 255
-0.404339    0.5389   1.30419 255 255 255
-0.133281  0.579718   1.29568 255 255 255
-0.284896  0.609138   1.22732 255 255 255
0.0261997  0.508814   1.46691 255 255 255
-0.241471  0.563326   1.31336 255 255 255
-0.116298   0.57823   1.30736 255 255 255
0.362062 0.377953  1.71503 255 255 255
-0.219616  0.523127   1.38609 255 255 255
-0.0829047   0.548345    1.37947 255 255 255
0.0558911  0.551225   1.40064 255 255 255
0.358081 0.372561  1.72193 255 255 255
-0.00818011    0.548787     1.38504 255 255 255
-0.269377  0.183827   1.19879 255 255 255
0.245337  0.47928   1.5438 255 255 255
-0.303277  0.560976   1.27116 255 255 255
0.290607 0.420805  1.63971 255 255 255
-0.206339  0.533068   1.28264 255 255 255
0.352983 0.372309  1.72009 255 255 255
-0.11943  0.57201  1.30626 255 255 255
0.359161 0.301607  1.71927 255 255 255
0.197118 0.431009  1.62928 255 255 255
0.0965957  0.459548   1.56486 255 255 255
-0.0793691   0.509819    1.43445 255 255 255
0.238883 0.423117  1.50994 255 255 255
 0.063878 0.0947323   1.29772 255 255 255
-0.132605  0.583814   1.29196 255 255 255
0.197703 0.449017  1.60013 255 255 255
0.279411 0.192974  1.87876 255 255 255
0.321711 0.188581  1.89216 255 255 255
0.151002 0.130278  1.40013 255 255 255
0.227832 0.156066  1.92837 255 255 255
0.0427841  0.515582   1.45358 255 255 255
0.0694544  0.471598   1.53099 255 255 255
-0.624757  0.522576   1.27271 255 255 255
0.00563127   0.524887    1.42245 255 255 255
0.121578 0.184849  1.40677 255 255 255
-0.318694  0.533357   1.34927 255 255 255
0.187143 0.436233    1.622 255 255 255
-0.00630732   0.0792912     1.23033 255 255 255
-0.177385  0.499321   1.41805 255 255 255
-0.253587  0.594226   1.23307 255 255 255
0.17909 0.44577  1.6053 255 255 255
0.0499898  0.504862   1.47217 255 255 255
0.0416727  0.494313   1.50449 255 255 255
-0.531533  0.501144   1.23173 255 255 255
 0.20219 0.462904  1.57755 255 255 255
0.0517834  0.492044   1.49813 255 255 255
-0.109076  0.370238   1.37226 255 255 255
-0.464803  0.547217   1.28748 255 255 255
-0.478964  0.529326   1.32745 255 255 255
0.317509 0.477736  1.56442 255 255 255
0.272165 0.469753  1.54493 255 255 255
-0.362541  0.542226   1.31135 255 255 255
-0.299703  0.485162   1.33111 255 255 255
0.00329951   0.477809    1.50635 255 255 255
 0.19043 0.447004   1.6036 255 255 255
-0.0838677   0.175103    1.25695 255 255 255
 0.37436 0.258701  1.77786 255 255 255
-0.153189  0.163317   1.21964 255 255 255
-0.296436  0.555225   1.30653 255 255 255
-0.202936  0.551813   1.34464 255 255 255
0.330817 0.190826  1.88499 255 255 255
0.370521  0.32219  1.69511 255 255 255
0.188691 0.453541  1.59605 255 255 255
0.377641 0.324468  1.68277 255 255 255
-0.0745844  0.0763336     1.1901 255 255 255
0.272789 0.200703   1.8609 255 255 255
0.273111 0.404986  1.63965 255 255 255
-0.099282  0.265923   1.30748 255 255 255
0.00746728   0.548769    1.39198 255 255 255
-0.108165  0.532996   1.39774 255 255 255
0.150373 0.151137  1.40845 255 255 255
0.0970545  0.524453    1.4546 255 255 255
0.185978 0.379838  1.71256 255 255 255
0.0811634 0.0706177   1.29468 255 255 255
0.0211994  0.543138   1.40427 255 255 255
0.313089 0.472299  1.56266 255 255 255
 0.37326 0.313966  1.69997 255 255 255
0.0615518  0.543061   1.42173 255 255 255
-0.156318  0.521953   1.40301 255 255 255
0.364126 0.303595  1.71762 255 255 255
0.298884  0.47756  1.55135 255 255 255
-0.00681957     0.53014     1.41558 255 255 255
-0.12105 0.531751   1.3962 255 255 255
-0.354433  0.530771   1.35139 255 255 255
-0.0498274   0.481139    1.47188 255 255 255
0.0093015  0.544897   1.39844 255 255 255
0.281056 0.217316  1.83603 255 255 255
-0.0685188   0.550899    1.37159 255 255 255
0.081011 0.502854  1.48444 255 255 255
-0.154645  0.236968   1.26153 255 255 255
0.207046 0.514693  1.49331 255 255 255
0.0472088  0.501283   1.47424 255 255 255
0.0464009  0.485423   1.51196 255 255 255
0.190025 0.497762  1.51664 255 255 255
-0.0718811   0.545379    1.38418 255 255 255
0.292607 0.400775  1.68941 255 255 255
-0.0395475   0.523288    1.42622 255 255 255
-0.184627  0.518765   1.26087 255 255 255
0.181596 0.445637   1.5984 255 255 255
-0.0927233   0.541058    1.38364 255 255 255
-0.281826  0.271141   1.24638 255 255 255
0.155291 0.442541  1.58561 255 255 255
0.344699 0.451272  1.61889 255 255 255
0.246215 0.361861  1.75306 255 255 255
0.0194138  0.222273   1.34857 255 255 255
0.381888 0.272438  1.76487 255 255 255
0.225762 0.479325  1.54583 255 255 255
0.308049 0.435271  1.60957 255 255 255
0.0394081  0.276899   1.40597 255 255 255
-0.170732   0.34583   1.32387 255 255 255
0.272301 0.209551  1.85944 255 255 255
0.263496 0.193034  1.87362 255 255 255
-0.133139 0.0502187   2.17424 255 255 255
-0.00848025   0.0404637     2.20262 255 255 255
0.138849 0.182579   1.9873 255 255 255
0.0364836 0.0856097   2.15433 255 255 255
-0.00466287   0.0707053     2.20126 255 255 255
-0.11453 0.137701  2.02029 255 255 255
0.203736  0.35684  1.73114 255 255 255
-0.185494 0.0677515   1.14066 255 255 255
  -0.136533 -0.00199863     1.11561 255 255 255
-0.333812  0.175212   1.17931 255 255 255
-0.404088  0.204802   1.17884 255 255 255
-0.332857 0.0896487   1.11882 255 255 255
-0.233357   0.54551   1.34471 255 255 255
0.195845 0.439432  1.58469 255 255 255
-0.274168   0.26047   1.24514 255 255 255
-0.282272   0.25777   1.23959 255 255 255
-0.38049 0.261971  1.22354 255 255 255
 0.0667653 -0.0351898    1.21989 255 255 255
0.0265019  0.136063   1.29669 255 255 255
-0.216505 0.0839856   1.15126 255 255 255
-0.371148  0.166369   1.16695 255 255 255
-0.0281873  0.0559301    1.20675 255 255 255
-0.0300148  0.0740275     1.2159 255 255 255
-0.311215 0.0750202    1.1233 255 255 255
-0.288975  0.181348   1.19029 255 255 255
-0.061535  0.168392    1.2585 255 255 255
0.103319 0.465626  1.53642 255 255 255
-0.201065  0.531234   1.36927 255 255 255
-0.0698228  0.0304146    1.16644 255 255 255
-0.619634  0.507737   1.30555 255 255 255
0.122497 0.467623   1.5488 255 255 255
 0.0660268 -0.0435983    1.21028 255 255 255
-0.0698535  0.0437057    1.17636 255 255 255
 0.11378 0.453397  1.57245 255 255 255
-0.582188  0.519359   1.27714 255 255 255
0.125958 0.474179  1.55073 255 255 255
-0.299772  0.538579   1.34228 255 255 255
  0.121384 -0.0809745    1.22251 255 255 255
-0.394806  0.256215   1.21794 255 255 255
0.242348 0.403758  1.68726 255 255 255
-0.166527  0.501588   1.42765 255 255 255
0.172228 0.435272  1.61028 255 255 255
0.273076 0.203792  1.85808 255 255 255
 0.32391 0.422994  1.66022 255 255 255
-0.143443  0.236911   1.26762 255 255 255
0.101938  0.44739   1.5139 255 255 255
0.174754 0.448703  1.59579 255 255 255
-0.0152846   0.085917    1.91579 255 255 255
 0.215001 -0.381523   2.66563 255 255 255
  0.127404 -0.0824361    1.22718 255 255 255
  0.123463 -0.0807275    1.23285 255 255 255
-0.0628116   -0.79353    2.99855 255 255 255
  0.42191 0.0485713   2.24448 255 255 255
0.272692  0.27005  1.82944 255 255 255
 0.114108 -0.689485   3.04105 255 255 255
 -0.1722 0.404614  1.33957 255 255 255
0.412903 0.193142    1.909 255 255 255
 0.544213 -0.101154   2.46778 255 255 255
   -0.248 -0.239759   2.67265 255 255 255
-0.343716  0.123501   1.14485 255 255 255
 -0.153073 -0.0145084    1.13343 255 255 255
-0.131613 -0.774975   2.87936 255 255 255
 0.271852 -0.168224   2.45185 255 255 255
 0.064432 -0.397063   2.84861 255 255 255
  0.108713 -0.0408894     1.2367 255 255 255
0.178932 0.245688  1.89189 255 255 255
 0.31052 0.302987  1.86475 255 255 255
 0.204631 -0.574828   2.82297 255 255 255
0.304956 -0.11003  2.33682 255 255 255
0.257271 -0.72569  3.15072 255 255 255
 0.383791 -0.371294   2.64383 255 255 255
-0.000496652     0.280166      1.75038 255 255 255
-0.405099  0.252356   1.18244 255 255 255
 -0.21612 -0.566686   2.99128 255 255 255
-0.102407 -0.563646   2.94582 255 255 255
0.0762711 -0.470188   2.90841 255 255 255
 0.367527 -0.157161   2.29249 255 255 255
 0.234485 -0.124664   2.26023 255 255 255
-0.126054 -0.141713   2.47553 255 255 255
-0.474075  0.533997   1.29725 255 255 255
-0.202659 -0.491508   2.97813 255 255 255
0.036744  0.12009   1.2976 255 255 255
-0.372429 -0.505875   2.84979 255 255 255
 0.306807 -0.352225   2.58238 255 255 255
-0.132074 0.0963408   1.18437 255 255 255
 -0.11813 -0.319411   2.63507 255 255 255
0.0579567   0.19141   1.95404 255 255 255
0.0439651 -0.778845   2.88784 255 255 255
-0.133579 0.0733736    1.1715 255 255 255
 0.438415 -0.293804   2.70178 255 255 255
  0.590913 -0.0349315    1.90026 255 255 255
-0.0283295  -0.270315    2.62334 255 255 255
-0.0942579   0.163993     1.2417 255 255 255
 0.331306 -0.493315      2.99 255 255 255
 0.184022 -0.158005   2.28561 255 255 255
  -0.1305 -0.116149   1.25367 255 255 255
 0.213112 -0.893318   3.21843 255 255 255
-0.368303  0.105182   1.13014 255 255 255
 0.288813 0.0213056   2.06877 255 255 255
  0.21664 -0.697697   3.01853 255 255 255
-0.195853  0.163847   1.19937 255 255 255
0.0956558 -0.195204   2.36982 255 255 255
-0.326697 0.0801339   1.12411 255 255 255
-0.134467 -0.101266    2.4271 255 255 255
 0.246182 -0.590938   2.92151 255 255 255
 -0.42571 -0.594466   2.81032 255 255 255
-0.0642099   0.251195    1.32124 255 255 255
-0.353598 -0.408479   1.75526 255 255 255
 0.456705 -0.495035   2.98077 255 255 255
-0.0882364   0.349297    1.36982 255 255 255
-0.030979 -0.567919    2.8964 255 255 255
-0.020553 -0.503597   3.04696 255 255 255
 0.524064 -0.284778   2.88075 255 255 255
0.0945087  0.106935   2.15249 255 255 255
  0.147203 -0.0556328    1.26072 255 255 255
0.505413  0.17555  1.84427 255 255 255
-0.0233859 -0.0192265    2.31294 255 255 255
0.435617 0.168109  1.91525 255 255 255
   0.634091 -0.00203029     1.89906 255 255 255
 0.310487 0.0956693   2.15555 255 255 255
 0.136372 0.0324192   1.31649 255 255 255
0.577873 0.117312  1.88997 255 255 255
0.628677 0.119065  1.92079 255 255 255
-0.0351324  -0.308958    2.66663 255 255 255
0.31668 0.13485 1.98901 255 255 255
 0.302399 -0.661327   3.24619 255 255 255
 -0.50969 -0.403356   1.68258 255 255 255
  0.646666 -0.0136607    1.92735 255 255 255
 0.215092 -0.824849   3.09351 255 255 255
-0.191204 -0.171895   2.53763 255 255 255
 0.358724 0.0460789   2.25468 255 255 255
-0.0502889  -0.718674    2.82026 255 255 255
 0.170213 -0.537994   2.84268 255 255 255
-0.104154 -0.612816    2.8375 255 255 255
  0.148417 0.00418301    1.30663 255 255 255
0.374688 0.185744  1.91323 255 255 255
0.164966 -0.13646   2.2646 255 255 255
-0.403489  0.272978     1.193 255 255 255
 0.478229 -0.343741   2.84027 255 255 255
-0.191174 -0.387102   1.77633 255 255 255
-0.276198 -0.433197   2.78831 255 255 255
0.207098 0.179705  1.95198 255 255 255
0.233389 0.122015  1.97565 255 255 255
-0.453136 -0.564536   2.87388 255 255 255
-0.168706  0.459054   1.40165 255 255 255
0.0678307  0.116171   2.06976 255 255 255
-0.274696 -0.581536   3.03867 255 255 255
 0.606383 0.0409355   1.91981 255 255 255
0.0334994 -0.904151   3.28615 255 255 255
 0.330928 -0.366887   2.59669 255 255 255
0.0408027 -0.574884   2.90765 255 255 255
   -0.11248 -0.00376813     1.15495 255 255 255
  0.25738 -0.301276   2.66199 255 255 255
 -0.128896 0.00966748    2.24368 255 255 255
 -0.172158 -0.0513915    1.17658 255 255 255
-0.492947 -0.671445   3.00598 255 255 255
-0.215051 -0.850327   2.94048 255 255 255
 0.179703 -0.740931   3.08257 255 255 255
-0.262733 -0.449867   1.80211 255 255 255
0.256832 0.314412  1.82135 255 255 255
-0.0970618   0.366915     1.3696 255 255 255
0.566619 0.122698  1.87055 255 255 255
0.203046 0.250496   1.9008 255 255 255
0.371389 -0.58096  3.23694 255 255 255
-0.176276  0.364223   1.32886 255 255 255
-0.156537 -0.251835   2.69421 255 255 255
-0.0703482  -0.553946     3.1034 255 255 255
  0.100492 -0.0476056     1.2281 255 255 255
0.0913676 -0.756312   2.94843 255 255 255
-0.294607 -0.419806   1.80059 255 255 255
 -0.126409 -0.0463632    1.19645 255 255 255
  0.25042 -0.305436   2.57948 255 255 255
 0.0774745 -0.0759579    1.18695 255 255 255
 0.309396 -0.637671   3.27387 255 255 255
0.0832844 -0.876813   3.26212 255 255 255
-0.153462  0.008194   2.20348 255 255 255
  0.171431 -0.0219563     1.3067 255 255 255
 0.33115 0.171154  2.08271 255 255 255
 0.427163 0.0263907   2.33217 255 255 255
 0.0447193 -0.0269941    1.20174 255 255 255
 0.0448512 -0.0267654    1.20223 255 255 255
0.194213 0.235203  1.91322 255 255 255
0.0896413 -0.916054   3.20444 255 255 255
0.0611695  0.130716   1.32087 255 255 255
 -0.525255 -0.0984881    1.21153 255 255 255
0.243472 0.243372  1.91843 255 255 255
-0.0471648   -0.34797    2.63747 255 255 255
-0.351708 -0.430947   1.75475 255 255 255
 0.289142 -0.815966   3.10601 255 255 255
 0.282105 -0.665259   3.16582 255 255 255
0.0790204 0.0667665   1.29196 255 255 255
 0.573104 0.0522257   1.91395 255 255 255
0.0110586  0.216764   1.68756 255 255 255
-0.292025 -0.192409   2.57154 255 255 255
0.333009 0.182244  1.88037 255 255 255
0.0759998  0.138672   2.06628 255 255 255
-0.461042  0.540099   1.24932 255 255 255
-0.0690136  -0.031816    1.22768 255 255 255
-0.0706312 -0.0318969    1.22889 255 255 255
 0.277653 -0.908602   3.10266 255 255 255
-0.619108 -0.431568    1.6141 255 255 255
0.272536 0.318502  1.82381 255 255 255
0.0617918 0.0392934   1.25793 255 255 255
0.0757446 -0.755301   2.91782 255 255 255
0.0716139 -0.702253   2.97876 255 255 255
 0.181109 -0.924926   3.11789 255 255 255
 -0.116918 -0.0548882    2.32385 255 255 255
 -0.19098 -0.272372   2.72632 255 255 255
 0.360425 -0.676827   3.18303 255 255 255
 0.125307 -0.135446   2.20857 255 255 255
0.314524 0.236655  1.82513 255 255 255
0.00836621  -0.586818     2.9122 255 255 255
 0.453638 -0.274136   2.79218 255 255 255
 0.453665 -0.273899   2.78994 255 255 255
-0.695036 -0.331556    1.6271 255 255 255
-0.0822056 -0.0956156     1.2509 255 255 255
0.0670695 0.0884712   1.29545 255 255 255
-0.0660712  -0.496662    3.07092 255 255 255
-0.0488177  -0.285784    2.64935 255 255 255
0.0131942 -0.668442   2.84482 255 255 255
-0.210004 -0.291314   2.32667 255 255 255
-0.568365 -0.430718   1.62902 255 255 255
-0.0921112 -0.0829287    1.22489 255 255 255
-0.256992 -0.393782   2.76996 255 255 255
 0.523923 -0.318468   2.92622 255 255 255
 0.352747 -0.507515   3.06381 255 255 255
-0.222981 -0.126329    1.2031 255 255 255
-0.151431 -0.742335   2.87785 255 255 255
0.316032 0.199784  1.85823 255 255 255
    0.116 -0.473792   2.90107 255 255 255
  0.410271 -0.0567412    2.26178 255 255 255
0.0690932 -0.285586     2.721 255 255 255
-0.0740585  -0.338193    2.60677 255 255 255
 0.329467 -0.391108   2.61654 255 255 255
 0.140519 0.0753008   1.34711 255 255 255
-0.0893956   -0.27378    2.63407 255 255 255
0.064412 0.373316  1.69519 255 255 255
 0.425124 -0.324037   2.58076 255 255 255
0.331741 -0.75648   3.1295 255 255 255
-0.0254161  -0.691306    2.89558 255 255 255
0.584972 0.102202   1.8994 255 255 255
 0.315728 -0.767855   3.12363 255 255 255
0.531876 0.157027  1.83782 255 255 255
 0.495756 -0.368796   2.72834 255 255 255
-0.193715 -0.285641   2.36788 255 255 255
 0.148123 -0.119283    1.2435 255 255 255
0.488163 0.219726  1.88474 255 255 255
 0.220273 -0.175094   2.27327 255 255 255
-0.219115 -0.117211   1.20957 255 255 255
 0.37156 0.232846  1.83316 255 255 255
-0.0572416  0.0405874    2.19558 255 255 255
 0.169324 -0.829575   3.11728 255 255 255
-0.0646097  -0.278165     2.6336 255 255 255
 0.458327 -0.365694   2.66004 255 255 255
0.451206 0.178865  1.91552 255 255 255
 0.31163 0.191741  1.87899 255 255 255
0.0458588  0.164484   1.33208 255 255 255
 0.164101 0.0410651   1.34418 255 255 255
-0.0696972  -0.702923    2.83879 255 255 255
0.304395  0.19549  1.86417 255 255 255
0.0575457 0.0698269   1.27538 255 255 255
 0.234814 -0.295774   2.55254 255 255 255
-0.0334581  -0.566623     2.9888 255 255 255
  0.462507 -0.0652493    2.27924 255 255 255
  0.462817 -0.0655044    2.27678 255 255 255
 0.211769 -0.513832   2.85997 255 255 255
  -0.26781 -0.0608443    1.16263 255 255 255
 0.161819 0.0849052   2.04979 255 255 255
 -0.250899 -0.0650868    1.17452 255 255 255
 0.488695 -0.160039   2.32314 255 255 255
0.136491 0.184135  2.00099 255 255 255
 -0.361381 -0.0387501    1.14829 255 255 255
-0.097402  0.106611   2.05845 255 255 255
0.128367 0.158375  1.39673 255 255 255
-0.413275 -0.632235    3.2355 255 255 255
 0.164181 -0.123497   2.23606 255 255 255
 0.172668 -0.886061   3.10305 255 255 255
0.0949349  0.031915   2.25694 255 255 255
-0.0707551  -0.602628    2.87761 255 255 255
 0.297958 -0.844949   3.09798 255 255 255
  0.2607 0.302509  1.83661 255 255 255
 0.254588 -0.819741   3.06347 255 255 255
0.0416377 -0.299867   2.59411 255 255 255
0.324429 0.242984  1.81336 255 255 255
 -0.259772 -0.0832336    1.20552 255 255 255
 0.0632417 -0.0458799    1.20343 255 255 255
-0.519424 -0.920322   3.27549 255 255 255
0.0568306   0.25792   1.40498 255 255 255
 0.355682 -0.366155   2.64557 255 255 255
 0.268989 0.0972695   2.03802 255 255 255
 0.163779 -0.913005   3.12418 255 255 255
-0.211864 0.0824262   1.15041 255 255 255
  0.2574 0.309109  1.82422 255 255 255
  0.018271 -0.0375669    2.35183 255 255 255
-0.0476096  -0.750346    2.84868 255 255 255
-0.574944 -0.800851    3.0896 255 255 255
0.198386 -0.67327  3.01523 255 255 255
 0.521241 -0.259768   2.82823 255 255 255
 0.305885 -0.741647   3.08109 255 255 255
-0.0111441  -0.201783    1.35908 255 255 255
 -0.58069 -0.766321     3.135 255 255 255
0.0573441 -0.704064   2.89105 255 255 255
-0.933611 -0.352338   1.55258 255 255 255
 0.440272 -0.220702   2.46776 255 255 255
0.0803476  0.391272   1.66253 255 255 255
0.0323969 -0.662097   2.94026 255 255 255
-0.530331 -0.875096   3.00214 255 255 255
0.0522599 0.0132186    2.2435 255 255 255
0.0289676  -0.13195   2.28677 255 255 255
0.171176 0.362797  1.75877 255 255 255
 -0.356951 -0.0247589    1.15792 255 255 255
-0.295431 -0.206251   2.60832 255 255 255
  -0.12394 -0.0185322    1.19928 255 255 255
-0.0432491  -0.617435    2.98228 255 255 255
-0.0445645    0.05907    2.15751 255 255 255
-0.0853515  -0.597757    2.85408 255 255 255
 0.150462 0.0538481   2.21748 255 255 255
  0.169987 -0.0466096    1.28706 255 255 255
 -0.17175 -0.518002   2.92095 255 255 255
 -0.121589 -0.0219433    1.20638 255 255 255
 0.330636 -0.657215   3.25638 255 255 255
 0.485923 -0.512844   2.81889 255 255 255
0.0660205  0.375821   1.67931 255 255 255
-0.0851415  0.0113928    2.24256 255 255 255
-0.0746752  -0.687679    2.81666 255 255 255
   0.3722 -0.795211   3.19461 255 255 255
  0.44465 -0.105475   2.24276 255 255 255
 0.323983 -0.305465   2.57544 255 255 255
 -0.186631 -0.0782105    1.19633 255 255 255
 0.164758 -0.550588   2.87465 255 255 255
 -1.08837 -0.368298   1.64454 255 255 255
-0.934865 -0.296764   1.48278 255 255 255
0.0016869 -0.569513   2.87454 255 255 255
 0.407171 -0.180117   2.27603 255 255 255
0.119583 0.191685  1.41133 255 255 255
-0.120844 -0.710851   2.84936 255 255 255
  0.0180033 -0.00410632     1.63721 255 255 255
0.375579 -0.81547   3.2164 255 255 255
0.04117 0.29806  1.4201 255 255 255
0.407562 0.230887  1.85612 255 255 255
-0.455158  -0.38959   1.70207 255 255 255
 0.315664 -0.713036   3.18988 255 255 255
0.380631 0.178152  1.94097 255 255 255
-0.125433 -0.520202   2.99578 255 255 255
0.349785 -0.86713  3.19901 255 255 255
0.0288983  -0.65605   2.99037 255 255 255
-0.0793465 -0.0286469    1.22616 255 255 255
-0.535247 -0.781731   3.10216 255 255 255
-0.341878 -0.896812   3.10906 255 255 255
-0.176636 -0.623474    2.8601 255 255 255
 -0.063584 -0.0639267    1.21187 255 255 255
 0.165973 -0.103714    1.2465 255 255 255
-0.105965 -0.672405   2.90685 255 255 255
 0.177726 -0.885433   3.14958 255 255 255
 0.428529 0.0507775   2.28946 255 255 255
 0.340026 -0.674824   3.21912 255 255 255
-0.100821 -0.343917   2.60007 255 255 255
  0.26232 0.0848264   2.04255 255 255 255
0.466302 0.212119    1.886 255 255 255
0.252244 -0.36379  2.55275 255 255 255
 0.0776256 -0.0875379    1.18767 255 255 255
 0.13131 0.194178  1.42403 255 255 255
 0.139947 -0.105285   1.22291 255 255 255
-0.398886  -0.82589    3.1885 255 255 255
 0.363548 -0.389835   2.62407 255 255 255
0.0380785 -0.647787    3.0053 255 255 255
0.530131 0.171865   1.8504 255 255 255
-0.0174533  -0.554101    3.01329 255 255 255
-0.224338 -0.134465   1.19032 255 255 255
-0.0420257  -0.721979    2.87527 255 255 255
 0.395745 0.0214933   2.32934 255 255 255
-0.928177 -0.303755   1.49703 255 255 255
0.0241839 -0.937374   3.25475 255 255 255
 -0.34482 -0.492242   2.82932 255 255 255
-0.0277964   0.188556    1.89718 255 255 255
 0.603252 -0.156829   2.67256 255 255 255
-0.328282 -0.198714   2.48608 255 255 255
0.0059591 -0.646782   2.99103 255 255 255
-0.145876 -0.709398   2.89371 255 255 255
-0.0204171  -0.260592    2.72893 255 255 255
0.0836977 -0.207744   2.41506 255 255 255
-0.452775 -0.414082   1.71805 255 255 255
 0.422399 -0.248614   2.76309 255 255 255
-0.058946 -0.361534   2.61388 255 255 255
 -0.126072 -0.0614937    1.18868 255 255 255
-0.938045 -0.377431   1.60573 255 255 255
-0.0989116 -0.0566811    2.34751 255 255 255
0.138011 0.147347  1.39277 255 255 255
-0.356528 -0.204347   1.45158 255 255 255
 0.0894366 -0.0618458    1.21133 255 255 255
0.0549207  0.364533   1.69308 255 255 255
 0.16007 0.079845  1.36886 255 255 255
 0.171834 -0.119167   1.24971 255 255 255
-0.255867 -0.783802    3.0281 255 255 255
 0.156995 -0.114689   1.23805 255 255 255
-0.364356 -0.640819   3.15644 255 255 255
 -0.14223 0.0859563   2.09419 255 255 255
-0.286801 -0.512651   2.76737 255 255 255
-0.0836895  -0.731985    2.83813 255 255 255
0.00255654  0.0794465    2.12403 255 255 255
 0.56348 0.127073  1.86943 255 255 255
0.609751  0.11913  1.89643 255 255 255
0.426994 -0.36733  2.60146 255 255 255
 -0.106097 -0.0029301    1.14405 255 255 255
0.0644517 0.0492412   1.26525 255 255 255
0.163847 0.367618  1.66019 255 255 255
-0.333278 -0.621208   3.13091 255 255 255
  0.111901 -0.0806233    1.21485 255 255 255
  0.49445 -0.450709   2.72163 255 255 255
-0.357876 0.0678955   1.10873 255 255 255
0.322123 0.247782  1.80027 255 255 255
 -0.49702 -0.915354    3.1938 255 255 255
  0.467782 -0.0183409    2.37309 255 255 255
0.00669173  -0.307015    2.64232 255 255 255
 -0.208709 -0.0649478    2.31174 255 255 255
 0.507308 -0.471211   2.74945 255 255 255
0.0120718   0.16394   1.97977 255 255 255
-0.120566  0.102452    2.0819 255 255 255
0.537755  0.15036  1.84139 255 255 255
-0.0520966  -0.352043    2.62291 255 255 255
 0.224923 -0.752345   3.13224 255 255 255
-0.537084 -0.396803   1.67989 255 255 255
0.0824311 0.0395877   2.23219 255 255 255
   0.13844 -0.0971377    1.22392 255 255 255
-0.264485 -0.119178    1.1706 255 255 255
0.404472 -0.34131  2.58635 255 255 255
 0.359465 -0.328509   2.58071 255 255 255
 0.527763 -0.104552   2.52851 255 255 255
-0.389641    0.2359   1.18656 255 255 255
-0.155507 0.0527566    2.1545 255 255 255
0.0264056 -0.687878   2.91364 255 255 255
 0.168232 -0.171331   2.27922 255 255 255
 -0.251464 -0.0303377    2.29026 255 255 255
 0.0929326 -0.0389975    1.23009 255 255 255
-0.527112 -0.349901   1.62651 255 255 255
-0.33908 -0.47967  2.83945 255 255 255
  0.329862 -0.0677055    2.13602 255 255 255
-0.382795 -0.891186   3.16866 255 255 255
 0.147668 -0.884552   3.11138 255 255 255
  0.164713 -0.0160579    1.30379 255 255 255
-0.236812 -0.427092   2.76348 255 255 255
-0.0165245  -0.189328    1.36293 255 255 255
 0.297392 -0.718124   3.14978 255 255 255
0.573521 0.123083  1.85946 255 255 255
0.0522905 -0.730567   2.95332 255 255 255
0.0413871 -0.688864   2.95577 255 255 255
-0.398039  0.281265   1.19711 255 255 255
-0.0500374  -0.636517    2.89336 255 255 255
-0.0169305  -0.338733    2.62833 255 255 255
 0.311198 -0.756653   3.12928 255 255 255
-0.0733477 -0.0716566    1.21054 255 255 255
   0.36071 -0.0561494    1.85304 255 255 255
-0.637108  0.503411   1.28211 255 255 255
0.589384 0.152547  1.77572 255 255 255
   0.14706 -0.0864487    1.24081 255 255 255
0.599692 0.133617  1.84362 255 255 255
-0.469295 -0.936788    3.2046 255 255 255
-0.0794311  -0.357347    2.61037 255 255 255
0.0259078 -0.700629   2.96387 255 255 255
 0.150919 0.0578029   1.34596 255 255 255
 -0.094684 0.00166525    2.25543 255 255 255
-0.0431441   0.109811    2.06256 255 255 255
-0.175264 -0.196534   1.37049 255 255 255
   0.5139 -0.351676   2.73998 255 255 255
-0.0734257  0.0769569    1.19774 255 255 255
 0.555083 -0.134751   2.63939 255 255 255
0.0198535  -0.67655   2.93338 255 255 255
 0.266644 -0.343831   2.53936 255 255 255
 0.0627748 0.00519536    1.23207 255 255 255
-0.902091 -0.996087   3.38503 255 255 255
 0.351175 -0.329647   2.56594 255 255 255
-0.183221 0.0763388   2.10513 255 255 255
0.0825927 -0.277308   2.79452 255 255 255
0.0188233 -0.721827   2.86449 255 255 255
0.234348  0.23478  1.92547 255 255 255
-0.124508 -0.670278   2.85666 255 255 255
0.0862914  0.394074   1.64742 255 255 255
-0.509105 -0.793269   3.13102 255 255 255
  0.0940084 -0.00206874     1.25305 255 255 255
0.0566748 -0.120349   2.24628 255 255 255
-0.0685302    0.17117    1.96153 255 255 255
-0.452239   -0.4189   1.80298 255 255 255
0.0696985  0.381195   1.67212 255 255 255
 0.0982971 -0.0837172    1.20009 255 255 255
-0.0478109  -0.582985    2.89267 255 255 255
 0.166397 0.0289729   1.33874 255 255 255
0.0593955  0.187997   1.99236 255 255 255
  0.406498 -0.0857291     2.2405 255 255 255
-0.169429 -0.117636   2.45319 255 255 255
 0.278512 -0.353195   2.56494 255 255 255
-0.478339 -0.764264   3.15903 255 255 255
 0.382094 -0.574342   3.19809 255 255 255
  0.401527 -0.0553405    2.26506 255 255 255
-0.0524202  -0.615659    2.90533 255 255 255
-0.271365   -0.5423   2.00469 255 255 255
 0.148734 -0.155995   2.27785 255 255 255
 0.0744422 -0.0473554    1.20666 255 255 255
  0.27556 -0.381948   2.58234 255 255 255
  0.108995 -0.0693112    1.22165 255 255 255
 0.486144 -0.437699   2.74344 255 255 255
-0.289571 -0.336006   2.33847 255 255 255
 0.137854 0.0800243   1.34859 255 255 255
  0.413436 -0.0900206    2.23959 255 255 255
-0.0225829   0.188645    1.90577 255 255 255
0.233264 -0.57001  2.88649 255 255 255
 -0.110806 -0.0275213    1.17484 255 255 255
-0.0276868 -0.0905297    1.25256 255 255 255
 0.159445 0.0935272    1.3768 255 255 255
0.0774954  0.057562   1.28358 255 255 255
  0.179689 -0.0889681    1.27177 255 255 255
 0.40643 -0.06896  2.24232 255 255 255
 0.445625 -0.248291   2.78067 255 255 255
  0.105673 -0.0688328    1.21934 255 255 255
0.0224681  0.154415   1.31142 255 255 255
 -0.129991 -0.0609603    2.34192 255 255 255
 0.0809013 -0.0238703    1.22675 255 255 255
-0.0675373  -0.623612    2.91291 255 255 255
 0.202456 -0.282658   2.58978 255 255 255
-0.386649 -0.508721   2.82978 255 255 255
 0.12068 0.340263  1.51611 255 255 255
-0.0701274  -0.645756    2.89349 255 255 255
 0.0841381 -0.0758193    1.19772 255 255 255
-0.108787 -0.107268   1.24689 255 255 255
 -0.15935 -0.160408   2.49644 255 255 255
  0.331606 -0.0404687    2.08504 255 255 255
 0.267614 -0.101879   2.30883 255 255 255
-0.554927 -0.833432   3.05175 255 255 255
-0.220733 -0.257562   2.34712 255 255 255
-0.574258 -0.338973   1.63332 255 255 255
0.257484  0.27757  1.86463 255 255 255
  0.14815 -0.758344   3.13707 255 255 255
0.0390305 -0.604216   2.96708 255 255 255
 0.0830653 -0.0814896    1.19127 255 255 255
 0.426921 -0.291371    2.5937 255 255 255
-0.121466 -0.235277   2.66051 255 255 255
-0.274378 -0.518616   3.05523 255 255 255
-0.372143 -0.394205   2.88313 255 255 255
-0.645301  0.478259   1.26549 255 255 255
0.00864722  -0.994276    3.32792 255 255 255
0.0762741 -0.690209    2.9803 255 255 255
0.537902  0.14477  1.84889 255 255 255
-0.121028 0.0971478   2.10372 255 255 255
-0.308269 -0.388815   2.37093 255 255 255
-0.271608 -0.419884   1.81302 255 255 255
0.108228 0.312928  1.48171 255 255 255
0.151244 0.094341   1.3718 255 255 255
 0.57211 0.151785  1.79024 255 255 255
-0.069416 -0.696651   2.93546 255 255 255
 0.159537 0.0731064   1.36178 255 255 255
0.0639781  0.118613   1.31316 255 255 255
 0.138702 -0.161662    1.3106 255 255 255
0.296962 -0.31854  2.59084 255 255 255
-0.194499 -0.278062   2.39921 255 255 255
 0.290649 -0.354793   2.54693 255 255 255
  0.162811 -0.0300799    1.28936 255 255 255
 0.322055 -0.297546   2.54509 255 255 255
-0.372636 -0.926783   3.11623 255 255 255
0.327726 0.104531   2.1552 255 255 255
0.325976 0.106324  2.16256 255 255 255
-0.0599303 -0.0312921     1.2295 255 255 255
0.333947 -0.37692  2.59978 255 255 255
 0.15894 0.017901  1.32478 255 255 255
-0.0485487   0.164202    1.97229 255 255 255
  0.150203 -0.0238063    1.28711 255 255 255
-0.0396856 -0.0238333    1.16962 255 255 255
0.315534 0.220717  1.84631 255 255 255
 0.169342 0.0119052   1.33412 255 255 255
-0.550405 -0.351145    1.6257 255 255 255
-0.0407396    0.07238    1.21269 255 255 255
 -0.242155 -0.0992935    1.20634 255 255 255
 0.0742881 -0.0354373    1.21813 255 255 255
-0.242176  -0.43794   2.76083 255 255 255
-0.581505 -0.439846   1.62888 255 255 255
-0.091299  0.106764   2.06064 255 255 255
 -0.63162 -0.393035   1.63346 255 255 255
 0.313227 0.0855816   2.18598 255 255 255
0.0677898 0.0599527   1.27894 255 255 255
-0.067833 0.0826768   2.11478 255 255 255
0.146795 0.190777  1.99655 255 255 255
-0.194251 0.0657753   2.12014 255 255 255
 0.391288 -0.741609   3.18468 255 255 255
-0.234994 -0.144469   1.17881 255 255 255
  0.393811 -0.0449542    2.26853 255 255 255
 0.464464 -0.272567   2.80592 255 255 255
 0.0385759 0.00568649    1.57297 255 255 255
-0.477789 -0.881415   3.05251 255 255 255
   0.154621 0.000545268     1.30872 255 255 255
-0.348687 -0.464737   2.83917 255 255 255
 0.139912 -0.224076   2.39138 255 255 255
0.143346 0.117835  1.38203 255 255 255
-0.565723 -0.352098   1.62682 255 255 255
-0.146819 -0.563029   2.90427 255 255 255
0.153275 0.106681  1.38178 255 255 255
-0.0437416  -0.364823    2.62728 255 255 255
  0.130607 -0.0793746    1.23408 255 255 255
-0.0629867  -0.287179    2.66851 255 255 255
  0.155163 0.00785143    1.31369 255 255 255
  0.154839 0.00801884    1.31378 255 255 255
-0.0543201  -0.113334    1.28707 255 255 255
-0.200667 -0.265869   2.34138 255 255 255
0.0834621 0.0508876   1.28355 255 255 255
-0.614275 -0.397201   1.63794 255 255 255
 0.243097 0.0740497   2.07499 255 255 255
-0.189582  0.427712   1.36872 255 255 255
 0.435486 -0.337325   2.60937 255 255 255
 0.329201 -0.734757   3.15804 255 255 255
-0.242837 -0.446584   2.74543 255 255 255
0.267407 0.111964  2.01975 255 255 255
0.394653 0.232112  1.83242 255 255 255
 -0.169776 -0.0671321    2.34787 255 255 255
-0.0637124   0.148532    1.99562 255 255 255
-0.310144 -0.538016   3.10979 255 255 255
0.0513363 -0.622073    2.9476 255 255 255
-0.604902 -0.768004   3.14084 255 255 255
  0.402082 -0.0458854    2.26889 255 255 255
   0.17111 -0.0158243    1.31265 255 255 255
-0.340757 -0.904216   3.07291 255 255 255
-0.0323026  -0.247723    2.70507 255 255 255
  -0.53623 -0.0445892     1.2312 255 255 255
0.554786 0.116882  1.86912 255 255 255
 -1.16215 -0.525356   1.94575 255 255 255
-0.194491 -0.148818   2.52772 255 255 255
-0.0491348  -0.338926    2.60635 255 255 255
 0.0949901 -0.0656134     1.2113 255 255 255
-0.00519807    0.214791     1.89184 255 255 255
 0.295004 -0.645186   3.16134 255 255 255
0.0550703 -0.112729   1.21446 255 255 255
 0.041602 -0.960546   3.28263 255 255 255
-0.0711016  -0.330294    2.60403 255 255 255
-0.0911637 -0.0872818    2.40948 255 255 255
-0.0567722  -0.374438    2.64059 255 255 255
-0.0450022  -0.105342    1.27476 255 255 255
-0.231703 -0.274372   2.32679 255 255 255
 0.272549 -0.318193   2.56855 255 255 255
-0.548321 -0.786278   3.09186 255 255 255
-0.192688 0.0163596   2.20856 255 255 255
 0.272955 -0.325985   2.55797 255 255 255
 0.184996 -0.153023   2.26779 255 255 255
0.0838514 0.0387878   1.27708 255 255 255
 0.470971 -0.101507   2.26574 255 255 255
  0.274824 -0.0984861    2.31854 255 255 255
 0.161986 0.0485508   1.34887 255 255 255
 0.161622 0.0488553   1.34912 255 255 255
0.0803082 0.0265849   1.26204 255 255 255
0.0963298  0.389178   1.66929 255 255 255
 0.191221 -0.816826   3.14049 255 255 255
  -0.5806 -0.726462   3.12841 255 255 255
 0.152975 0.0635692   2.20528 255 255 255
-0.187932 0.0437412   2.17159 255 255 255
 -0.132438 -0.0131558    1.12011 255 255 255
 0.110201 0.0174852    2.2833 255 255 255
 0.0855668 -0.0576979    1.20986 255 255 255
 0.0654296 -0.0327318    1.21146 255 255 255
0.158799 0.156232   2.0487 255 255 255
-0.106371 -0.132495   1.28642 255 255 255
 0.287682 -0.765696    3.1458 255 255 255
-0.569751  -0.77429   3.15006 255 255 255
-0.0411746  -0.717455    2.80364 255 255 255
-0.716601 -0.503336   1.74344 255 255 255
 -0.366165 -0.0177809    1.14668 255 255 255
0.0520378  0.183478    1.3453 255 255 255
0.243177 0.236631  1.92442 255 255 255
-0.129035 -0.080823   2.39879 255 255 255
 -0.247859 -0.0911325    1.21116 255 255 255
 0.347917 -0.377035   2.60096 255 255 255
-0.0622868 -0.0315972     2.3138 255 255 255
0.00707487 -0.0185822    1.19253 255 255 255
  0.390892 -0.0993855    2.23858 255 255 255
  -0.134118 9.42089e-05     1.12925 255 255 255
  0.169948 -0.0285795    1.30216 255 255 255
 0.512791 -0.435788   2.71743 255 255 255
-0.0620425 -0.0415689     1.2418 255 255 255
-0.0219738   0.179884     1.9584 255 255 255
-0.278383 -0.361016   2.34454 255 255 255
-0.390454 -0.518291   2.81588 255 255 255
0.248576 0.267225  1.87879 255 255 255
0.293888 0.203476  1.86538 255 255 255
 0.144063 -0.174042   2.27922 255 255 255
-0.0346484  0.0717853    1.21623 255 255 255
 0.506913 -0.442002   2.72252 255 255 255
0.0765612  0.367018   1.70385 255 255 255
 0.153423 -0.171056   2.27541 255 255 255
 -0.122172 -0.0699411    1.20178 255 255 255
-0.0804328  -0.144578    1.30623 255 255 255
  0.169774 -0.0811459    1.26542 255 255 255
0.00704275   0.184117    1.95103 255 255 255
  0.460654 -0.0757153    2.28007 255 255 255
0.0404799 -0.946967   3.27092 255 255 255
-0.0334414   0.169787     1.9724 255 255 255
-0.224002 -0.147055   1.18526 255 255 255
  0.169288 0.00885805     1.3268 255 255 255
-0.0841384  -0.102261    1.25298 255 255 255
 -0.328016 0.00504202    1.08752 255 255 255
 0.175043 -0.124567   1.25911 255 255 255
-0.440269 -0.395542   1.78641 255 255 255
 0.486598 -0.446885   2.72618 255 255 255
 0.32965 0.149734  1.94389 255 255 255
  -0.13612 -0.0746553    1.20031 255 255 255
 -0.107034 -0.0247461    1.21469 255 255 255
-0.0806245   0.153311    1.24377 255 255 255
-0.248133 -0.137773   1.17546 255 255 255
-0.530233 -0.784874   3.08513 255 255 255
 0.14438 0.377296  1.65966 255 255 255
 0.060163 -0.697104   2.95033 255 255 255
0.484615 0.128371  2.12978 255 255 255
0.0101207 -0.028921    1.1898 255 255 255
 0.448595 0.0056517   2.36354 255 255 255
0.128426 0.227213  1.44288 255 255 255
  0.0334561 -0.00317158     2.30361 255 255 255
-0.250847 -0.422375    1.8195 255 255 255
 0.406511 -0.270261   2.60381 255 255 255
0.0528177 -0.308488   2.58421 255 255 255
0.0794311  0.381918   1.64686 255 255 255
  0.170384 0.00192748     1.3226 255 255 255
0.124321 0.201159  1.41713 255 255 255
0.0509838  0.128208    1.3128 255 255 255
 0.178635 -0.107189   1.25493 255 255 255
 -0.257484 -0.0776412    2.34434 255 255 255
0.154771 0.031975  1.33116 255 255 255
0.0704338 0.0160558   1.24901 255 255 255
0.409393 0.271786   1.7795 255 255 255
-0.101189 -0.560309   2.91458 255 255 255
  0.271289 -0.0126954    2.07918 255 255 255
0.295296 0.205328  1.85501 255 255 255
-0.196714  0.285102   1.27289 255 255 255
-0.610284  0.520624   1.28846 255 255 255
-0.365158 -0.393281   1.75443 255 255 255
-0.0235915   0.219803    1.89002 255 255 255
-0.135271 -0.497792   3.02138 255 255 255
-0.0102797  -0.308828    2.65589 255 255 255
   -0.10116 -0.00603453      1.1654 255 255 255
0.0232809 -0.119487   2.27141 255 255 255
  0.154821 -0.0582149    1.26579 255 255 255
 0.10894 0.309692  1.48564 255 255 255
-0.246522 -0.129146   1.18691 255 255 255
0.059639 0.219382  1.37718 255 255 255
-0.134424  -0.08776   2.40296 255 255 255
-0.0292822   0.215402    1.89161 255 255 255
  -0.20724 -0.0476923    1.15638 255 255 255
-0.282232 -0.198557   2.62007 255 255 255
0.0371961 0.0563164   1.25189 255 255 255
0.107191 -0.20396  2.37811 255 255 255
-0.132865 0.0174405   1.13052 255 255 255
-0.45142 0.525812  1.32322 255 255 255
-0.246883 -0.127038   1.18305 255 255 255
0.0814136 0.0390176   1.27281 255 255 255
0.090827 0.380455  1.68192 255 255 255
-0.0779135   0.035735    2.17845 255 255 255
0.0750759  0.375392   1.69359 255 255 255
0.200473 -0.25305  2.66618 255 255 255
-0.0649215    0.12733    2.03593 255 255 255
 -0.111352 -0.0509041    1.18987 255 255 255
 0.421397 -0.285159    2.6199 255 255 255
-0.0171915 -0.0417145     2.3675 255 255 255
-0.0158199   0.160962    1.28833 255 255 255
-0.0770218  -0.045567    1.25796 255 255 255
0.0682931 -0.322888   2.59216 255 255 255
 0.158495 0.0364641   1.33798 255 255 255
-0.146384 -0.266845   2.71404 255 255 255
-0.365859 -0.017713   1.12502 255 255 255
 0.097625 -0.041382   1.23034 255 255 255
-0.026209 -0.266372   2.70093 255 255 255
0.289151 0.114507  2.01847 255 255 255
  0.31765 0.0676531   2.21552 255 255 255
-0.249268 -0.851604   2.98609 255 255 255
-0.181535  -0.19164   1.37017 255 255 255
-0.243523 -0.135502   1.18036 255 255 255
-0.0616774   0.170817    1.97298 255 255 255
0.0444495  0.209027   1.35833 255 255 255
-0.0159856   0.120977    2.05529 255 255 255
0.0694605  0.369446   1.65264 255 255 255
-0.213946 -0.275311   2.74208 255 255 255
-0.218046 -0.301085   2.75516 255 255 255
 -1.27174 -0.500563   1.87402 255 255 255
-0.48986 0.524261  1.33073 255 255 255
0.0336005  0.341077    1.4434 255 255 255
0.0273471  0.347017   1.45186 255 255 255
-0.0993763  -0.153366    1.35288 255 255 255
-0.208411 -0.320684   2.35611 255 255 255
 -0.196099 -0.0249225    1.16026 255 255 255
-0.818598 -0.411757   1.64706 255 255 255
 -0.212856 -0.0452447    1.14465 255 255 255
-0.873822 -0.412113   1.65994 255 255 255
 0.163062 -0.077466   1.26254 255 255 255
-0.0690481   0.108874    2.07628 255 255 255
-0.206989 0.0455766    2.1347 255 255 255
   0.18102 -0.0846611    1.27237 255 255 255
-0.706989  0.493509   1.26346 255 255 255
  0.14161 -0.177218   2.30289 255 255 255
-0.536258 -0.433914   1.67707 255 255 255
 -0.123361 -0.0334333    1.18682 255 255 255
-0.646642 -0.428231   1.62369 255 255 255
-0.00337007    0.186324     1.92794 255 255 255
-0.261672 -0.505524   3.04318 255 255 255
-0.0213653 -0.0329016    2.33188 255 255 255
  0.153873 -0.0540865    1.27254 255 255 255
0.225545 0.225776  1.94466 255 255 255
 0.146338 -0.152573   1.29873 255 255 255
  0.128728 -0.0804815    1.22976 255 255 255
 -0.193368 -0.0250706    1.16403 255 255 255
-0.880702 -0.395907   1.64341 255 255 255
  -0.2035 -0.286281   2.35036 255 255 255
 0.245895 0.0899313   2.04105 255 255 255
-0.0400113  -0.101084    1.26485 255 255 255
0.0792966 0.0340788   1.27197 255 255 255
-0.180929 0.0679053   2.13905 255 255 255
-0.447376 -0.285188   1.56405 255 255 255
0.124125 0.189999  1.41341 255 255 255
 -0.272259 -0.0547414    2.32627 255 255 255
0.0485421   0.19438   1.35394 255 255 255
 0.1295 0.17565 1.40884 255 255 255
0.509672 0.188072  1.84878 255 255 255
 -0.25917 -0.403968   1.79221 255 255 255
 -0.18121 0.0493073   2.14826 255 255 255
 -0.220336 -0.0379881     1.1339 255 255 255
 -0.244044 -0.0282213    2.27719 255 255 255
 0.116903 -0.201073   2.39522 255 255 255
 0.238827 -0.196839   2.67407 255 255 255
  0.076647 0.00432629    1.24765 255 255 255
 0.0963619 -0.0906751    1.19929 255 255 255
-0.0634932   0.119907    2.05591 255 255 255
-0.0686065  0.0381922    2.20475 255 255 255
-0.0561465 -0.0296283    1.23644 255 255 255
0.0707557  0.154324   1.34497 255 255 255
-0.562685  -0.42425   1.63162 255 255 255
 0.36445 0.206427  1.86964 255 255 255
0.291295 0.343616  1.76412 255 255 255
0.179509 0.357678  1.76229 255 255 255
0.230704 0.142455  1.96051 255 255 255
0.442532 0.319121  1.70667 255 255 255
0.518905 0.252492  1.81115 255 255 255
  0.26241 0.0969267   2.03667 255 255 255
0.440603 0.232909   1.8405 255 255 255
0.549133 0.314756  1.73023 255 255 255
0.533406 0.295224  1.72915 255 255 255
-0.148417  0.343879   1.16771 255 255 255
0.715365 0.259906  1.74079 255 255 255
-0.521574  0.604003    1.2897 255 255 255
0.358224 0.248586  1.79846 255 255 255
0.354243 0.138984    1.985 255 255 255
0.271898 0.514498   1.5143 255 255 255
 0.0265764 0.00380267    1.22311 255 255 255
-0.0803647  -0.145494    1.31094 255 255 255
  -0.301576 -0.00798759     1.08709 255 255 255
 0.486074 -0.295561    2.8436 255 255 255
-0.255172 -0.122761   1.17843 255 255 255
-0.265253 -0.332124    2.7488 255 255 255
-0.276757 -0.335141   2.77066 255 255 255
-0.200339 -0.231758   2.54678 255 255 255
 -0.375741 -0.0752072    1.18702 255 255 255
-0.191697 -0.114442   1.21639 255 255 255
0.0429657 -0.019017   1.58846 255 255 255
-0.165543  0.322229   1.24754 255 255 255
0.140466 0.511842  1.50028 255 255 255
0.0183592 0.0506834   1.22518 255 255 255
 -0.149905 -0.0152806    1.13153 255 255 255
-0.21357 0.562697  1.29037 255 255 255
  0.109797 -0.0411753    1.23609 255 255 255
-0.199366  0.258795   1.23943 255 255 255
0.026686 0.433218  1.50386 255 255 255
 0.363314 -0.265551   2.68241 255 255 255
0.0814635 -0.107563   1.19849 255 255 255
 -0.02647 -0.204078   1.36893 255 255 255
-0.0866284   0.067098    1.17934 255 255 255
0.281442 0.483834   1.5395 255 255 255
0.0127152 -0.206623   1.56999 255 255 255
0.0393866 -0.178837   1.36331 255 255 255
 0.66892 0.172642  1.75699 255 255 255
0.0137048 -0.806659   2.99714 255 255 255
-0.117581 0.0694472   1.15961 255 255 255
-0.130729 0.0719501   1.16838 255 255 255
-0.398525 -0.153779   2.43758 255 255 255
-0.383713 -0.211105    2.4934 255 255 255
-0.142433  0.169256    1.2268 255 255 255
-0.231965 -0.136494   1.18307 255 255 255
-0.166015  0.177506   1.21488 255 255 255
 0.184063 -0.157882     2.285 255 255 255
-0.213073  0.489851   1.40429 255 255 255
0.00409707    0.23706     1.3553 255 255 255
0.0889837  0.394909   1.65648 255 255 255
-0.158676  0.493811   1.42662 255 255 255
-0.112428  0.348704    1.3429 255 255 255
 0.217222 -0.696703   3.01465 255 255 255
-0.40605 0.302335  1.21573 255 255 255
 -0.158154 -0.0847807     2.3776 255 255 255
-0.182156  0.398652   1.30413 255 255 255
 -0.150647 -0.0578856    1.17853 255 255 255
-0.316254  0.434324    1.2906 255 255 255
-0.0812012  -0.529066    3.03048 255 255 255
-0.305603 -0.414108   2.38046 255 255 255
0.681534 0.341631  1.74142 255 255 255
 -0.23277 0.0028308    2.2281 255 255 255
-0.147814 -0.790267   2.87799 255 255 255
-0.00671363    0.334213     1.41342 255 255 255
-0.290165 -0.391314   2.50999 255 255 255
0.0163735 -0.753826   2.99205 255 255 255
-0.283682  0.327502   1.25261 255 255 255
-0.0452208  -0.373958    2.73511 255 255 255
 0.0490299 -0.0738624     1.1976 255 255 255
 0.30614 0.484205  1.54744 255 255 255
-0.193252 -0.123386   2.41892 255 255 255
 -0.341664 -0.0284685    2.36859 255 255 255
-0.473628 -0.278654   2.52607 255 255 255
0.0796384  0.519075   1.45686 255 255 255
0.510807 0.418579  1.51904 255 255 255
-0.261415 -0.429064   1.81399 255 255 255
0.124442 0.176608  1.79024 255 255 255
0.717767 0.236437  1.75044 255 255 255
0.302081 0.126696  2.02113 255 255 255
-0.0663463 -0.0848697    1.24943 255 255 255
-0.252116  -0.11695   2.39935 255 255 255
 -0.149633 -0.0311069     1.1626 255 255 255
0.0243949  0.231096   1.36598 255 255 255
-0.105742 -0.542152   2.91033 255 255 255
-0.262403 -0.432481   2.83871 255 255 255
-0.385767  0.370752   1.20332 255 255 255
 0.589738 0.0803049   1.92136 255 255 255
0.247159 0.171325  1.91648 255 255 255
-0.333648 -0.448429   2.82762 255 255 255
-0.441786  0.227394     1.181 255 255 255
-0.0911526  -0.838329    2.90024 255 255 255
 -0.724488 0.00635517    1.17576 255 255 255
0.0228577 -0.625518    2.9876 255 255 255
-0.528287 -0.722989    3.2246 255 255 255
  -0.3063 -0.222228   2.54837 255 255 255
   0.168624 0.000429695     1.31819 255 255 255
-0.429812  0.234822    1.1964 255 255 255
 -0.129052 -0.0636891    1.18815 255 255 255
-0.436988  0.360005   1.22104 255 255 255
0.0892268  0.373516   1.70566 255 255 255
-0.325887  0.378129   1.26855 255 255 255
-0.367149  -0.84541   3.12673 255 255 255
 0.279852 -0.343725   2.56634 255 255 255
 0.279675 -0.344089   2.56753 255 255 255
-0.246538 -0.400242   1.81765 255 255 255
-0.383516  0.270834   1.19695 255 255 255
 -0.153659 -0.0889827    1.22293 255 255 255
 -0.149084 -0.0988855    1.23946 255 255 255
-0.0655056   0.515207    1.41139 255 255 255
-0.0670372   0.517059    1.41564 255 255 255
 0.235452 -0.924456   3.18089 255 255 255
-0.262526 -0.537838   2.99648 255 255 255
-0.203891  0.149121   1.18805 255 255 255
 -2.58123 -0.292469   1.88798 255 255 255
-0.0491728  -0.832384    2.87283 255 255 255
-0.326602 -0.361349   2.14399 255 255 255
 -0.166641 -0.0100059    1.11868 255 255 255
  0.34615 -0.764231   3.18223 255 255 255
-0.173854 -0.138768   2.48627 255 255 255
  0.37731 -0.350874   2.57448 255 255 255
-0.277884 -0.506627   3.03703 255 255 255
-0.0170336  -0.580731    3.16532 255 255 255
 0.586975 0.0509405   1.89102 255 255 255
-0.290924 -0.653865   3.09468 255 255 255
0.151744 0.137232  1.40041 255 255 255
 0.213629 -0.286214   2.56476 255 255 255
-0.088977  0.588894   1.27326 255 255 255
 0.289295 -0.686994   3.15646 255 255 255
0.0828539 -0.763921   2.97904 255 255 255
-0.447213 -0.172893   2.48222 255 255 255
 -0.320398 -0.0586298    2.36716 255 255 255
-0.0426969  -0.347207    2.62692 255 255 255
-0.0469025  -0.348068    2.63752 255 255 255
  0.580197 0.00955615    1.88704 255 255 255
 0.330739 -0.367089   2.59721 255 255 255
 0.549333 -0.428281   2.74844 255 255 255
-0.0760531  0.0579925    1.17661 255 255 255
-0.0860399  -0.105092    1.24702 255 255 255
-0.215129 0.0567315   2.13093 255 255 255
