ply
format ascii 1.0
element vertex 275
property float x
property float y
property float z
property uchar red
property uchar green
property uchar blue
end_header
 0.00460906  0.00486118 0.000273699 0 255 0
 0.887466 -0.198879  0.406446 0 255 0
0.317493  0.17701  1.64919 255 255 255
0.371184 0.128512  1.70436 255 255 255
 0.248853 0.0764213   1.71954 255 255 255
0.334625 0.175032  1.65651 255 255 255
0.319362 0.130874  1.69083 255 255 255
 0.26759 0.103599  1.70135 255 255 255
0.282494 0.159651   1.6542 255 255 255
0.351302 0.150673   1.6827 255 255 255
0.327887 0.144145  1.68426 255 255 255
0.350781 0.120778  1.70587 255 255 255
0.304219 0.176673  1.64974 255 255 255
 0.183656 0.0689514   1.74493 255 255 255
 0.32283 0.148055  1.67511 255 255 255
0.312932  0.13473  1.68674 255 255 255
0.367124 0.148755  1.68543 255 255 255
0.298558 0.128942  1.68716 255 255 255
0.0461911  0.163221   1.41575 255 255 255
-0.215515  0.210293   1.33848 255 255 255
0.0434193  0.252773   1.46338 255 255 255
0.297296 0.101663   1.7089 255 255 255
0.0476012  0.174519   1.42184 255 255 255
 0.27553 0.100183  1.70451 255 255 255
0.305963 0.171794  1.65192 255 255 255
0.039953 0.154897  1.40759 255 255 255
0.106692 0.164577  1.45525 255 255 255
0.0434771  0.140833   1.39969 255 255 255
0.102765 0.119345  1.42781 255 255 255
0.0306522  0.157207   1.40201 255 255 255
-0.0653759   0.259426    1.40878 255 255 255
0.256886 0.122997  1.67768 255 255 255
0.0335077   0.14633   1.39751 255 255 255
0.0474418  0.184893   1.42881 255 255 255
-0.153098  0.241351   1.34324 255 255 255
0.0367838  0.243138   1.45422 255 255 255
0.0350025  0.231268   1.44685 255 255 255
0.110759 0.153793  1.45255 255 255 255
-0.0689202   0.198163    1.37373 255 255 255
0.104208 0.177945  1.46119 255 255 255
0.336543 0.151442  1.67541 255 255 255
0.00132252  0.0807712    1.34691 255 255 255
-0.126612 0.0983253   1.28158 255 255 255
-0.186425   0.20465    1.3292 255 255 255
-0.187689   0.13553   1.29233 255 255 255
 -0.32273 -0.279291   1.56182 255 255 255
-0.00241156   0.0639969     1.32949 255 255 255
-0.151149 -0.300209   1.62849 255 255 255
 -0.202615 -0.0202422    1.23605 255 255 255
-0.292206  0.204733    1.3259 255 255 255
0.0311924 0.0509644   1.34422 255 255 255
 0.0525841 0.00057358    1.32949 255 255 255
 0.0424345 0.00491475    1.32692 255 255 255
0.047647 0.133957  1.40176 255 255 255
0.101158 0.169029  1.45422 255 255 255
-0.0263605  0.0609811    1.31556 255 255 255
 0.0126727 -0.0262729    1.28957 255 255 255
0.0293049  0.115152   1.37787 255 255 255
-0.259309 0.0577954   1.23957 255 255 255
 0.0544289 -0.0125203    1.32346 255 255 255
-0.395748 -0.285538   1.55514 255 255 255
-0.242247  0.132496   1.28676 255 255 255
0.0336485 0.0444645   1.34242 255 255 255
-0.252616  0.132607   1.28469 255 255 255
-0.272034 -0.224681   1.53089 255 255 255
 0.029201 0.0884763   1.36353 255 255 255
 0.0493816 -0.0375167    1.30517 255 255 255
-0.200353  0.196083   1.33346 255 255 255
 -0.213141 -0.0401497    1.25648 255 255 255
0.103159 0.109823   1.4235 255 255 255
-0.0650902   0.132791    1.33781 255 255 255
0.0298385 0.0246998    1.3284 255 255 255
-0.236454 -0.311478   1.63733 255 255 255
-0.266015 0.0624901    1.2419 255 255 255
 -0.25184 -0.117719   1.26915 255 255 255
  -0.25151 -0.0792708    1.28812 255 255 255
-0.323181 -0.298888   1.56377 255 255 255
-0.0780514  0.0610107    1.28999 255 255 255
 -0.241855 -0.0806101    1.29347 255 255 255
-0.242828 -0.119465   1.27331 255 255 255
-0.0519795   0.135976    1.34699 255 255 255
0.0380656 0.0689928   1.35835 255 255 255
0.0530367 -0.044629   1.30429 255 255 255
  0.0369949 -0.00938426     1.31408 255 255 255
-0.152704 -0.290546    1.6271 255 255 255
-0.108359 -0.131176   1.38619 255 255 255
0.0278985   0.10594   1.37237 255 255 255
0.0504461  0.103878   1.38632 255 255 255
-0.335601 -0.271491   1.55334 255 255 255
-0.380387 -0.295942   1.55954 255 255 255
0.394585 0.137226  1.70268 255 255 255
 -0.38038 -0.289659   1.56172 255 255 255
-0.281668 -0.259386   1.56934 255 255 255
 0.31269 0.129382  1.68934 255 255 255
 0.233031 0.0501878   1.73768 255 255 255
 0.26647 -0.34354  2.01908 255 255 255
-0.346068 -0.263232   1.55255 255 255 255
-0.0720926  0.0564356    1.28582 255 255 255
-0.252654 0.0631461    1.2406 255 255 255
-0.0737451   0.131122    1.33257 255 255 255
 0.288238 -0.391013   2.05368 255 255 255
  0.077829 -0.0505037    1.31797 255 255 255
 0.399572 -0.248452   1.97151 255 255 255
  0.31255 -0.399845   2.05472 255 255 255
-0.371373 -0.278967   1.56514 255 255 255
0.433917  0.11867  1.69152 255 255 255
 0.0681392 -0.0617107    1.30167 255 255 255
 0.115407 -0.327259   1.98901 255 255 255
 0.104842 -0.411663   1.97243 255 255 255
 0.282868 -0.372207   2.03945 255 255 255
0.0323636  0.001795    1.3174 255 255 255
 0.0846853 -0.0642912    1.31271 255 255 255
 0.184159 -0.366267   2.00261 255 255 255
   0.37139 -0.0577921    1.85189 255 255 255
 0.107718 -0.350313   1.98033 255 255 255
0.026983 0.193434  1.42029 255 255 255
-0.387397 -0.288686   1.55612 255 255 255
 0.115809 -0.378165   1.99801 255 255 255
  0.41795 -0.239615   1.98656 255 255 255
-0.320277 -0.248695   1.54934 255 255 255
 0.0449128 -0.0314943    1.30634 255 255 255
 0.109004 0.0366505   1.38725 255 255 255
-0.0433275  -0.424503    2.00859 255 255 255
0.198114 -0.40287  2.01395 255 255 255
   0.35937 -0.0831238    1.84491 255 255 255
 0.344247 -0.224328   1.93048 255 255 255
 -0.328194 -0.0159781     1.2587 255 255 255
 0.378903 -0.175962    1.9943 255 255 255
 0.0397974 -0.0254123    1.30519 255 255 255
 0.112587 -0.365967    1.9836 255 255 255
  0.123184 -0.0269686    1.35949 255 255 255
-0.0151852  0.0654357    1.32496 255 255 255
 0.111079 -0.348421   1.98312 255 255 255
 0.0614445 -0.0408786     1.3124 255 255 255
  0.122474 -0.0837828    1.32704 255 255 255
  0.114568 -0.0766562    1.32632 255 255 255
 0.035024 0.0732151   1.35918 255 255 255
 0.415403 -0.250439    1.9856 255 255 255
 -0.219877 -0.0788293    1.30497 255 255 255
0.00985874  -0.445128     2.0175 255 255 255
0.0979668 -0.357223   1.97413 255 255 255
0.342363 0.159546  1.67001 255 255 255
  0.095126 -0.0776176     1.3113 255 255 255
 0.264294 -0.232474   1.91866 255 255 255
  0.119521 -0.0724801    1.33158 255 255 255
-0.0523025  -0.425287    2.00812 255 255 255
0.00970305  -0.161788    1.41976 255 255 255
 0.110819 0.0889005   1.41701 255 255 255
-0.381364 -0.302449   1.55297 255 255 255
 0.0948131 -0.0656494    1.31889 255 255 255
-0.0889733   0.182024     1.3554 255 255 255
  0.369463 -0.0354007    1.87952 255 255 255
 0.126268 -0.068069   1.33967 255 255 255
0.0525939 0.0301947   1.34696 255 255 255
 0.109062 0.0207748   1.37745 255 255 255
-0.0749435  0.0490151    1.28465 255 255 255
0.027746 0.134702   1.3877 255 255 255
 0.0607444 -0.0520469    1.30413 255 255 255
 0.291022 -0.182706   1.96138 255 255 255
-0.0830474 -0.0461675    1.30443 255 255 255
  0.347907 -0.0912157    1.83647 255 255 255
 0.0617954 -0.0634403     1.2995 255 255 255
 0.271606 -0.214773   1.92352 255 255 255
0.0515582 0.0550564   1.36031 255 255 255
-0.244268  -0.27352   1.59421 255 255 255
  0.113008 -0.0383494    1.34623 255 255 255
-0.170068 -0.463524    2.0411 255 255 255
 0.342937 -0.431198   2.07474 255 255 255
 0.250113 0.0455066   1.75267 255 255 255
 0.422228 -0.273868   1.98469 255 255 255
 0.258056 -0.380093   2.02303 255 255 255
  0.43067 -0.261729   1.98485 255 255 255
 0.405386 -0.267493   1.98091 255 255 255
 0.342111 -0.416437   2.07255 255 255 255
  0.123964 -0.0590296    1.34216 255 255 255
0.121775 0.017122  1.38413 255 255 255
 0.163823 -0.339229     2.006 255 255 255
 0.407667 -0.305372   2.00459 255 255 255
 0.0694679 -0.0598141    1.30659 255 255 255
 0.0878471 -0.0689272    1.31225 255 255 255
 0.277664 -0.227452   1.92176 255 255 255
   0.37141 -0.0506736    1.85051 255 255 255
 -0.252791 -0.0732537    1.28998 255 255 255
-0.257846 -0.117532   1.26627 255 255 255
 0.0461362 -0.0657206    1.28726 255 255 255
-0.236668 -0.109192   1.28072 255 255 255
-0.237774 -0.288986   1.61468 255 255 255
0.0987096 -0.363463   1.97433 255 255 255
 0.246046 -0.200608   1.92188 255 255 255
0.274905 0.105624  1.70034 255 255 255
0.193315 -0.41349  2.00334 255 255 255
-0.519933 -0.286442   1.56166 255 255 255
-0.247503 -0.115866   1.27464 255 255 255
-0.516781 -0.293432    1.5631 255 255 255
 -0.247398 -0.0956156    1.28258 255 255 255
 0.198162 -0.377155   2.01131 255 255 255
0.334517  0.18124  1.65221 255 255 255
-0.186425   0.20465    1.3292 255 255 255
  0.222832 0.00848246    1.75748 255 255 255
0.0356313 0.0244977   1.33252 255 255 255
-0.0601392   0.057633    1.29719 255 255 255
 0.117908 0.0286448   1.39035 255 255 255
-0.0553197   0.131506    1.34078 255 255 255
0.0337717 0.0899448   1.36763 255 255 255
0.0326944 0.0658525   1.35321 255 255 255
-0.35209 0.158766  1.28307 255 255 255
-0.246717   0.20044    1.3266 255 255 255
0.00753949   0.111568    1.36328 255 255 255
0.349085 0.111233   1.7088 255 255 255
-0.10027 0.134284  1.32247 255 255 255
-0.0710269   0.262447    1.41093 255 255 255
0.421706 0.110598  1.68821 255 255 255
   0.52766 -0.0167369    1.71811 255 255 255
 0.282462 0.0623079    1.7373 255 255 255
-0.285421  -0.29532   1.58058 255 255 255
0.0497811 0.0574753   1.36115 255 255 255
 0.379658 -0.188136   1.99478 255 255 255
0.417696  -0.2081  2.02911 255 255 255
0.272594 0.108535  1.69481 255 255 255
0.0285944  0.130878   1.38705 255 255 255
  0.385978 -0.0724888    1.85442 255 255 255
 -0.235818 -0.0717641    1.29795 255 255 255
 0.346617 -0.421973   2.07278 255 255 255
 0.336804 -0.454767   2.07199 255 255 255
 0.171273 -0.359986   2.00694 255 255 255
 0.102613 -0.370323   1.98128 255 255 255
 0.466661 -0.127473    1.9776 255 255 255
0.0838232 -0.387756   1.97578 255 255 255
 0.361758 -0.175049    1.9851 255 255 255
-0.560022 -0.275522   1.54017 255 255 255
  0.095126 -0.0776176     1.3113 255 255 255
 0.182729 -0.399818    2.0023 255 255 255
 0.116813 0.0483091   1.39833 255 255 255
 -0.22238 -0.297229     1.632 255 255 255
 0.281276 -0.234157   1.92474 255 255 255
 0.106086 0.0655612   1.40097 255 255 255
  0.354523 -0.0873864    1.83762 255 255 255
0.374687 -0.17475   1.9917 255 255 255
 0.121076 -0.347597    1.9841 255 255 255
 -0.107394 -0.0901744    1.32757 255 255 255
  0.31438 -0.246792   1.93896 255 255 255
  0.111476 -0.0160781    1.35754 255 255 255
  0.117288 0.00330039    1.37264 255 255 255
 0.193035 -0.165374   1.86484 255 255 255
  0.118057 0.00920367    1.37646 255 255 255
 0.235786 0.0158074   1.76614 255 255 255
-0.571679  -0.33892   1.67894 255 255 255
  -0.22513 -0.0780898    1.30249 255 255 255
 0.340688 -0.093177   1.83572 255 255 255
-0.376065 -0.312845   1.55012 255 255 255
-0.230942 -0.109675   1.28378 255 255 255
-0.154334 0.0201965   1.23673 255 255 255
-0.506703 -0.295904   1.56652 255 255 255
 -0.38427 -0.312865   1.54894 255 255 255
0.0500798  0.123304   1.39681 255 255 255
-0.330988 -0.311718    1.5545 255 255 255
 0.220071 0.0653919   1.72157 255 255 255
-0.138637  0.137678   1.31383 255 255 255
-0.130776 -0.316853    1.6298 255 255 255
 0.253691 -0.185977   1.93403 255 255 255
-0.342462  0.192009   1.29446 255 255 255
  0.347907 -0.0912157    1.83647 255 255 255
0.259298 0.104351  1.69704 255 255 255
   0.11067 -0.0102531    1.36111 255 255 255
0.0947311 -0.381648   1.97462 255 255 255
  0.32739 -0.231928   1.93194 255 255 255
 0.309765 -0.193983   1.95395 255 255 255
 0.357311 -0.321092   2.06934 255 255 255
  0.306414 0.00772133    1.82505 255 255 255
 0.165492 -0.405002   1.98912 255 255 255
-0.555694 -0.268674   1.54848 255 255 255
 -0.247398 -0.0956156    1.28258 255 255 255
 0.0957822 -0.0599525    1.32257 255 255 255
 0.339681 0.0998666   1.72232 255 255 255
0.334517  0.18124  1.65221 255 255 255
