ply
format ascii 1.0
element vertex 276
property float x
property float y
property float z
property uchar red
property uchar green
property uchar blue
end_header
0 0 0 0 255 0
 0.891405 -0.196769  0.408264 0 255 0
0.318741 0.174679  1.64362 255 255 255
0.372105 0.126092  1.69806 255 255 255
  0.24983 0.0748783   1.71342 255 255 255
 0.33581 0.172546  1.65083 255 255 255
0.320428 0.128777  1.68482 255 255 255
0.268656 0.101902  1.69535 255 255 255
0.283747 0.157619  1.64864 255 255 255
0.352354 0.148218   1.6767 255 255 255
0.328982 0.141907  1.67828 255 255 255
0.351722  0.11852  1.69963 255 255 255
0.305494 0.174417  1.64417 255 255 255
 0.184801 0.0677653   1.73843 255 255 255
0.323953 0.145842  1.66925 255 255 255
0.314023 0.132631  1.68079 255 255 255
0.368148 0.146281  1.67934 255 255 255
0.299666 0.126983  1.68123 255 255 255
0.0473659  0.162413   1.41269 255 255 255
-0.213718  0.210184   1.33471 255 255 255
0.0451946  0.251658   1.45965 255 255 255
 0.298258 0.0997193   1.70281 255 255 255
0.0488269  0.173624   1.41874 255 255 255
 0.276545 0.0984029   1.69849 255 255 255
0.307241 0.169636   1.6463 255 255 255
0.0410774  0.154157    1.4046 255 255 255
  0.1079 0.163475  1.45197 255 255 255
0.044501 0.140122   1.3968 255 255 255
0.103677 0.118412   1.4249 255 255 255
0.0317804  0.156492   1.39904 255 255 255
-0.0635205    0.25874    1.40518 255 255 255
0.258045 0.121276  1.67194 255 255 255
0.0345632  0.145639   1.39461 255 255 255
0.0487687  0.184014   1.42559 255 255 255
-0.151322  0.241059    1.3398 255 255 255
0.0384937  0.242089    1.4506 255 255 255
0.0366304  0.230268   1.44332 255 255 255
0.111902  0.15271  1.44934 255 255 255
-0.0674837   0.197723    1.37052 255 255 255
0.105507 0.176818  1.45781 255 255 255
0.337645 0.149116  1.66952 255 255 255
0.00193856  0.0804241    1.34439 255 255 255
-0.12587 0.098392  1.27885 255 255 255
-0.184788  0.204504   1.32568 255 255 255
-0.186534  0.135609   1.28911 255 255 255
0.0196811 0.0398642   1.32845 255 255 255
-0.322207 -0.277558    1.5561 255 255 255
-0.00195077   0.0636875     1.32714 255 255 255
-0.151442 -0.299215   1.62352 255 255 255
 -0.202446 -0.0197993    1.23314 255 255 255
-0.290146  0.204833   1.32172 255 255 255
0.0315818 0.0505334   1.34193 255 255 255
 0.0526492 0.00019161    1.32748 255 255 255
 0.0425222 0.00456184    1.32488 255 255 255
0.0486289  0.133236   1.39889 255 255 255
0.102382 0.167912  1.45095 255 255 255
-0.0259268  0.0607767    1.31321 255 255 255
 0.0125032 -0.0264477     1.2877 255 255 255
0.0301485  0.114579   1.37518 255 255 255
-0.258459 0.0582803   1.23622 255 255 255
 0.0543985 -0.0128943    1.32153 255 255 255
-0.394702  -0.28353   1.54873 255 255 255
-0.240921  0.132729   1.28323 255 255 255
0.0339991 0.0440469   1.34016 255 255 255
-0.251253  0.132857   1.28109 255 255 255
-0.271633 -0.223408   1.52569 255 255 255
0.0298516 0.0879609   1.36101 255 255 255
 0.0491585 -0.0378349     1.3034 255 255 255
 -0.1987 0.196013  1.32984 255 255 255
-0.212979 -0.039556   1.25344 255 255 255
0.104016  0.10893  1.42065 255 255 255
-0.0641249   0.132554    1.33499 255 255 255
0.0300437 0.0243422   1.32627 255 255 255
-0.236347 -0.310038   1.63166 255 255 255
-0.265098 0.0630238    1.2385 255 255 255
-0.251885 -0.116907   1.26578 255 255 255
 -0.251283 -0.0785426    1.28462 255 255 255
-0.322742 -0.297118   1.55803 255 255 255
-0.0776051   0.061011    1.28754 255 255 255
 -0.241664 -0.0799011    1.29001 255 255 255
-0.242915 -0.118667   1.26999 255 255 255
-0.0509937   0.135678    1.34416 255 255 255
0.0385943 0.0685042   1.35594 255 255 255
 0.0527656 -0.0449583    1.30256 255 255 255
  0.0369647 -0.00969966     1.31214 255 255 255
-0.152934 -0.289557    1.6221 255 255 255
-0.108642 -0.130791   1.38314 255 255 255
0.0286715  0.105386   1.36974 255 255 255
0.0512262  0.103239   1.38365 255 255 255
-0.334968 -0.269752   1.54753 255 255 255
 -0.37952 -0.293906    1.5533 255 255 255
0.395458 0.134543  1.69634 255 255 255
-0.379474 -0.287636   1.55546 255 255 255
-0.281257 -0.257942    1.5638 255 255 255
0.313755 0.127301  1.68337 255 255 255
 0.233933 0.0488178   1.73141 255 255 255
 0.265549 -0.343713   2.01061 255 255 255
-0.345329 -0.261431   1.54667 255 255 255
-0.0716918  0.0564222    1.28342 255 255 255
-0.251805 0.0635721   1.23728 255 255 255
-0.0727865   0.130921    1.32975 255 255 255
 0.286973 -0.391406   2.04493 255 255 255
 0.0775459 -0.0509409    1.31626 255 255 255
 0.398748 -0.249031   1.96301 255 255 255
 0.311217 -0.400042   2.04601 255 255 255
-0.370467 -0.277027   1.55892 255 255 255
0.434589 0.115792  1.68533 255 255 255
 0.0677496 -0.0620973    1.30006 255 255 255
 0.115097 -0.326708   1.98072 255 255 255
 0.104023 -0.411119   1.96488 255 255 255
 0.281764 -0.372363   2.03082 255 255 255
 0.0324139 0.00148701    1.31539 255 255 255
 0.084304 -0.064749    1.3111 255 255 255
 0.183333 -0.366263    1.9945 255 255 255
  0.371509 -0.0592059    1.84423 255 255 255
 0.107271 -0.349768    1.9723 255 255 255
0.0283503  0.192604   1.41708 255 255 255
-0.386448 -0.286645   1.54983 255 255 255
 0.115218 -0.377571   1.98988 255 255 255
 0.417086 -0.240343   1.97769 255 255 255
 -0.31964 -0.247106   1.54365 255 255 255
 0.0447292 -0.0318056    1.30453 255 255 255
  0.10938 0.0359373   1.38491 255 255 255
-0.0435135  -0.423194    1.99993 255 255 255
 0.197123 -0.402588   2.00589 255 255 255
  0.359386 -0.0844422    1.83755 255 255 255
 0.343676 -0.224943   1.92264 255 255 255
 -0.327295 -0.0152163     1.2547 255 255 255
 0.378478 -0.176778   1.98495 255 255 255
 0.0396501 -0.0257096    1.30335 255 255 255
  0.11204 -0.365421   1.97563 255 255 255
  0.123136 -0.0276155    1.35758 255 255 255
-0.0147124  0.0651759    1.32258 255 255 255
  0.11064 -0.347872   1.97504 255 255 255
 0.0612112 -0.0412529    1.31064 255 255 255
  0.122015 -0.0843751    1.32553 255 255 255
  0.114149 -0.0772179    1.32476 255 255 255
 0.035577 0.0727208   1.35675 255 255 255
 0.414496 -0.251137   1.97684 255 255 255
 -0.219738 -0.0781927    1.30161 255 255 255
0.00935483  -0.443956    2.00906 255 255 255
0.0974989 -0.356648   1.96621 255 255 255
 0.34345 0.157032  1.66421 255 255 255
 0.0946681 -0.0780858    1.30978 255 255 255
 0.263892 -0.232838   1.91113 255 255 255
  0.119137 -0.0730755    1.32999 255 255 255
-0.0524491  -0.423926    1.99942 255 255 255
0.00910026  -0.161775    1.41723 255 255 255
  0.11154 0.0880248    1.4143 255 255 255
-0.380552 -0.300381    1.5468 255 255 255
 0.0944444 -0.0661291    1.31729 255 255 255
-0.0876407   0.181724    1.35227 255 255 255
  0.369696 -0.0369088    1.87127 255 255 255
  0.125935 -0.0686763    1.33803 255 255 255
0.0528662  0.029738   1.34476 255 255 255
 0.109325 0.0200917   1.37523 255 255 255
-0.0745855  0.0490264    1.28226 255 255 255
0.0287175  0.134069   1.38489 255 255 255
0.0604271 -0.052396   1.30245 255 255 255
 0.290827 -0.183308   1.95282 255 255 255
-0.0831628     -0.046    1.30197 255 255 255
  0.347918 -0.0924401    1.82932 255 255 255
 0.0613988 -0.0637788    1.29787 255 255 255
0.271304 -0.21511  1.91578 255 255 255
0.0520091  0.054556   1.35795 255 255 255
-0.244064 -0.272183   1.58879 255 255 255
  0.112856 -0.0389612    1.34443 255 255 255
-0.169691  -0.46148    2.0314 255 255 255
  0.34144 -0.431037   2.06587 255 255 255
 0.250944 0.0440013   1.74622 255 255 255
  0.42119 -0.274507    1.9761 255 255 255
 0.257035 -0.379916   2.01473 255 255 255
 0.429662 -0.262423   1.97614 255 255 255
 0.404421 -0.268162   1.97239 255 255 255
 0.340688 -0.416303   2.06362 255 255 255
   0.12369 -0.0596369    1.34047 255 255 255
 0.122033 0.0164015    1.3819 255 255 255
 0.163301 -0.338843   1.99761 255 255 255
 0.406514 -0.305918   1.99593 255 255 255
 0.0691148 -0.0601726    1.30494 255 255 255
 0.0874495 -0.0693558    1.31066 255 255 255
 0.277278 -0.227775   1.91413 255 255 255
  0.371561 -0.0521238    1.84283 255 255 255
 -0.252518 -0.0725326    1.28645 255 255 255
-0.257869 -0.116701   1.26286 255 255 255
 0.0456965 -0.0659993    1.28565 255 255 255
-0.236704 -0.108429    1.2774 255 255 255
-0.237616  -0.28762   1.60915 255 255 255
0.0981767 -0.362992   1.96646 255 255 255
 0.245886 -0.200916   1.91409 255 255 255
0.275961 0.103875  1.69434 255 255 255
0.192259 -0.41322  1.99551 255 255 255
-0.517718 -0.283705   1.55403 255 255 255
-0.247542 -0.115067   1.27127 255 255 255
-0.514628 -0.290686   1.55549 255 255 255
 -0.247299 -0.0948568    1.27915 255 255 255
 0.197327 -0.376819   2.00312 255 255 255
0.335718 0.178692  1.64659 255 255 255
-0.184788  0.204504   1.32568 255 255 255
  0.223606 0.00743249    1.75107 255 255 255
0.0358387 0.0241095   1.33039 255 255 255
-0.0597211  0.0575699    1.29479 255 255 255
 0.118236 0.0278928   1.38804 255 255 255
-0.0543706   0.131237      1.338 255 255 255
 0.034441 0.0894135   1.36509 255 255 255
0.0331971 0.0653949   1.35082 255 255 255
-0.350067  0.159178   1.27876 255 255 255
-0.244889  0.200429   1.32273 255 255 255
0.00834305   0.111089    1.36064 255 255 255
0.349977    0.109  1.70257 255 255 255
-0.0992699   0.134173    1.31959 255 255 255
-0.0691401   0.261764    1.40729 255 255 255
0.422381 0.107851  1.68214 255 255 255
    0.5275 -0.0193552    1.71178 255 255 255
 0.283288 0.0605983   1.73098 255 255 255
-0.285154 -0.293728   1.57502 255 255 255
0.0502341  0.056944   1.35879 255 255 255
 0.379164 -0.188947    1.9855 255 255 255
 0.416964 -0.208937   2.01924 255 255 255
0.273624 0.106662  1.68893 255 255 255
0.0295452  0.130256   1.38425 255 255 255
  0.385967 -0.0739677    1.84679 255 255 255
 -0.235593 -0.0710828    1.29451 255 255 255
 0.345113 -0.422019   2.06387 255 255 255
  0.33514 -0.454875   2.06335 255 255 255
 0.170638 -0.359489   1.99867 255 255 255
 0.102064 -0.369763   1.97334 255 255 255
 0.466123 -0.128811   1.96787 255 255 255
0.0832304 -0.387106   1.96797 255 255 255
0.361395 -0.17583  1.97595 255 255 255
-0.557381 -0.272678   1.53227 255 255 255
 0.0946681 -0.0780858    1.30978 255 255 255
 0.181788 -0.399489   1.99439 255 255 255
 0.117268 0.0475147   1.39589 255 255 255
-0.222291 -0.295899   1.62645 255 255 255
0.280831 -0.23454  1.91711 255 255 255
 0.106648 0.0647736   1.39844 255 255 255
  0.354569 -0.0885246    1.83038 255 255 255
 0.374287 -0.175541   1.98239 255 255 255
 0.120586 -0.347177   1.97604 255 255 255
 -0.107632 -0.0898666    1.32487 255 255 255
 0.313783 -0.247254   1.93117 255 255 255
  0.111484 -0.0167026    1.35558 255 255 255
  0.117443 0.00262807    1.37053 255 255 255
0.193128 -0.16566  1.85771 255 255 255
  0.118252 0.00850948    1.37431 255 255 255
 0.236558 0.0146142    1.7596 255 255 255
-0.568729 -0.335441   1.66984 255 255 255
 -0.224972 -0.0774405     1.2991 255 255 255
  0.340712 -0.0943537     1.8286 255 255 255
-0.375365 -0.310757   1.54405 255 255 255
-0.230997 -0.108935   1.28049 255 255 255
-0.154099 0.0205115   1.23416 255 255 255
-0.504656 -0.293193     1.559 255 255 255
-0.383511 -0.310726   1.54281 255 255 255
0.0509948  0.122615     1.394 255 255 255
-0.330598 -0.309881    1.5488 255 255 255
 0.221066 0.0640431   1.71545 255 255 255
-0.13755 0.137675  1.31078 255 255 255
-0.131223 -0.315881   1.62498 255 255 255
 0.253602 -0.186339   1.92594 255 255 255
-0.340295  0.192295   1.29015 255 255 255
  0.347918 -0.0924401    1.82932 255 255 255
0.260341 0.102572  1.69115 255 255 255
   0.11072 -0.0108837    1.35911 255 255 255
0.0941753 -0.380876   1.96681 255 255 255
 0.326845 -0.232407   1.92414 255 255 255
  0.30944 -0.194649   1.94558 255 255 255
 0.356287 -0.321281   2.05973 255 255 255
 0.307021 0.0062759   1.81758 255 255 255
 0.164569 -0.404564   1.98142 255 255 255
-0.553036 -0.265905   1.54053 255 255 255
 -0.247299 -0.0948568    1.27915 255 255 255
 0.0954622 -0.0604243    1.32092 255 255 255
 0.340564 0.0977864   1.71595 255 255 255
0.335718 0.178692  1.64659 255 255 255
