ply
format ascii 1.0
element vertex 1195
property float x
property float y
property float z
property uchar red
property uchar green
property uchar blue
end_header
-0.926403  0.656102   1.81322 255 255 255
-0.042178    1.5897    1.5322 255 255 255
0.0605225    1.9667   1.70136 255 255 255
-0.437921   0.69919   1.75634 255 255 255
-1.84312  1.08243  1.86357 255 255 255
-0.647274  0.614128   1.84849 255 255 255
0.131978  1.36672  1.62527 255 255 255
0.166921  1.42881  1.61216 255 255 255
-0.543791  0.868043   1.81806 255 255 255
-0.57536  1.46313  1.49681 255 255 255
-0.605541  0.521553   1.83294 255 255 255
-0.0896406    1.58544    1.40212 255 255 255
-0.118374   1.55526   1.45143 255 255 255
0.0369487   2.24583   1.53773 255 255 255
-0.863363  0.793272   1.70096 255 255 255
0.228902  1.45583  1.61486 255 255 255
0.10355 2.07647 1.64492 255 255 255
-1.31172  1.41942  1.60976 255 255 255
-0.250121  0.887906   1.78766 255 255 255
-0.841926  0.913729   1.67263 255 255 255
-1.10513  1.47844  1.61181 255 255 255
-0.772133   1.00042   1.73868 255 255 255
-0.975578  0.702196   1.70114 255 255 255
-0.00384128     1.30487     1.62343 255 255 255
-0.485298   1.78059   1.35492 255 255 255
-0.16416 0.932923  1.76805 255 255 255
-0.472629  0.696975   1.75423 255 255 255
0.0588788   1.30362   1.58848 255 255 255
0.0146158   1.30402   1.59035 255 255 255
-0.808832  0.971278   1.97721 255 255 255
-0.898142   1.41169   1.54927 255 255 255
0.0640733   1.20992   1.74125 255 255 255
-0.149446   1.28445   1.62574 255 255 255
-0.476504   1.75768   1.34697 255 255 255
-0.431296   1.44371   1.50195 255 255 255
-0.387651   1.47277   1.52125 255 255 255
0.19142 1.30896 1.67142 255 255 255
-0.469163  0.600242   1.75601 255 255 255
-0.0551386    1.18271    1.64117 255 255 255
0.129656  2.08242  1.68365 255 255 255
-0.067991   1.57543    1.4856 255 255 255
-1.57869   1.1342  1.73609 255 255 255
-1.19453 0.813912  1.66118 255 255 255
-1.5866  1.1225 1.74086 255 255 255
-0.393818  0.664403   1.77447 255 255 255
-0.46897 0.646332  1.74919 255 255 255
0.149361  1.34437  1.67484 255 255 255
-0.475166   1.40938   1.49243 255 255 255
-1.34763   1.3366  1.67558 255 255 255
-1.22468  1.49519  1.59861 255 255 255
-1.22827  1.48686  1.60105 255 255 255
-0.304319   1.34348   1.56974 255 255 255
-0.223204     1.386    1.7642 255 255 255
-0.963793   1.32892   1.60428 255 255 255
-0.197761    1.4404   1.46129 255 255 255
-1.19329 0.782751  1.68689 255 255 255
-0.854305   0.60363   1.84128 255 255 255
0.117848  1.33653  1.65118 255 255 255
-0.882195    1.0037   1.93985 255 255 255
-0.538808   1.44817   1.49565 255 255 255
-1.05747 0.859925  1.61385 255 255 255
-0.855931  0.639249   1.84521 255 255 255
-0.774262  0.712798   2.12482 255 255 255
-0.458057    1.4064   1.49741 255 255 255
-0.200118   1.45161   1.45764 255 255 255
-1.10936  1.01353  1.61787 255 255 255
0.25965  1.4217 1.69877 255 255 255
-0.985693  0.690248   1.64026 255 255 255
-0.162134   2.12132   1.20365 255 255 255
-0.488354   1.45634     1.469 255 255 255
-0.892893  0.751589   2.08853 255 255 255
-1.53171  1.18656  1.63222 255 255 255
-0.639089  0.592402   1.86993 255 255 255
0.236649  1.38737  1.71497 255 255 255
-0.110446   1.56936   1.38852 255 255 255
-0.507275    1.4076   1.50554 255 255 255
-0.368518   1.57595   1.42653 255 255 255
-0.447947   1.41247   1.53123 255 255 255
0.234928  1.38495  1.69064 255 255 255
-0.430271   1.45201   1.38643 255 255 255
-0.920425  0.798709    1.6852 255 255 255
-0.431475   1.46136   1.41579 255 255 255
-0.740659  0.986019   1.76398 255 255 255
0.0709714   1.32554   1.58987 255 255 255
-1.02957 0.854921  2.00263 255 255 255
-1.02866 0.854337  2.00147 255 255 255
0.101124  1.41738  1.61655 255 255 255
-0.897338  0.901989   1.64407 255 255 255
0.170522    1.752  1.62243 255 255 255
0.0699211   1.46949   1.57097 255 255 255
-0.510327  0.619443    1.7726 255 255 255
  0.175 1.28673 1.67805 255 255 255
0.202647  1.32351  1.68922 255 255 255
-1.09262  1.47115  1.69622 255 255 255
-0.0808974     1.5937    1.46111 255 255 255
-1.02409 0.861427  2.00419 255 255 255
0.112314   1.3406  1.65955 255 255 255
-0.258517   0.62052   1.83535 255 255 255
-0.0562939    1.17805    1.64995 255 255 255
-0.865788  0.804923   1.68452 255 255 255
0.0625431   1.20232   1.74371 255 255 255
-0.883143   1.43184   1.54067 255 255 255
-0.941219  0.778777   2.06808 255 255 255
-0.42736   1.5905  1.40372 255 255 255
0.142647  1.33632  1.65178 255 255 255
0.034825  1.30599  1.59268 255 255 255
-0.243591   1.38169   1.55672 255 255 255
-0.144359   1.58449   1.48649 255 255 255
-0.304484   1.99056   1.24144 255 255 255
-0.909775  0.713848   2.07547 255 255 255
0.123279  1.46566  1.55516 255 255 255
0.242746  1.46851  1.62724 255 255 255
0.236185  1.47231  1.61833 255 255 255
-0.855517  0.818234   1.69505 255 255 255
-0.794936  0.897328   2.01865 255 255 255
0.136467  1.45304  1.56894 255 255 255
  -0.17   1.444 1.46987 255 255 255
-0.872923  0.773293   1.69456 255 255 255
-0.108962   1.29088   1.52483 255 255 255
-0.772146   1.57454   1.47713 255 255 255
-0.539641   1.79265   1.34449 255 255 255
-0.583758  0.540815   1.86585 255 255 255
-0.0689656    2.15583    1.60646 255 255 255
-0.503269  0.617208   1.77262 255 255 255
-1.23165  1.61873  1.55552 255 255 255
-0.842924  0.809572   1.69207 255 255 255
0.239806  1.42146  1.66188 255 255 255
-0.477843     1.472   1.36765 255 255 255
-1.40553  1.26376  1.72163 255 255 255
-0.938059  0.948753   1.62721 255 255 255
-0.518546   0.64919   1.74713 255 255 255
-1.07582  0.80643  1.71458 255 255 255
-0.0109856    2.18812     1.5972 255 255 255
-0.87409 0.740739  1.72185 255 255 255
-0.415311  0.689761   1.77297 255 255 255
-0.593839   1.53853   1.48308 255 255 255
-0.0455278    1.36828    1.54308 255 255 255
0.0255995   2.01872   1.63761 255 255 255
-0.0499225    1.26121    1.60368 255 255 255
-0.956927  0.835354   1.65719 255 255 255
0.209092  1.49905  1.59649 255 255 255
-0.115994    1.3792   1.51143 255 255 255
-1.12918 0.957278  1.60234 255 255 255
-0.527749    1.8095   1.35275 255 255 255
-0.196297   1.55836    1.4245 255 255 255
-0.918681  0.889702   1.63821 255 255 255
-1.19476 0.968321  1.62925 255 255 255
-0.960042  0.966526   1.63826 255 255 255
-0.465313  0.651614   1.73796 255 255 255
-0.426547   1.83263    1.3196 255 255 255
-0.23975 0.957527  1.74446 255 255 255
-0.376472   1.50593   1.45537 255 255 255
-0.857719  0.941792   1.64783 255 255 255
-0.263861   1.43761   1.47081 255 255 255
-1.04251 0.907939  1.62287 255 255 255
-0.485463   1.84865   1.32447 255 255 255
-1.02135 0.746672  1.66629 255 255 255
-0.460674  0.680244   1.75223 255 255 255
 0.2411 1.38476 1.70902 255 255 255
-0.771208   1.00811   1.75749 255 255 255
0.260791  1.43488  1.65772 255 255 255
-0.984341   0.66507   1.61562 255 255 255
-0.060002    1.3646   1.53763 255 255 255
-0.670077  0.585475   1.85969 255 255 255
-0.606437  0.510293   1.74884 255 255 255
 -1.2134 0.814848  1.65926 255 255 255
-1.06745 0.996336  1.63354 255 255 255
-0.443254  0.693221   1.75796 255 255 255
-0.605345  0.522859   1.76453 255 255 255
-0.968657  0.871283   2.01301 255 255 255
-0.4337  1.9223 1.29281 255 255 255
-0.870792  0.766492   1.68877 255 255 255
0.152772   1.4198  1.61224 255 255 255
-1.20204 0.824194  1.66052 255 255 255
-1.1648   1.464 1.58944 255 255 255
0.0439065    1.3147   1.56821 255 255 255
-0.203372  0.946967   1.75027 255 255 255
-0.746509  0.789079   2.08991 255 255 255
-1.95661  1.12058  1.85052 255 255 255
-0.258124   1.33183    1.4912 255 255 255
-0.388219   1.52635   1.43789 255 255 255
-0.927032  0.833256   1.67841 255 255 255
-0.101007   1.32881   1.52688 255 255 255
-0.768936  0.750087   2.08973 255 255 255
-0.499249  0.712937   1.77614 255 255 255
-0.802061   1.78805   1.44912 255 255 255
-0.0557809    1.36207    1.53138 255 255 255
-0.994651  0.924246   1.99097 255 255 255
0.0483419   1.45322   1.56175 255 255 255
-0.97912 0.896833  1.64709 255 255 255
-0.382627   1.56929   1.46895 255 255 255
-0.465644  0.679288   1.74345 255 255 255
-0.865529  0.626718   1.86481 255 255 255
-0.744942   1.81697   1.43708 255 255 255
-1.04596  1.44029  1.62671 255 255 255
-0.295908   1.33521   1.49979 255 255 255
-0.415661   1.39971   1.56545 255 255 255
0.0535564   1.97489   1.69275 255 255 255
-0.494916   1.46763   1.40683 255 255 255
-1.28847  1.26185  1.81392 255 255 255
-0.0731235    1.60958     1.5192 255 255 255
-0.378333   1.45002   1.58033 255 255 255
 -0.8892 0.781567  2.07322 255 255 255
-0.669086  0.598923    1.8633 255 255 255
-0.73159  1.82729  1.45816 255 255 255
-0.133613   1.25165   1.55319 255 255 255
-0.47647  1.41569  1.58296 255 255 255
-0.934917  0.981917   1.64198 255 255 255
0.0334413   2.00632   1.65157 255 255 255
-0.0113499    2.10563     1.5927 255 255 255
-0.88143 0.855807  2.04533 255 255 255
-0.180217   1.44014   1.46447 255 255 255
0.115182  1.23837  1.68271 255 255 255
-1.13581   1.0035  1.62287 255 255 255
-0.146602   1.57002   1.40799 255 255 255
0.210638  1.38306  1.64894 255 255 255
0.0952569   1.23737   1.65053 255 255 255
0.141083  1.50567  1.56403 255 255 255
-1.78976  1.03537  1.89412 255 255 255
-0.790746   1.79123   1.44085 255 255 255
0.21369 1.48178 1.61129 255 255 255
-0.40515  1.73601  1.37536 255 255 255
0.222707  1.42896  1.64195 255 255 255
0.0886016   1.33628   1.59758 255 255 255
-0.491487    1.4672   1.44957 255 255 255
-0.881941  0.692796   1.78893 255 255 255
-0.419886  0.677136   1.76255 255 255 255
-1.36361  1.27458  1.80913 255 255 255
-0.130423   1.40705   1.48015 255 255 255
-1.06541  1.14253  1.87674 255 255 255
-0.435552    1.4171   1.51662 255 255 255
0.300593  1.44052  1.69706 255 255 255
-0.932744  0.764532   1.68345 255 255 255
-0.859751   1.78809   1.51255 255 255 255
-0.382533   1.53822   1.40607 255 255 255
-0.367368   1.55728   1.47014 255 255 255
-0.460254  0.621914   1.75038 255 255 255
-1.02947  0.74689  1.67926 255 255 255
-0.797093  0.887774   2.02347 255 255 255
0.132356  1.44389  1.56819 255 255 255
0.225777  1.40876  1.64921 255 255 255
-0.438492   1.51104   1.35019 255 255 255
-0.0267792    2.08014    1.59148 255 255 255
0.118885  1.25446  1.66982 255 255 255
0.0194667   2.13806   1.56287 255 255 255
-0.256773    1.3563   1.46315 255 255 255
-0.832281   0.98875    1.9709 255 255 255
-0.859811  0.675646   1.79239 255 255 255
-0.0609895    1.18652    1.64624 255 255 255
-0.581432  0.544384   1.86243 255 255 255
-0.439565  0.677146   1.76376 255 255 255
-1.02911  1.75485  1.58978 255 255 255
-0.854353  0.864241   2.03713 255 255 255
-0.582264  0.535751   1.86344 255 255 255
-0.862799   1.03941   1.93642 255 255 255
-0.0407349    1.30355    1.57493 255 255 255
-0.87229 0.832767  1.67536 255 255 255
-1.03002  1.06972   1.9156 255 255 255
-0.207244   2.14138   1.17699 255 255 255
-1.03666 0.733068  1.71187 255 255 255
-1.02359 0.739954  1.71223 255 255 255
-0.87408 0.777445  2.07954 255 255 255
-0.198029   1.39049   1.48373 255 255 255
-0.252719   1.41883   1.46992 255 255 255
-0.625943  0.550547   1.87047 255 255 255
0.237313  1.43092  1.64036 255 255 255
-0.522481  0.634533   1.76368 255 255 255
-0.95996  0.82804   1.6664 255 255 255
-0.957636  0.929521   1.61979 255 255 255
-0.778305  0.688541   2.11833 255 255 255
-1.59944  1.14822  1.66265 255 255 255
-1.04288 0.738786  1.70565 255 255 255
-0.555074   1.46377   1.48253 255 255 255
-0.764744  0.754213   2.09083 255 255 255
-0.923884  0.762223   1.66781 255 255 255
0.106963  1.43491  1.61481 255 255 255
-0.202026   1.56835   1.45521 255 255 255
-0.444553  0.626976   1.74972 255 255 255
0.0798598   1.49691    1.5467 255 255 255
-0.161059   1.36259   1.49612 255 255 255
-1.46813  1.29344  1.69138 255 255 255
-1.19289  1.52159   1.6655 255 255 255
-0.389308   1.68372   1.39123 255 255 255
-0.517922  0.622515    1.7528 255 255 255
-1.02317 0.905348   1.6171 255 255 255
-1.02355 0.736186  1.70901 255 255 255
-1.15291  1.00158  1.59498 255 255 255
-0.638935   1.51261   1.52967 255 255 255
-0.383483   1.56669   1.46097 255 255 255
-1.55911 0.895665  1.65818 255 255 255
0.275106  1.92348  1.74978 255 255 255
-0.5777 1.82982 1.35181 255 255 255
-0.428765  0.717732   1.75629 255 255 255
-0.82394 0.614571  1.76746 255 255 255
-0.848675   1.75211    1.4524 255 255 255
-0.459575   1.41841   1.49493 255 255 255
-0.0392454    2.03303    1.61649 255 255 255
-0.494901   1.46148   1.48424 255 255 255
-0.496811   1.42274   1.51571 255 255 255
-0.413958   0.64092   1.75504 255 255 255
-0.299183   1.69613   1.55294 255 255 255
-0.228403   1.36674   1.48014 255 255 255
-0.829757   1.01098   1.96132 255 255 255
-0.267234   1.33711   1.49432 255 255 255
0.215432   1.4135  1.63278 255 255 255
-1.16244  1.36577  1.71061 255 255 255
-0.0201011    2.08297    1.59512 255 255 255
 -1.0863 0.815105  1.63948 255 255 255
-0.674451  0.596541   1.85999 255 255 255
-0.697468  0.931054   2.01435 255 255 255
-1.78703  1.09223  1.87316 255 255 255
-0.954871   1.04596   1.91907 255 255 255
0.194362  1.36739  1.65503 255 255 255
-0.917897   0.71143   2.08356 255 255 255
-1.73592  1.04363  1.90228 255 255 255
-1.0284 1.15255 1.87167 255 255 255
-0.866281  0.806605   2.05762 255 255 255
-1.2737 1.35732 1.77302 255 255 255
-0.0444486    1.61961    1.45261 255 255 255
0.0638189   1.19611   1.73474 255 255 255
-0.850771   1.02515   1.95748 255 255 255
-0.462322   1.41508   1.48805 255 255 255
-0.379602   1.89022   1.29059 255 255 255
-0.408968   1.47636   1.50919 255 255 255
0.272172  1.44513  1.67377 255 255 255
-0.706825  0.547169   1.78842 255 255 255
-0.507284   1.11634   1.66877 255 255 255
-1.14966   1.5218  1.60644 255 255 255
-1.03389 0.949061  1.97465 255 255 255
-0.460674  0.684795   1.74198 255 255 255
-0.830235  0.773184   2.08398 255 255 255
-0.0443794    1.60142     1.5192 255 255 255
0.785242 0.538007  2.22248 255 255 255
-1.11686 -1.46965  2.89618 255 255 255
-0.782339  -1.58254   2.97805 255 255 255
 -1.6557 -1.58934  2.94723 255 255 255
 2.09339 0.622968  2.41099 255 255 255
-1.73964  -1.2353  2.79565 255 255 255
 1.01811 0.895142  2.22246 255 255 255
 1.36321 0.646598  2.00156 255 255 255
0.520371  0.21184  2.15639 255 255 255
1.52916 1.42874 1.76103 255 255 255
-0.0207536   0.808458    1.93873 255 255 255
2.28546 1.09138 2.28679 255 255 255
0.910813 0.981808  2.30935 255 255 255
0.790511  1.18591  1.74123 255 255 255
 -1.5776 -1.61341  2.97223 255 255 255
-0.991394 -0.548688   2.53825 255 255 255
 2.15017 0.896406  2.26959 255 255 255
0.497524  1.14712  2.04112 255 255 255
-0.888284  0.366136   2.16882 255 255 255
 1.10968 0.941968   2.2456 255 255 255
-1.46018 0.139584  2.36857 255 255 255
-0.672885  0.719342   2.12361 255 255 255
-0.688995  0.445861   2.29441 255 255 255
-0.462274  0.112452   2.22088 255 255 255
  2.93157 -0.438953   3.32556 255 255 255
0.0243201 -0.319894   2.28785 255 255 255
 1.43999 0.593782  2.04281 255 255 255
-0.442212 -0.257504   2.36887 255 255 255
  1.1444 0.748148   2.0599 255 255 255
0.0325126 -0.709753   2.29827 255 255 255
-1.89197 0.410853  2.22063 255 255 255
-0.742471 -0.655738   2.32589 255 255 255
 -1.04421 -0.955525   2.75913 255 255 255
0.739194    1.037   2.1816 255 255 255
-0.588307  0.515807   1.94689 255 255 255
 2.90839 0.829877  2.64909 255 255 255
0.368754 0.466106  2.14274 255 255 255
2.35716 1.12839 2.27217 255 255 255
 1.75373 0.386414  2.55699 255 255 255
1.56192 1.21172 1.81139 255 255 255
-1.87953  0.44585   2.2136 255 255 255
2.33101 1.46453 2.25695 255 255 255
-1.67196 0.498444  2.16772 255 255 255
-0.540305  0.403822   2.29854 255 255 255
2.06505 1.25522 2.22607 255 255 255
-0.954143  0.413598   2.00789 255 255 255
-0.943556 -0.442693   2.46537 255 255 255
  -1.08819 -0.0374692    2.47303 255 255 255
  0.10405 0.0727737   2.21524 255 255 255
-0.292454  -1.45488   3.06993 255 255 255
-1.71568 -1.16446  2.75213 255 255 255
-0.525672  0.607376   1.90523 255 255 255
 3.37421 0.268783  2.95284 255 255 255
-1.21136 -2.03387  3.20554 255 255 255
-0.663351  0.779649   2.08623 255 255 255
 1.90736 0.504998  2.56818 255 255 255
1.90013 1.65764 2.08868 255 255 255
-1.74796  0.50624  2.17665 255 255 255
-0.847031  -1.24017   2.83153 255 255 255
0.652941 0.877166  1.91623 255 255 255
1.05504 1.01508 1.62178 255 255 255
2.80865 0.25815 2.86326 255 255 255
-1.23336 -2.12836  3.28525 255 255 255
-0.280277  0.894631   1.87697 255 255 255
-0.326591  0.826071   1.88328 255 255 255
 3.29152 -1.02073  3.49347 255 255 255
-1.63542 0.194703  2.34703 255 255 255
 -0.340425 -0.0906926    2.38458 255 255 255
0.335706 -1.06906  2.46866 255 255 255
-1.08967 0.576474  2.16339 255 255 255
-1.24746 0.640762  2.10617 255 255 255
 -1.49078 -0.417536    2.4242 255 255 255
 -1.49149 -0.417526   2.42501 255 255 255
0.793641 -1.31015  3.21216 255 255 255
 1.09156 0.894123  1.91823 255 255 255
 1.21422 0.764895  1.91772 255 255 255
0.437372 0.324408  2.08015 255 255 255
1.35533   1.305 1.80961 255 255 255
-0.806946  0.489495   2.21485 255 255 255
0.72308 1.18935 1.72136 255 255 255
 1.25458 0.767614  1.87446 255 255 255
 2.30049 0.618791  2.47991 255 255 255
-0.254158  0.443723   2.02763 255 255 255
-0.60366 0.150627  2.24913 255 255 255
-1.2845 0.56826 2.14097 255 255 255
 -1.14488 -0.199569   2.46296 255 255 255
0.234433  1.05828  1.91238 255 255 255
 2.45851 -1.11421  3.42538 255 255 255
2.33836 1.50213 2.26784 255 255 255
 3.14523 0.461542  2.84517 255 255 255
-0.834837  0.625782   1.85444 255 255 255
2.44285 1.04699 2.36632 255 255 255
-1.15342 -0.09087  2.46439 255 255 255
0.072623 0.967201  1.98391 255 255 255
-1.34521 0.581424  2.08839 255 255 255
-0.254219  0.444532   2.01909 255 255 255
-1.34073 0.532675   2.1527 255 255 255
1.53271 1.05511 1.87173 255 255 255
-0.297636  0.814076   1.88975 255 255 255
 -1.68955 -0.385433   2.38905 255 255 255
0.218122  0.39702  2.01495 255 255 255
0.776059 0.810673  1.96709 255 255 255
0.935436 0.947147  1.89258 255 255 255
 0.983804 -0.819677   2.55181 255 255 255
-0.761893  0.446434   2.27712 255 255 255
 -1.80396 -0.250386   2.33231 255 255 255
  1.0691 0.966163  1.87827 255 255 255
-0.373311 -0.921223   2.35138 255 255 255
   2.8589 -0.684083   3.36284 255 255 255
1.01203 1.14864 1.78737 255 255 255
1.54036 1.30519 1.78465 255 255 255
-0.811678  0.585957   1.86863 255 255 255
1.24289 1.10733 1.77487 255 255 255
1.04107 1.18707 1.76534 255 255 255
-1.02132 -1.01464  2.80158 255 255 255
0.982598  1.10975  1.80984 255 255 255
2.21998 1.28604 2.22848 255 255 255
0.0411391  0.919679   1.98586 255 255 255
1.07377  1.2297 1.75212 255 255 255
-0.543964  0.439607   1.95176 255 255 255
 -1.79017 -0.162587   2.30553 255 255 255
0.824296  1.15851   1.7374 255 255 255
0.0887874  0.988369   1.96097 255 255 255
0.628859 0.227596  2.46733 255 255 255
0.839249  1.17767  1.72773 255 255 255
0.807923  1.19116  1.74434 255 255 255
-0.0687091   0.804765    2.04486 255 255 255
-0.206358 -0.779244   2.23393 255 255 255
 1.1828 1.18539 1.81638 255 255 255
 3.01223 0.652268  2.72127 255 255 255
-0.815774  0.409758   2.22759 255 255 255
0.057014 0.943516  1.98709 255 255 255
2.62613 1.18588 2.44357 255 255 255
1.35137 1.21691 1.74529 255 255 255
0.85851 1.20256 1.72824 255 255 255
-1.64492 -1.71136  3.00017 255 255 255
 0.793277 -0.249701   2.57819 255 255 255
   2.01524 -0.0468443    2.79811 255 255 255
0.130283 0.994429  1.93098 255 255 255
  2.24246 -0.102807   2.87676 255 255 255
-1.37702 0.242159  2.34602 255 255 255
0.241729 0.929608  2.00813 255 255 255
0.334352   1.1215  1.97554 255 255 255
 -1.47223 -0.700206   2.52962 255 255 255
-0.652839  0.479538   1.71723 255 255 255
1.23811 0.97897 1.80208 255 255 255
-0.540087  0.341532   2.32855 255 255 255
 1.65435 -1.06734  3.26596 255 255 255
-1.70508 0.170135  2.34314 255 255 255
0.588588  1.24557  1.98553 255 255 255
 -0.518102 -0.0868438    2.34221 255 255 255
1.56525 1.49192 1.87302 255 255 255
  -1.8646 0.0247047   2.38237 255 255 255
 -1.77197 -0.317238   2.37865 255 255 255
   1.65717 -0.0575001    2.70449 255 255 255
1.94333 1.31898 2.16177 255 255 255
1.83997 1.50118 2.09807 255 255 255
-0.598239  0.258761   2.27985 255 255 255
-1.90911  0.45223  2.21296 255 255 255
1.07472 1.06419 1.80077 255 255 255
2.29439 1.35495 2.24813 255 255 255
 2.17341 0.196809  2.67422 255 255 255
-1.66864 -1.06608   2.7032 255 255 255
-0.760098  0.746632   2.10353 255 255 255
-1.65843 -1.99868  3.14221 255 255 255
1.40348 1.11114 1.76571 255 255 255
-1.70784 0.518753  2.20391 255 255 255
  1.1925 0.835323  1.88725 255 255 255
-0.510785 -0.263714   2.42868 255 255 255
-0.0817129  -0.787757     2.2348 255 255 255
0.252301 0.914755  1.98258 255 255 255
1.35032 1.05727 1.77362 255 255 255
 1.17166 0.913631   1.8418 255 255 255
 1.23969 0.699224  2.03383 255 255 255
 -0.496817 -0.0648624    2.34309 255 255 255
 -1.09679 -0.180426   2.44125 255 255 255
0.0111855  0.163713   2.47002 255 255 255
0.262706  1.08513  1.93074 255 255 255
0.198846 0.488809  1.96804 255 255 255
 0.351879 -0.462927   2.43178 255 255 255
  1.41637 -0.119817   2.68312 255 255 255
 1.4906 1.51709 1.87121 255 255 255
 1.23937 0.502898  2.20837 255 255 255
 -1.75396 0.0907198   2.37581 255 255 255
-1.72986 0.333512   2.2578 255 255 255
-1.92793 0.313231  2.26315 255 255 255
0.0968083  0.969524   1.96415 255 255 255
-1.38714 -1.53738  2.92311 255 255 255
2.62509 1.26397 2.43593 255 255 255
  0.235544 -0.0855478    2.60291 255 255 255
 0.327566 -0.738612   2.28175 255 255 255
  2.24819 0.0962006   2.75133 255 255 255
-0.762303  0.561885      1.82 255 255 255
-0.492568  0.245012   2.29081 255 255 255
 1.35095 0.894463  1.85954 255 255 255
0.0735249  0.703061   2.16707 255 255 255
0.0736165  0.703257   2.16801 255 255 255
 1.11384 0.970898  1.84931 255 255 255
 -1.1354 0.527837  2.20352 255 255 255
-0.761387  -1.70767   3.11076 255 255 255
2.09436 1.51423 2.09858 255 255 255
 -1.18933 -0.906623   2.74816 255 255 255
 1.36183 0.129345  2.34101 255 255 255
  -1.1397 -0.231957   2.44425 255 255 255
0.287001  1.14494   1.9646 255 255 255
-1.72092 0.494891  2.21239 255 255 255
 2.65782 0.720492  2.51264 255 255 255
-0.954811  0.384581   1.99195 255 255 255
 -1.4993 0.547786  2.13682 255 255 255
-1.56431 0.369219  2.26338 255 255 255
 2.32614 -1.12929   3.3952 255 255 255
1.80153 1.65554 2.00015 255 255 255
-1.24798 0.143254  2.37867 255 255 255
 2.97714 0.788659  2.67786 255 255 255
   1.1974 0.0398182   2.48215 255 255 255
0.387901 0.782477  1.95632 255 255 255
1.22945 1.20139  1.7966 255 255 255
-1.60417 0.383898  2.25144 255 255 255
0.572288 0.056615  2.56319 255 255 255
-0.420481  0.617253   1.79576 255 255 255
 1.8713 1.19146 2.23679 255 255 255
-1.41736 0.254126  2.26087 255 255 255
2.33999 0.24801 2.58185 255 255 255
  3.47868 0.0515967   3.04815 255 255 255
 1.00855 0.934398  1.97959 255 255 255
-0.671722  0.192263   2.12072 255 255 255
-0.839981  0.366391   2.22466 255 255 255
-0.493379 -0.771882   2.29469 255 255 255
-0.212603  0.234529    2.4129 255 255 255
-0.0442891  -0.131516    2.41337 255 255 255
-1.34883 -2.19512  3.25832 255 255 255
0.539546  1.16166  2.00528 255 255 255
 3.32532 -0.25724  3.18977 255 255 255
 -0.501602 -0.0475254    2.31106 255 255 255
  -1.52892 -0.0521755    2.45178 255 255 255
 0.54179 -0.51797  2.59136 255 255 255
 1.40053 0.139173  2.60865 255 255 255
-1.05181 -1.12085  2.83702 255 255 255
0.422353 0.948064  1.97072 255 255 255
-0.448979 -0.708279   2.26614 255 255 255
  1.70416 -0.437994   2.97456 255 255 255
-0.791149  -1.93559   3.24219 255 255 255
0.849289  1.23412  1.71324 255 255 255
0.215332 0.905412  2.05528 255 255 255
-0.822586    -0.723   2.55593 255 255 255
-1.92676 0.194803  2.30604 255 255 255
-1.56553 0.404473  2.24607 255 255 255
-1.94305 0.317603  2.25642 255 255 255
-0.994142  0.126716   2.42531 255 255 255
-0.339356  0.119066   2.30072 255 255 255
0.846196 0.228249  2.30634 255 255 255
  1.4626 -0.68862  3.03899 255 255 255
-0.844786  0.814407   2.08522 255 255 255
  1.6775 0.862535  2.32388 255 255 255
-1.80229 0.147215  2.32454 255 255 255
-0.699965  -1.92343    3.2723 255 255 255
  -0.3261 -0.617029   2.23063 255 255 255
0.976438 0.201653  2.30836 255 255 255
  1.534 1.10081 1.86296 255 255 255
1.35041 1.10751 1.74861 255 255 255
 1.36354 0.972489  1.90628 255 255 255
 1.02393 -0.83628  2.58064 255 255 255
  -1.6682 -0.265069   2.32749 255 255 255
1.17734 1.14857 1.78713 255 255 255
-0.689135  0.170048   2.13804 255 255 255
-1.49032 -0.67015  2.50943 255 255 255
1.93132 1.66399   1.963 255 255 255
 1.1502 1.13999 1.77762 255 255 255
-0.381936 -0.085123   2.27252 255 255 255
2.19032 1.31309 2.18643 255 255 255
0.77939 1.19844 1.74875 255 255 255
-0.69198 -1.01345   2.7979 255 255 255
 -1.20727 -0.388263   2.44547 255 255 255
-0.581723 -0.701315   2.20542 255 255 255
0.675946  0.22527  2.46947 255 255 255
-0.163657  0.562255   1.91354 255 255 255
 1.62352 -1.09219  3.32056 255 255 255
-0.10607 0.990433  1.83503 255 255 255
 0.471625 -0.101235   2.66615 255 255 255
-0.349622  -1.11491    2.5218 255 255 255
-1.52466   0.4071  2.21582 255 255 255
2.15125 1.69531  2.1406 255 255 255
 -1.12818 -0.211126   2.46236 255 255 255
1.43001 1.37588 1.76022 255 255 255
-0.762745  0.665602   1.85303 255 255 255
 -0.14921 -0.351171   2.19013 255 255 255
1.17204 1.01582  1.7737 255 255 255
-1.00311 0.311075  2.32039 255 255 255
0.324317 0.886509  1.99383 255 255 255
  -1.65617 -0.0404543    2.43331 255 255 255
-0.484724  0.430321   1.95975 255 255 255
1.65939 1.04496 1.96008 255 255 255
-1.83781 0.171196  2.28776 255 255 255
0.333806  1.11338  2.00481 255 255 255
 -1.78229 -0.193363   2.31454 255 255 255
 0.120888 -0.642823   2.25582 255 255 255
    2.27459 -0.00606657     2.84612 255 255 255
 -1.75611 -0.336992   2.36995 255 255 255
  1.28648 -0.393237   2.86494 255 255 255
 1.44311 0.137916  2.33383 255 255 255
-1.79698 0.290163  2.26449 255 255 255
   -1.6125 -0.0852108    2.44491 255 255 255
 0.496695 -0.495399   2.58696 255 255 255
 2.21038 0.739613  2.35244 255 255 255
 -1.63225 -0.181159    2.3697 255 255 255
-1.59394 0.559557  2.14261 255 255 255
-1.67051 0.339411  2.27346 255 255 255
 -1.39018 -0.680169    2.5167 255 255 255
2.37275 1.52112 2.28247 255 255 255
 2.23132 0.469415  2.57087 255 255 255
0.100849 0.425671   1.9252 255 255 255
 -1.56345 -0.555794   2.46518 255 255 255
 1.06897 0.892743  1.90649 255 255 255
1.91718 1.69452 1.99925 255 255 255
1.39208 1.32337  1.7323 255 255 255
    1.17249 -0.00910351     2.60695 255 255 255
 2.01626 0.944277  2.32243 255 255 255
1.79092 1.66048 2.01171 255 255 255
-1.09412  -1.7808  3.09465 255 255 255
 -1.84241 0.0801581   2.34252 255 255 255
0.803109  1.05738  1.82788 255 255 255
   1.5414 -0.198192   2.81094 255 255 255
-0.496345  0.613232   1.78671 255 255 255
1.91591  0.4049 2.49077 255 255 255
  2.33424 -0.248958   2.95817 255 255 255
0.269318 -1.02083  2.50396 255 255 255
-0.962155  0.425663   1.98569 255 255 255
-0.652445  0.473192   1.70576 255 255 255
  1.57225 -0.470253   2.93981 255 255 255
1.13552 1.05489 1.77134 255 255 255
-1.63915 -1.30116  2.83741 255 255 255
0.311733  0.96342  1.96997 255 255 255
 -1.10255 -0.109307   2.48084 255 255 255
2.00748 1.06343 2.25667 255 255 255
-1.53707 0.363905   2.2652 255 255 255
 1.7848 1.67405 2.01814 255 255 255
1.86629 1.62564 2.04379 255 255 255
0.103496 0.520789  1.90425 255 255 255
-0.527352  0.125969    2.1801 255 255 255
1.29414 1.22127 1.75214 255 255 255
 -1.77216 -0.177678   2.31572 255 255 255
 0.463152 -0.939446   2.48864 255 255 255
-1.72568  0.24849  2.29351 255 255 255
-1.13532 0.525745  2.21291 255 255 255
 -1.32633 0.0675139   2.40512 255 255 255
2.31878  1.0115 2.21139 255 255 255
-0.858225   0.57331    1.7933 255 255 255
   3.6906 -0.198464    3.1797 255 255 255
 2.87982 0.378944  2.83391 255 255 255
1.95736 1.67368 1.95661 255 255 255
  1.93412 -0.922549   3.22138 255 255 255
-0.624313 0.0522993   2.29501 255 255 255
   1.45566 -0.0868846     2.7162 255 255 255
  -1.80618 -0.0901437    2.31335 255 255 255
-1.56217 0.515301  2.15591 255 255 255
 -1.52101 -0.650947   2.47681 255 255 255
-0.731383 -0.979045   2.81337 255 255 255
-0.775868  0.815225   2.09624 255 255 255
0.0729913 -0.719102   2.29382 255 255 255
   1.38484 -0.0705009     2.4347 255 255 255
  0.268425 -0.0164082    2.58092 255 255 255
-1.45396 -1.11574  2.78155 255 255 255
-0.225526 -0.250313   2.18249 255 255 255
 2.60526 0.212942  2.83083 255 255 255
-0.0567198   0.731531    2.11746 255 255 255
 3.08696 0.651476  2.75319 255 255 255
-0.357729  0.583002   1.82744 255 255 255
-1.67773 -0.49144  2.43919 255 255 255
 -1.77511 -0.110442   2.31248 255 255 255
0.0430972  0.415454   1.98036 255 255 255
-1.64227 0.120617  2.36681 255 255 255
0.636091 0.900177  1.92832 255 255 255
 2.10912 0.736698  2.34782 255 255 255
 3.74628 -0.35135  3.24708 255 255 255
0.528275 0.947021  1.90889 255 255 255
  -1.773 0.153932  2.34077 255 255 255
-1.26539 0.414852  2.24743 255 255 255
   2.48459 -0.0954672    2.94114 255 255 255
-2.90233  11.0199 -2.17971 255 255 255
-0.987381    10.688  -1.99567 255 255 255
-3.9492 9.04133 -1.3808 255 255 255
-4.29747  9.90937 -2.12617 255 255 255
-4.13245  10.7734 -2.65577 255 255 255
-1.86186  11.2566 -2.14569 255 255 255
 -4.0624  9.99809 -2.03733 255 255 255
-4.57181  8.77454 -1.35331 255 255 255
-0.679655   8.96978  -1.67259 255 255 255
-4.22526  10.5629 -2.31563 255 255 255
-0.282784    11.711  -2.49895 255 255 255
0.584427  9.36185 -1.48605 255 255 255
-0.848105   9.31883  -2.06393 255 255 255
-5.19429  9.27562 -1.76163 255 255 255
-5.12879  10.0181 -2.11895 255 255 255
-2.89788  10.4273 -1.96738 255 255 255
 -4.4721  10.5228 -2.35474 255 255 255
-5.02909  9.59085 -1.87433 255 255 255
-4.73523   9.4565 -1.71196 255 255 255
-1.72092  11.5507 -2.31809 255 255 255
-0.227826   11.6725  -2.34377 255 255 255
 1.06726  9.68769 -1.45517 255 255 255
-3.08382  10.4512 -1.97521 255 255 255
-3.71604  10.5999 -2.37824 255 255 255
-1.00749  11.9833 -2.49932 255 255 255
-3.94947  10.5411 -2.30313 255 255 255
-4.26716  9.38415 -1.65691 255 255 255
-2.68704  11.4105 -2.68377 255 255 255
-0.426576   8.86034  -1.51086 255 255 255
 -2.7143  11.3295 -2.39643 255 255 255
-1.97146  10.7052 -2.31678 255 255 255
 1.13312  9.32536 -1.32859 255 255 255
-3.44869  11.2224 -2.61461 255 255 255
-3.59436  10.3835 -1.96893 255 255 255
-4.25834  10.7537  -2.7527 255 255 255
-2.34463  9.92735 -1.68896 255 255 255
-4.05199  10.4951 -2.15981 255 255 255
-0.438671   11.7531  -2.69705 255 255 255
-2.32618  11.4907  -2.5333 255 255 255
-1.63467  10.2295 -1.78322 255 255 255
-1.11669   11.668 -2.34284 255 255 255
-4.13527  9.66037 -2.01781 255 255 255
-1.17306  11.6333 -2.30075 255 255 255
-2.24081  11.4094 -2.65509 255 255 255
-1.78331  11.6487 -2.35857 255 255 255
-1.60054  11.7309 -2.31268 255 255 255
-5.25871  10.0253  -2.1997 255 255 255
-5.14901  9.75711 -2.11752 255 255 255
-3.60626  11.0905 -2.52118 255 255 255
 -5.2208  10.3153 -2.38056 255 255 255
-3.48326  10.6678 -2.53516 255 255 255
-0.914549     11.81  -2.47391 255 255 255
-3.15268  11.0053 -2.31303 255 255 255
 -4.2094  10.6755 -2.68046 255 255 255
 -3.5918  8.73875 -1.36041 255 255 255
-3.85616  9.37676 -1.74523 255 255 255
-4.23368  9.50109 -1.89472 255 255 255
-0.793263   8.42178 -0.964162 255 255 255
-4.29825  10.5617 -2.43777 255 255 255
-5.09098  9.71076 -1.86404 255 255 255
0.801308  10.2453 -1.74677 255 255 255
-0.855105   12.0907  -2.54674 255 255 255
-1.61959  11.5931 -2.29149 255 255 255
-5.03838  10.1279 -2.37808 255 255 255
-0.833493   9.23297  -1.57178 255 255 255
-0.59663  9.60356 -2.20868 255 255 255
-2.00401  11.3321 -2.52053 255 255 255
-5.28094  10.1295  -2.2809 255 255 255
-3.10304  9.96209 -1.90632 255 255 255
-4.84399   9.8178 -1.87624 255 255 255
-3.54676  10.7627 -2.68136 255 255 255
-0.342425   11.8774  -2.62312 255 255 255
-4.25209  10.6356 -2.30864 255 255 255
-2.62348  11.1867 -2.16556 255 255 255
-1.01042  11.6111 -2.27608 255 255 255
-4.36174  10.4604 -2.47935 255 255 255
-2.89738  10.7725 -2.06613 255 255 255
-1.63014  11.8568 -2.44196 255 255 255
 -1.0332  11.8238 -2.38337 255 255 255
-1.84794  11.6631 -2.36096 255 255 255
-2.40256  11.2316 -2.25644 255 255 255
 -4.0911  11.0351 -2.56497 255 255 255
-0.109286   10.4935  -1.74798 255 255 255
 -2.5125  10.0841 -1.99765 255 255 255
-4.39007  10.2562 -2.24866 255 255 255
-5.07259  10.6655 -2.47262 255 255 255
 -2.8012  11.3957 -2.39286 255 255 255
-3.35494  9.78119 -1.94066 255 255 255
-4.45106  9.27285 -1.61586 255 255 255
-4.17306   10.427 -2.12523 255 255 255
-0.188394   10.7474  -1.86261 255 255 255
-4.0777 10.7416  -2.578 255 255 255
-3.61624  10.6947  -2.5289 255 255 255
-5.24794  9.74361 -2.01906 255 255 255
-2.24539  10.9978 -2.36693 255 255 255
-3.80483  10.6549 -2.30709 255 255 255
-1.75389  11.6607 -2.43926 255 255 255
-4.39402  9.69828 -1.93474 255 255 255
-0.967958   11.7231  -2.37532 255 255 255
-1.83484  11.3397 -2.55941 255 255 255
-2.77597   11.197 -2.45671 255 255 255
0.114807  9.85752 -1.83185 255 255 255
-3.41921  10.7797 -2.22406 255 255 255
-4.75753  10.5644 -2.08722 255 255 255
-1.04382  10.1602 -1.66636 255 255 255
-2.87769  11.1368 -2.21677 255 255 255
-0.596695   11.7361  -2.43777 255 255 255
-4.22787  8.78768 -1.23578 255 255 255
 -4.35201   7.58779 -0.915264 255 255 255
-2.19638  9.23276 -1.47933 255 255 255
-5.25811  9.89019  -2.2219 255 255 255
 -3.1465  11.2096 -2.45178 255 255 255
-4.20375  10.8025 -2.79598 255 255 255
-4.09197  8.82695 -1.37785 255 255 255
-2.8588  9.9071 -1.6339 255 255 255
-1.63494  11.7722 -2.42269 255 255 255
-3.70645  9.68088   -1.947 255 255 255
-0.907235   11.7173   -2.4124 255 255 255
-2.12302  10.8268 -2.46847 255 255 255
-0.349163   11.8004  -2.65583 255 255 255
-2.25062  10.7518 -2.00101 255 255 255
-1.99607  11.4101 -2.52927 255 255 255
-0.418827   11.7425  -2.39137 255 255 255
-2.68816  10.6171 -2.13626 255 255 255
-1.18727  11.3743 -2.27896 255 255 255
-1.17955  11.3794 -2.26137 255 255 255
-1.52917  11.6799 -2.38879 255 255 255
-0.962968   10.0669  -1.66319 255 255 255
-3.52672  10.4314 -2.03413 255 255 255
-3.34346  10.8115 -2.22267 255 255 255
-1.06719  11.6755  -2.3566 255 255 255
-2.22103  10.9059  -2.4367 255 255 255
-1.94399  11.7658 -2.49356 255 255 255
-4.27069  10.6131 -2.41257 255 255 255
-0.503951   11.1427  -2.40604 255 255 255
-3.76195  9.66013 -1.90918 255 255 255
-0.983058   11.4471  -2.29988 255 255 255
  -3.591  10.3301 -2.01626 255 255 255
-2.05241   11.186 -2.29469 255 255 255
-5.22293  9.85434 -2.09568 255 255 255
-1.61572  11.8751 -2.48676 255 255 255
-5.01089   10.753 -2.57965 255 255 255
-1.61752  11.8597 -2.66401 255 255 255
 -2.2947  11.2727 -2.40509 255 255 255
-3.36099  10.4371 -2.03227 255 255 255
-4.41705  10.6536 -2.62061 255 255 255
-3.31568  7.83467 -1.11929 255 255 255
-4.14408  10.9348 -2.63822 255 255 255
-4.90394  10.2265 -2.31011 255 255 255
-4.13854  9.89944 -2.13253 255 255 255
-2.56341  10.1925 -1.77594 255 255 255
-0.401338   9.33165  -1.92966 255 255 255
-0.336225   10.9197  -1.99233 255 255 255
-0.982355   11.9376  -2.42617 255 255 255
-2.61359  10.8144 -2.15273 255 255 255
0.603834  9.20505 -1.53363 255 255 255
-1.27373  9.74109 -1.90165 255 255 255
-1.66164  10.4937  -1.8462 255 255 255
-2.38199  11.4538 -2.52973 255 255 255
-3.03767  11.0902 -2.27538 255 255 255
-0.942055   11.2772  -2.23031 255 255 255
-4.12664  11.1204 -2.57438 255 255 255
-0.690284   9.63557  -2.14158 255 255 255
-2.50011  9.89233 -1.59846 255 255 255
-1.53633   9.8977 -1.53812 255 255 255
-5.34577   8.8044 -1.42038 255 255 255
-3.36624  8.64351 -1.30349 255 255 255
-3.2471 8.74375 -1.4494 255 255 255
-3.90796   10.591 -2.18635 255 255 255
-4.19463  10.9529 -2.70226 255 255 255
-3.19099  11.1389 -2.42896 255 255 255
-0.699659   12.1475  -2.47123 255 255 255
-4.00688  9.45669 -1.72066 255 255 255
-2.16206  11.3816 -2.68609 255 255 255
-4.65027  9.84326 -1.73028 255 255 255
-4.45754  8.42175 -1.16189 255 255 255
-4.11444  10.7592 -2.57658 255 255 255
-4.81167  10.1296 -1.91655 255 255 255
-4.43036  10.4338 -2.40367 255 255 255
-0.715301   9.27213  -1.97629 255 255 255
-0.649317   12.0966  -2.43244 255 255 255
-1.64694  10.2227 -1.77573 255 255 255
-5.13888  10.4326 -2.32776 255 255 255
-4.60185  10.5119  -2.1755 255 255 255
 1.37379  9.35115 -1.35953 255 255 255
-0.0337575    11.0614   -1.98819 255 255 255
-2.11155  10.9307 -2.49699 255 255 255
-2.25545  11.0715 -2.42035 255 255 255
-4.53884  11.0006 -2.38532 255 255 255
-4.84223  8.63316 -1.17264 255 255 255
-1.45286  11.7618 -2.68668 255 255 255
-3.52355  8.13084 -1.26864 255 255 255
-3.19937  11.3636  -2.4691 255 255 255
-4.04732  10.6745 -2.46933 255 255 255
-1.76653  11.4278 -2.50954 255 255 255
-3.30207  10.9179  -2.2543 255 255 255
-3.42217  10.6755 -2.59897 255 255 255
-4.49768  9.94545   -1.989 255 255 255
-2.97857  11.1652 -2.66162 255 255 255
-3.56814  8.60321  -1.3659 255 255 255
-5.35237  8.97927 -1.64582 255 255 255
-3.67999  10.7604  -2.5557 255 255 255
-2.65201  11.4903 -2.57541 255 255 255
-5.04045  10.4309 -2.39406 255 255 255
-5.05948  10.1888 -2.39533 255 255 255
-1.91863  11.4072 -2.29207 255 255 255
-4.30382  10.5831  -2.3235 255 255 255
-4.53559  10.2281  -2.1537 255 255 255
-5.24528  9.89102 -2.13157 255 255 255
-5.25596  9.88831 -2.11479 255 255 255
 -1.8129  9.89646 -1.67245 255 255 255
-3.43569  10.8043 -2.28472 255 255 255
0.071889  10.9315 -2.01993 255 255 255
 -3.5201  9.97717 -1.87513 255 255 255
-1.27514  11.1551 -2.20605 255 255 255
-2.73837  10.7944 -2.05463 255 255 255
-4.30677  8.30897 -1.09366 255 255 255
-3.31098  10.4942 -1.93921 255 255 255
-0.683962   11.8123  -2.45321 255 255 255
-3.16719  11.4188  -2.3898 255 255 255
-1.54741  11.8351 -2.71008 255 255 255
-0.110816   11.1652  -2.08716 255 255 255
 -5.0586  10.6016 -2.41247 255 255 255
-4.11171  9.12907 -1.42597 255 255 255
-0.410517   10.3461  -1.66147 255 255 255
 -5.0176   9.7378 -1.93627 255 255 255
-5.21191  10.2959 -2.34045 255 255 255
-2.08243  11.3372  -2.6942 255 255 255
 -3.78869   8.03406 -0.840284 255 255 255
-4.58557   9.4168 -1.70868 255 255 255
-1.74905  11.1813 -2.11042 255 255 255
-0.672132   9.70383  -2.21855 255 255 255
-3.82641   9.7794 -2.02647 255 255 255
-4.24553  8.92274  -1.3683 255 255 255
 -3.1723  10.9667 -2.33912 255 255 255
-3.32046  10.9931   -2.419 255 255 255
-0.189967   11.0156  -1.99434 255 255 255
-0.554939   11.8249  -2.68974 255 255 255
-2.18435  11.1218 -2.40243 255 255 255
-1.96951  11.1641 -2.12055 255 255 255
-2.65975  11.0629 -2.20322 255 255 255
-2.51266  10.3968 -1.79706 255 255 255
-2.06031  11.7793 -2.50054 255 255 255
-1.35769  9.92251 -1.80938 255 255 255
 -3.4085  10.2374 -2.11179 255 255 255
-2.51521  11.1047 -2.20896 255 255 255
-0.688212   11.7737   -2.3621 255 255 255
-2.00697  11.2654 -2.24791 255 255 255
-3.60602  10.1757 -2.10001 255 255 255
-4.71978  10.5982 -2.29803 255 255 255
-2.42333  10.5094 -1.85433 255 255 255
-4.95979  10.1911 -2.27775 255 255 255
-4.83498  9.88384 -1.75842 255 255 255
 -3.75486   8.20141 -0.990526 255 255 255
-3.78598  11.0084 -2.40233 255 255 255
-1.66545  10.3489 -1.76092 255 255 255
-3.57731  10.9029 -2.62567 255 255 255
-0.462784   9.29091  -1.92606 255 255 255
0.192383  10.4405  -1.9109 255 255 255
 -2.9683  11.1509 -2.34466 255 255 255
   1.069  9.30748 -1.30463 255 255 255
-1.57174  11.2144 -2.07585 255 255 255
0.477539  9.86433 -1.68059 255 255 255
-3.23769  10.6404 -2.02201 255 255 255
 -2.6064  11.0283 -2.25886 255 255 255
-3.48959  10.3208 -2.09804 255 255 255
-1.99966  10.9414 -2.41303 255 255 255
-3.45872  10.9946 -2.33653 255 255 255
-2.42266  11.6469 -2.54382 255 255 255
-1.61526  11.3814 -2.26402 255 255 255
-1.58643  11.8379 -2.68076 255 255 255
-3.42197    8.847 -1.38585 255 255 255
-2.01454   8.9896 -1.41052 255 255 255
-3.52249  11.0182  -2.4668 255 255 255
-5.20357  9.60801 -2.15494 255 255 255
-5.10493  10.7395 -2.50263 255 255 255
-0.477173   11.2787  -2.31147 255 255 255
-3.94108  10.5812   -2.271 255 255 255
-2.30464  10.9326 -2.16396 255 255 255
-0.183053   11.3994  -2.38907 255 255 255
-1.60104  11.0807 -2.14598 255 255 255
-3.52661  9.79898 -1.96751 255 255 255
-0.106914   11.7442   -2.3689 255 255 255
-0.155459   10.0918  -1.64681 255 255 255
-2.21094  11.3192 -2.49124 255 255 255
-1.72695  10.5952 -1.92256 255 255 255
 -1.7937   9.7187 -1.53747 255 255 255
-1.27452  9.70101 -2.00357 255 255 255
-2.77733  11.4742 -2.34509 255 255 255
-2.79384  10.2513 -1.88118 255 255 255
-4.67607  9.53623 -1.81667 255 255 255
-3.27993  10.7057 -2.16984 255 255 255
-0.723711   11.6901  -2.52596 255 255 255
-0.131195   9.21377  -1.70817 255 255 255
-5.16819  10.0968 -2.19317 255 255 255
-4.16916  9.63196 -2.15983 255 255 255
-4.85432  9.08053 -1.41998 255 255 255
-4.51116  7.74021 -1.09767 255 255 255
-5.11185  10.2986  -2.3507 255 255 255
-5.21817  9.77171 -2.15416 255 255 255
-5.00205   10.179 -2.32239 255 255 255
-4.30337  10.6232 -2.71946 255 255 255
-2.77102  11.1466 -2.27669 255 255 255
-3.79171  10.0459 -1.85455 255 255 255
-1.28623  10.7737 -2.04919 255 255 255
-0.588421   11.7139  -2.78117 255 255 255
-0.196235   10.9593  -2.07172 255 255 255
-3.73454  11.1381  -2.5328 255 255 255
-5.24974  9.79514  -2.1633 255 255 255
 -4.2627  10.6687 -2.40275 255 255 255
-2.89244  9.66609 -1.56432 255 255 255
-5.05655  9.95962 -2.17049 255 255 255
-3.74187  10.5468  -2.1856 255 255 255
-4.78185  10.7155 -2.46605 255 255 255
-1.66087  8.65512 -1.22815 255 255 255
-0.527123   11.9307  -2.66931 255 255 255
-1.13544  10.8031 -1.93103 255 255 255
-0.384841   11.9049  -2.57868 255 255 255
-4.34066  11.0405 -2.56824 255 255 255
-5.32385  10.1106 -2.27017 255 255 255
-4.38873  10.5551 -2.50792 255 255 255
-0.693206   8.91588  -1.68446 255 255 255
 -2.6024   11.571 -2.54888 255 255 255
-1.62691  11.8537 -2.66379 255 255 255
-3.97221  10.5187 -2.05876 255 255 255
-4.44441  10.0321 -2.13927 255 255 255
-3.07105  10.2883 -1.81502 255 255 255
-5.03009  9.44163 -1.94457 255 255 255
-2.67786  11.4721 -2.36537 255 255 255
-1.83427  10.4615 -1.98338 255 255 255
-3.52996  10.6461 -2.56119 255 255 255
-3.47559  10.6425 -2.57493 255 255 255
-4.23811  10.6198 -2.17526 255 255 255
-4.47602  9.77003 -1.86173 255 255 255
-4.03463  10.8328 -2.62752 255 255 255
-3.29258  11.3117 -2.53027 255 255 255
-1.56507  11.7379 -2.69203 255 255 255
-1.99151  11.3331 -2.28028 255 255 255
-4.24887  10.8847 -2.72212 255 255 255
-1.77722  11.6397 -2.47714 255 255 255
-2.64267  8.73876 -1.12869 255 255 255
-1.87905  11.8011 -2.49525 255 255 255
-5.12979  10.3977 -2.40715 255 255 255
-0.987739   11.8938  -2.50163 255 255 255
-4.32912  10.4672 -2.33216 255 255 255
-1.00566  11.4535 -2.22208 255 255 255
-0.96261  11.6079 -2.22699 255 255 255
-4.33206  8.93439 -1.46538 255 255 255
 -4.8348  10.3836 -2.22399 255 255 255
-5.34646  10.3506 -2.34983 255 255 255
 -3.3486   9.1726 -1.30774 255 255 255
 -3.3729   9.7163 -1.87856 255 255 255
0.531447  9.53329 -1.50258 255 255 255
-0.158481   11.6964  -2.34405 255 255 255
-3.85947  11.0037 -2.52792 255 255 255
-1.51696  11.7682 -2.68389 255 255 255
-5.18677  8.26357 -1.63202 255 255 255
 -4.2653  10.6449 -2.56911 255 255 255
0.727675  10.3282 -1.97722 255 255 255
-2.13206  10.7675 -2.54388 255 255 255
-4.81193  10.4943 -2.37989 255 255 255
-3.51085  10.6625 -2.54589 255 255 255
 -4.16761   7.80264 -0.927226 255 255 255
-4.79653  9.41565 -1.65159 255 255 255
-4.85355  10.5676 -2.41088 255 255 255
0.182429  9.90834 -1.79241 255 255 255
-4.12719   10.728 -2.45631 255 255 255
-0.877133   10.2995  -1.74146 255 255 255
-1.57383  11.6188 -2.35903 255 255 255
-1.77574  9.77504 -1.50782 255 255 255
-0.767856   12.0006  -2.47566 255 255 255
-4.90205  10.1768 -2.25267 255 255 255
 -4.0836  10.2893 -2.20392 255 255 255
-0.71833  11.7085 -2.28149 255 255 255
-2.42659  11.5336 -2.51385 255 255 255
-4.25575  10.9092  -2.7307 255 255 255
-3.64317  10.5169 -1.99712 255 255 255
-3.62071  9.36247 -1.75101 255 255 255
-3.49594  11.0839 -2.44687 255 255 255
-1.21635   10.003 -1.64497 255 255 255
-3.89355   9.0423 -1.56374 255 255 255
-1.81875  11.6422 -2.53161 255 255 255
-2.20943  11.2104 -2.55364 255 255 255
-1.41396  11.7771 -2.45643 255 255 255
-5.33843  9.98572 -2.24288 255 255 255
-0.287408    11.554  -2.26992 255 255 255
-4.08185  10.6727  -2.5357 255 255 255
-4.61502  10.5485 -2.13677 255 255 255
 -2.5674  11.5295 -2.64493 255 255 255
-3.28471  11.1417 -2.52983 255 255 255
-2.57641  10.8484 -2.26753 255 255 255
-5.09235  9.54009 -1.89567 255 255 255
-0.565626    11.295   -2.5618 255 255 255
-4.61026  10.5741 -2.11487 255 255 255
-1.94796  10.9486 -2.33338 255 255 255
-5.16956  9.92612   -1.936 255 255 255
-1.64327  11.6231 -2.28874 255 255 255
-0.885403   11.6293  -2.39738 255 255 255
-1.28673   11.265  -2.2227 255 255 255
-1.42301  11.7106 -2.66881 255 255 255
-3.43159  11.3359 -2.48159 255 255 255
-4.69039  10.8317 -2.43955 255 255 255
-5.34322  10.2191 -2.28487 255 255 255
-4.06467  10.9198  -2.6344 255 255 255
-2.79195  10.5686 -1.98524 255 255 255
-4.41554  9.05014 -1.55983 255 255 255
-5.26179  9.84593 -2.15328 255 255 255
-5.23141  9.81955 -1.90429 255 255 255
-4.45671  10.3687 -2.34644 255 255 255
-0.892052   11.5882  -2.30352 255 255 255
-0.562432   11.1755  -2.32757 255 255 255
-0.475642   11.1365  -2.43077 255 255 255
-5.03181  9.88082 -1.87986 255 255 255
-3.29885  10.3149 -1.96066 255 255 255
-2.35248  8.67608 -1.15497 255 255 255
-4.97831  10.3843 -2.38286 255 255 255
-0.814028   11.4439  -2.17854 255 255 255
-5.07918  10.1524 -2.19015 255 255 255
-2.26392  10.8922 -2.40644 255 255 255
-3.95584  10.7137  -2.4683 255 255 255
-4.10624  10.2438  -2.1761 255 255 255
-0.997021   11.0518  -2.05591 255 255 255
-4.15915  10.0312 -1.85936 255 255 255
-0.592486   11.8057  -2.73931 255 255 255
 -3.5419  10.9923 -2.54733 255 255 255
-2.90635  9.10826  -1.3388 255 255 255
-2.76321  11.4957 -2.75413 255 255 255
-3.49106  10.6269 -2.57505 255 255 255
-3.44695  8.66713 -1.41721 255 255 255
-2.48482  8.68535 -1.17429 255 255 255
 -2.1066  9.31365 -1.68194 255 255 255
-1.48782  8.44736 -1.25121 255 255 255
-1.58286   10.075 -1.73419 255 255 255
-1.66155  10.6564 -1.91697 255 255 255
-1.83742  10.9993 -2.28601 255 255 255
 -2.5768  11.2289 -2.41356 255 255 255
0.490484  9.19108 -1.43489 255 255 255
-1.02503  11.7584 -2.51425 255 255 255
-1.64608  11.9042 -2.49188 255 255 255
-3.5887 8.07419 -1.2623 255 255 255
-1.90052  11.3666 -2.49284 255 255 255
 -4.61347   7.94381 -0.974694 255 255 255
-4.56473  10.0057 -2.00046 255 255 255
0.0346369   10.0987  -1.77553 255 255 255
0.667488  10.6275 -1.93919 255 255 255
-0.335533   9.83531  -1.50098 255 255 255
-3.05499  11.1672 -2.61361 255 255 255
-0.769205    9.5161  -2.08225 255 255 255
-3.77716  8.43276 -1.01415 255 255 255
-4.89027  10.3822 -2.35201 255 255 255
-3.59702  10.7899 -2.72016 255 255 255
-2.42342  11.0183 -2.27042 255 255 255
-2.78705  11.5427 -2.44917 255 255 255
-0.921126   8.77701  -1.03317 255 255 255
-5.02878  9.67196 -1.91718 255 255 255
-0.884901   11.4337  -2.26392 255 255 255
-3.21776  10.9757 -2.35374 255 255 255
-2.28858  10.7842 -1.98263 255 255 255
-5.03042  10.6062 -2.41098 255 255 255
-1.98983  11.6584 -2.36895 255 255 255
-2.73673  11.2302 -2.41807 255 255 255
-2.62096  11.2339 -2.41627 255 255 255
-4.77721  10.7298 -2.39434 255 255 255
-3.85177  10.3965 -2.15755 255 255 255
-5.20874  10.3735 -2.38649 255 255 255
-5.23028  10.3784 -2.33608 255 255 255
-1.62413  11.7655 -2.34203 255 255 255
-0.920041   12.0099  -2.44642 255 255 255
-1.87368  11.3831 -2.52286 255 255 255
-5.38247  9.08533 -1.61777 255 255 255
-1.81585  9.34519 -1.43471 255 255 255
 0.56078  9.36831 -1.54114 255 255 255
-3.46212  8.92278 -1.48414 255 255 255
-4.90117  10.0516 -2.06322 255 255 255
-4.61929  8.12263 -1.19647 255 255 255
-0.623938   11.3699  -2.53357 255 255 255
-1.36892    10.52  -1.8409 255 255 255
 -1.9935  10.8654 -2.43665 255 255 255
-3.89299  11.0154 -2.57369 255 255 255
-1.40447  11.8888 -2.70738 255 255 255
-3.40179  10.5613 -2.44971 255 255 255
 -5.176 9.82135  -2.078 255 255 255
-2.11441  11.3448 -2.69453 255 255 255
-2.72142  10.4885 -1.94607 255 255 255
-3.86375  11.0507 -2.66275 255 255 255
