ply
format ascii 1.0
element vertex 1162
property float x
property float y
property float z
property uchar red
property uchar green
property uchar blue
end_header
 -1.40861 0.0373671   3.05292 255 255 255
   1.4168 -0.699738    3.8425 255 255 255
  -1.3035 -0.419372   3.01888 255 255 255
1.10918  -1.132 3.98993 255 255 255
-1.08503 -1.03033  3.42802 255 255 255
  -1.2561 -0.655547   3.19322 255 255 255
0.256471 0.344715  2.37735 255 255 255
0.657072 0.365425  2.64768 255 255 255
 -1.05497 0.0492735   2.98647 255 255 255
   1.36288 -0.0377491    3.22037 255 255 255
-1.20249 0.382051  2.80532 255 255 255
 1.67156 -0.40381  3.73245 255 255 255
  -1.37754 -0.0326975    3.06042 255 255 255
 -1.07323 -0.471328   3.10668 255 255 255
 1.86287 0.267313   3.1698 255 255 255
 0.307135 -0.257866   3.14965 255 255 255
-0.835177  0.336152   2.80315 255 255 255
  1.21032 -0.272413   3.45892 255 255 255
 1.11199 0.792525  2.49028 255 255 255
-0.484715 -0.495074   2.65173 255 255 255
   1.7633 -0.316725   3.69484 255 255 255
 0.154759 -0.473704   2.63136 255 255 255
  1.75455 -0.635907   3.87944 255 255 255
-0.544922  -1.24563   3.74896 255 255 255
  2.86386 -0.257493   4.01461 255 255 255
-0.0233955  -0.490132    2.66514 255 255 255
  0.24891 -0.752501   2.83429 255 255 255
 2.24673 0.271263  3.32727 255 255 255
 1.31781 -1.02161  3.94088 255 255 255
  1.46742 -0.722829   3.85111 255 255 255
 -1.09396 -0.461534   3.09096 255 255 255
  1.91132 -0.151769   3.57944 255 255 255
 -0.3079 0.075121  2.66339 255 255 255
  0.451294 -0.0724672    3.07391 255 255 255
  2.72621 -0.376297   4.05223 255 255 255
   1.6435 -0.683878   3.90777 255 255 255
-0.696209  -1.18433   3.60737 255 255 255
0.915861 -1.20529  3.98109 255 255 255
0.591465 0.396549  2.61786 255 255 255
  1.81389 -0.563291   3.79295 255 255 255
  1.38582 -0.542408   3.76957 255 255 255
 0.255217 -0.517704   2.64283 255 255 255
0.392811 -1.33006  3.93824 255 255 255
 -1.26004 -0.624253   3.17981 255 255 255
0.481453 -1.27856  3.99167 255 255 255
-0.565873   -1.4551   3.86749 255 255 255
  0.92134 -0.249506   3.34296 255 255 255
-0.0990797  -0.655282    2.65689 255 255 255
 1.25501 -1.06959  3.96105 255 255 255
1.38985 0.14635 2.80643 255 255 255
-0.0456412  -0.677965    2.66394 255 255 255
 1.75207 0.271964  3.24087 255 255 255
 0.718676 -0.634829   3.00757 255 255 255
1.82978 0.54673 3.10788 255 255 255
  1.74022 -0.355073   3.67685 255 255 255
  1.89475 -0.174339   3.52547 255 255 255
   1.051 -0.33312  3.42872 255 255 255
 -1.45735 -0.533656   3.12059 255 255 255
-0.795174 -0.925865   3.46384 255 255 255
-1.03856 -1.64688   3.8648 255 255 255
-0.725842  -1.02189   3.56192 255 255 255
 1.59353 -0.90529  4.02586 255 255 255
-0.549051  -1.17057   3.67282 255 255 255
-1.19404 0.403536   2.8038 255 255 255
-0.781432 -0.615366   3.19706 255 255 255
  -0.3919 -0.604006   2.70711 255 255 255
  1.21894 -0.191843   3.39636 255 255 255
0.528986 -1.21831  3.97408 255 255 255
  1.79024 -0.865213   4.07619 255 255 255
 -1.43421 -0.515482   3.12359 255 255 255
-0.0704349  -0.672098    2.67709 255 255 255
-0.880429  -1.42173   3.68924 255 255 255
 0.446583 -0.560569    2.7372 255 255 255
 0.210304 0.0182683   2.95857 255 255 255
-0.739525  0.528831   2.64253 255 255 255
-0.127615   0.27945   2.93277 255 255 255
 1.39632 -1.04083   3.9927 255 255 255
-0.00994619   0.0529457     2.95885 255 255 255
   1.38296 -0.0586109    3.23731 255 255 255
0.252137 0.103975  2.58745 255 255 255
 0.358252 -0.361492   2.79717 255 255 255
 0.234464 -0.224916   3.17152 255 255 255
  1.88866 -0.929058   4.12057 255 255 255
 -0.5882 -1.57285  3.94755 255 255 255
 0.52214 0.594947  2.50589 255 255 255
 0.460629 -0.168174   3.20302 255 255 255
 0.341241 -0.626763   2.70364 255 255 255
-1.22595 0.379668  2.81001 255 255 255
-0.00770731   -0.740613     2.76382 255 255 255
-0.445437 -0.684559   2.79077 255 255 255
  1.40157 -0.603499   3.70931 255 255 255
  -1.2025 -0.282783   2.97091 255 255 255
0.173241   -1.211  3.28117 255 255 255
-0.174282 -0.486281   2.65548 255 255 255
   0.302144 0.000506129     3.06569 255 255 255
  2.15426 -0.185088   3.66621 255 255 255
-0.55338 -1.40502  3.83396 255 255 255
  2.46848 -0.638637   4.07715 255 255 255
 1.90594 -0.88946  4.12773 255 255 255
  1.86964 -0.175898   3.54245 255 255 255
-1.04786 0.379779  2.79388 255 255 255
-0.337666 -0.529834   2.67284 255 255 255
-0.946995  0.296567   2.83613 255 255 255
-0.745925  -1.28798   3.63432 255 255 255
-0.0709816   0.175039    2.90519 255 255 255
-0.726048  -1.58653   3.81506 255 255 255
 2.77011 -0.32971  4.07741 255 255 255
-0.464234 -0.606853   2.69604 255 255 255
-1.02342 0.255979  2.85191 255 255 255
-0.939338  0.188507   2.89728 255 255 255
-0.349108  -0.81044    2.9025 255 255 255
  1.26818 -0.201741   3.41757 255 255 255
   1.2099 -0.730522   3.85132 255 255 255
 0.208758 -0.926147   2.95658 255 255 255
  1.82168 -0.396198   3.76495 255 255 255
  3.05842 -0.569109   4.30618 255 255 255
-0.129353 -0.684536   2.67451 255 255 255
-0.77231 -1.57853  3.83267 255 255 255
-1.07685 0.289504   2.8493 255 255 255
 0.619373 -0.861376   3.03451 255 255 255
-0.386376  -1.32139   3.81236 255 255 255
0.616993 -1.20839  3.89728 255 255 255
 0.921694 -0.166764   3.35092 255 255 255
-0.536323 -0.690466   2.83128 255 255 255
 -1.08542 0.0025693   3.00175 255 255 255
  1.22813 -0.230795   3.42272 255 255 255
0.326235 0.532652    2.625 255 255 255
  2.38093 0.0429228   3.64217 255 255 255
 0.377086 -0.762677   2.90435 255 255 255
 0.987568 -0.205285   3.38033 255 255 255
  -0.4911 -0.521395   2.63516 255 255 255
-1.18167 0.252104  2.88439 255 255 255
-1.18416 0.253344  2.89216 255 255 255
  2.02187 -0.272339   3.71082 255 255 255
0.437255 0.116749  2.50231 255 255 255
-1.04071 -1.07697  3.45141 255 255 255
0.910273 0.214244    2.935 255 255 255
-0.170079 -0.579437   2.72187 255 255 255
-0.62735 0.490814  2.66358 255 255 255
  2.51044 -0.228031   3.81228 255 255 255
 0.83868 0.228401   2.8941 255 255 255
-1.05969  0.35791  2.80647 255 255 255
 0.314793 -0.614807   2.69533 255 255 255
  2.38018 -0.501178   3.95096 255 255 255
-1.07554 0.104139  2.95103 255 255 255
  1.80352 -0.294427   3.72485 255 255 255
-0.952044  -1.08729   3.47533 255 255 255
  1.23721 -0.891979   3.93341 255 255 255
0.00679087  -0.713881    2.72769 255 255 255
  2.44994 -0.610391   4.05647 255 255 255
-0.985237  -1.16243   3.47418 255 255 255
   1.9648 0.0221412   3.41001 255 255 255
-0.670406   0.46735   2.70384 255 255 255
 1.23463 -1.09044  3.97667 255 255 255
  1.23086 -0.249684   3.42473 255 255 255
 0.346243 0.0348317   2.94929 255 255 255
  1.37719 -0.432595   3.66831 255 255 255
-0.174696 -0.533081   2.69996 255 255 255
-0.684143  -1.27049   3.68084 255 255 255
 0.189986 -0.205414   3.09268 255 255 255
  1.3933 0.916581  2.36318 255 255 255
0.0670917 -0.885156   2.97813 255 255 255
  1.37741 -0.668342   3.82506 255 255 255
  -0.1214 -0.642808   2.63984 255 255 255
0.0151417 0.0265896   3.08965 255 255 255
0.138351 -1.03191  3.10689 255 255 255
  3.14041 -0.625259   4.33712 255 255 255
  2.37616 -0.118773   3.67147 255 255 255
-0.68514 -1.43666  3.79048 255 255 255
0.267767 0.093675  3.09988 255 255 255
  1.70807 -0.349466   3.66367 255 255 255
  2.21234 -0.911127   4.18217 255 255 255
-0.606296    -1.099   3.62409 255 255 255
2.39442 -0.2558 3.78577 255 255 255
0.502133  0.59075  2.49896 255 255 255
  1.31318 -0.519193   3.75833 255 255 255
-0.393552 -0.231106   2.92647 255 255 255
 -1.29631 -0.176959   2.95141 255 255 255
-0.910229  -1.04619   3.49912 255 255 255
  1.32175 -0.205698   3.44421 255 255 255
   2.8077 -0.184331   3.98226 255 255 255
 -1.12629 -0.149356   3.02732 255 255 255
 1.61105 -1.02579  4.11174 255 255 255
  2.02998 -0.192656   3.66846 255 255 255
-1.38464 0.214075  2.93714 255 255 255
  3.06925 -0.678988   4.28024 255 255 255
 -1.24704 -0.636049   3.19449 255 255 255
  1.06484 -0.363063   3.48613 255 255 255
 0.781089 0.0775812   3.12197 255 255 255
 -0.84885 -0.982857   3.51196 255 255 255
-1.00113 0.390851  2.77722 255 255 255
 1.03296 0.933658  2.69576 255 255 255
0.857835 0.153048  2.83868 255 255 255
   1.09818 -0.0802567    3.35546 255 255 255
 1.36202 -0.96244  3.96012 255 255 255
-0.121597  0.467796   2.42881 255 255 255
  2.26597 -0.037768   3.57534 255 255 255
 -0.29678 -0.800031   2.91877 255 255 255
0.303271 0.588796  2.75669 255 255 255
  1.05506 -0.309621   3.44033 255 255 255
0.143368 0.180851  2.45119 255 255 255
  2.95838 -0.524503   4.24497 255 255 255
  1.60501 -0.278075   3.61724 255 255 255
-0.485748 -0.354259   2.77064 255 255 255
 -1.23236 -0.162159   2.99422 255 255 255
  1.42633 -0.947478   3.97571 255 255 255
 0.329747 -0.644583   2.71423 255 255 255
-0.737663  -1.51183   3.81159 255 255 255
-0.764421 -0.151961   2.84276 255 255 255
 -0.360827 -0.0698074    2.73112 255 255 255
  1.49817 -0.966483   4.02812 255 255 255
  1.75087 -0.422311   3.77561 255 255 255
-0.767409 -0.994296   3.54099 255 255 255
-0.143419 -0.550809   2.71167 255 255 255
  2.73047 -0.188613   3.91464 255 255 255
0.684582 -1.10769  3.91631 255 255 255
-1.05532 0.076522  2.96744 255 255 255
 0.069443 -0.550369   2.69719 255 255 255
0.143736 -1.01182  3.08899 255 255 255
   2.055 0.318273   3.2548 255 255 255
0.0886084 -0.606223   2.73915 255 255 255
  1.01494 -0.182085   3.38879 255 255 255
-0.369378  0.392657   2.80975 255 255 255
0.0756001 -0.337613   2.65897 255 255 255
 -1.40496 0.0142717   3.03946 255 255 255
  2.73918 -0.157906   3.90327 255 255 255
 0.586352 -0.569414   2.90582 255 255 255
 -0.369597 -0.0228503    2.77849 255 255 255
 -1.43142 0.0334775   3.06075 255 255 255
 0.195588 0.0559563   2.99924 255 255 255
 0.501973 -0.434754   2.89882 255 255 255
 0.459688 -0.416164   2.91648 255 255 255
 1.95578 0.103112  3.40548 255 255 255
-0.664088  -1.42525   3.77634 255 255 255
-0.520749 -0.574222   2.63075 255 255 255
0.112932 0.198661  2.60244 255 255 255
0.577404  0.12654  3.06366 255 255 255
   1.30078 -0.0648009    3.34773 255 255 255
 0.547376 0.0306048   3.18098 255 255 255
   1.6838 -0.336977   3.68039 255 255 255
  2.58394 -0.097694   3.75799 255 255 255
    -1.372 -0.0151818    3.08475 255 255 255
0.598989 -1.07603  3.84888 255 255 255
  2.65767 -0.709831   4.14979 255 255 255
-0.266594 -0.430208   2.74011 255 255 255
-0.990681 -0.509972   3.12377 255 255 255
-0.660326  -1.19128   3.64798 255 255 255
-1.25895 0.121189  2.96123 255 255 255
-1.25712 0.121538   2.9562 255 255 255
  2.05416 -0.303888   3.74394 255 255 255
 1.74459 -0.99379  4.15488 255 255 255
  2.35292 -0.347169   3.84762 255 255 255
  2.05603 -0.696972   4.00295 255 255 255
0.290932 0.619881  2.75749 255 255 255
-0.236135  -0.87539   2.92304 255 255 255
-0.931964 -0.588841   3.18345 255 255 255
-1.22423 0.268884  2.85849 255 255 255
 -1.42992 -0.917231   3.46648 255 255 255
-1.04174 0.361959  2.79139 255 255 255
-0.0119977  -0.519239    2.66565 255 255 255
-0.505847 -0.598978   2.64344 255 255 255
0.258975 -1.06678  3.16758 255 255 255
  -1.1964 -0.911159   3.45628 255 255 255
   1.40487 -0.0743694    3.38124 255 255 255
 0.227753 0.0621413     2.981 255 255 255
-0.774308 -0.291898   2.97303 255 255 255
-0.774021 -0.290328   2.96569 255 255 255
 1.46794 0.248626  3.04873 255 255 255
1.86829 0.45412 3.18113 255 255 255
  1.74938 -0.859555   4.04887 255 255 255
-0.0278675  -0.731672    2.75233 255 255 255
  -1.2365 -0.687311   3.22982 255 255 255
-0.977973 -0.848311     3.406 255 255 255
0.831268 0.116577  2.92065 255 255 255
0.973677 0.424569  2.61405 255 255 255
 3.06376 -0.53434  4.29525 255 255 255
-0.0377897  -0.286227    2.63941 255 255 255
 0.593697 -0.478613   2.99152 255 255 255
  2.50709 -0.707637   4.13041 255 255 255
 1.92631 0.256324  3.25804 255 255 255
0.00973693  -0.531836    2.66122 255 255 255
  1.70342 -0.244771   3.59249 255 255 255
-1.36454 0.253469  2.89698 255 255 255
0.0916722 -0.338379   2.68731 255 255 255
  0.660982 0.00954489    3.20271 255 255 255
  0.124228 0.00700826    3.03009 255 255 255
-0.0681972  -0.729326    2.57196 255 255 255
  1.60312 -0.471133   3.71486 255 255 255
-0.662053  -1.04167   3.58816 255 255 255
0.0479386 -0.179687    2.8648 255 255 255
 0.53431 -1.28269  3.97843 255 255 255
 0.264952 -0.237711   3.22136 255 255 255
    1.8976 -0.0876237     3.4758 255 255 255
 2.13394 -0.95381  4.18796 255 255 255
 1.80925 0.393979  3.18561 255 255 255
0.359229 0.131848  2.39576 255 255 255
-1.30473 0.288929  2.86464 255 255 255
 1.15152 -1.01268  3.90039 255 255 255
0.378905 -1.31061  3.95525 255 255 255
-0.413641 -0.610444   2.71584 255 255 255
  2.91622 -0.603046   4.29195 255 255 255
  1.55574 -0.523643   3.72183 255 255 255
0.566772 -1.26867  3.99926 255 255 255
  0.15804 -0.940189   3.03932 255 255 255
 0.503647 -0.142394   3.22376 255 255 255
   -1.29757 -0.00605335     3.07814 255 255 255
  2.38745 -0.769365   4.16657 255 255 255
0.952287 0.258897    2.777 255 255 255
  1.84799 -0.422639   3.78435 255 255 255
 1.08246 -1.16683  3.99382 255 255 255
 0.260265 -0.738748   2.86294 255 255 255
-0.514139 -0.587583   2.64672 255 255 255
-0.319079 -0.391858   2.73121 255 255 255
  1.64514 -0.780774   3.99861 255 255 255
-0.994087  -0.99058   3.44347 255 255 255
 -1.14838 -0.750825    3.2973 255 255 255
-0.959777   -1.6613   3.88951 255 255 255
-0.789623  -1.62382   3.85366 255 255 255
 1.25021 0.172004  3.11204 255 255 255
-0.0202775  -0.432421    2.62152 255 255 255
-0.651015  -1.50019   3.85147 255 255 255
   2.9522 -0.313256   4.11223 255 255 255
  1.8331 0.594068   3.0954 255 255 255
   1.03452 -0.0985231    3.36181 255 255 255
-0.0503663   -0.84965    2.95067 255 255 255
-0.115092 -0.249449   2.60804 255 255 255
 -0.508835 -0.0705262    2.82957 255 255 255
 0.671394 -0.855559   2.93351 255 255 255
-0.34063 0.124881    2.598 255 255 255
0.0919814 -0.142907   3.19083 255 255 255
-0.277272  -1.38175   3.89307 255 255 255
0.0621884 -0.569348   2.70505 255 255 255
0.463706 0.702426  2.36616 255 255 255
   1.17806 0.00527799    3.31087 255 255 255
-0.914713  -1.11208   3.50452 255 255 255
-1.51572 0.114859  3.04156 255 255 255
0.565055  -1.1379  3.89433 255 255 255
 1.54652 -1.03459   4.0714 255 255 255
 0.168387 -0.280058   2.78645 255 255 255
 1.36928 0.142503  2.80005 255 255 255
 -1.17237 -0.341402   3.00783 255 255 255
  1.96417 -0.882582   4.11738 255 255 255
  0.446559 -0.0086482    3.18522 255 255 255
-0.937947  0.150378   2.91792 255 255 255
 0.186593 -0.168351   3.26753 255 255 255
 1.20098 -1.10173  3.98022 255 255 255
 -1.33459 -0.687138   3.28367 255 255 255
-0.987894  0.166453   2.91916 255 255 255
0.576565  -1.0593  3.80072 255 255 255
 2.16087 0.397393  3.23443 255 255 255
8.54514e-05    0.234594     2.98181 255 255 255
-0.990782  0.294062   2.83742 255 255 255
 0.341031 -0.908641   2.98862 255 255 255
-0.0255176  -0.713915    2.73311 255 255 255
  1.03116 -0.195802   3.39879 255 255 255
-0.545743 -0.522443   2.67166 255 255 255
 1.05927 0.850198  2.29207 255 255 255
-1.32242 0.284571  2.88204 255 255 255
-0.797331  -1.49875   3.78354 255 255 255
-0.452678  -1.31703   3.80815 255 255 255
-0.490972 -0.598929    2.6638 255 255 255
0.0532046  0.213187   3.01422 255 255 255
-1.27604 0.131144  2.96836 255 255 255
 -1.04075 -0.930296   3.41953 255 255 255
  2.67712 -0.386826   4.07532 255 255 255
0.653139 0.236015  2.97522 255 255 255
-0.675812  -1.49611   3.83566 255 255 255
-0.581188    -1.189   3.70082 255 255 255
-1.22259 0.127886  2.97894 255 255 255
2.94862 -0.4789 4.22766 255 255 255
   1.95995 -0.0355869    3.49031 255 255 255
-1.27458 0.095905  2.97663 255 255 255
 1.47767 0.358289  3.12133 255 255 255
-1.37457 0.198109  2.93727 255 255 255
   1.6589 -0.361275   3.69254 255 255 255
 0.568322 -0.569126   2.88455 255 255 255
2.44815 -0.0898 3.70379 255 255 255
 1.28597 -1.11306  3.98015 255 255 255
   2.8958 -0.561044    4.2672 255 255 255
  1.25564 -0.783245   3.90635 255 255 255
0.264547 0.123002  2.42941 255 255 255
 -1.02775 -0.984129   3.43196 255 255 255
   1.28405 -0.0280252     3.3473 255 255 255
-0.394438 -0.856704   2.94485 255 255 255
  1.31126 -0.179737   3.43056 255 255 255
0.296473 0.575279  2.75991 255 255 255
   2.119 0.383676  3.23609 255 255 255
  1.03211 -0.134808   3.31539 255 255 255
 1.08514 0.834619   2.2951 255 255 255
 -0.94933 -0.576046   3.16241 255 255 255
 -0.04004 -0.834012   2.94688 255 255 255
  1.44281 -0.713692   3.83416 255 255 255
0.816594 0.297364  2.97796 255 255 255
-0.998353  -1.12375   3.44311 255 255 255
-0.753091  -1.54294   3.82862 255 255 255
 1.30892 0.460217  2.70717 255 255 255
 -1.27511 0.0652061   3.01471 255 255 255
0.513242 0.332898  2.44296 255 255 255
 0.519302 -0.544917   2.86125 255 255 255
 0.693147 -0.628816   2.96951 255 255 255
   -1.043 0.0205307   2.98335 255 255 255
  1.80143 -0.108434    3.5257 255 255 255
-0.0230408  -0.752075    2.79722 255 255 255
 -1.24094 -0.493454   3.12234 255 255 255
-0.596315  -1.14414   3.65173 255 255 255
 0.789575 -0.680152   3.00616 255 255 255
0.120245 -1.04479  3.08877 255 255 255
    1.9107 -0.0204351    3.46725 255 255 255
   0.0299 -0.626101   2.75547 255 255 255
  1.40115 -0.554962   3.76289 255 255 255
 0.438834 0.0739925   2.50956 255 255 255
  2.36609 0.0284637   3.64575 255 255 255
-0.0750801  -0.484184    2.66404 255 255 255
-0.0616914  -0.588629    2.74066 255 255 255
   2.0618 -0.158706   3.62679 255 255 255
-1.18465 0.159145  2.93743 255 255 255
-0.948126 -0.721579   3.17212 255 255 255
1.68905 -0.6709 3.84637 255 255 255
-0.615794  -1.11639   3.63849 255 255 255
-0.858867  -1.17018    3.4954 255 255 255
 1.76606 0.259064  3.19999 255 255 255
  0.408128 0.00511807    3.16078 255 255 255
  1.23424 -0.211609   3.44143 255 255 255
  1.29451 -0.972021   3.92751 255 255 255
  0.82588 -0.752707   2.96698 255 255 255
  1.35876 -0.888717   3.99358 255 255 255
-0.941387  -1.18597   3.55229 255 255 255
-0.606334  0.407804   2.84765 255 255 255
 -1.17732 -0.271591   2.99036 255 255 255
  1.90519 -0.506593   3.83365 255 255 255
  1.43863 -0.843173   4.00131 255 255 255
 1.18131 0.762909    2.315 255 255 255
  -1.12897 -0.0662168    3.02699 255 255 255
 1.82938 0.613196  3.06334 255 255 255
  -0.32122 -0.0967768    2.73796 255 255 255
 0.349927 -0.752842   2.89209 255 255 255
0.0857138 -0.534299   2.68671 255 255 255
-0.893463  -1.33728   3.68335 255 255 255
-1.37561 -0.77012  3.34353 255 255 255
0.501836 0.293338  2.46618 255 255 255
0.555792 -1.15707  3.94552 255 255 255
 1.61758 -0.70733  3.93377 255 255 255
  3.04389 -0.547604   4.30433 255 255 255
    2.2372 -0.0939983    3.62015 255 255 255
0.503116 -1.23929  4.00019 255 255 255
0.0286294  0.121213   2.88253 255 255 255
  2.72086 -0.178085   3.92051 255 255 255
-1.01838 -1.16551   3.4406 255 255 255
-1.37579 0.309282  2.87091 255 255 255
 1.63535 0.094046  3.25578 255 255 255
0.475458 0.274673  2.46588 255 255 255
  2.86776 -0.780984   4.30066 255 255 255
  1.96418 -0.237518   3.68817 255 255 255
  -1.29407 -0.0826259    3.07752 255 255 255
0.0580256  0.179137   2.96768 255 255 255
-0.779022 -0.804085   3.24075 255 255 255
 1.05867 -1.07363  3.87669 255 255 255
-0.679195  -1.35668   3.71738 255 255 255
-0.597324 -0.192532   2.91282 255 255 255
  2.24503 -0.835199   4.15066 255 255 255
  1.11776 0.0352763   3.06931 255 255 255
-0.0292258  -0.816697    2.92977 255 255 255
-1.09473 -1.41917  3.66989 255 255 255
0.0771464 -0.624727   2.75589 255 255 255
  1.22814 -0.750159   3.87901 255 255 255
-0.222719 0.0204937   2.71341 255 255 255
-0.126162 -0.731426   2.53332 255 255 255
 0.991188 -0.168858   3.37306 255 255 255
0.0544807  0.128829   2.89237 255 255 255
  2.02837 -0.968719   4.15869 255 255 255
-1.23321 0.132286  2.96293 255 255 255
  2.27677 -0.166582    3.6814 255 255 255
0.585565 -1.24506  3.97299 255 255 255
   0.22002 -0.0091193    2.98652 255 255 255
 -1.30283 -0.198535   2.94315 255 255 255
0.637798 0.249618  2.99474 255 255 255
0.713135 -1.14776  3.98285 255 255 255
-0.764043   -1.5643    3.8468 255 255 255
  1.42146 -0.664918   3.85596 255 255 255
 -1.26445 -0.378406   3.00186 255 255 255
0.840598 0.675665  2.52304 255 255 255
-0.619324  -1.53396   3.89911 255 255 255
  1.3965 -1.09086  4.03339 255 255 255
  1.30889 -0.917053   3.96178 255 255 255
 0.244591 -0.977344   2.98036 255 255 255
  0.344521 -0.0865964    3.15423 255 255 255
-0.461945 -0.480665   2.62325 255 255 255
  1.95981 -0.958426   4.09766 255 255 255
 1.86817 0.784993  3.00031 255 255 255
 0.564174 -0.197566   2.99074 255 255 255
 1.18203 0.846017  2.28334 255 255 255
-0.146912 -0.604155   2.68283 255 255 255
-0.0847087  0.0853167    2.94956 255 255 255
   1.2514 -0.990377   3.92846 255 255 255
-0.567622  0.266325   2.56051 255 255 255
-0.928371   0.24093   2.86028 255 255 255
1.78893 -1.0251 4.16272 255 255 255
0.0200762  0.631979   3.01172 255 255 255
-0.788134  -1.51593   3.79787 255 255 255
   2.49382 -0.0377103    3.70313 255 255 255
  0.57948 -0.174303   2.98275 255 255 255
0.823331 0.265281  2.72819 255 255 255
  2.79342 -0.414236   4.13582 255 255 255
0.272068 0.301564  2.43174 255 255 255
-0.0642028  -0.329631    2.49514 255 255 255
 0.195178 -0.585424   2.73113 255 255 255
 -1.37351 0.0383472   3.05312 255 255 255
 0.17119 0.133324  2.39614 255 255 255
0.167733 0.193159   2.4328 255 255 255
 0.218489 -0.272044   2.90408 255 255 255
-1.03579 0.384586  2.88997 255 255 255
  1.32813 0.0973831   2.84838 255 255 255
   -1.2482 -0.0108039    3.05999 255 255 255
-0.200715 -0.474816    2.6504 255 255 255
  1.90875 -0.393287   3.78468 255 255 255
-1.17148 0.211665  2.89641 255 255 255
-0.0424015  -0.880925    2.98334 255 255 255
0.801105  0.22925  2.88724 255 255 255
-0.511703  0.206259   2.58168 255 255 255
  2.06906 -0.729506   4.03132 255 255 255
0.712846 -1.18318  3.86838 255 255 255
-0.704317  -1.22305   3.63485 255 255 255
-0.553111 -0.692478   2.80859 255 255 255
 1.26383 -0.89962  3.93733 255 255 255
0.380121 0.125973  2.40189 255 255 255
-0.697256   0.12845   2.68027 255 255 255
 0.758942 -0.246807   3.04746 255 255 255
-0.0480779  -0.601829      2.697 255 255 255
   2.30922 0.00902416    3.60966 255 255 255
-0.792812  -1.02003   3.53119 255 255 255
    1.159 -0.710547    3.8267 255 255 255
 0.18779 -1.00482  3.09918 255 255 255
 -1.09701 -0.825629    3.3672 255 255 255
-1.03552 0.387507  2.79565 255 255 255
-0.162135  0.053723   2.72241 255 255 255
 -1.3618 0.162542  2.96655 255 255 255
-0.800273  -1.40319   3.69937 255 255 255
  1.73222 -0.354154   3.87045 255 255 255
  2.84937 -0.542392   4.25106 255 255 255
-0.0629694   -0.47227    2.62693 255 255 255
 1.30207 0.289572  2.93639 255 255 255
  -1.1997 -0.175733   3.06523 255 255 255
-1.09278 0.428326  2.76686 255 255 255
-0.598701  -1.58996   3.91571 255 255 255
 1.99562 -0.31026  3.72419 255 255 255
 -1.25036 -0.140516   2.99532 255 255 255
 -0.08788 -0.697041   2.71268 255 255 255
0.615171 -1.05931  3.84634 255 255 255
 -1.4145 0.124276  3.00945 255 255 255
0.518784 -1.31803  4.01212 255 255 255
 0.143759 -0.515688   2.67266 255 255 255
 1.27168 -0.31051  3.53484 255 255 255
-0.753815  -1.59979   3.82237 255 255 255
0.0206973 -0.405031    2.5838 255 255 255
-0.696683   -1.6057   3.89393 255 255 255
0.591158 0.240079  3.00415 255 255 255
-0.562007  -1.54052    3.9347 255 255 255
 -1.36737 -0.340044   3.01702 255 255 255
  1.98486 -0.694005   3.98086 255 255 255
-0.528024  0.214093   2.55503 255 255 255
  2.35044 0.0818909   3.62219 255 255 255
  1.52283 -0.560209   3.71447 255 255 255
-0.798207  -1.39076   3.71337 255 255 255
  0.314916 0.00296517      3.056 255 255 255
-0.0192789 -0.0518757    2.78907 255 255 255
  2.61701 -0.654926   4.09605 255 255 255
 0.802052 -0.484459   3.30518 255 255 255
  1.72022 -0.270108   3.62508 255 255 255
-0.945069 -0.555402   3.18003 255 255 255
 0.955176 -0.604063    3.2953 255 255 255
 0.549111 -0.186029   3.00918 255 255 255
  2.99385 -0.555064   4.28352 255 255 255
-0.75406 -1.25002  3.61659 255 255 255
   1.9841 -0.948803   4.16423 255 255 255
  1.55397 -0.447218     3.726 255 255 255
0.720202 0.670627  2.45656 255 255 255
  2.64688 -0.631064   4.13835 255 255 255
 1.92207 0.238039  3.28294 255 255 255
 2.13206 0.329998  3.26473 255 255 255
0.204805 -0.68606  2.82552 255 255 255
0.971725 0.436455  2.60983 255 255 255
 0.179154 -0.577893   2.73226 255 255 255
0.0655267 -0.644086   2.77239 255 255 255
-1.21562 0.390987  2.80754 255 255 255
 -1.0759 0.153359  2.91579 255 255 255
 0.754347 -0.899406   3.03731 255 255 255
-0.606301 -0.523194   2.65168 255 255 255
-0.183524 -0.666053   2.68391 255 255 255
-0.827506  -1.07354   3.48612 255 255 255
3.02454 -0.4347  4.2117 255 255 255
0.217193 0.332796  2.40051 255 255 255
-0.771911  -1.40482   3.73093 255 255 255
  0.11649 0.0452775   3.11621 255 255 255
  0.4051 0.209211  2.54115 255 255 255
    2.24047 -0.00229304     3.54596 255 255 255
0.705698 0.207172   3.0613 255 255 255
-0.362513 0.0634464   2.77359 255 255 255
0.593336  0.12515  2.97854 255 255 255
  0.61397 -0.178348   2.91724 255 255 255
1.05695 0.81725 2.36061 255 255 255
   0.5044 -0.390823   3.06978 255 255 255
 -1.28768 -0.167424   2.95991 255 255 255
-0.631968  -1.24128     3.694 255 255 255
 -1.37789 -0.170254   2.93114 255 255 255
-0.854415 -0.314852   2.99039 255 255 255
-0.710657  -1.13066   3.59191 255 255 255
 1.84112 0.428735  3.10799 255 255 255
 1.05947 0.804484  2.35637 255 255 255
  2.81818 -0.362427   4.10976 255 255 255
 1.45486 0.997699  2.40324 255 255 255
-0.402118  0.387478   2.85927 255 255 255
0.139213 -1.11856  3.15275 255 255 255
  1.48777 -0.455831   3.67618 255 255 255
-0.639864   -1.1001   3.60159 255 255 255
 1.04242 0.961991   2.7055 255 255 255
  1.40498 -0.931883    3.9684 255 255 255
-0.256983 -0.863513   2.90165 255 255 255
-1.48066 0.103884  3.00501 255 255 255
-0.645624  -1.34924   3.74404 255 255 255
 0.566887 0.0206653   3.19134 255 255 255
  -1.2278 -0.570044   3.14203 255 255 255
 0.132848 -0.534538   2.70357 255 255 255
  1.06981 -0.221221   3.45549 255 255 255
 0.975816 -0.269633   3.42909 255 255 255
  0.45934 -0.370854   3.05991 255 255 255
 -0.76257 -0.305867   2.98726 255 255 255
0.317595 0.105953  2.43271 255 255 255
 0.47941 -1.23974  3.99156 255 255 255
-0.682581   -1.1846    3.6287 255 255 255
   2.32588 -0.0260161    3.61386 255 255 255
-0.0585168   0.205533     2.9772 255 255 255
0.507564 -1.27598    3.993 255 255 255
0.444973 0.515016  2.56405 255 255 255
  0.2241 0.437653  2.38251 255 255 255
   1.43275 -0.0762387     3.4123 255 255 255
-0.326564  -1.31505   3.81197 255 255 255
-1.18632 0.213849  2.88024 255 255 255
0.161405 -1.07594  3.09847 255 255 255
  0.515431 -0.0873083    3.15832 255 255 255
   1.22693 -0.0524709     3.3564 255 255 255
-1.24562 0.121985  2.96244 255 255 255
 0.097309 -0.517976    2.6723 255 255 255
-1.25653 0.154654  2.91386 255 255 255
 -1.37906 -0.317221   3.00857 255 255 255
  1.72275 -0.636088   3.89639 255 255 255
2.01325 0.54941 3.07411 255 255 255
  0.426278 -0.0924168    3.08292 255 255 255
-0.221285 -0.883224   2.92387 255 255 255
 0.215499 -0.547921   2.69942 255 255 255
-0.610451  -1.57663   3.94364 255 255 255
-0.797229  -1.45044   3.74674 255 255 255
-1.29811 0.315135  2.85005 255 255 255
 2.18496 0.210086  3.36637 255 255 255
 -1.19633 -0.317745   3.00816 255 255 255
-0.972308 -0.848541   3.39165 255 255 255
  1.85355 -0.132864   3.55447 255 255 255
 1.79417 0.216712   3.2109 255 255 255
 1.05417 0.473522  2.61848 255 255 255
  2.02371 0.0148747   3.44817 255 255 255
  2.85788 -0.216055    4.0059 255 255 255
  1.8581 0.466502  3.16893 255 255 255
0.703615 0.349336  2.93132 255 255 255
0.122604 0.325312  2.39318 255 255 255
  1.48962 -0.136709    3.4405 255 255 255
 1.37181 -1.03531  3.96802 255 255 255
 2.14356 0.142765   3.3794 255 255 255
  2.94269 -0.490108   4.23663 255 255 255
   1.95851 -0.0590254    3.49554 255 255 255
 0.0525445 -0.0031651    3.09047 255 255 255
  2.78732 -0.304445   4.04383 255 255 255
-0.373467 -0.581657   2.67878 255 255 255
-0.128694   0.13556   2.97525 255 255 255
-0.180673 -0.473708   2.64897 255 255 255
 -0.62141 -0.999316   3.54717 255 255 255
  2.49225 -0.671025   4.09802 255 255 255
0.653829 0.302217  2.92456 255 255 255
 0.283295 0.0833511   3.07905 255 255 255
 0.215466 0.0366625   2.98726 255 255 255
0.450824 -1.32575  3.92996 255 255 255
0.0701877  0.182272   3.02033 255 255 255
  2.75283 -0.575431   4.23827 255 255 255
-1.16022 0.210513  2.89566 255 255 255
-0.214401  0.292956   2.93308 255 255 255
0.479817 -1.25929    3.999 255 255 255
-0.876013  -1.45833    3.7285 255 255 255
  1.29952 -0.186849   3.42989 255 255 255
 0.102242 0.0389444   3.06741 255 255 255
 -1.51289 0.0646457   3.04282 255 255 255
 0.149917 -0.926463   3.01435 255 255 255
 2.18428 0.378712  3.24469 255 255 255
 1.87586 0.502473  3.14387 255 255 255
 -0.134244 -0.0720086    2.78141 255 255 255
  1.31384 -0.233673   3.51264 255 255 255
   2.27834 -0.0597582    3.61549 255 255 255
  -1.00789 0.00302412     2.9925 255 255 255
-0.807161 -0.927872   3.45831 255 255 255
 -1.28108 -0.152191   2.99285 255 255 255
  2.56232 -0.650007   4.11644 255 255 255
 1.04749 0.827053   2.3583 255 255 255
 1.11577 0.358346  2.69681 255 255 255
  2.84935 -0.415779   4.17372 255 255 255
  2.20304 -0.247738   3.72434 255 255 255
0.185014 -1.03906   3.0727 255 255 255
  1.84948 -0.464195   3.84859 255 255 255
-1.33374 0.225383  2.89937 255 255 255
-0.325995 -0.830349   2.87616 255 255 255
 -1.26379 0.0194364   3.05406 255 255 255
-0.489423   0.40817   2.80145 255 255 255
-0.436444  -1.45894   3.92191 255 255 255
  1.36128 -0.920674   3.95916 255 255 255
 1.19002 -1.08359  3.97197 255 255 255
-0.714897  -1.42644    3.7709 255 255 255
-0.685432  -1.09672   3.58829 255 255 255
 1.75983 -1.02379  4.12738 255 255 255
  0.88688 -0.138386   3.31924 255 255 255
-0.164349 -0.621557   2.62788 255 255 255
  1.3994 -1.10631  4.01431 255 255 255
0.849709 0.242002  2.72019 255 255 255
0.667716 0.291529  2.97334 255 255 255
   2.078 0.384612  3.21784 255 255 255
 1.62937 0.878011    2.905 255 255 255
 2.48653 0.106144  3.64818 255 255 255
 -1.21531 0.0374534   3.01432 255 255 255
 0.325729 0.0540852   2.53745 255 255 255
  2.77513 -0.168202   3.94441 255 255 255
 1.45108 0.393638   3.0728 255 255 255
-0.689866  0.530623   2.68954 255 255 255
 -1.28716 -0.692009   3.32275 255 255 255
-0.529458  -1.26671    3.7611 255 255 255
 1.75325 0.250823  3.21708 255 255 255
-0.333114 0.0341304   2.75246 255 255 255
0.500503 0.695866  2.34899 255 255 255
-0.184276 -0.902256   2.94494 255 255 255
 1.13913 0.488225  2.65489 255 255 255
-0.79895  -1.1778  3.55995 255 255 255
 0.239107 -0.747853   2.85473 255 255 255
-0.966928 -0.410641    3.0455 255 255 255
 2.10507 0.456313   3.1767 255 255 255
0.827587 -1.27039  4.01588 255 255 255
0.0995669  -1.06832    3.1474 255 255 255
-0.765446  -1.16074   3.56988 255 255 255
    2.00462 -0.00650035     3.46099 255 255 255
-1.00869 -1.69414  3.89397 255 255 255
-0.658374  0.531543   2.66698 255 255 255
  1.77491 -0.258083   3.61283 255 255 255
-0.804728  -1.31106   3.65894 255 255 255
 0.456204 -0.312808   3.39022 255 255 255
-0.802651  -1.52971   3.80289 255 255 255
 -1.29329 -0.621871   3.12561 255 255 255
-0.710036 -0.169254   2.91734 255 255 255
  1.58643 -0.413571   3.68745 255 255 255
 1.52341 -1.03347  4.05084 255 255 255
-0.137222 -0.538872   2.69668 255 255 255
 1.62418 0.324089  3.20496 255 255 255
-0.525278 -0.504366   2.66926 255 255 255
0.362035 0.120939   2.4078 255 255 255
-0.917537  -1.19786   3.56533 255 255 255
 2.14879 0.369282  3.25341 255 255 255
-0.527859  -1.37206   3.83258 255 255 255
  1.62533 -0.737011   3.95708 255 255 255
  -1.2505 0.0209069   3.02924 255 255 255
  -1.09218 -0.0262799    2.99668 255 255 255
    -1.4719 -0.00792882     3.05377 255 255 255
 -1.47669 0.0817723   3.05108 255 255 255
 -1.07896 0.0297597   2.98565 255 255 255
   -1.147 -0.151775   3.04109 255 255 255
   -1.299 -0.156898   2.93827 255 255 255
-0.966501  0.130565   2.75539 255 255 255
 -1.40482 -0.257822   2.93051 255 255 255
 -1.44704 0.0608159   3.02784 255 255 255
-1.12959 0.370682  2.78876 255 255 255
  -1.3243 0.0196225   3.03124 255 255 255
-1.07612 0.404873  2.77261 255 255 255
  -1.27018 -0.0337043    3.07488 255 255 255
  -1.39574 -0.0417349     3.0492 255 255 255
-1.36445 0.171267  2.94192 255 255 255
 -1.50121 0.0875791   3.03221 255 255 255
 0.552653 -0.292256   3.00949 255 255 255
-0.838465 -0.225401   2.85121 255 255 255
-0.972084  -1.00811   3.43529 255 255 255
 0.412421 -0.263908   3.43065 255 255 255
 -1.04165 -0.799506     3.345 255 255 255
-0.292484  0.217624   2.80059 255 255 255
   2.55966 -0.0164994    3.71887 255 255 255
  2.18832 -0.733453   4.05277 255 255 255
1.30977 0.23235 3.14846 255 255 255
     -1.23 0.00877268    3.00475 255 255 255
-0.296543 -0.855716   2.92689 255 255 255
 2.09432 0.766486  2.98075 255 255 255
  2.34151 -0.641301   4.02281 255 255 255
 1.90202 0.605423   3.0886 255 255 255
 1.92582 0.337075  3.19166 255 255 255
 1.49807 0.671308  2.57362 255 255 255
 0.886896 -0.313551    3.2417 255 255 255
  1.7878 0.337557  3.16928 255 255 255
0.658069 -1.18485  3.90629 255 255 255
-1.00287 -1.45466  3.70645 255 255 255
 -1.28896 -0.245014   3.00411 255 255 255
-0.737665 -0.317444   3.02926 255 255 255
0.967533 0.864945  2.54515 255 255 255
-0.249829 -0.139421   2.86071 255 255 255
-0.125556 -0.310927   2.45025 255 255 255
  1.4452 0.504662  2.59202 255 255 255
 2.32527 -0.91086  4.24656 255 255 255
-0.573559  -1.23853   3.73339 255 255 255
-0.991637   -1.5849   3.84317 255 255 255
  3.02381 -0.697038   4.28574 255 255 255
-0.640497  -0.77951    3.0976 255 255 255
1.91348 0.80577 2.87442 255 255 255
 -1.15098 -0.491983   3.12862 255 255 255
-1.15497 -1.90409  4.02788 255 255 255
-0.108949 -0.457346   2.59583 255 255 255
-0.924778 -0.313361   2.99363 255 255 255
   1.2721 -0.585727   3.78018 255 255 255
 0.415448 -0.488324   2.85476 255 255 255
 0.367514 0.0207081   2.79868 255 255 255
0.232792  0.19026  2.42397 255 255 255
-0.946806 -0.141158   2.82131 255 255 255
 1.94977 0.923239  2.94899 255 255 255
 -1.209 0.18231 2.91652 255 255 255
-1.06689 -1.66674  3.83059 255 255 255
 0.394732 -0.853121   3.16394 255 255 255
0.0546226  0.141819   2.95291 255 255 255
-0.884401  -1.22842   3.57719 255 255 255
-0.0983796    -0.8719    2.94492 255 255 255
  1.8981 0.822738   3.0236 255 255 255
  1.04363 -0.391783   3.56762 255 255 255
0.0264589  0.597779   2.75026 255 255 255
 1.60212 0.996395  2.54054 255 255 255
  3.25437 -0.681287   4.33594 255 255 255
-0.898457 -0.452897   3.07061 255 255 255
-1.23414 0.228861  2.90433 255 255 255
   2.40045 -0.0999847     3.7261 255 255 255
-0.956892  -1.53036   3.81307 255 255 255
-0.365528  -1.32614   3.83507 255 255 255
  1.71768 -0.616547   3.85765 255 255 255
 -1.25745 -0.564954    3.1095 255 255 255
 1.08108 0.879773  2.45543 255 255 255
-0.849199  -1.64443   3.86724 255 255 255
 -1.0252 -1.71394  3.89621 255 255 255
  0.17733 -0.954628    3.0321 255 255 255
-0.825863 -0.338396   3.00681 255 255 255
  1.57831 -0.273131    3.6211 255 255 255
   1.85389 -0.0914748    3.54915 255 255 255
 2.12969 -0.89855  4.20039 255 255 255
 2.20372 0.601545  3.04938 255 255 255
-1.18141 -1.00365  3.36514 255 255 255
0.611828 0.654949  2.42075 255 255 255
 1.89602 0.997907  2.84017 255 255 255
-1.09834 -1.49077  3.72636 255 255 255
   -1.46816 -0.00800433     3.04356 255 255 255
-1.44015 0.143067  3.00518 255 255 255
  2.59737 -0.385562   3.96728 255 255 255
-1.08765 -1.07833    3.406 255 255 255
 1.48497 0.448219  3.09306 255 255 255
0.310552 0.504938  2.68875 255 255 255
0.264193 -0.88189  3.00679 255 255 255
  2.62422 -0.430033    4.0723 255 255 255
-0.796311 -0.112681    2.8413 255 255 255
-1.08175 -1.40951  3.67779 255 255 255
 -1.40839 -0.117676   2.94773 255 255 255
 0.309249 0.0177491   3.08537 255 255 255
  0.479195 -0.0291017    3.17053 255 255 255
  2.99903 -0.423995   4.19559 255 255 255
-0.86281  -1.0031  3.51272 255 255 255
 1.07722 0.858366  2.63364 255 255 255
-0.0260792  -0.985313    3.09042 255 255 255
 2.15541 0.689183  3.03826 255 255 255
0.212401  -0.3077  2.79634 255 255 255
-0.170325 -0.421285   2.61479 255 255 255
 1.92229 0.871903  2.97246 255 255 255
-0.529397  0.276172   2.60424 255 255 255
 2.20324 0.618649  3.15385 255 255 255
 2.00094 0.832596  2.93172 255 255 255
-0.796017 -0.875572   3.40025 255 255 255
-1.16559 -1.73063  3.89142 255 255 255
-0.868614 -0.859924   3.38915 255 255 255
 1.90832 0.722452  3.02921 255 255 255
 1.32745 -0.67293  3.80594 255 255 255
-0.440656 -0.790072    2.9311 255 255 255
-1.03521 -1.11781  3.46987 255 255 255
0.0915194 -0.789993   2.87486 255 255 255
-0.729922   -1.0397   3.55853 255 255 255
  1.6505 0.975052  2.58408 255 255 255
   2.4624 -0.183931   3.77517 255 255 255
-0.990751  0.301942   2.77107 255 255 255
-0.533008  -1.59624   3.93045 255 255 255
0.472047 0.377201  2.32307 255 255 255
0.327992 0.587477  2.73987 255 255 255
  2.70231 -0.118954   3.83536 255 255 255
 2.27968 0.578891  3.15087 255 255 255
  1.8951 0.646826  3.05509 255 255 255
  1.9997 0.069531  3.37313 255 255 255
  2.4811 0.218668  3.64016 255 255 255
-0.673143  0.384698   2.70151 255 255 255
1.89925 0.90049 2.97948 255 255 255
 -0.16646 -0.590633   2.70182 255 255 255
-1.11067 -1.89021  4.04203 255 255 255
-0.258245  0.136059   2.76453 255 255 255
 1.94914 0.799228  2.98853 255 255 255
-0.652331  -1.26883   3.69234 255 255 255
-0.948851  -1.73185   3.93111 255 255 255
-0.289891   0.42898   2.37795 255 255 255
0.905308 0.140767  2.87993 255 255 255
 1.59095 0.891716  2.79844 255 255 255
-0.910524   0.34588    2.7594 255 255 255
-0.0738086   0.538882    2.85343 255 255 255
 1.16543 0.770461  2.40813 255 255 255
2.01918  0.9377 2.90903 255 255 255
  1.41633 -0.629474   3.72369 255 255 255
 -1.16077 -0.420816   3.04777 255 255 255
 1.63961 0.902061  2.84502 255 255 255
 1.71597 0.181807  3.30342 255 255 255
 0.491857 -0.370728   3.10699 255 255 255
 2.08196 0.841716  2.93375 255 255 255
  1.51947 -0.667065    3.7827 255 255 255
-0.858257 -0.823881   3.36026 255 255 255
-0.563864  -1.36862   3.78596 255 255 255
 -1.29737 -0.534804     3.116 255 255 255
  1.41261 -0.140419   3.45374 255 255 255
-0.220184 -0.838097   2.94708 255 255 255
  1.8422 0.727474  3.02577 255 255 255
 -1.22883 -0.183122    2.9984 255 255 255
-0.752609  0.395594   2.74006 255 255 255
-0.221431  0.156289   2.89003 255 255 255
 -1.28071 -0.471179   3.10825 255 255 255
  3.3296 -0.73288  4.38284 255 255 255
 -1.31483 0.0839867   3.00686 255 255 255
2.25366 0.54945 3.12983 255 255 255
  2.87822 -0.220685   4.01881 255 255 255
 1.17866 0.735744  2.33158 255 255 255
 -1.14897 -0.351396   3.00588 255 255 255
-0.0124757  -0.644922     2.7652 255 255 255
-1.09659 0.299372  2.83747 255 255 255
   1.87342 -0.0551513    3.51633 255 255 255
1.77348 1.02659 2.80653 255 255 255
-1.14739 -1.57798  3.81054 255 255 255
-0.80015 -1.68699  3.84803 255 255 255
0.196377  0.33671  2.37296 255 255 255
  2.91509 -0.452487   4.20514 255 255 255
-0.794231  -1.55407   3.77993 255 255 255
 1.44106 0.632157  2.47012 255 255 255
 0.193814 -0.272982   2.85195 255 255 255
  2.57586 0.0767879   3.65479 255 255 255
 0.87303 0.224469  2.92921 255 255 255
 1.95663 0.447042  3.15783 255 255 255
  2.05027 -0.108582   3.61471 255 255 255
-0.518204 -0.447219   2.60393 255 255 255
-0.659709   -1.6787    3.9607 255 255 255
 0.234894 -0.727146     2.859 255 255 255
  2.37433 -0.130303    3.6225 255 255 255
  -1.2358 -0.394782    3.0575 255 255 255
-1.01005 0.258751  2.84912 255 255 255
-0.731377  -1.70713   3.99808 255 255 255
 -1.28527 0.0398258   3.04703 255 255 255
-0.952308  -1.43816   3.76467 255 255 255
  2.16616 -0.828173   4.16469 255 255 255
-0.811195 -0.630054    3.1845 255 255 255
-0.964903  0.287766   2.84161 255 255 255
 0.374798 -0.356473   2.91596 255 255 255
 1.46844 0.582273  2.57265 255 255 255
  2.05529 -0.779389   4.06869 255 255 255
   2.2164 0.0581543   3.51693 255 255 255
-0.137338 -0.704057    2.6784 255 255 255
 1.00714 0.950299   2.6664 255 255 255
0.974096 0.693826  2.46705 255 255 255
0.662039 -1.05296  3.84876 255 255 255
  2.82968 -0.204257    3.9944 255 255 255
  1.09228 -0.208073   3.37403 255 255 255
 1.07784 0.809312  2.55924 255 255 255
  1.28156 0.0555645   2.96118 255 255 255
 -0.282056 -0.0170826    2.75756 255 255 255
 1.65802 0.204206  3.30639 255 255 255
 -1.09104 -0.231623    2.9957 255 255 255
 -1.04957 -0.467949   3.16127 255 255 255
 1.89253 0.653326  3.02913 255 255 255
 0.894512 0.0318585   3.17693 255 255 255
 0.235527 -0.796441   2.94186 255 255 255
  2.83064 -0.526596   4.22551 255 255 255
-0.607285  -1.36667   3.75525 255 255 255
-0.619841   0.44485   2.73984 255 255 255
  3.2171 -0.66281  4.28991 255 255 255
  2.83831 -0.318052    4.0683 255 255 255
0.818848 0.282939  2.72566 255 255 255
-1.25077 0.169571   2.9168 255 255 255
0.876509 0.681557  2.48258 255 255 255
 1.46503 0.725047   2.5598 255 255 255
 -0.21007 -0.867592    2.9121 255 255 255
  -1.4145 -0.468687   3.10619 255 255 255
 1.77927 0.213857  3.23481 255 255 255
 0.952393 0.0366361   3.22298 255 255 255
1.87526 1.22181 2.95571 255 255 255
-0.694488 -0.140392    2.8525 255 255 255
0.831436 0.125842  2.85824 255 255 255
  2.2463 0.536813  3.05772 255 255 255
 0.460687 -0.514948   2.87059 255 255 255
-1.05637 -1.85143  3.98547 255 255 255
 2.06192 0.125983  3.35093 255 255 255
 2.06443 0.920081  2.91882 255 255 255
-0.0922947   0.507835    2.66874 255 255 255
-0.750752  -1.22221   3.60274 255 255 255
-1.36686 -0.51089  3.10975 255 255 255
  2.24762 -0.821658   4.11352 255 255 255
-0.245893 -0.850842   2.89947 255 255 255
  -0.28733 -0.0388227    2.77486 255 255 255
  1.93916 -0.762586   4.03672 255 255 255
  2.76042 -0.554602   4.22858 255 255 255
-0.319024 -0.814431    2.8654 255 255 255
1.09199 0.62597 2.52615 255 255 255
  1.42177 -0.162994   3.42713 255 255 255
 1.09169 0.830511  2.25331 255 255 255
0.304998 0.046241  3.00592 255 255 255
 2.53535 0.163095  3.60736 255 255 255
0.0676211  0.595563   2.44425 255 255 255
  2.07946 0.0132671   3.43909 255 255 255
-0.139219 -0.421687   2.59755 255 255 255
-0.794432  -1.35946    3.6852 255 255 255
 0.65715 0.254486  2.94798 255 255 255
 0.271047 0.0684345   3.06867 255 255 255
-1.11944 -1.72819  3.88288 255 255 255
0.842997 0.637175  2.50781 255 255 255
-0.236482 -0.899861   2.94804 255 255 255
 -1.49772 0.0527052   3.04258 255 255 255
-0.677246  0.315463   2.52602 255 255 255
-0.0397481   -0.48179     2.6608 255 255 255
-0.814794  -1.20647   3.52053 255 255 255
   2.25731 -0.0366208    3.57631 255 255 255
0.00616193   0.143504    2.87739 255 255 255
0.735193 0.312599  2.68935 255 255 255
 0.676606 -0.398665   3.47858 255 255 255
  1.26562 -0.849409   3.91381 255 255 255
  1.43193 -0.366051   3.62629 255 255 255
-0.810961  -1.18474   3.53803 255 255 255
2.21346 0.36256 3.27774 255 255 255
 1.55438 0.533604  3.07301 255 255 255
2.13958 0.83578 3.06173 255 255 255
 -1.30055 -0.376167   2.99634 255 255 255
  2.78159 -0.120705   3.90767 255 255 255
-1.32015 -0.40523  3.02944 255 255 255
 1.2031 0.56025 2.57346 255 255 255
1.60758 1.05496 2.55293 255 255 255
0.220664 0.313122  2.38543 255 255 255
0.066864 0.323212  2.38497 255 255 255
0.325607 0.034788  2.53421 255 255 255
  1.8364 0.424128  3.16209 255 255 255
 -1.00916 -0.661798   3.24877 255 255 255
-0.891151  -1.18418   3.56421 255 255 255
 1.91642 0.845531  3.01085 255 255 255
0.288856 0.217342  2.46101 255 255 255
0.0775108  0.519333   2.33498 255 255 255
 1.5335 0.34137 3.09434 255 255 255
 1.84744 0.758544  3.02676 255 255 255
0.647741 0.276257   2.9456 255 255 255
 -1.30248 -0.250279   2.93127 255 255 255
  3.11639 -0.431649   4.25344 255 255 255
-0.838699  -1.20999   3.52592 255 255 255
  -1.123 -1.58059   3.8074 255 255 255
-1.12404  0.25886  2.87379 255 255 255
-0.127398 -0.950723   2.97574 255 255 255
 2.14756 0.664996  3.06231 255 255 255
-0.614044  -1.13817   3.64412 255 255 255
  1.4302 0.462193  2.50059 255 255 255
-1.03768 -1.74642  3.93409 255 255 255
-0.475365 -0.474309   2.60766 255 255 255
  1.74762 -0.269425   3.64561 255 255 255
 -1.14583 -0.882707   3.35015 255 255 255
  1.68716 -0.478273   3.79052 255 255 255
0.650283 -0.18226   2.9443 255 255 255
 -1.25977 -0.353306    2.9858 255 255 255
 1.07572 0.733581  2.32889 255 255 255
    2.6623 -0.0835079    3.79996 255 255 255
-1.18556 -1.01958  3.34986 255 255 255
 1.97544 0.120155  3.39944 255 255 255
  1.92987 -0.152914   3.54703 255 255 255
-1.08479 -1.05377  3.43024 255 255 255
1.99371 1.02569 2.89863 255 255 255
  0.508707 -0.0139094    3.20846 255 255 255
 1.20322 0.267137  2.86164 255 255 255
-0.801856  -1.71078   3.93363 255 255 255
 0.033569 -0.396085   2.58217 255 255 255
  1.23868 -0.101226   3.34451 255 255 255
  1.81357 -0.891958   4.05288 255 255 255
  1.32541 0.0906044   3.29152 255 255 255
  1.32315 0.0897391   3.28594 255 255 255
  1.38304 -0.485612   3.67705 255 255 255
 -1.24729 -0.285258   2.95176 255 255 255
 1.12213 0.778933  2.29476 255 255 255
-0.892535 -0.360073   2.99447 255 255 255
-0.9617 0.21001 2.89875 255 255 255
 -1.34127 -0.258567   2.93137 255 255 255
 1.29554 0.515932  2.64538 255 255 255
 2.55637 0.167701  3.56032 255 255 255
   1.63676 -0.0159728    3.44474 255 255 255
  3.16496 -0.548667   4.34135 255 255 255
  1.73132 -0.728504   3.85551 255 255 255
0.486803 0.742503  2.41034 255 255 255
-0.456709  0.118862   2.67287 255 255 255
 2.95244 -0.75871  4.32284 255 255 255
    1.981 -0.546985    3.8884 255 255 255
 -1.0769 -1.07133  3.46905 255 255 255
-1.04832 -1.36589  3.55414 255 255 255
  2.0291 0.827807  2.98321 255 255 255
  1.13037 0.0102178   3.32944 255 255 255
-1.13192 -1.68002    3.897 255 255 255
-0.871909  0.313012   2.78192 255 255 255
 1.64202 0.902087  2.57651 255 255 255
 1.93493 0.596132  2.96727 255 255 255
 1.68077 0.143751  3.31692 255 255 255
 -1.1244 -1.55129   3.7895 255 255 255
  1.34168 -0.611889   3.70291 255 255 255
1.99638 0.77674 2.97733 255 255 255
-0.907953 -0.715574   3.13488 255 255 255
-0.480723 -0.456906   2.59613 255 255 255
-0.67088 -1.58726  3.89368 255 255 255
 1.24697 0.927482  2.27913 255 255 255
-0.822929 -0.968274   3.46967 255 255 255
-0.769047 -0.949958   3.51556 255 255 255
 0.205229 -0.496456    2.6482 255 255 255
-0.790502  -1.68311     3.912 255 255 255
 2.03468 0.748755  3.00111 255 255 255
-0.747271  -1.63355    3.9019 255 255 255
 0.248487 0.0802853   3.10534 255 255 255
 1.64982 0.493943  3.06936 255 255 255
-0.112493  -1.50293   4.02257 255 255 255
 1.02916 0.866424  2.39365 255 255 255
-1.18371 -1.32592  3.57505 255 255 255
   1.1977 -0.209667   3.44092 255 255 255
0.773137 0.326238  2.91279 255 255 255
  1.14508 -0.972655   3.90179 255 255 255
 2.24673 0.271263  3.32727 255 255 255
-0.00740806    -0.76478      2.8148 255 255 255
 0.249143 -0.753061   2.83895 255 255 255
  1.78845 -0.165949   3.55171 255 255 255
  1.9564 0.847861  2.95264 255 255 255
0.168515 0.519626  2.30784 255 255 255
 1.12716 0.504118  2.62707 255 255 255
-0.703681  0.387494   2.67582 255 255 255
  0.686386 0.00425837    3.22672 255 255 255
  1.29493 -0.298047   3.52914 255 255 255
   2.0206 -0.969384   4.18932 255 255 255
-0.857508 -0.964471   3.50835 255 255 255
0.983498 0.167351  2.92249 255 255 255
0.487171 -1.06106  3.83525 255 255 255
 2.23443 0.346783  3.28675 255 255 255
 1.03919 0.824923  2.36872 255 255 255
  1.38833 -0.978773   3.94995 255 255 255
0.138117 -1.03261   3.1099 255 255 255
  1.93584 -0.103011   3.49681 255 255 255
 -0.351596 -0.0307689    2.83655 255 255 255
 1.85736 0.619823  3.08829 255 255 255
 1.06783 0.798011  2.43016 255 255 255
  1.21883 -0.191848   3.39594 255 255 255
1.90094 0.96736 2.81161 255 255 255
0.517151 -1.04713  3.80187 255 255 255
  2.55594 -0.349212    3.9215 255 255 255
  2.2217 0.656199  3.10574 255 255 255
 -1.17002 -0.286902   2.94074 255 255 255
 -1.26937 -0.531169   3.08172 255 255 255
 -1.34073 -0.122907   2.96477 255 255 255
   0.41124 -0.0232805    3.13739 255 255 255
   1.51196 -0.0472892    3.37411 255 255 255
-0.633168  -1.12038   3.62483 255 255 255
