ply
format ascii 1.0
element vertex 1166
property float x
property float y
property float z
property uchar red
property uchar green
property uchar blue
end_header
  1.26417 -0.784475   3.83068 255 255 255
  1.2414 0.584812  2.30154 255 255 255
   1.94215 -0.0166644    3.42703 255 255 255
  3.06141 -0.118679   3.90682 255 255 255
-0.394869 -0.586587   2.66431 255 255 255
-0.270723 0.0347341   2.73817 255 255 255
-0.379286 -0.586499   2.65662 255 255 255
 1.46924 0.463325  2.49216 255 255 255
1.94879  0.5634 3.02531 255 255 255
 -0.40931 -0.129466   2.83924 255 255 255
  2.74819 -0.175644   3.82729 255 255 255
-0.455819 0.0482011   2.67586 255 255 255
  0.10294 -0.640311   2.74933 255 255 255
0.839761 0.183155  2.86207 255 255 255
-0.164923 -0.624919   2.59446 255 255 255
  2.80497 -0.253253   3.91206 255 255 255
-1.41943 0.125739  2.90772 255 255 255
 2.11489 0.370832  3.20267 255 255 255
 -1.22152 -0.533911   3.05587 255 255 255
-0.0614671  -0.874805    2.93819 255 255 255
 -1.13577 -0.381209    2.9354 255 255 255
 1.50119 0.934556  2.41695 255 255 255
  1.9436 0.855374  2.84951 255 255 255
 -0.778872 -0.0875616    2.79275 255 255 255
 1.30247 0.551207  2.63548 255 255 255
  -1.20617 -0.0185443    2.98792 255 255 255
1.53973 0.67945  2.4733 255 255 255
  3.36634 -0.381707   4.13064 255 255 255
-0.737757  -0.52958   3.09204 255 255 255
 0.204204 -0.544069   2.68249 255 255 255
-0.483617 -0.664008   2.69746 255 255 255
0.0052187 -0.523254   2.66854 255 255 255
-0.367774 -0.351987   2.98559 255 255 255
 -1.34326 -0.593266   3.03228 255 255 255
-0.0852981  -0.685348    2.65305 255 255 255
-0.0510596  -0.292666    2.59217 255 255 255
 0.132645 -0.678401   2.78574 255 255 255
  1.1299 0.690093   2.4481 255 255 255
-1.20206 -1.17377  3.45502 255 255 255
0.551073 0.703622  2.39954 255 255 255
 1.53223 0.708178  2.50517 255 255 255
  0.345841 -0.0238192     3.0917 255 255 255
-0.949577 -0.571913   3.12418 255 255 255
-0.475721  0.296933   2.74867 255 255 255
-1.48746 0.105728  2.90337 255 255 255
 -1.16041 -0.135476   2.98291 255 255 255
-0.237229  -0.93048    2.9447 255 255 255
-0.873932 -0.950843   3.43629 255 255 255
 0.578522 -0.346882   3.37225 255 255 255
1.24066 0.76441 2.41165 255 255 255
-0.797975 -0.944789   3.38912 255 255 255
 1.69448 0.291927  3.21959 255 255 255
-0.611315  0.248629   2.50415 255 255 255
  2.97057 -0.421108   4.06956 255 255 255
 -0.4064 0.394595  2.81866 255 255 255
 1.46451 0.566369  2.54962 255 255 255
  1.47694 -0.514582   3.68957 255 255 255
-0.224693 -0.890082   2.88931 255 255 255
 1.02443 0.153956  2.91657 255 255 255
-0.000973338     0.222089      2.93356 255 255 255
-0.0848283  -0.500772    2.67131 255 255 255
 -1.23297 0.0421174   2.96328 255 255 255
 2.40566 0.656754  3.14527 255 255 255
-0.0637894   -1.41939     3.8297 255 255 255
  1.50766 -0.392705   3.58939 255 255 255
 2.74578 0.100691  3.62466 255 255 255
-1.00735 0.143613  2.89329 255 255 255
0.529377 0.614773  2.46848 255 255 255
   1.50824 -0.0602226    3.40304 255 255 255
 2.03426 0.782435  2.87954 255 255 255
 1.41594 -1.06469   3.9262 255 255 255
    1.225 0.0186133   3.30252 255 255 255
0.637698  -1.1212  3.85884 255 255 255
 1.22679 0.729063  2.40997 255 255 255
 0.70966 0.314789  2.89939 255 255 255
  1.17347 -0.374816   3.50478 255 255 255
  -1.18288 -0.0269349    2.98218 255 255 255
-0.0568984   -1.13821    3.14351 255 255 255
  1.81095 -0.242417   3.54681 255 255 255
-1.17652 -1.03195  3.35406 255 255 255
 -1.25688 -0.199861   2.87795 255 255 255
-0.140856 -0.462763   2.57407 255 255 255
  2.2248 0.588018  2.99923 255 255 255
1.86542 1.07834 2.85118 255 255 255
 0.199464 -0.591457   2.73281 255 255 255
0.0525192  -0.65359    2.7506 255 255 255
 1.06611 0.813893  2.42285 255 255 255
-1.19973 0.194924  2.85134 255 255 255
   1.37254 -0.0215636    3.31256 255 255 255
 1.90876 0.409936  3.13111 255 255 255
0.718545  0.22414  3.00624 255 255 255
0.718423 0.224047  3.00556 255 255 255
 0.784074 0.0598489    3.1313 255 255 255
 0.197657 -0.709658    2.8132 255 255 255
-1.10368 -0.89686  3.31377 255 255 255
 1.39547 0.937875   2.3002 255 255 255
 1.48929 0.417283  3.03817 255 255 255
   2.72761 -0.0163386    3.69783 255 255 255
 0.242873 -0.751786    2.8225 255 255 255
 1.19717 -1.08616  3.88767 255 255 255
 -1.45021 0.0828785   2.93215 255 255 255
 1.55171 0.651843  2.45654 255 255 255
 2.40721 0.226306  3.51414 255 255 255
   1.56211 -0.0651756    3.35832 255 255 255
 1.12608 0.654328  2.45177 255 255 255
 0.274342 -0.903622    2.9754 255 255 255
-1.17033 -1.03887  3.32145 255 255 255
  -1.031 -1.62969  3.74857 255 255 255
 -1.31085 -0.201776   2.88749 255 255 255
-0.947061 -0.733113   3.11652 255 255 255
1.98956 0.93955  2.8127 255 255 255
-0.289977  0.155182   2.79205 255 255 255
0.990217 0.216637  3.01878 255 255 255
-0.815147  -1.28753   3.55809 255 255 255
 2.03349 0.898697  2.79833 255 255 255
 1.22092 0.572097   2.5937 255 255 255
0.927567 0.475166  2.55147 255 255 255
 0.460338 -0.508877   2.86065 255 255 255
   1.00409 -0.0346488    3.28581 255 255 255
-0.0426933  -0.801864    2.88689 255 255 255
1.97507 0.40202 3.12689 255 255 255
 0.327725 -0.511142   2.66715 255 255 255
  3.00843 -0.712977   4.21696 255 255 255
  3.11979 -0.484463   4.13701 255 255 255
 1.46587 0.481205   2.5235 255 255 255
 2.04557 0.734281  2.89442 255 255 255
-0.865226  -1.48902   3.63257 255 255 255
1.22135 0.72571 2.42394 255 255 255
1.65757 0.07516 3.19244 255 255 255
 0.60102 -0.62909  2.76105 255 255 255
   1.9271 -0.460657   3.74532 255 255 255
-0.252627  -1.05601   3.05762 255 255 255
 2.26795 0.371028  3.22339 255 255 255
  2.56269 -0.681583   4.01904 255 255 255
 1.20646 0.583166  2.54973 255 255 255
 1.51806 0.519441  3.00176 255 255 255
   1.16733 -0.0721295    3.33142 255 255 255
 1.95701 0.721284  2.98425 255 255 255
 -0.190833 -0.0365756    2.77026 255 255 255
-0.879753  -1.49159   3.64346 255 255 255
  -1.32111 -0.0265948    2.99603 255 255 255
 -1.30882 -0.238262   2.87353 255 255 255
0.638281 -1.14115  3.86103 255 255 255
0.0930316  -0.43675   2.55891 255 255 255
 -0.360095 -0.0558856    2.69713 255 255 255
 -0.48082 -0.546516   2.57982 255 255 255
  3.01717 -0.761071    4.1704 255 255 255
-0.940285  -1.59415   3.75369 255 255 255
0.170027 -1.06444  3.04432 255 255 255
 1.25425 0.586334  2.58757 255 255 255
  1.8874 0.614147  3.03476 255 255 255
0.0365094  0.150748   2.92039 255 255 255
-0.848577 -0.779214   3.15296 255 255 255
 2.56181 0.208669  3.54889 255 255 255
 1.60396 0.980481  2.44949 255 255 255
 -1.38699 -0.920272   3.30424 255 255 255
-0.862949  -1.74803   3.90499 255 255 255
 1.09007 0.283254  2.75516 255 255 255
  1.52233 -0.481653   3.67079 255 255 255
   1.64458 -0.0232936     3.3672 255 255 255
 1.09937 0.794588  2.46993 255 255 255
-0.875253  -1.88485   3.98875 255 255 255
0.906942 0.760828  2.41246 255 255 255
0.905025 0.758734  2.40632 255 255 255
0.0218333 -0.419776   2.58318 255 255 255
 1.53035 0.624405  2.54357 255 255 255
 -1.1614 -1.06497   3.3582 255 255 255
  1.28467 -0.327728   3.50164 255 255 255
   1.95929 -0.0922514    3.48131 255 255 255
  1.66208 -0.914554   4.00417 255 255 255
-0.868882 -0.930297   3.39399 255 255 255
   1.91698 -0.0119759    3.42898 255 255 255
  1.78108 0.0870667   3.31354 255 255 255
0.167241 -0.91994  2.93973 255 255 255
 0.233613 0.0150444   3.01399 255 255 255
 0.363038 -0.927891   2.96698 255 255 255
1.05498 -1.0859 3.79408 255 255 255
 1.09086 0.657152  2.45452 255 255 255
  1.9048 0.646295  3.01844 255 255 255
  2.55843 -0.157904   3.69388 255 255 255
0.109134 0.075279  3.12264 255 255 255
-0.381699 -0.813607   2.82714 255 255 255
  2.55124 -0.199341   3.72911 255 255 255
0.859327 0.244356  2.75298 255 255 255
 1.21775 -1.01967  3.84356 255 255 255
  2.00729 -0.880265   4.03993 255 255 255
0.855401 0.114017  3.07603 255 255 255
  2.94161 -0.294499   3.96804 255 255 255
 3.15224 -0.60856  4.20247 255 255 255
  2.70829 -0.708623   4.04684 255 255 255
  2.15093 -0.777279   3.96963 255 255 255
 1.04148 0.820433  2.35497 255 255 255
 1.54902 0.684298  2.53237 255 255 255
 1.32318 0.792186  2.32308 255 255 255
 1.36791 -1.00559  3.85284 255 255 255
-1.04131 0.112413  2.90087 255 255 255
  1.19499 -0.720485   3.77896 255 255 255
-1.20071 -1.30558  3.49671 255 255 255
-0.293505 -0.880044   2.17834 255 255 255
 1.39433 -1.00966  3.87675 255 255 255
 -1.21453 -0.420226   2.98761 255 255 255
 2.06461 -0.65882  3.88505 255 255 255
  3.03756 -0.761874   4.10243 255 255 255
-1.11357 0.259022  2.82086 255 255 255
  0.442432 -0.0339106    3.05949 255 255 255
 1.06034 0.816291   2.3504 255 255 255
  1.84805 -0.205872   3.53511 255 255 255
  -1.16557 -0.0802079    2.99158 255 255 255
 2.00744 0.923031  2.83541 255 255 255
  2.48976 -0.340205   3.79107 255 255 255
  2.82941 -0.315784   3.99333 255 255 255
0.645632 0.184053  3.03564 255 255 255
1.38736 0.67993 2.47463 255 255 255
   1.119 -1.18162  3.93584 255 255 255
   -1.44427 -0.00915756     2.98089 255 255 255
 0.909789 -0.887223   3.20666 255 255 255
  1.41462 -0.934406   3.88732 255 255 255
-0.00453177    0.104722     2.95536 255 255 255
 0.119676 -0.708103    2.8033 255 255 255
  1.19379 -0.146136   3.33402 255 255 255
 1.08783 0.810835   2.5067 255 255 255
0.818518 0.211758  2.91658 255 255 255
-0.968868  0.175656    2.8814 255 255 255
-0.204188 -0.152869   2.63291 255 255 255
  -0.0162 -0.684343   2.77713 255 255 255
  1.61063 -0.415336   3.64889 255 255 255
-0.695318 -0.105772   2.81798 255 255 255
-0.862458   -1.5403   3.71646 255 255 255
0.603122 0.129542  2.96214 255 255 255
  -1.4449 -0.122138   2.87299 255 255 255
 1.79524 0.418662  3.15795 255 255 255
-0.120036 -0.497765   2.64889 255 255 255
   1.95789 -0.0839174    3.45493 255 255 255
 -1.31938 -0.616796   3.12243 255 255 255
  1.20374 -0.294573   3.41547 255 255 255
-0.719645  -1.54201    3.7506 255 255 255
   1.972 0.998352  2.90899 255 255 255
  0.014636 -0.0355419    2.80404 255 255 255
 1.77612 0.913218  2.89185 255 255 255
 0.370653 -0.341183   2.92128 255 255 255
 1.93925 0.979344  2.88453 255 255 255
   1.3381 -0.951368   3.87342 255 255 255
  1.7733 0.339233  3.17918 255 255 255
  3.24131 -0.761196   4.24406 255 255 255
-0.691521  0.298612   2.47019 255 255 255
-0.835846 -0.328381   2.95383 255 255 255
   1.34958 -0.0912376    3.33714 255 255 255
0.472617 0.264213  2.45686 255 255 255
-0.621701  -1.41793   3.69934 255 255 255
 2.70946 -0.42422  3.99181 255 255 255
  2.42751 0.0608837   3.58109 255 255 255
-0.435756 -0.497741   2.60566 255 255 255
0.186583 0.140366  2.37521 255 255 255
-0.541546 -0.455919    2.5421 255 255 255
  2.32809 0.0828114   3.50776 255 255 255
-0.81757 -1.25897  3.50266 255 255 255
 1.34927 0.503786  2.62762 255 255 255
-0.511402 -0.527646   2.61511 255 255 255
 1.95892 0.313524  3.14978 255 255 255
 0.786037 -0.717875   2.87234 255 255 255
  1.46442 -0.849451     3.929 255 255 255
-0.309601 -0.836264   2.88173 255 255 255
0.829295 0.131009  2.93184 255 255 255
1.05596 0.66055  2.4443 255 255 255
 1.06497 0.673446  2.44736 255 255 255
  2.92228 -0.274477   3.96715 255 255 255
  2.12337 0.0903278    3.3626 255 255 255
 1.38184 0.134497  2.80065 255 255 255
0.843552 0.206918  2.86293 255 255 255
-0.452499  -1.23414   3.63742 255 255 255
-0.288359 -0.853906   2.84034 255 255 255
-0.738805  -1.41661   3.65348 255 255 255
-0.722766  -1.24735   3.55089 255 255 255
-0.0419789 0.00455745    2.77679 255 255 255
-0.934881 -0.740526   3.12616 255 255 255
 2.50383 0.161377  3.60092 255 255 255
 0.584753 -0.190671   2.95035 255 255 255
-0.551221  0.228906    2.6235 255 255 255
 0.333836 -0.582691   2.66491 255 255 255
 0.237525 -0.830807   2.91823 255 255 255
-1.26582 0.209652  2.85968 255 255 255
   2.26608 -0.0225054    3.50688 255 255 255
  2.71112 -0.682331   4.04083 255 255 255
  -1.20463 -0.0711885    3.01519 255 255 255
0.0219806  0.194118   2.91812 255 255 255
   2.7708 -0.272435   3.92918 255 255 255
-0.71871 -1.11767  3.51257 255 255 255
-0.222667  -1.06894   3.06929 255 255 255
-0.718438 -0.983672   3.46842 255 255 255
-1.08332 -1.05786  3.38576 255 255 255
0.478988 0.467955  2.50063 255 255 255
 0.160361 -0.620469    2.7466 255 255 255
  2.00211 -0.572817   3.82876 255 255 255
 1.43529 0.041686  3.32043 255 255 255
-0.0410238  -0.467012     2.6327 255 255 255
  1.25752 -0.746472   3.81865 255 255 255
 0.290066 -0.912973   2.99084 255 255 255
 2.22163 -0.17214  3.60863 255 255 255
0.467186 0.497497  2.55408 255 255 255
-0.199749 -0.858911   2.89618 255 255 255
 0.261882 -0.801872   2.89719 255 255 255
  2.43815 -0.519089   3.90597 255 255 255
-0.162903 -0.724093   2.50413 255 255 255
-0.799924 -0.634633   3.15783 255 255 255
 -1.34308 -0.123081   2.90803 255 255 255
   1.88959 -0.0447736    3.44761 255 255 255
 1.86311 0.407444  3.14283 255 255 255
 2.11024 0.352709  3.21063 255 255 255
 1.88706 0.725812  2.99714 255 255 255
  1.08168 0.0250322   3.25639 255 255 255
 1.86243 0.421471  3.12653 255 255 255
  -1.1236 -0.248132   2.96968 255 255 255
  1.19925 -0.327816   3.41608 255 255 255
-0.167053 -0.452013   2.61364 255 255 255
-0.812176  -1.35852   3.59923 255 255 255
  1.70087 -0.471592   3.72854 255 255 255
-0.986404  -1.58379   3.70581 255 255 255
0.535961 -1.03145  3.76366 255 255 255
 1.27912 -1.02862  3.84126 255 255 255
-0.410586 -0.202665   2.86496 255 255 255
-0.559513  -1.36903   3.71119 255 255 255
1.84578 0.50904 3.10277 255 255 255
   2.1933 -0.458572   3.81961 255 255 255
  1.15762 -0.422598   3.54063 255 255 255
-0.348276  -0.64567   2.78307 255 255 255
   1.625 0.799482  2.59298 255 255 255
 -1.39906 0.0951929   2.96416 255 255 255
-0.489759  0.317908   2.66066 255 255 255
  2.0186 0.511046  3.05074 255 255 255
-0.109995  0.528586   2.33154 255 255 255
-0.0204514   0.647705    2.52108 255 255 255
 0.731759 -0.749872   2.90424 255 255 255
1.57732 0.87107 2.75593 255 255 255
 -1.42055 -0.568732   3.05537 255 255 255
 0.77181 0.329586  2.58698 255 255 255
 -0.0937866 -0.00587525     2.78759 255 255 255
-0.0694086  -0.266525    2.57229 255 255 255
 0.330487 -0.844949   2.93267 255 255 255
-0.790137  0.405539   2.72759 255 255 255
0.221665 0.758914  2.58498 255 255 255
0.831211 0.325681  2.78021 255 255 255
  -1.2153 -0.219232   2.91897 255 255 255
  1.78168 -0.194406   3.56553 255 255 255
   2.4933 -0.605216   3.96318 255 255 255
 0.738294 -0.426216   3.44389 255 255 255
-1.32958 0.239959  2.84563 255 255 255
2.03071 1.08749 2.80678 255 255 255
 2.54027 0.647123  3.21754 255 255 255
-0.297343 -0.374893   2.78231 255 255 255
1.96842 1.13744 2.83151 255 255 255
-1.24279 0.232816  2.82736 255 255 255
-0.0159257  -0.478852    2.64024 255 255 255
0.0280358  -0.74498   2.74746 255 255 255
-0.822084  0.477378   2.53635 255 255 255
 -1.55444 -0.884527   3.25204 255 255 255
-1.29132 0.490722  2.65634 255 255 255
 0.126145 -0.519111   2.67641 255 255 255
 2.17132 0.259708   3.1989 255 255 255
  -1.11365 -0.0513005    3.09709 255 255 255
-0.637307  -1.14538   3.55254 255 255 255
0.236441 0.781583  2.48536 255 255 255
 -1.44409 -0.737266   3.14553 255 255 255
-1.18261 0.489326  2.67448 255 255 255
-1.17836 0.488122  2.66642 255 255 255
 -1.2835 0.394977  2.71566 255 255 255
-0.976621  -1.25239    3.4953 255 255 255
1.88677 1.14074  2.8261 255 255 255
-1.04872 0.439836   2.6727 255 255 255
 0.56376 0.813179   2.3978 255 255 255
0.0968518 -0.561975   2.69113 255 255 255
 -1.46924 -0.184604   2.81095 255 255 255
-0.995855  0.347659   2.78486 255 255 255
 1.97467 0.419756  3.10012 255 255 255
   1.3615 -0.569252   3.63896 255 255 255
 1.08035 0.991497  2.29848 255 255 255
-1.62792 0.112072  2.90026 255 255 255
  1.46559 -0.912628   3.96401 255 255 255
  2.70925 -0.285976   3.88542 255 255 255
 2.0002 1.31157 2.76827 255 255 255
   -0.272 -0.018415   2.77659 255 255 255
-0.796233  0.568754   2.61315 255 255 255
  1.03454 -0.704149   3.22269 255 255 255
 1.27085 0.294431   2.8625 255 255 255
2.06265 0.75279 2.93451 255 255 255
-0.367527  0.254207   2.76182 255 255 255
 1.22681 0.608536   2.5647 255 255 255
-0.470612 -0.101203   2.77312 255 255 255
-0.692249 -0.206934   2.83107 255 255 255
 -1.11168 -0.200593   2.92696 255 255 255
 2.25932 0.943747  2.90262 255 255 255
 -1.16178 0.0400164   2.95179 255 255 255
 -1.35658 -0.425192   2.95275 255 255 255
-1.35119 0.361925  2.76813 255 255 255
 -1.46273 -0.387924   2.95189 255 255 255
 2.22733 0.925109  2.90861 255 255 255
   2.61729 -0.0788047    3.65146 255 255 255
 0.655638 -0.803484   2.94653 255 255 255
 2.67992 0.133838  3.62856 255 255 255
-0.553832  -1.33891   3.70967 255 255 255
-1.4779 0.11597 2.92989 255 255 255
1.85095 1.37431 2.77338 255 255 255
2.18454 0.26976 3.21003 255 255 255
-0.935016  -1.06226   3.41668 255 255 255
-0.789105 -0.930504   3.43331 255 255 255
-1.02444 0.265458  2.80435 255 255 255
-0.697439   -1.4561    3.6667 255 255 255
0.526983 0.799599  2.37413 255 255 255
  2.87368 0.0584328   3.65404 255 255 255
 0.682424 -0.397256    3.4146 255 255 255
-0.115966 -0.708269   2.67795 255 255 255
-0.0802646  -0.751676    2.87185 255 255 255
  -1.40638 -0.0147157    2.97792 255 255 255
  1.70255 -0.222503   3.46087 255 255 255
 -1.55362 0.0886334   2.89675 255 255 255
 0.557533 -0.343029   3.37317 255 255 255
 0.265527 -0.943545   2.93127 255 255 255
0.697721  -0.8172  2.96205 255 255 255
-0.602067  0.163915   2.66381 255 255 255
 0.824373 -0.742671   2.94012 255 255 255
-0.575305  -1.31221   3.68573 255 255 255
 2.49799 0.722493  3.16896 255 255 255
  1.58101 -0.959813   4.05085 255 255 255
 1.01844 -0.14936  3.32696 255 255 255
1.85424 1.20434 2.79302 255 255 255
 2.30044 0.686754  3.20111 255 255 255
-0.573797  -0.51265   2.62891 255 255 255
-0.282055 0.0110201   2.76739 255 255 255
  1.11106 -0.133377   3.30803 255 255 255
 -1.47041 -0.397685    2.8989 255 255 255
0.259771 0.805101  2.50673 255 255 255
  2.80981 -0.211735   3.88929 255 255 255
-1.25044 0.350249  2.73529 255 255 255
-0.824198  -1.19587    3.4889 255 255 255
 0.180867 -0.378991    2.7167 255 255 255
-0.991444  0.197006   2.85364 255 255 255
1.86913 1.32858 2.76721 255 255 255
 -0.441673 -0.0206172     2.7928 255 255 255
 1.80408 0.286384  3.17712 255 255 255
  1.42726 -0.425062    3.5798 255 255 255
-0.892616  -1.18252   3.45206 255 255 255
  2.74138 -0.439649   4.02937 255 255 255
-1.19197 0.443637  2.72613 255 255 255
   1.95234 0.00946125    3.40832 255 255 255
 -1.56873 -0.826128   3.17898 255 255 255
0.275561 0.819062   2.4493 255 255 255
 -1.42468 -0.279941   2.91422 255 255 255
 1.96158 0.626832  2.96196 255 255 255
-1.11453 -1.07317  3.35528 255 255 255
  1.41074 -0.633296   3.70201 255 255 255
1.33522 1.00299 2.28637 255 255 255
-1.59316 0.136004  2.86612 255 255 255
   1.26155 -0.0991298    3.32796 255 255 255
 -1.50787 -0.795883   3.17398 255 255 255
 1.83732 0.518988   3.0534 255 255 255
-1.60633 0.254964   2.8118 255 255 255
 0.590741 -0.588945   2.85249 255 255 255
-1.08267  -1.4123  3.60302 255 255 255
  3.08833 -0.552722   4.16404 255 255 255
  1.0242 0.971459  2.40157 255 255 255
  2.0596 0.133063  3.36415 255 255 255
 -1.48404 -0.450444   2.97986 255 255 255
  -1.3239 -0.119575   2.89156 255 255 255
 1.92086 0.593581  3.01271 255 255 255
 0.722682 -0.537201   2.99602 255 255 255
-0.0215921  -0.285339    2.63841 255 255 255
 2.18882 0.882951  2.85822 255 255 255
 0.0633474 -0.0714865    2.78224 255 255 255
-1.59945  0.22954  2.78305 255 255 255
 -1.2611 0.407849  2.69998 255 255 255
  1.79116 -0.863512   3.95597 255 255 255
 0.425661 -0.514578   2.79458 255 255 255
1.76409 1.36313  2.7226 255 255 255
-0.129954 -0.689344   2.64702 255 255 255
 -1.36427 -0.281337   2.91317 255 255 255
   2.35915 -0.0626819    3.54899 255 255 255
  3.07229 -0.569153   4.17204 255 255 255
1.87152 1.04036  2.8547 255 255 255
 -1.35581 -0.463469   2.97915 255 255 255
  2.54055 -0.225935   3.73556 255 255 255
-0.354313 -0.801484   2.86208 255 255 255
-1.06792 0.460822  2.74509 255 255 255
 0.508647 -0.404801   2.99069 255 255 255
-0.672414 -0.119167    2.8136 255 255 255
  1.43531 -0.451048   3.59255 255 255 255
-0.914946  0.192596   2.89309 255 255 255
-0.669789  0.477427   2.73347 255 255 255
  1.92738 -0.351855   3.69733 255 255 255
-1.27506 0.460575  2.67086 255 255 255
  2.97193 -0.478839    4.1127 255 255 255
  1.39218 -0.433618   3.62005 255 255 255
-0.747905  -1.19563   3.52284 255 255 255
-1.31351  0.45788  2.68164 255 255 255
  -1.58242 -0.0576841    2.88677 255 255 255
0.377163 -0.49076  2.76146 255 255 255
 2.22951 0.910615  2.87606 255 255 255
 -1.11223 -0.873752   3.30417 255 255 255
  1.90452 -0.133121   3.52019 255 255 255
 -1.31149 0.0296533   2.96426 255 255 255
  2.92346 -0.602349    4.1503 255 255 255
-0.61046 0.462221  2.71044 255 255 255
 -1.50176 -0.861508   3.22995 255 255 255
   2.7571 -0.186534   3.82058 255 255 255
 2.31337 0.825543  2.95714 255 255 255
-1.13234 0.394183  2.72874 255 255 255
0.948543  -0.1383  3.33286 255 255 255
 2.20281 0.586937     3.08 255 255 255
-0.891604 -0.706394   3.08163 255 255 255
0.011374 0.731514  2.62806 255 255 255
  1.64914 -0.735546   3.86253 255 255 255
-1.60451 0.253255   2.8468 255 255 255
  2.80497 -0.253253   3.91206 255 255 255
 2.50946 0.696023  3.16454 255 255 255
-0.213991 -0.586191   2.70565 255 255 255
-1.35574 0.332985  2.79128 255 255 255
2.26715 0.80799 2.95542 255 255 255
-0.632735  0.303056   2.52752 255 255 255
  1.18118 -0.728035   3.84858 255 255 255
-1.47201 0.281001  2.82277 255 255 255
-1.22078 0.476983  2.67816 255 255 255
-1.08918 0.391581  2.72173 255 255 255
  -1.4551 0.0423375   2.94187 255 255 255
-0.122289 -0.648615   2.62388 255 255 255
1.96757 1.11633 2.82202 255 255 255
-1.18898 -1.00879  3.28494 255 255 255
-0.469441 -0.676435   2.72799 255 255 255
 1.99119 0.109675  3.37045 255 255 255
-1.32648 0.286585  2.78197 255 255 255
  1.78358 -0.144644   3.50646 255 255 255
0.0228133  0.760413   2.63202 255 255 255
 2.47813 0.614829   3.1791 255 255 255
-0.503865 -0.588183   2.60285 255 255 255
-1.06059 0.374513  2.75635 255 255 255
  2.09067 -0.320846   3.68649 255 255 255
-1.07246 0.392801  2.71194 255 255 255
  2.77728 -0.012098   3.69025 255 255 255
   -1.3978 -0.0559485     2.9509 255 255 255
-0.678152 -0.907133    3.3445 255 255 255
-1.13859 0.167011  2.87317 255 255 255
 -1.26081 -0.110519   3.00376 255 255 255
-0.563994 -0.427178   2.55249 255 255 255
 -1.28828 0.0997024   2.90863 255 255 255
 2.59068 0.130704  3.56587 255 255 255
 0.330067 -0.633873   2.69132 255 255 255
   3.05713 -0.0937604    3.88161 255 255 255
0.0576631 -0.666258   2.76122 255 255 255
-1.39534 0.311917   2.7779 255 255 255
 -0.10411 -0.732464   2.54081 255 255 255
-0.169013  0.459603   3.13427 255 255 255
-0.155207  0.425216   2.90187 255 255 255
 1.31826 0.164268  2.83791 255 255 255
 1.43565 0.423245  2.86332 255 255 255
  0.924088 -0.0350295    3.26723 255 255 255
 1.06898 0.794361  2.56459 255 255 255
0.499788 0.237582  2.64759 255 255 255
   1.5032 -0.776005   3.80712 255 255 255
-0.614491 -0.584901   2.67506 255 255 255
 1.12184 0.654639  2.45515 255 255 255
 -0.6116 -1.33223  3.66269 255 255 255
 -1.03586 -0.153564   2.82216 255 255 255
 -0.93891 -0.523884   3.14797 255 255 255
  1.1654 0.591397  2.54832 255 255 255
 0.659494 -0.611492   2.91827 255 255 255
 1.42019 0.314581  2.97526 255 255 255
0.459065 0.291145  2.54275 255 255 255
-0.933651   0.12799   2.84619 255 255 255
0.257093 0.326515   2.4184 255 255 255
-0.412493 -0.918532    2.9187 255 255 255
 -1.01111 -0.835072   3.32583 255 255 255
-0.976271 0.0356807    2.8861 255 255 255
-0.161281 -0.562896   2.69305 255 255 255
-0.551919 -0.362783   2.65891 255 255 255
-0.669799  0.441583   2.71821 255 255 255
 1.05944 0.909212  2.39437 255 255 255
-0.0365131  -0.773309    2.76996 255 255 255
 0.53824 0.339126  2.39471 255 255 255
  1.59591 -0.271916   3.56607 255 255 255
  1.2914 0.598196  2.64118 255 255 255
0.583224 0.566396  2.48391 255 255 255
  0.33913 -0.366353   2.86783 255 255 255
  0.9539 0.147784  2.83752 255 255 255
-0.360616  0.156248   2.79114 255 255 255
-1.06796 0.165724  2.87463 255 255 255
  1.35865 -0.572717   3.64313 255 255 255
-0.209771 0.0823086   2.72881 255 255 255
-0.600277 -0.241104   2.76948 255 255 255
-0.384717  0.419861   2.48325 255 255 255
-0.853735  -1.10131    3.4325 255 255 255
0.991927 0.204658  2.80248 255 255 255
 1.34277 0.549412  2.49954 255 255 255
  2.36121 0.0143309   3.54967 255 255 255
-0.595258 -0.211074   2.68284 255 255 255
-0.565115 -0.351634   2.71739 255 255 255
 0.147216 -0.725374   2.80481 255 255 255
   1.4041 -0.524236    3.6942 255 255 255
 1.34473 0.604514  2.51748 255 255 255
-0.497754  0.318202   2.69882 255 255 255
  2.27914 0.0698253   3.52455 255 255 255
 -0.963299 -0.0350781    2.81304 255 255 255
0.334331 0.371998  2.71735 255 255 255
0.655146 0.328154  2.94185 255 255 255
-0.0395906  -0.663082    2.65377 255 255 255
0.0780453 -0.695035   2.78429 255 255 255
 0.325238 -0.676354   2.77417 255 255 255
  2.35335 -0.203454   3.69025 255 255 255
0.323918 0.148831  2.45185 255 255 255
 0.281161 -0.128372   2.98862 255 255 255
-0.262759 0.0314807   2.73789 255 255 255
 0.655275 -0.803037   2.94497 255 255 255
0.464757 0.255823  2.53317 255 255 255
-0.634534  -1.38744   3.61221 255 255 255
0.364359 0.158442  2.45994 255 255 255
-0.697596 -0.875518   3.30824 255 255 255
-0.957667  0.358168   2.74042 255 255 255
-0.855684  -1.42465   3.61809 255 255 255
 1.25081 0.759249  2.27362 255 255 255
-0.805818 -0.675175   3.05655 255 255 255
  1.27959 -0.755758   3.84615 255 255 255
  1.32853 -0.736179   3.79375 255 255 255
0.763763  0.57978  2.53086 255 255 255
 1.10808 0.846559  2.22937 255 255 255
-0.67096 -1.38963  3.63793 255 255 255
 1.03275 0.910045  2.36401 255 255 255
 -0.11316 -0.928863   2.90292 255 255 255
  0.349559 -0.0566823     3.1218 255 255 255
  2.26206 -0.554693   3.88072 255 255 255
  1.90825 0.0476956   3.40065 255 255 255
-0.209978 -0.869729   2.85458 255 255 255
1.90628 0.39554 3.03496 255 255 255
-0.0237688   0.570148    2.72326 255 255 255
  1.41217 -0.407795   3.59113 255 255 255
 0.194065 -0.184253   3.25622 255 255 255
  1.21199 -0.774248   3.76937 255 255 255
 1.24263 0.764933  2.31614 255 255 255
 1.25112 0.885628  2.29058 255 255 255
-0.415732 -0.530563   2.57447 255 255 255
  1.40053 -0.589143   3.66151 255 255 255
-0.314905 -0.267741   2.85118 255 255 255
-0.412551  0.401188   2.81259 255 255 255
 1.69719 0.459608  3.03346 255 255 255
 1.22651 0.930387  2.23012 255 255 255
  1.28964 -0.662778   3.77621 255 255 255
  1.0733 0.969251  2.65292 255 255 255
 1.11785 0.486588  2.61078 255 255 255
 1.45076 0.485695  2.58436 255 255 255
   1.6094 -0.426679   3.57164 255 255 255
  1.14131 -0.110903   3.33683 255 255 255
0.955768 0.372597  2.66677 255 255 255
 1.38884 0.503363  2.65919 255 255 255
 1.28238 0.959267  2.30245 255 255 255
-0.202324 -0.137418   2.70209 255 255 255
0.766606 0.563962  2.45462 255 255 255
-0.862042 -0.944514   3.42483 255 255 255
  1.3826 0.209658  2.84745 255 255 255
-0.352269   0.34184   2.82644 255 255 255
0.811432 0.446599  2.58367 255 255 255
0.168316 0.303193   2.7574 255 255 255
0.380302 0.211908  2.50263 255 255 255
   1.57893 -0.0469207      3.357 255 255 255
   1.233 0.896732  2.27292 255 255 255
 0.280237 -0.425568   2.74721 255 255 255
  1.72534 -0.498839   3.72984 255 255 255
 1.41309 0.501455  2.46878 255 255 255
  1.48509 -0.552796   3.70012 255 255 255
 1.36494 0.782358  2.35321 255 255 255
-0.658912  -1.08554   3.53758 255 255 255
0.479848 0.741369  2.37028 255 255 255
-0.0447603  -0.179532    2.68814 255 255 255
   0.129049 -0.00858019     3.07315 255 255 255
 1.15937 0.916372  2.20295 255 255 255
 1.09657 0.858877  2.22311 255 255 255
 1.20133 0.921451  2.24566 255 255 255
  1.85827 -0.206668    3.4893 255 255 255
 0.844864 -0.283429     3.124 255 255 255
-0.342008 -0.533848   2.65107 255 255 255
  1.2311 0.748882  2.31016 255 255 255
  1.1915 0.744922  2.41323 255 255 255
 2.38071 0.145512  3.51394 255 255 255
0.921289  0.16008  2.84906 255 255 255
  2.00209 -0.548811   3.81718 255 255 255
 1.25957 0.917821  2.23955 255 255 255
-0.197275   0.22843   2.87092 255 255 255
0.769256 0.201328  2.95955 255 255 255
  2.15123 -0.297084   3.68115 255 255 255
-0.0962399  -0.710778    2.68112 255 255 255
 1.45863 0.590317  2.56417 255 255 255
 1.35954 0.640553  2.45417 255 255 255
  -0.236 0.042274   2.7385 255 255 255
   -0.3774 -0.0615749    2.70808 255 255 255
  2.54529 -0.585121   3.93507 255 255 255
 0.342101 0.0769617    2.3816 255 255 255
 0.146235 -0.825751   2.92823 255 255 255
-0.514448 -0.604416   2.62064 255 255 255
 -0.48551 -0.532946   2.57873 255 255 255
 1.49323 0.320034  3.10918 255 255 255
 1.19341 0.875768  2.22864 255 255 255
-0.504527  -0.58861   2.60559 255 255 255
0.321121 0.106898  2.40992 255 255 255
   1.002 0.924313  2.36282 255 255 255
0.994996  0.29004  2.72346 255 255 255
  1.8319 0.483133  3.10708 255 255 255
 2.37146 0.183859  3.50859 255 255 255
0.00366948  -0.761664     2.7541 255 255 255
0.601554 0.246504  2.99204 255 255 255
-0.234087 -0.450262   2.54749 255 255 255
-0.339803  -0.14289    2.8237 255 255 255
1.34177 0.64457 2.47018 255 255 255
  1.3795 -0.45828  3.63809 255 255 255
  2.64062 -0.469098   3.98457 255 255 255
-0.681842  0.318078   2.42192 255 255 255
-0.387912 -0.114942   2.73094 255 255 255
 0.610184 -0.597202   2.82471 255 255 255
 1.18732 0.857996  2.21234 255 255 255
0.402023 0.163148  2.45481 255 255 255
-0.271756   -0.8665    2.8678 255 255 255
-0.0198337   -0.20463    2.69585 255 255 255
  0.103692 -0.0618078    3.18898 255 255 255
-0.135839  0.205437   2.97698 255 255 255
 1.11705 0.353652  2.71543 255 255 255
   2.2853 -0.737338   4.01823 255 255 255
  1.33076 -0.569423   3.68343 255 255 255
0.00202244   0.239334    2.94769 255 255 255
0.990659 0.819058  2.60075 255 255 255
 1.09043 0.708984  2.47789 255 255 255
 0.66655 0.244391  2.97599 255 255 255
0.695829 0.324447  2.89761 255 255 255
 1.01625 0.704579  2.48119 255 255 255
  1.32255 0.0950989   2.79366 255 255 255
-0.947036 -0.410603   3.01075 255 255 255
  1.81163 -0.422902    3.7299 255 255 255
-0.576804 -0.517975   2.59049 255 255 255
0.179604  0.34788  2.37782 255 255 255
 0.45251 -0.17369  3.17154 255 255 255
-0.925302  -1.20142   3.47788 255 255 255
  1.11604 -0.335529   3.48634 255 255 255
-0.419705 -0.241203   2.92823 255 255 255
  1.58652 -0.877087   3.97447 255 255 255
   2.26761 -0.0911196    3.55922 255 255 255
-0.284926 -0.453856   2.80193 255 255 255
  1.54366 -0.357572   3.55174 255 255 255
  1.48151 -0.517695   3.70812 255 255 255
  1.50554 -0.840758   3.96996 255 255 255
-0.667675 -0.215687   2.80826 255 255 255
1.31671  0.4532 2.68637 255 255 255
 0.404585 0.0735629   2.46679 255 255 255
 1.14067 0.626181  2.52765 255 255 255
0.672449 0.140358  3.04917 255 255 255
 1.34596 0.201161  2.93845 255 255 255
-1.17585  0.14531  2.88403 255 255 255
-0.964737  -1.30839   3.53796 255 255 255
 1.24592 0.572128  2.34944 255 255 255
 -1.00441 -0.524103   3.06513 255 255 255
0.308614 0.277658  2.89776 255 255 255
-0.843396  -1.04517   3.41814 255 255 255
-0.0195685  -0.585877    2.67494 255 255 255
 0.126155 -0.269836   2.73536 255 255 255
0.846983 0.509833  2.51247 255 255 255
-0.875506  -1.42208   3.60947 255 255 255
-0.870797  0.287313   2.81002 255 255 255
 1.09672 0.872675  2.25638 255 255 255
-0.834509 -0.993781   3.41978 255 255 255
 0.12683 0.572531  2.28962 255 255 255
 1.11535 0.473389  2.62998 255 255 255
-0.322626 0.0568685   2.73218 255 255 255
0.744618 0.724566  2.41609 255 255 255
0.482555 0.364534  2.40257 255 255 255
-0.775275 -0.108931    2.8075 255 255 255
 0.0533677 -0.0243587    2.90361 255 255 255
 0.362819 -0.484777   2.77431 255 255 255
 1.11513 0.889215  2.24126 255 255 255
0.747893 0.400936  2.62959 255 255 255
   1.24938 -0.0942162    3.30709 255 255 255
  1.5684 -0.04201  3.34605 255 255 255
 1.22059 0.724459  2.42212 255 255 255
 0.337535 -0.369322   2.79666 255 255 255
   -0.3278 -0.0940907    2.74502 255 255 255
-0.199898 -0.640033   2.65774 255 255 255
-0.352821 -0.233436   2.85925 255 255 255
-0.306031   0.10597   2.64716 255 255 255
 1.17843 0.855981    2.242 255 255 255
0.0870529 -0.596339   2.70286 255 255 255
0.0509121 -0.744902   2.76005 255 255 255
 0.386691 -0.665461   2.81982 255 255 255
-0.406369 -0.250135   2.95429 255 255 255
 -0.79106 -0.674513   3.09324 255 255 255
   1.95518 -0.0717876     3.4618 255 255 255
 0.358086 -0.466196   2.75124 255 255 255
-0.359535 0.0337635   2.65376 255 255 255
-0.464028  0.185472   2.67083 255 255 255
0.0364796 -0.645487   2.74472 255 255 255
 0.22633 0.440299  2.33733 255 255 255
 1.58773 0.556557  3.02058 255 255 255
-0.454717 -0.954226   2.90086 255 255 255
 -1.0618 0.111625  2.91054 255 255 255
  1.18814 -0.737969   3.77589 255 255 255
   1.0237 -0.718937   3.09304 255 255 255
-0.321622 -0.135278   2.77115 255 255 255
0.996787 0.413431  2.56287 255 255 255
-0.280723   0.43927   2.33481 255 255 255
-0.0519022 -0.0521947    2.85548 255 255 255
 0.255098 -0.812704   2.89674 255 255 255
 -0.301308 -0.0173409    2.75069 255 255 255
-0.321855 -0.172599   2.90494 255 255 255
 0.664543 -0.826808   2.98323 255 255 255
-0.83155 0.359819  2.78213 255 255 255
 0.22651 0.308479  2.40407 255 255 255
 0.126619 -0.736452   2.79737 255 255 255
-0.720236  -1.37191   3.63398 255 255 255
-0.658411 -0.108817   2.82699 255 255 255
-0.162371 -0.163581   2.58553 255 255 255
 2.19157 -0.65836  3.92328 255 255 255
 0.154956 -0.665031    2.7756 255 255 255
0.781716 0.453241  2.58939 255 255 255
1.12775  0.7885  2.3006 255 255 255
 1.44509 -0.64951  3.69786 255 255 255
  2.05518 0.0455138   3.37897 255 255 255
 1.11624 0.812041  2.27741 255 255 255
   1.34588 -0.0330989     3.3093 255 255 255
0.313997 0.175512  2.47932 255 255 255
  1.63114 -0.405526   3.66296 255 255 255
 -0.38692 -0.498062   2.58435 255 255 255
 1.64662 0.919317  2.78139 255 255 255
-0.873819  -1.13791   3.45398 255 255 255
0.874186 0.189676  2.86275 255 255 255
 -1.15159 0.0628092   2.93592 255 255 255
-0.921323 -0.747224   3.13296 255 255 255
-0.355632  0.442463   2.29672 255 255 255
  1.5195 0.628801  2.51469 255 255 255
 1.60015 0.549847  3.02176 255 255 255
 1.80525 0.234388  3.13972 255 255 255
 -1.18775 0.0106016   2.97523 255 255 255
 -0.20663 -0.845097   2.91001 255 255 255
-0.226886 0.0254924    2.7238 255 255 255
0.504124  0.49261  2.59816 255 255 255
-0.926269 -0.625593   3.07228 255 255 255
 1.10091 0.825114  2.27287 255 255 255
 0.714527 -0.195099   2.95322 255 255 255
  1.38775 0.0850144   3.27015 255 255 255
-0.217759  -0.85013   2.89098 255 255 255
  1.30194 -0.164292   3.39706 255 255 255
0.927622 0.472727  2.57039 255 255 255
  1.35509 -0.825872   3.90429 255 255 255
-0.885385  -1.46603   3.64194 255 255 255
  1.10704 0.0790918   3.06441 255 255 255
 0.0352135 -0.0765471     2.7858 255 255 255
-0.280834  -1.04486   3.05312 255 255 255
  -0.298998 0.000459171     2.73912 255 255 255
 1.27597 0.948352  2.24562 255 255 255
 0.552597 -0.469049   2.93505 255 255 255
 0.184468 0.0254423   2.94394 255 255 255
  1.51491 -0.539986   3.65304 255 255 255
  0.13305 -0.701337   2.79068 255 255 255
 0.347019 -0.253965    3.3196 255 255 255
   2.21569 -0.0404986    3.49332 255 255 255
  0.86793 -0.170443   3.21797 255 255 255
 1.01542 0.977729  2.63459 255 255 255
-0.765591 -0.243155   2.90648 255 255 255
 0.206423 -0.196233   3.26263 255 255 255
   1.3758 -0.924913   3.89598 255 255 255
0.328979 0.131324   2.5219 255 255 255
 1.38882 0.507757  2.42235 255 255 255
  1.33806 -0.974466   3.84553 255 255 255
 0.720189 -0.834637   2.98563 255 255 255
 1.16401 0.363283  2.72305 255 255 255
1.27247 0.17961 3.09504 255 255 255
 -0.223964 -0.0868856    2.78181 255 255 255
 -0.95073 -0.857272   3.31589 255 255 255
   2.30645 -0.0928726    3.56734 255 255 255
-0.359166 0.0490875   2.70909 255 255 255
-0.0220592  -0.628164    2.74093 255 255 255
-0.0666059  -0.635219     2.6984 255 255 255
  1.91962 -0.497149   3.77269 255 255 255
-0.718586  -1.42793    3.6683 255 255 255
 1.12808 0.800228  2.27682 255 255 255
  2.11784 -0.671892   3.92486 255 255 255
 1.44296 0.472368  2.54674 255 255 255
  2.01112 -0.308373   3.64544 255 255 255
0.118798 -1.01996  3.03603 255 255 255
0.337499  0.16752  2.45669 255 255 255
-0.254468 -0.831732   2.87892 255 255 255
 1.22899 0.280444  2.81479 255 255 255
 1.27729 0.695621  2.43632 255 255 255
 0.380322 -0.073391   3.10224 255 255 255
 0.67517 0.296048  2.93674 255 255 255
 1.11743 0.874933  2.25043 255 255 255
-1.06669 0.135416  2.89561 255 255 255
-0.627422  -1.00414   3.47772 255 255 255
0.172147 -1.02277  3.03014 255 255 255
  1.1508 0.886977  2.21459 255 255 255
-0.731222 -0.193759   2.84198 255 255 255
   1.53349 -0.0363822    3.36032 255 255 255
 0.354259 -0.352416   2.85308 255 255 255
 1.30241 0.661499  2.41139 255 255 255
-0.879757  -1.49163   3.64354 255 255 255
 1.27796 0.799978  2.29487 255 255 255
-0.290488 -0.935841   2.89963 255 255 255
1.41747  0.3482 2.99877 255 255 255
  1.0124 -0.55025  3.57517 255 255 255
-0.144684 -0.696668   2.48752 255 255 255
 1.47076 0.763263  2.57525 255 255 255
-0.300166 -0.386584   2.72388 255 255 255
   1.4415 -0.871261   3.91285 255 255 255
  1.0806 0.806457  2.32131 255 255 255
0.757487 0.728313  2.41893 255 255 255
0.0419958 -0.661131    2.7605 255 255 255
-0.821008  0.176517   2.73989 255 255 255
-0.345374 -0.508537   2.60395 255 255 255
  2.51416 -0.425527   3.86032 255 255 255
 0.58873 0.511841  2.54221 255 255 255
 2.56648 -0.13682  3.69366 255 255 255
 0.271378 -0.794858   2.89418 255 255 255
  1.96604 -0.210201    3.6134 255 255 255
  2.09064 -0.320917   3.68649 255 255 255
-0.738119  -0.09621   2.77773 255 255 255
-0.826024  -0.70353   3.09947 255 255 255
 1.08955 0.865308  2.28005 255 255 255
  0.367666 0.00367357     3.0811 255 255 255
 1.40779 0.051291  3.31135 255 255 255
 0.420603 -0.159599   3.18235 255 255 255
-0.982993 -0.538641    3.0428 255 255 255
-0.654524 -0.674014   2.69838 255 255 255
   1.7788 -0.569917   3.68587 255 255 255
 0.650051 -0.861517   2.90282 255 255 255
  1.97209 -0.446225   3.74061 255 255 255
 1.12785 0.864196  2.25157 255 255 255
0.810127  0.46419  2.55245 255 255 255
0.169161 -1.01242  3.04542 255 255 255
-0.230004  0.360828   2.87063 255 255 255
-0.547631 -0.713542   2.74323 255 255 255
1.01448 0.92398 2.36687 255 255 255
-0.509391 -0.526207   2.60566 255 255 255
 0.077454 -0.938506   2.87451 255 255 255
0.749582 0.284774  2.90904 255 255 255
-0.375435 -0.576651   2.65679 255 255 255
-0.349636  0.404173   2.33661 255 255 255
 0.261846 -0.801798   2.89708 255 255 255
 1.18649 0.336797  2.70787 255 255 255
-0.0592736  -0.554779    2.65929 255 255 255
 1.87813 -0.30024  3.63935 255 255 255
 0.717886 -0.686128   2.84658 255 255 255
-1.06525 0.181826  2.87852 255 255 255
-0.63683 -1.24477  3.60788 255 255 255
 1.02033 0.893973  2.38038 255 255 255
 1.07153 0.890429  2.26009 255 255 255
1.03209 0.85552 2.37938 255 255 255
1.42294 0.11449 2.80341 255 255 255
 1.45918 0.170145  2.86151 255 255 255
  1.43234 -0.854857    3.9009 255 255 255
-0.727095   -1.2317   3.55335 255 255 255
-0.237244  -1.06244   3.06347 255 255 255
  1.1239 0.795969  2.29089 255 255 255
-0.896211  0.281434   2.81858 255 255 255
-0.556136  0.251671   2.57713 255 255 255
 1.06222 0.671452  2.43855 255 255 255
0.920748  0.34955  2.67831 255 255 255
 -1.02526 0.0701062   2.93272 255 255 255
-0.962187 -0.744152   3.10351 255 255 255
 1.72559 0.216829  3.24626 255 255 255
0.505612 0.378658  2.46317 255 255 255
 0.137201 0.0545785   3.01967 255 255 255
0.575421 0.775364  2.36306 255 255 255
-0.795454  -1.29597    3.5715 255 255 255
 0.105336 -0.417511    2.5658 255 255 255
 1.78643 0.707172  2.97627 255 255 255
-0.0969241  -0.611033     2.7199 255 255 255
0.962447 0.316152  2.71088 255 255 255
  1.2606 0.305288  2.90285 255 255 255
 1.20539 0.793312  2.24457 255 255 255
 -0.23807 -0.321432   2.66774 255 255 255
-0.284284 -0.920612    2.9011 255 255 255
 1.80235 0.311262  3.15235 255 255 255
 1.10312 0.371302  2.62955 255 255 255
-0.857083  0.360304   2.76698 255 255 255
0.704329 0.355233  2.65806 255 255 255
 -0.78155 -0.171759    2.6402 255 255 255
  1.75418 -0.477822   3.73822 255 255 255
 0.614152 -0.165376   2.94328 255 255 255
 0.141007 -0.670116   2.78132 255 255 255
-0.894942 -0.875361   3.32253 255 255 255
1.09999 0.86345 2.28226 255 255 255
-0.957522  -1.07191    3.4142 255 255 255
  2.67583 -0.425344   3.99521 255 255 255
 0.441218 -0.568979   2.74109 255 255 255
 -0.791965 -0.0668307    2.77947 255 255 255
-0.191799 -0.509537   2.65468 255 255 255
  1.85848 -0.194717   3.52732 255 255 255
  1.07114 -0.206505   3.40517 255 255 255
-0.941363 -0.862205   3.35787 255 255 255
-0.538272 -0.515765   2.63738 255 255 255
   0.2065 0.0359857   2.95816 255 255 255
0.0762047  -0.92741   2.90747 255 255 255
0.830346 0.186285  2.88281 255 255 255
  1.0852 0.499676  2.60558 255 255 255
0.0252992 -0.685851   2.75817 255 255 255
-0.357871 -0.884733   2.87049 255 255 255
-1.16298 0.181903  2.85928 255 255 255
0.545731 0.622881  2.44623 255 255 255
   1.52975 -0.0163257    3.35432 255 255 255
   2.24168 -0.0339149    3.50925 255 255 255
  1.19324 -0.069002   3.33453 255 255 255
 1.58785 -0.38883  3.62178 255 255 255
-0.0980588  -0.683757    2.66041 255 255 255
-0.310422 -0.390952   2.71783 255 255 255
 1.72417 0.208031  3.26624 255 255 255
 0.144483 -0.496254   2.64014 255 255 255
 1.05655 0.660905  2.44594 255 255 255
-0.472542 -0.498099   2.59982 255 255 255
-0.699726  0.371321   2.58786 255 255 255
 0.588425 -0.624027   2.77748 255 255 255
 1.71135 0.133227  3.28958 255 255 255
-0.347033  -0.51979   2.62012 255 255 255
0.583087 -0.56507  2.90526 255 255 255
 1.22892 0.728245  2.35929 255 255 255
1.75785 0.19173 3.18172 255 255 255
-0.528076 -0.550778   2.58653 255 255 255
-1.00108 0.291511   2.8204 255 255 255
  0.519987 -0.0995315    3.09751 255 255 255
  2.47016 -0.323668   3.77626 255 255 255
-0.513708 0.0874807   2.71589 255 255 255
1.05424 0.66567 2.47325 255 255 255
  1.36613 -0.788215   3.88485 255 255 255
-0.824145  -0.21078   2.87148 255 255 255
0.803988 0.294147  2.69233 255 255 255
 0.290351 -0.851184   2.93459 255 255 255
  1.66837 -0.413228   3.66623 255 255 255
 1.26434 0.910979  2.22684 255 255 255
 0.44046 0.251011  2.48153 255 255 255
0.554895 0.441743  2.61053 255 255 255
-0.172551  -0.57022   2.70129 255 255 255
  1.05554 -0.365194   3.48658 255 255 255
0.606968 -1.11282   3.7955 255 255 255
-0.840236 -0.615854    3.1476 255 255 255
0.0744059 -0.124757   3.17948 255 255 255
-0.320739 -0.903136   2.88936 255 255 255
0.966906 -0.70255  3.06121 255 255 255
    1.43825 0.000358919     3.28561 255 255 255
  1.34744 0.0107052   3.31949 255 255 255
-0.973736  0.201915   2.86661 255 255 255
0.598776 0.394564    2.622 255 255 255
-0.96825 -1.02691  3.42703 255 255 255
   2.04366 0.00754963    3.40647 255 255 255
 1.29691 0.533642  2.60664 255 255 255
  2.05947 0.0196849   3.40983 255 255 255
 1.08953 0.871757  2.26341 255 255 255
  1.05348 -0.282639   3.40141 255 255 255
 1.95584 0.297602  3.17634 255 255 255
 0.91394 0.482181  2.54458 255 255 255
 0.130555 -0.823795   2.91048 255 255 255
  1.43029 0.0288558   3.34497 255 255 255
 0.151328 -0.852508   2.91179 255 255 255
  1.40341 -0.216142   3.49373 255 255 255
    1.36976 -0.00406255     3.32974 255 255 255
-0.795997 -0.195337   2.65696 255 255 255
 0.343072 -0.759693   2.87044 255 255 255
 1.02494 0.338769  2.69809 255 255 255
-0.921588  -1.34594   3.54651 255 255 255
  2.62086 -0.424956   3.96155 255 255 255
  1.54659 -0.419949    3.6114 255 255 255
-0.73154 -1.12725  3.50929 255 255 255
-0.343306 -0.769583   2.84008 255 255 255
  0.86351 -0.108989   3.32411 255 255 255
-0.784086 -0.821338   3.18721 255 255 255
-0.751689  -1.00147   3.45947 255 255 255
  2.15107 -0.777326   3.96997 255 255 255
  2.48582 0.0231615   3.58576 255 255 255
-0.047805 -0.528872   2.58929 255 255 255
 1.17587 0.349513  2.71445 255 255 255
 1.05467 0.835942   2.3566 255 255 255
0.830037 0.226961  2.88707 255 255 255
-0.912125  0.199931   2.84217 255 255 255
-0.545041 -0.511553   2.63834 255 255 255
-0.710995  -1.06206   3.48947 255 255 255
  1.32727 -0.656811   3.76117 255 255 255
 0.144809 -0.151059   3.10397 255 255 255
-0.990223  -1.14627   3.44656 255 255 255
  2.26408 0.0437846   3.51037 255 255 255
  1.65528 -0.033491   3.38092 255 255 255
-0.738366  -1.05732   3.47082 255 255 255
1.07534 0.65905 2.46908 255 255 255
  1.33906 -0.942434   3.88798 255 255 255
0.860684 0.246191  2.79814 255 255 255
  2.71765 -0.374289   3.98152 255 255 255
0.133563 -1.04525  3.07481 255 255 255
1.82114  0.4132 3.13341 255 255 255
-0.835621  -1.18038   3.46928 255 255 255
  2.76301 -0.493999   4.10303 255 255 255
 0.583427 -0.190677   2.94727 255 255 255
0.541112 0.619204  2.46109 255 255 255
 0.112219 -0.987164   3.04192 255 255 255
  1.47538 -0.864095    3.9447 255 255 255
   1.9143 -0.362581   3.69487 255 255 255
 -1.05527 0.0588443   2.94041 255 255 255
-0.742057  -1.30651   3.58706 255 255 255
1.10755 0.11117 2.95892 255 255 255
 1.02702 0.328426  2.69736 255 255 255
 1.03064 0.888363  2.35518 255 255 255
0.550421 -1.14226  3.85136 255 255 255
 0.143223 -0.832089   2.92094 255 255 255
 0.331258 0.0500808   2.56372 255 255 255
  2.01872 -0.197058   3.57598 255 255 255
-0.559144  -1.34969   3.68919 255 255 255
 1.71909 0.168911  3.17961 255 255 255
  2.33394 0.0292293   3.54397 255 255 255
  1.67567 -0.555928   3.76723 255 255 255
-0.329586 -0.190002   2.89581 255 255 255
 0.268503 -0.766598   2.83691 255 255 255
  2.21903 -0.102763   3.56668 255 255 255
 2.11274 0.353382  3.21541 255 255 255
-0.566551  -1.39508   3.74557 255 255 255
  1.29945 -0.319677   3.50533 255 255 255
 0.393459 -0.035605    3.1083 255 255 255
  1.82669 -0.151464   3.50402 255 255 255
0.517178 0.355813  2.41717 255 255 255
 1.30966 0.885736  2.24393 255 255 255
0.422667 0.382428  2.38638 255 255 255
-0.678148  -1.23151   3.57307 255 255 255
  1.45184 0.0152105    3.3171 255 255 255
-0.340583 -0.193432   2.91396 255 255 255
 -0.45631 -0.734956   2.80939 255 255 255
0.713834 0.304238  2.91549 255 255 255
0.825551 0.162058  2.90276 255 255 255
0.919312 0.142185  2.83129 255 255 255
  1.0098 0.700589  2.44138 255 255 255
-0.540983    0.1839   2.60969 255 255 255
 1.91847 0.477762   3.0703 255 255 255
 1.03789 0.849755  2.37528 255 255 255
-1.15939 0.225095  2.85013 255 255 255
  -1.02151 -0.0640057    2.94852 255 255 255
0.886471 0.221829  2.92028 255 255 255
  1.74271 -0.516637    3.7669 255 255 255
-0.930926  -1.22541     3.459 255 255 255
 1.86993 0.260684  3.15394 255 255 255
-0.156368 -0.686356   2.68847 255 255 255
-0.247821 -0.813052   2.87752 255 255 255
0.500405 0.588403   2.4617 255 255 255
 1.07549 0.885897  2.27051 255 255 255
   2.6929 -0.360534   3.95128 255 255 255
  2.17667 -0.456621   3.78768 255 255 255
-0.271939 -0.819541   2.85136 255 255 255
-0.350087 -0.858868   2.83994 255 255 255
0.841819 0.258382  2.70475 255 255 255
   1.66601 -0.0212539    3.36853 255 255 255
0.605724 0.393378  2.59111 255 255 255
  0.213239 -0.0263091    3.03093 255 255 255
  -1.1586 -0.104218   3.00051 255 255 255
 1.12643 0.638956  2.49156 255 255 255
-0.80512 -1.42748  3.65672 255 255 255
  0.728016 -0.0494668    3.24879 255 255 255
  1.36123 -0.175192   3.45185 255 255 255
 1.20836 0.256575  2.87085 255 255 255
  1.41709 -0.497002   3.63272 255 255 255
 1.12409 0.631207   2.4909 255 255 255
0.801084 0.477313  2.58779 255 255 255
 0.771508 0.0825013   3.07717 255 255 255
   0.329803 -0.00340551     3.04361 255 255 255
  1.83804 -0.437441   3.72872 255 255 255
 0.299231 -0.131502   2.98143 255 255 255
 -0.18382 -0.679245   2.60469 255 255 255
 0.392442 0.0722509   2.54841 255 255 255
-0.711899 -0.145641   2.80031 255 255 255
 1.90671 0.308737  3.14512 255 255 255
0.0782513 -0.897488   2.94799 255 255 255
-0.826187 -0.574135   3.13039 255 255 255
  1.22029 -0.718308   3.80863 255 255 255
  1.61471 -0.711809   3.85597 255 255 255
  2.42196 -0.375129   3.80308 255 255 255
 0.241896 -0.897053   2.94226 255 255 255
