ply
format ascii 1.0
element vertex 1170
property float x
property float y
property float z
property uchar red
property uchar green
property uchar blue
end_header
-2.59697  5.99821 -0.39058 255 255 255
 -1.0466  8.29371 -1.13779 255 255 255
 -1.50952   7.58683 -0.642606 255 255 255
-1.56306   8.0148 -1.16737 255 255 255
 -2.89149   7.01121 -0.683094 255 255 255
-0.764039    8.3263 -0.984062 255 255 255
 -2.10114   7.68395 -0.840246 255 255 255
  1.36676   6.73345 -0.045984 255 255 255
 -1.33669   6.69267 -0.481412 255 255 255
-3.25085  5.53545 0.126743 255 255 255
-3.10998  7.82378 -1.29184 255 255 255
-0.729504   8.65775  -1.05029 255 255 255
-2.58102  6.77104 -0.53704 255 255 255
0.0200565   8.35893 -0.871819 255 255 255
 -2.74761   7.32611 -0.811233 255 255 255
 0.879566   7.79781 -0.718251 255 255 255
-2.21099  6.27237 -0.51833 255 255 255
0.114192   8.5381 -1.05721 255 255 255
-3.30006  4.84009 0.302286 255 255 255
-2.49118  7.98219 -1.10942 255 255 255
-1.43731  8.00293 -1.15486 255 255 255
 -3.8157  5.51161 0.120951 255 255 255
 -4.17427   6.44486 -0.402723 255 255 255
-0.477998   8.39034 -0.845776 255 255 255
-0.45559  8.47866 -0.86316 255 255 255
 -1.7803  5.50555 0.103506 255 255 255
 -0.85048    7.8279 -0.881242 255 255 255
 -3.2673  7.87265 -1.30976 255 255 255
 -2.7377  7.86357 -1.33896 255 255 255
 -2.87001   7.49193 -0.998792 255 255 255
-0.322334   8.17549 -0.838624 255 255 255
 -3.07437   7.33448 -0.757014 255 255 255
-1.39379  6.09825 -0.44726 255 255 255
-2.02761  7.90002 -1.12131 255 255 255
-3.73052  6.96444 -1.01758 255 255 255
 -1.34012   7.39246 -0.650843 255 255 255
 -2.32397   8.01486 -0.875862 255 255 255
  1.77875   7.00574 -0.174588 255 255 255
 -1.65473   5.91807 -0.241497 255 255 255
 -1.6722  5.52111 0.268225 255 255 255
 -3.97251   7.43997 -0.951919 255 255 255
-0.523518   7.89234 -0.830285 255 255 255
0.402645  8.51882 -1.21506 255 255 255
-1.18751  7.85495 -1.01745 255 255 255
0.384412  8.61487  -1.2369 255 255 255
-1.03049   7.6852 -1.11618 255 255 255
-0.58561   8.4861 -1.49907 255 255 255
-3.92342  7.78624 -1.00806 255 255 255
 -2.78153   5.63957 0.0899121 255 255 255
 -3.98451   6.52717 -0.589487 255 255 255
 -1.03425   8.07428 -0.954365 255 255 255
 -4.19151   7.56652 -0.960444 255 255 255
  -2.7142   6.04871 -0.415078 255 255 255
0.432351  8.29835 -1.05154 255 255 255
  -2.9951   6.18367 -0.386561 255 255 255
 -1.53835   6.10268 -0.493955 255 255 255
-4.16414  5.00633 0.141389 255 255 255
-3.14877  7.55909 -1.10856 255 255 255
-4.33201  5.42989 0.133595 255 255 255
 -2.00749   6.19438 -0.516494 255 255 255
 -2.93409   7.80844 -0.966109 255 255 255
-2.93038  7.79939 -1.01572 255 255 255
-3.16545  7.90685 -1.24974 255 255 255
-3.03014  5.15275 0.236821 255 255 255
-3.32881  7.61335 -1.21842 255 255 255
0.205458  8.07281 -0.75595 255 255 255
-1.43985  5.27502 0.404216 255 255 255
 0.532063   7.65981 -0.763589 255 255 255
0.683491  8.21827 -1.11398 255 255 255
 -2.00182   7.39792 -0.615568 255 255 255
-3.27988  7.81791 -1.24777 255 255 255
 -3.06756   7.40185 -0.956396 255 255 255
-1.14664   8.2144 -1.14703 255 255 255
-4.26666  5.39747 0.103437 255 255 255
-1.51472   5.6053 0.159054 255 255 255
 0.429798   6.90348 -0.106775 255 255 255
 -1.52199   6.38711 -0.113059 255 255 255
0.196516  9.03907 -1.25873 255 255 255
 -1.39818   6.68275 -0.306026 255 255 255
   1.9051   6.54011 -0.104545 255 255 255
-0.412762   8.28963  -1.10609 255 255 255
-0.481646   8.37238  -1.47391 255 255 255
 -1.4389  8.48126 -1.41893 255 255 255
 -4.06669   6.62967 -0.580078 255 255 255
 0.29729   8.6799 -1.10916 255 255 255
 -4.2807  5.24173 0.148338 255 255 255
-1.05474  8.60396 -1.00792 255 255 255
-4.26561  5.34437 0.047796 255 255 255
 -1.05375   8.12517 -0.983275 255 255 255
-1.76948  8.09339 -1.29871 255 255 255
-1.29558  8.48742 -1.38911 255 255 255
  -3.60761    5.70358 -0.0622272 255 255 255
  -3.4572   6.65646 -0.554524 255 255 255
  -3.9901   6.90442 -0.974656 255 255 255
 -3.03123     7.442 -0.988993 255 255 255
 -2.82183   7.33716 -0.774092 255 255 255
-2.57496  7.95871 -0.84799 255 255 255
 -3.73738   7.47183 -0.785917 255 255 255
 -4.18794   5.69826 -0.213283 255 255 255
 -2.77085    7.7422 -0.824469 255 255 255
0.645046  6.24321 0.152007 255 255 255
-4.06999  5.98794 -0.34256 255 255 255
 0.859099   6.60376 -0.259926 255 255 255
  -1.3348   6.52351 -0.599406 255 255 255
 -1.64462   7.63886 -0.932499 255 255 255
 1.20416  6.12445 0.179367 255 255 255
 -2.75511   7.65496 -0.830575 255 255 255
 0.114669   8.00024 -0.730388 255 255 255
  0.54496   7.46522 -0.646487 255 255 255
 -4.18759   5.43076 0.0987778 255 255 255
 -1.23306   7.16714 -0.756653 255 255 255
-2.16099  8.29562 -1.45111 255 255 255
 1.02756  7.16683 -0.46163 255 255 255
 -2.57697   7.91369 -0.830649 255 255 255
-0.572624   8.53893 -0.904633 255 255 255
0.249116  9.09108 -1.31829 255 255 255
 -0.67199   7.73477 -0.808768 255 255 255
 -3.29373   7.41231 -0.929266 255 255 255
 -1.7476  8.20165 -1.17466 255 255 255
  -3.0506    5.6907 0.0473152 255 255 255
0.261687  8.71001 -1.12763 255 255 255
  -1.6196   5.60917 0.0729574 255 255 255
-3.35903  5.10748 0.400675 255 255 255
 -3.20884    5.5996 -0.094928 255 255 255
 -3.2127  6.75932 -0.67049 255 255 255
 -4.22581   7.83295 -0.977532 255 255 255
 -1.52347   6.23578 -0.298596 255 255 255
 0.644501   6.94207 -0.545314 255 255 255
-2.72353  7.91995 -1.37698 255 255 255
-3.21108  7.68046 -1.08988 255 255 255
 0.798508   6.66097 -0.456795 255 255 255
-0.646744   8.46145  -1.46504 255 255 255
-1.76029   8.2548  -1.3283 255 255 255
0.447863   8.4687 -1.10673 255 255 255
-2.47976  8.16695 -0.96391 255 255 255
  -3.48463    5.69119 0.00223182 255 255 255
-4.09064  4.99111 0.209445 255 255 255
  1.89013   6.64698 -0.147163 255 255 255
-0.65563  8.69363 -1.69092 255 255 255
 -2.82997   7.50532 -0.989976 255 255 255
 -1.95824   7.32275 -0.593295 255 255 255
0.295796  8.88209 -1.20826 255 255 255
-2.51531  5.33205 0.168211 255 255 255
 -2.28531   7.53989 -0.925928 255 255 255
 -1.45057   6.07271 -0.350212 255 255 255
 -2.40295   7.24519 -0.851919 255 255 255
-1.07262  5.53473 0.260968 255 255 255
-0.516256   8.40502  -1.30792 255 255 255
 -2.76158   7.44786 -0.762114 255 255 255
 -3.45262   6.86326 -0.674505 255 255 255
-3.29751  7.94403  -1.3031 255 255 255
 -2.46932   7.11584 -0.894179 255 255 255
   -2.51731     5.61419 -0.00628543 255 255 255
 -1.64492    7.4788 -0.690416 255 255 255
-0.980321   8.49397  -1.16029 255 255 255
 0.846664   8.23557 -0.953712 255 255 255
 -2.10373   7.36089 -0.635628 255 255 255
0.507333  8.08408 -1.10398 255 255 255
-1.75809  8.21287 -1.31097 255 255 255
-3.88247  5.32034 0.159252 255 255 255
 -3.96777   6.03181 -0.202521 255 255 255
-1.70054  8.44281 -1.45807 255 255 255
 -0.355744     6.5569 0.00660002 255 255 255
    -2.88245      5.69698 -0.000889038 255 255 255
-2.61842   6.9314 -0.59889 255 255 255
 -3.60817   7.20078 -0.805384 255 255 255
 -1.61516    6.7395 -0.310259 255 255 255
 0.338497   7.22048 -0.306602 255 255 255
0.160507  8.99589 -1.15165 255 255 255
-2.42612  5.00731 0.145677 255 255 255
  1.59058    7.3013 -0.386982 255 255 255
 -3.93404   7.59721 -0.944028 255 255 255
 -1.32214   6.61628 -0.572058 255 255 255
-0.530266   8.42906  -1.24028 255 255 255
-0.925469    6.8779 -0.714379 255 255 255
-1.10586  8.48833 -1.06705 255 255 255
 -2.90698   6.02558 -0.384412 255 255 255
 -1.91777   6.16653 -0.425818 255 255 255
 -3.63381   7.39673 -0.750668 255 255 255
 0.138313   6.58795 0.0363434 255 255 255
 -1.76654   6.20413 -0.489183 255 255 255
-1.62937  8.41265 -1.44388 255 255 255
-2.96546  6.49736 -0.65801 255 255 255
  1.59906   7.33427 -0.436551 255 255 255
  -3.08873     5.7535 -0.0282849 255 255 255
 0.830757   6.56488 -0.239156 255 255 255
-2.04407  5.55337 0.121614 255 255 255
0.812123   6.4436 -0.22916 255 255 255
-1.10319  8.20128 -1.14586 255 255 255
 0.35014  8.92007 -1.35178 255 255 255
-3.30351  7.55595 -1.14784 255 255 255
 0.817909   6.48096 -0.178055 255 255 255
 -1.62752   7.55543 -0.918295 255 255 255
-3.95886   6.6388 -0.70904 255 255 255
-1.40936   7.8809 -1.05768 255 255 255
-3.25123  7.07719 -0.74746 255 255 255
 0.575798   7.29522 -0.528879 255 255 255
  -2.8824   7.08318 -0.688776 255 255 255
 -3.17536   6.81575 -0.667582 255 255 255
0.403479  8.90295 -1.35493 255 255 255
-1.34189  8.36829 -1.33577 255 255 255
0.536708  7.73701 -0.78697 255 255 255
-0.951402   7.83393 -0.999356 255 255 255
-2.02033  8.03191 -1.21571 255 255 255
 -3.10582   5.64932 0.0434322 255 255 255
-1.54452    5.537 0.267247 255 255 255
0.510612  8.43741 -1.22386 255 255 255
-0.370662   5.60691  0.108731 255 255 255
 -2.32853   6.83724 -0.898055 255 255 255
 0.498013   7.57767 -0.475042 255 255 255
-0.867653   8.71466  -1.11747 255 255 255
-2.69229  7.93122 -1.31886 255 255 255
-3.28464  5.43166 0.148545 255 255 255
 -2.57065   7.31879 -0.842389 255 255 255
 -1.94107   6.37299 -0.156631 255 255 255
-3.20315  5.28493 0.186923 255 255 255
-1.34871  8.05673 -1.16426 255 255 255
 -1.88914   6.20294 -0.477557 255 255 255
 -2.46232   7.89306 -0.849418 255 255 255
-0.860977   7.90148  -1.02807 255 255 255
 -1.03841   8.06301 -0.823751 255 255 255
  1.53212   7.44428 -0.446113 255 255 255
-0.961178   8.33611  -1.25972 255 255 255
-0.304399   8.31365 -0.900839 255 255 255
-2.01957  8.10902 -1.27047 255 255 255
-2.01899  8.19535 -1.32232 255 255 255
 -4.33319    6.1323 -0.359574 255 255 255
0.566214  7.09277 -0.28557 255 255 255
 -1.51272    5.8582 -0.231442 255 255 255
 -2.54439    8.1873 -0.949346 255 255 255
 -2.08397   7.42996 -0.747569 255 255 255
 -2.43272   7.88592 -0.821194 255 255 255
0.517733  8.47737 -1.17798 255 255 255
 0.016692   5.81194 0.0811025 255 255 255
 1.54458  7.33591 -0.41202 255 255 255
 -1.95715   7.56515 -0.787686 255 255 255
 -2.64404   8.25348 -0.975735 255 255 255
 -1.44643   6.29439 -0.282589 255 255 255
 -1.39038   7.38653 -0.629184 255 255 255
0.190492  9.02942 -1.20565 255 255 255
-2.73783  7.89016 -1.34957 255 255 255
-3.21383   7.6607 -1.25872 255 255 255
  -2.2879   5.96041 -0.374458 255 255 255
 -3.65602   5.75949 -0.210962 255 255 255
  -3.3628   7.35734 -0.705339 255 255 255
 -2.81864   6.77098 -0.465292 255 255 255
 -1.51309   6.74321 -0.371845 255 255 255
-3.01393   7.7846 -1.05708 255 255 255
 -3.88304   5.71586 -0.142584 255 255 255
  0.960507    6.10057 -0.0268405 255 255 255
0.449444  8.61494 -1.27227 255 255 255
-2.22448  5.55147 0.112422 255 255 255
0.0498677   7.95361 -0.705832 255 255 255
 -3.50028   7.21623 -0.666295 255 255 255
   -2.803   6.94286 -0.633867 255 255 255
-0.97617  8.14247 -1.15808 255 255 255
 -3.57943   7.62145 -0.751146 255 255 255
 -2.48779   7.48757 -0.646021 255 255 255
 0.746964   6.48727 -0.195915 255 255 255
-1.57279  6.61587 -0.34655 255 255 255
   -3.425   6.14881 -0.360938 255 255 255
-2.82043  7.09386 -0.70985 255 255 255
 -2.79026    7.3665 -0.839567 255 255 255
0.0157132   6.30038  0.202872 255 255 255
-2.02117  8.05936 -1.23205 255 255 255
 -3.07837   6.87179 -0.667513 255 255 255
 -3.69461   7.62564 -0.808829 255 255 255
 -3.04711   5.96928 -0.109096 255 255 255
 -2.05309   7.51905 -0.877556 255 255 255
  2.05128   6.39079 0.0193458 255 255 255
-0.691163   8.40706 -0.969978 255 255 255
 -2.53948   7.71913 -0.844929 255 255 255
 0.462617   7.81277 -0.695912 255 255 255
-3.97772   5.0892 0.155016 255 255 255
-3.12552  5.07262 0.314642 255 255 255
0.123212  9.04814 -1.22685 255 255 255
 0.625357   7.25975 -0.472388 255 255 255
-2.83649  8.12484 -1.42587 255 255 255
-2.50912  5.08295 0.266227 255 255 255
-0.98022   8.8114 -1.10269 255 255 255
0.453274  8.49006 -1.17509 255 255 255
-0.764714    8.7445  -1.71026 255 255 255
0.0525496   7.31927 -0.375513 255 255 255
-0.907639   7.92563 -0.949442 255 255 255
    1.7113    6.57061 -0.0931637 255 255 255
 -1.33478   7.69286 -0.932652 255 255 255
  1.78267   6.30774 0.0606844 255 255 255
 -3.18523   5.91652 -0.202914 255 255 255
-0.481153   8.47824 -0.943147 255 255 255
-0.544703   8.46486   -1.1578 255 255 255
0.520006  8.18437 -1.05485 255 255 255
-4.30581   5.1293  0.20987 255 255 255
-4.18593  5.48119 0.085568 255 255 255
  -3.2794   6.99505 -0.761967 255 255 255
-0.851515   6.77419    -0.479 255 255 255
  0.568343    6.04336 0.00778128 255 255 255
  1.65062   6.23958 0.0854453 255 255 255
  -1.7684   7.65972 -0.796597 255 255 255
  -2.6474   6.60971 -0.395132 255 255 255
 -3.16844   7.42789 -0.955311 255 255 255
 0.619496    7.3682 -0.747355 255 255 255
-1.75515  7.95179 -1.16981 255 255 255
 -3.21433   5.58155 -0.115714 255 255 255
 0.385035   8.17506 -0.881773 255 255 255
 -2.83172   6.20554 -0.496852 255 255 255
-2.10393   7.8306 -1.10179 255 255 255
-2.01839  8.34007 -1.39127 255 255 255
 -3.2341   7.8044 -1.27473 255 255 255
-1.76639  8.42756 -1.47216 255 255 255
 -2.39714   7.59591 -0.769558 255 255 255
-1.92565  5.39264 0.245317 255 255 255
-1.83551  6.14464 -0.43275 255 255 255
-3.90152  7.64898 -0.97818 255 255 255
-2.82293  5.46021 0.102584 255 255 255
 0.843229   6.32261 -0.218619 255 255 255
 0.810656   7.40923 -0.718543 255 255 255
 0.573657   7.26402 -0.490935 255 255 255
 -1.74153   6.25496 -0.386895 255 255 255
 -1.10881    6.8987 -0.736007 255 255 255
0.168521  9.05232 -1.20404 255 255 255
-3.79031  5.13514 0.159601 255 255 255
 -2.87629   6.48477 -0.587624 255 255 255
 -4.13088   6.03853 -0.283943 255 255 255
 -3.30359   7.31786 -0.683922 255 255 255
  0.60693   7.42448 -0.752232 255 255 255
  0.25036   7.68284 -0.560956 255 255 255
 0.585153   7.05192 -0.300377 255 255 255
-0.577015   8.44512  -1.52165 255 255 255
-2.96638  5.49233 0.106865 255 255 255
 -1.43731   6.18187 -0.417872 255 255 255
0.607831  8.44819 -1.06371 255 255 255
  1.99667   6.67358 -0.117774 255 255 255
-1.72964  8.44122 -1.42728 255 255 255
-3.00715  8.07264 -1.35622 255 255 255
 -3.26951   7.30831 -0.691077 255 255 255
  1.95493   6.56872 -0.114222 255 255 255
-2.40877  8.23378 -1.66028 255 255 255
-0.287513   8.22643 -0.861253 255 255 255
-0.855662    7.6713 -0.842176 255 255 255
-3.69945  7.25054 -1.01246 255 255 255
-0.940287   5.69631 0.0949981 255 255 255
-4.17191  5.13441 0.148906 255 255 255
  -1.85766    5.72959 -0.0150668 255 255 255
 -3.06307   5.95545 -0.151814 255 255 255
-2.33679  7.79639 -1.01288 255 255 255
 -1.23383   7.18024 -0.676298 255 255 255
 -4.11426   5.97418 -0.362446 255 255 255
 -3.45964   6.41139 -0.495363 255 255 255
-2.06358  7.82087 -1.10135 255 255 255
  1.51494   7.51431 -0.484402 255 255 255
-3.23892  7.65899 -1.22752 255 255 255
 -1.05054   7.36829 -0.602649 255 255 255
-2.12624  8.03863 -1.25114 255 255 255
 -3.69423   7.59133 -0.845444 255 255 255
 -2.94189   7.40794 -0.922091 255 255 255
-0.649295   8.78621  -1.73638 255 255 255
  0.2457  8.53191 -1.04354 255 255 255
 -2.91278   4.97498 0.0196689 255 255 255
0.131228  7.41778 -0.39323 255 255 255
  2.09466   6.39165 0.0127423 255 255 255
-2.55251  7.17141 -0.84047 255 255 255
-1.64692  8.39372 -1.43078 255 255 255
 -2.50915    8.2561 -0.989294 255 255 255
 -2.22202   8.02953 -0.871281 255 255 255
-0.0608512    8.49027   -1.48166 255 255 255
-0.779421   7.56402 -0.709826 255 255 255
 -3.74831   5.98777 -0.318432 255 255 255
 -4.28589   5.78162 -0.305425 255 255 255
-0.616636   8.46918    -1.353 255 255 255
-2.82041  5.35488 0.143175 255 255 255
 -2.64395   6.44487 -0.341723 255 255 255
 -2.83309   7.01685 -0.656158 255 255 255
 -3.68724   7.53017 -0.867941 255 255 255
-0.0234634    6.59627  0.0450248 255 255 255
 -2.05476   7.26342 -0.692413 255 255 255
  1.84283   6.68773 -0.169621 255 255 255
 -3.27267   6.33164 -0.571332 255 255 255
-2.65936  7.91404 -1.34186 255 255 255
0.738594  7.21863 -0.74392 255 255 255
-0.530379   6.35574 0.0205534 255 255 255
 -2.69921   6.22255 -0.298989 255 255 255
 -1.23232   7.85595 -0.933604 255 255 255
 -2.87811   6.91447 -0.727623 255 255 255
 -3.41328   6.52719 -0.602348 255 255 255
 -1.58155    6.1458 -0.388314 255 255 255
 -0.504452    6.55916 -0.0758034 255 255 255
  -3.1926   7.31908 -0.691247 255 255 255
-2.23787  5.45445 -0.22815 255 255 255
-2.83936  6.01013 -0.38836 255 255 255
 0.818943   6.64224 -0.250542 255 255 255
 0.328276   7.69228 -0.545304 255 255 255
 -2.63756   5.55618 -0.214715 255 255 255
 -2.53303   6.05602 -0.408878 255 255 255
-1.05112  8.13127 -1.02035 255 255 255
 0.159433   8.00535 -0.727186 255 255 255
-0.736481   8.26407 -0.838734 255 255 255
 -2.31628   7.44219 -0.795057 255 255 255
 -3.38898   6.80681 -0.796942 255 255 255
  -3.1476   5.99267 -0.383858 255 255 255
-0.940178    8.8754  -1.13188 255 255 255
 -1.91555   7.58379 -0.848671 255 255 255
-0.316817   7.88813   -0.7511 255 255 255
-2.16287   5.0023 0.282479 255 255 255
0.611323  8.42651 -1.09166 255 255 255
-3.85865  5.15127 0.145609 255 255 255
 -1.55059   6.25458 -0.384659 255 255 255
-3.95738  4.94582 0.213997 255 255 255
0.342545  8.47441 -1.10305 255 255 255
-3.19161  7.62035 -1.14654 255 255 255
 -4.06898   5.27021 0.0907423 255 255 255
-4.07747  5.26016 0.122577 255 255 255
 -3.41789   6.05979 -0.331248 255 255 255
 0.228774    8.1968 -0.836544 255 255 255
 -2.13151   7.10911 -0.841787 255 255 255
 0.751546   7.35791 -0.762941 255 255 255
0.299157  8.58846 -1.15502 255 255 255
-2.12451  8.12746 -1.32432 255 255 255
 -1.84694   6.25279 -0.404151 255 255 255
 -0.35337   8.29065 -0.880655 255 255 255
 -2.60297   7.59528 -0.796283 255 255 255
-0.782378   7.66126 -0.756646 255 255 255
 0.707773   6.64975 -0.259908 255 255 255
-1.02475  7.58026 -0.84805 255 255 255
-0.912106   8.52377  -1.12038 255 255 255
 0.630095   7.20634 -0.647993 255 255 255
0.219985  8.87255 -1.11393 255 255 255
0.0360779   8.25217 -0.869652 255 255 255
0.471456  8.42223 -1.29349 255 255 255
 -2.82983   7.31069 -0.814192 255 255 255
-3.48433  5.20988 0.170196 255 255 255
-1.68927  7.83066 -1.05322 255 255 255
0.529843  8.11027 -1.13655 255 255 255
 -2.33602   7.22798 -0.758281 255 255 255
-3.33958  7.86183 -1.25634 255 255 255
 -3.45465   6.46749 -0.532958 255 255 255
-0.353518   8.33859 -0.888141 255 255 255
  -2.2266   6.06038 -0.453058 255 255 255
 -2.73002   6.36058 -0.398371 255 255 255
-2.21385  7.85241 -1.01094 255 255 255
 -2.00571   6.06038 -0.431963 255 255 255
-0.799719   7.96521  -1.05705 255 255 255
 -2.10056   6.46264 -0.139684 255 255 255
  1.04373   7.11828 -0.360122 255 255 255
-0.450952   8.44394 -0.876133 255 255 255
-2.12605  7.99061 -1.22728 255 255 255
 -1.13546   7.40439 -0.596459 255 255 255
 -3.03048   6.77551 -0.591006 255 255 255
-0.133767   8.12116 -0.802983 255 255 255
-0.983383   6.22057 -0.595466 255 255 255
 -1.82183   6.56312 -0.289141 255 255 255
 -3.67981    5.4113 0.0532412 255 255 255
-0.682831   8.03187 -0.959084 255 255 255
 -1.67225   7.64647 -0.730179 255 255 255
 -4.37049   7.72507 -0.957482 255 255 255
-1.65581  8.08223 -1.23544 255 255 255
-1.65519  8.08037 -1.23926 255 255 255
 -1.7004  7.68069 -1.02542 255 255 255
 0.957328   8.19095 -0.893655 255 255 255
0.526169  8.47927 -1.26344 255 255 255
-1.68631  8.40041 -1.39945 255 255 255
 -1.52008   6.72682 -0.269265 255 255 255
 -3.37424   6.83087 -0.834492 255 255 255
 -1.32888   6.62934 -0.481342 255 255 255
-0.934271   8.03168    -1.079 255 255 255
 -2.07285   6.55996 -0.235575 255 255 255
-0.575027   8.47819  -1.51546 255 255 255
0.619545  8.09204 -1.17015 255 255 255
 0.415496   8.28584 -0.989338 255 255 255
 -2.53736   7.22345 -0.835697 255 255 255
 -1.98586   7.21492 -0.568108 255 255 255
 0.716196   6.77131 -0.578052 255 255 255
-0.988267   7.47466 -0.556151 255 255 255
 -2.49662   5.61116 -0.113971 255 255 255
 -0.594736    6.37432 -0.0949702 255 255 255
-0.719763   6.65833 -0.195251 255 255 255
-0.963839   8.80723  -1.09781 255 255 255
-2.33821  5.74348 -0.29294 255 255 255
  -2.2448   7.31799 -0.729873 255 255 255
 2.07866  6.13231 0.164472 255 255 255
  -2.51526    5.53557 -0.0851725 255 255 255
-0.540259   6.95272 -0.224939 255 255 255
-3.52295  4.75683 0.363846 255 255 255
-0.589318   7.54193 -0.716085 255 255 255
-0.124388    5.9169  0.300243 255 255 255
 -3.35427    5.7924 -0.321228 255 255 255
0.318771  8.62144 -1.20929 255 255 255
0.39382 8.39622 -1.1374 255 255 255
-0.708363   8.49364 -0.986313 255 255 255
-0.614915   7.66565 -0.894388 255 255 255
-0.615837   7.66543 -0.891653 255 255 255
 -2.43395   7.41785 -0.642328 255 255 255
-1.58285   8.1808 -1.30503 255 255 255
-4.01458  6.20903  -0.5002 255 255 255
-3.53582  5.01487 0.218925 255 255 255
 0.287077   8.06486 -0.745034 255 255 255
-1.06561  5.45849 0.112623 255 255 255
 -1.57508   7.39754 -0.694582 255 255 255
-0.360405   5.99837  0.354692 255 255 255
-0.532975   8.39308  -1.29416 255 255 255
0.376224  8.75099 -1.26614 255 255 255
0.274243  9.14274 -1.33596 255 255 255
 -2.85253   7.72782 -0.782317 255 255 255
 -3.90461   7.48559 -0.799759 255 255 255
 -1.58692   6.25415 -0.382768 255 255 255
-0.882361   8.44361  -1.14798 255 255 255
-0.724954   8.18489 -0.826016 255 255 255
-0.994379   7.37521 -0.514492 255 255 255
-0.601973   8.34021 -0.920066 255 255 255
-0.233606   7.30747 -0.357377 255 255 255
 -2.60504    8.1995 -0.993752 255 255 255
 -3.42083   6.10907 -0.348782 255 255 255
0.0507939   6.82758  -0.10338 255 255 255
  -3.69006    5.61223 -0.0447403 255 255 255
-0.645145   7.39554 -0.580329 255 255 255
 -1.86705   7.51737 -0.825944 255 255 255
-1.03737    8.803 -1.15223 255 255 255
-1.98855  7.92594 -1.15637 255 255 255
 -3.49825   7.53635 -0.802364 255 255 255
-3.02163  7.84037 -1.05441 255 255 255
-2.20562  8.23565 -1.37179 255 255 255
-0.687837   8.62975  -1.65442 255 255 255
 -4.32853   6.76139 -0.834862 255 255 255
     0.611    6.11082 -0.0900548 255 255 255
 -1.93964   6.65477 -0.384318 255 255 255
 -3.60468   5.33657 0.0869235 255 255 255
-1.01709  8.07607 -1.03548 255 255 255
-3.25432  8.01549 -1.33339 255 255 255
 -4.24984    5.7705 -0.346989 255 255 255
 -3.29193    7.2059 -0.628229 255 255 255
-2.20611  8.08365 -1.25067 255 255 255
  0.839249    6.20382 -0.0920813 255 255 255
-0.480157   8.51044 -0.832564 255 255 255
-2.20897   8.0488 -1.29284 255 255 255
 -1.20989   7.81534 -0.859152 255 255 255
  0.559801    6.64262 -0.0138696 255 255 255
 -1.0741  8.24934 -1.09805 255 255 255
 -3.06898   7.31259 -0.646622 255 255 255
-3.08224   5.3138 0.154986 255 255 255
0.0199649   8.42446 -0.940772 255 255 255
 -1.93537   6.57019 -0.312485 255 255 255
  -2.2486   7.98938 -0.884194 255 255 255
 -2.50244    7.6924 -0.859525 255 255 255
-2.96994  7.59395 -1.03263 255 255 255
 -2.79105   6.38735 -0.494071 255 255 255
0.268689    8.943 -1.24775 255 255 255
-0.812724   7.90267  -1.05612 255 255 255
 -3.60698   5.94052 -0.338329 255 255 255
 0.327352   8.45217 -0.969041 255 255 255
0.117741  9.05351 -1.18269 255 255 255
-1.24279  8.02824 -1.16447 255 255 255
-0.145908   7.60244 -0.525808 255 255 255
-0.507608   8.66642  -1.61934 255 255 255
-1.54096  8.18952 -1.26984 255 255 255
-1.27266  5.96093 -0.39229 255 255 255
 0.39736  8.43662 -1.04549 255 255 255
-1.26153  8.42605 -1.35162 255 255 255
-1.26645  7.72729 -0.91346 255 255 255
 -3.94382   6.85561 -0.857255 255 255 255
 -4.21941   5.95861 -0.306159 255 255 255
-1.10468  8.44934 -1.10717 255 255 255
-2.68014  7.88717 -1.28496 255 255 255
 -4.08324   5.95433 -0.370208 255 255 255
-3.59592  5.15545 0.181259 255 255 255
-1.96467  7.92863  -1.1542 255 255 255
-1.48363  8.51581 -1.42177 255 255 255
 -2.68609   8.27169 -0.989665 255 255 255
-1.62666  8.46212 -1.42461 255 255 255
 -3.24356   6.07344 -0.418597 255 255 255
-0.301986   7.48553 -0.465024 255 255 255
 -3.2221  4.82765 0.277282 255 255 255
 -1.00746    7.4667 -0.530178 255 255 255
-1.64754  8.37376 -1.39754 255 255 255
-3.35254  7.96902 -1.31529 255 255 255
 -4.06131   7.51689 -0.921815 255 255 255
-1.65409  8.18225  -1.2947 255 255 255
-0.721163    8.3635 -0.906502 255 255 255
-2.04042  8.30356 -1.38441 255 255 255
0.365904  8.42278 -1.04306 255 255 255
-3.46643  4.94562 0.298385 255 255 255
-0.118446   5.58994  0.258239 255 255 255
-1.51021  7.93893 -1.09469 255 255 255
 -1.84991   7.40017 -0.683455 255 255 255
-0.604054   8.46429  -1.54024 255 255 255
 -3.0726  5.41582 0.166616 255 255 255
-3.08553  7.70424  -1.1193 255 255 255
-2.20941  7.92883 -1.18956 255 255 255
 -3.15747   6.59351 -0.670038 255 255 255
-3.97652  7.10078 -1.05719 255 255 255
-1.96168  8.11812 -1.26821 255 255 255
 -3.85323     7.426 -0.788139 255 255 255
  1.70112   6.25489 0.0941932 255 255 255
-0.764538    8.7371  -1.76279 255 255 255
 0.130909    7.2662 -0.360456 255 255 255
-1.64565  7.88752 -1.11808 255 255 255
  1.96834   6.73382 -0.198414 255 255 255
 -3.58854   6.94405 -0.874429 255 255 255
0.50219 8.43315 -1.1248 255 255 255
0.0615603    7.9161 -0.704057 255 255 255
-0.485829   8.40781  -1.46733 255 255 255
 1.19152  6.31591 0.046187 255 255 255
 0.27832  8.98454 -1.34908 255 255 255
-1.61802  8.18324 -1.29564 255 255 255
-0.501631   8.43268  -1.46662 255 255 255
-2.92679  5.20103 0.253924 255 255 255
 0.848391   6.84365 -0.617122 255 255 255
 -2.24263   8.02491 -0.877882 255 255 255
 0.647116   7.65434 -0.887172 255 255 255
 -2.72239   6.67225 -0.353183 255 255 255
 -3.00689   5.46587 0.0940793 255 255 255
 -2.47484   7.85514 -0.845338 255 255 255
-0.0123812    8.19815  -0.857989 255 255 255
 -3.50006    6.9592 -0.601942 255 255 255
-3.07568  5.44991 0.139639 255 255 255
-0.620584   5.77319 0.0331995 255 255 255
0.310185  8.92562 -1.33061 255 255 255
 2.16558  6.21198 0.169596 255 255 255
  1.24592   6.72098 -0.138007 255 255 255
-2.04156    8.255 -1.36403 255 255 255
 1.51076  6.83781 -0.25032 255 255 255
 -3.70337   5.95931 -0.321903 255 255 255
 -4.15325   7.71429 -0.978785 255 255 255
 -2.74164   7.43564 -0.853499 255 255 255
 -1.02108   7.61691 -0.901063 255 255 255
 -1.00875   7.62243 -0.855036 255 255 255
-3.69966  7.49074 -0.85749 255 255 255
-1.53854  8.55279 -1.44461 255 255 255
 1.33238  6.05278 0.184139 255 255 255
-2.20905  7.98165 -1.19126 255 255 255
-0.671333   8.76528  -1.71428 255 255 255
 -2.81467   7.45447 -0.908676 255 255 255
 -0.23509   8.08752 -0.786074 255 255 255
-2.85167  7.76083 -0.85401 255 255 255
  1.93746   7.07115 -0.177827 255 255 255
0.321738   8.7375 -1.22151 255 255 255
 0.988204   7.91733 -0.779195 255 255 255
-2.12347  7.91424 -1.19853 255 255 255
-0.323764   7.09616  -0.25056 255 255 255
-0.952023   7.36859 -0.694064 255 255 255
-2.83576  5.53034 0.107853 255 255 255
 -2.0202  7.85808 -1.09586 255 255 255
-0.756937    8.5184  -1.62731 255 255 255
-0.986754   8.07011 -0.764661 255 255 255
 -2.89565   6.49705 -0.647801 255 255 255
 -1.24761     7.277 -0.680111 255 255 255
0.646445  7.36152 -0.79093 255 255 255
-0.520576   8.54407 -0.926228 255 255 255
 -1.2831  8.29133 -1.29053 255 255 255
-1.28353  8.43043 -1.38065 255 255 255
0.383493  8.52315 -1.23024 255 255 255
0.0703596   9.07568  -1.18412 255 255 255
 -4.08665   6.74554 -0.800202 255 255 255
-1.28209   8.3835 -1.35039 255 255 255
 -4.20216   6.35698 -0.373959 255 255 255
 -2.0412  8.21057 -1.32761 255 255 255
 -2.53322   6.92904 -0.853605 255 255 255
-3.97949  5.23298 0.138771 255 255 255
-2.20172  8.36939 -1.43601 255 255 255
-2.69734  5.10069  0.30937 255 255 255
-2.69839  5.08486 0.366102 255 255 255
 -1.90317   7.54191 -0.850628 255 255 255
-3.2191 7.63717 -1.2447 255 255 255
-1.98677   8.1148 -1.27877 255 255 255
 -3.16838   6.87671 -0.642693 255 255 255
-1.55218  8.48477 -1.41624 255 255 255
-0.319832   8.10291 -0.796435 255 255 255
-1.55343  8.46136 -1.40755 255 255 255
 -3.09109   7.00562 -0.525546 255 255 255
-0.480836   7.91579 -0.857175 255 255 255
 -3.24321   5.95373 -0.224673 255 255 255
-3.82443  4.90927 0.221109 255 255 255
-0.0199726    8.47777   -1.51024 255 255 255
-0.503221   8.52391 -0.870488 255 255 255
-1.76883  7.75514 -1.03417 255 255 255
 -1.24223   7.43452 -0.652579 255 255 255
 -1.64316   5.50704 0.0970861 255 255 255
 0.137481   8.13919 -0.825775 255 255 255
  -2.8317   7.56749 -0.917938 255 255 255
 -2.78151    6.2249 -0.391807 255 255 255
-0.51438  8.41192 -1.19606 255 255 255
-0.63414   8.5949 -1.68715 255 255 255
-1.00502  8.57598 -1.00149 255 255 255
-2.99041  7.77054 -1.00296 255 255 255
  1.77232    7.2385 -0.316807 255 255 255
 -3.22673   6.60253 -0.688328 255 255 255
-1.36305  8.33163 -1.32132 255 255 255
 0.357179   7.87094 -0.634725 255 255 255
0.473335  8.52689 -1.17418 255 255 255
-2.75841   8.3186 -1.15879 255 255 255
 -1.36374   7.25014 -0.627779 255 255 255
-0.743218    6.4226  -0.17371 255 255 255
0.0912521   8.55067 -0.987316 255 255 255
-0.619744   7.54283 -0.719114 255 255 255
-2.01059  8.24462 -1.34689 255 255 255
  -2.27188    5.60131 -0.0675684 255 255 255
 -3.42247   7.00624 -0.869344 255 255 255
 -4.26511   5.45762 0.0988842 255 255 255
 -1.07266   7.98793 -0.729688 255 255 255
-0.961295   7.22589 -0.694636 255 255 255
-2.20773  8.03684  -1.2345 255 255 255
 -0.69223   6.32508 -0.146154 255 255 255
-2.04234  8.09158 -1.26267 255 255 255
-0.71777  8.65414 -1.64945 255 255 255
-1.50504  8.50484 -1.42762 255 255 255
-2.33808  8.04799 -0.77206 255 255 255
-0.475766   8.18894 -0.863389 255 255 255
0.397366   8.4621 -1.13851 255 255 255
   -4.103   6.78974 -0.832027 255 255 255
-1.95542  7.85047 -1.15241 255 255 255
-0.381015   8.41527  -1.43678 255 255 255
-1.99604  7.65615 -0.67413 255 255 255
 -3.42825   6.98641 -0.837551 255 255 255
 -3.38679   6.47563 -0.653996 255 255 255
0.177906  7.97172 -0.73121 255 255 255
-0.514709   8.51843  -1.60056 255 255 255
-0.851051   8.05517  -1.01644 255 255 255
-0.989421   8.68095  -1.03128 255 255 255
-0.778862   8.75046  -1.77811 255 255 255
 -2.11223   6.12411 -0.509636 255 255 255
-1.03919   8.2803  -1.1111 255 255 255
-3.73726   5.3729 0.137989 255 255 255
 -2.92535   7.10739 -0.720711 255 255 255
 -2.9829  7.74071 -1.06806 255 255 255
-0.624997   7.41865 -0.689232 255 255 255
-3.18733  7.70812 -1.12752 255 255 255
-3.79115  5.42851 0.145326 255 255 255
 -1.30096   7.72537 -0.877363 255 255 255
-0.887322   7.95231  -1.02487 255 255 255
 0.209401   7.94847 -0.705733 255 255 255
-2.78094  8.16504   -1.316 255 255 255
-0.217219   8.14353 -0.825995 255 255 255
 -2.76424   7.19674 -0.847963 255 255 255
 -1.97653   7.35032 -0.582533 255 255 255
 -3.81589   6.42345 -0.625206 255 255 255
 -3.70714   5.74513 -0.176768 255 255 255
 -2.65942   4.97886 0.0520066 255 255 255
  -3.0833   6.79694 -0.673614 255 255 255
-0.670128   6.30846 -0.130788 255 255 255
-1.90129  8.40121 -1.41898 255 255 255
-1.65898  7.53852 -0.66933 255 255 255
  1.64721   6.68959 -0.149503 255 255 255
-0.203362   8.49334  -1.46943 255 255 255
-2.97688  7.69834 -1.10559 255 255 255
-1.53891  8.43377 -1.41009 255 255 255
  1.82542   6.93407 -0.197718 255 255 255
 -4.23851    6.8692 -0.922452 255 255 255
-0.128068    8.3061 -0.919197 255 255 255
  1.35765   6.78007 -0.246576 255 255 255
-0.382873    8.5783   -1.5762 255 255 255
 -3.53607   5.75319 -0.181324 255 255 255
 -3.92638   7.81279 -0.910278 255 255 255
0.322613  8.82428 -1.28167 255 255 255
-1.51823  8.46018 -1.41236 255 255 255
 0.712147    6.7029 -0.343534 255 255 255
-0.328831   5.77456  0.138895 255 255 255
-3.80771  7.57399  -0.8916 255 255 255
-2.95578   7.8536 -1.05471 255 255 255
 0.157782   8.24868 -0.903777 255 255 255
0.248353  8.76112 -1.03028 255 255 255
 -1.9921  7.94795 -1.19204 255 255 255
 -3.18212   5.94245 -0.243165 255 255 255
-0.878535   7.98097  -1.01183 255 255 255
 -2.82561   7.58515 -0.968259 255 255 255
-0.545935   7.82051  -0.84493 255 255 255
-3.56031  5.34923 0.136127 255 255 255
-1.54335  6.46378 -0.20904 255 255 255
0.24973 8.98501 -1.2859 255 255 255
0.361202  8.65922 -1.21084 255 255 255
  -3.8343   6.93807 -0.889105 255 255 255
-2.29885  4.99392 0.226214 255 255 255
 -3.12825    7.2183 -0.810207 255 255 255
 -3.06001   7.16007 -0.733816 255 255 255
  1.03668   7.88545 -0.757897 255 255 255
-0.348672   8.70952   -1.6385 255 255 255
 0.822076   7.38293 -0.722739 255 255 255
 -2.49504     7.337 -0.924802 255 255 255
 0.737299   6.52176 -0.206887 255 255 255
 -4.17654   5.30567 0.0719584 255 255 255
 -1.3139  8.04846 -1.18196 255 255 255
 0.751463   7.54345 -0.798592 255 255 255
-0.0808432    7.95352  -0.660471 255 255 255
 -2.25848   8.00892 -0.906831 255 255 255
-3.33469  8.04733 -1.35426 255 255 255
  0.74746   6.96848 -0.617285 255 255 255
0.190693  5.92144 0.191473 255 255 255
 0.34616  8.73984 -1.34846 255 255 255
 -2.63365   7.25298 -0.759872 255 255 255
-2.54608  5.21814 0.315809 255 255 255
 -1.3718  8.08996 -1.20806 255 255 255
 0.313003   7.58027 -0.474673 255 255 255
 -0.533865    6.39857 -0.0222036 255 255 255
-3.72834  5.24269 0.154494 255 255 255
  1.11374   6.89741 -0.350958 255 255 255
-1.31163  8.00352 -1.14464 255 255 255
  1.65477   7.32388 -0.412262 255 255 255
-1.57857  8.22873 -1.31172 255 255 255
-1.89328  8.38951  -1.4959 255 255 255
 -1.22654   7.58102 -0.832002 255 255 255
-1.54602  8.41641  -1.3876 255 255 255
-1.22484  5.38761  0.23844 255 255 255
-2.99047  7.81319 -1.02773 255 255 255
-0.912277   5.60394  0.123828 255 255 255
 -3.75652   5.63826 -0.109087 255 255 255
   1.35849    6.63306 -0.0363586 255 255 255
-1.56848  8.55369 -1.44213 255 255 255
 -1.47674   6.44735 -0.200849 255 255 255
 -0.61682   7.56105 -0.637488 255 255 255
-1.97583  8.40157 -1.42335 255 255 255
0.354104  8.55256 -1.21201 255 255 255
-4.37042  5.19515  0.18002 255 255 255
 -3.29104   7.00966 -0.787447 255 255 255
-0.659212   8.38042 -0.941048 255 255 255
 -2.26313   8.12304 -0.934005 255 255 255
-1.46339  7.93801 -1.10732 255 255 255
 -2.84905   6.71238 -0.535089 255 255 255
 0.655946   6.98935 -0.529623 255 255 255
 -4.13454   7.80765 -0.941596 255 255 255
-1.56796  8.52699 -1.44324 255 255 255
-0.827317   7.91761  -1.05316 255 255 255
 -0.788274    5.73727 -0.0701916 255 255 255
 1.94549  6.59461 -0.15898 255 255 255
-0.272104   8.15795 -0.842208 255 255 255
0.628341  8.13529  -1.1408 255 255 255
-1.94997  8.39982 -1.42046 255 255 255
-0.746298   7.96389  -1.07578 255 255 255
 -3.47548   6.29413 -0.349669 255 255 255
0.291753  8.79913 -1.20757 255 255 255
-0.678408   7.76718 -0.895178 255 255 255
 0.790068   7.71334 -0.847121 255 255 255
0.273557  8.82792 -1.16074 255 255 255
-1.89645  5.85909  -0.2812 255 255 255
-0.748788   8.73299  -1.76693 255 255 255
  1.04803   7.10228 -0.446835 255 255 255
-1.97457  8.38214  -1.4032 255 255 255
 -3.08943   6.29778 -0.559931 255 255 255
-1.29175  8.00342 -1.14892 255 255 255
-0.263709    8.5054  -1.54889 255 255 255
-3.03964  7.69895 -1.10634 255 255 255
0.413605  8.91369 -1.37429 255 255 255
-3.49595  7.65558 -1.21258 255 255 255
-1.29415  7.97768 -1.14433 255 255 255
0.453539  8.32616 -1.08437 255 255 255
-0.921406   8.91053  -1.14088 255 255 255
-1.63102  7.83971 -1.11521 255 255 255
0.298356  8.94215 -1.29208 255 255 255
1.59763 6.11013 0.16714 255 255 255
-1.88035  8.51426 -1.47044 255 255 255
-1.95246   8.3596 -1.40711 255 255 255
-3.39973  5.01992  0.24386 255 255 255
 -3.13542   6.82694 -0.699689 255 255 255
 -1.93826   7.58395 -0.819229 255 255 255
 -3.37509   6.44698 -0.569962 255 255 255
 -3.40745   7.16599 -0.827652 255 255 255
 -3.51725   6.91504 -0.593929 255 255 255
 -3.27678   6.30132 -0.594347 255 255 255
 -2.67205    6.1634 -0.483128 255 255 255
-1.94847  8.45386 -1.44573 255 255 255
 -4.05381   5.73428 -0.242086 255 255 255
0.408633  8.38541 -1.08103 255 255 255
-1.43974  7.90089 -1.08729 255 255 255
  1.18112   7.88239 -0.714811 255 255 255
  1.78157   6.81142 -0.250542 255 255 255
0.476278  8.60263 -1.30466 255 255 255
-2.04467  7.94732 -1.19553 255 255 255
-0.327556   8.59281  -1.57279 255 255 255
 -2.41263   7.64166 -0.778301 255 255 255
 0.551561   7.43577 -0.604598 255 255 255
-1.29538  8.02208 -1.18226 255 255 255
-2.33154  7.81954 -1.04398 255 255 255
  1.78475   7.06045 -0.239777 255 255 255
0.0230912   5.83297  0.170252 255 255 255
  1.80034   6.82307 -0.202214 255 255 255
 -2.12862   6.92738 -0.779687 255 255 255
 -2.47889   7.32689 -0.928938 255 255 255
-2.80376  7.60065 -0.87929 255 255 255
 -3.78304   6.66105 -0.740041 255 255 255
0.584573  7.74131 -0.78471 255 255 255
-4.08746  5.21264 0.098094 255 255 255
-1.95014   8.3877  -1.3969 255 255 255
 0.26299  8.75106 -1.08311 255 255 255
-0.174055   6.91505 -0.160543 255 255 255
-2.96146  7.46873 -1.00778 255 255 255
 0.255199   8.52702 -0.988597 255 255 255
-2.91829  7.63491 -1.04839 255 255 255
0.150719  8.88704 -1.08167 255 255 255
 0.458165   7.55182 -0.491848 255 255 255
 -3.84289   7.33833 -0.855246 255 255 255
 1.92061  6.22924 0.104441 255 255 255
-2.79214  7.89314 -1.31227 255 255 255
-0.799445   8.35766 -0.923262 255 255 255
 -3.43006   7.02092 -0.885626 255 255 255
-0.437432   5.40714  0.345654 255 255 255
 -2.82142   6.99483 -0.631433 255 255 255
 -2.38907   6.07675 -0.530871 255 255 255
 -3.22719   6.31808 -0.628777 255 255 255
  1.81642   7.10953 -0.246213 255 255 255
-2.36109  7.86731  -1.0412 255 255 255
 -2.36374   7.73206 -0.730594 255 255 255
 -2.61279    7.5446 -0.911926 255 255 255
-0.807523   7.98262  -1.07952 255 255 255
-0.779748    7.8278  -0.98989 255 255 255
 -3.60325   6.05186 -0.433988 255 255 255
 -4.02757   7.89687 -0.984283 255 255 255
-0.693132   8.36918 -0.914682 255 255 255
 -1.19343   5.92226 -0.340343 255 255 255
 -2.91466    5.8481 -0.159949 255 255 255
 -2.33437   7.67769 -0.958143 255 255 255
-0.140162   8.07852 -0.799045 255 255 255
-2.00006  8.32945 -1.37572 255 255 255
 -2.53844   7.30872 -0.852236 255 255 255
-1.71378  5.34637 0.292969 255 255 255
 -0.658824    6.21316 -0.0454979 255 255 255
0.226947    8.851 -1.13858 255 255 255
-2.78503  7.89883 -1.36942 255 255 255
-3.96326  7.98325 -0.96865 255 255 255
0.0874959   9.07053  -1.18741 255 255 255
 -1.85189   6.29064 -0.345222 255 255 255
-1.07176  8.19743 -1.12686 255 255 255
 -3.00048   6.13527 -0.446622 255 255 255
-0.276872   8.62038  -1.60634 255 255 255
-3.93134  6.79066 -0.81991 255 255 255
-1.47665   8.4617 -1.39704 255 255 255
 -3.23107   6.35801 -0.595836 255 255 255
 -1.16517   7.70521 -0.919904 255 255 255
0.0281569   7.04803 -0.210867 255 255 255
-0.234589    7.5307 -0.471911 255 255 255
-3.59375  7.56221 -0.82912 255 255 255
 0.932457    8.3373 -0.962134 255 255 255
 -4.09621   6.87035 -0.928857 255 255 255
0.260402  8.50497  -1.0022 255 255 255
  -1.3591   7.03245 -0.752309 255 255 255
 -3.71027   7.65478 -0.942256 255 255 255
 0.484182   7.70366 -0.770872 255 255 255
  2.04066   6.71671 -0.154984 255 255 255
-0.955684   7.99083  -1.04095 255 255 255
-0.138601   7.87227 -0.673129 255 255 255
 0.617392   7.26516 -0.689988 255 255 255
0.516252  8.27571 -1.08744 255 255 255
0.456485  8.34651 -1.06127 255 255 255
-2.88979  5.09336 0.275773 255 255 255
1.79527 6.11102 0.18578 255 255 255
-0.514293   8.48659 -0.870694 255 255 255
 -0.63002   7.37746 -0.504041 255 255 255
 -1.20378   7.38424 -0.515346 255 255 255
 -4.13659   7.78082 -0.989636 255 255 255
 -3.44626   6.93506 -0.818026 255 255 255
 -2.86444   6.97654 -0.687485 255 255 255
 -2.01603   7.35188 -0.597766 255 255 255
 -2.01258   7.35454 -0.554049 255 255 255
  1.27838   7.72185 -0.679689 255 255 255
-0.781702   8.63231  -1.65832 255 255 255
-3.16776  7.88341 -1.25119 255 255 255
 -4.39718   6.02268 -0.294522 255 255 255
 -4.20723   5.44466 0.0765059 255 255 255
 0.631542   7.04593 -0.266629 255 255 255
-3.69028  7.43604 -0.77668 255 255 255
-1.55829  7.87219 -1.10733 255 255 255
 -1.44347   6.11734 -0.366581 255 255 255
-3.56914  5.01222 0.178789 255 255 255
 0.444452   7.86381 -0.763567 255 255 255
 -3.22827   6.96604 -0.726417 255 255 255
 -4.29783    6.5439 -0.334896 255 255 255
-0.748217   7.46891 -0.719708 255 255 255
 -1.69079   7.48707 -0.615963 255 255 255
 0.110218   8.27656 -0.897224 255 255 255
-2.43024  5.08721 0.304236 255 255 255
  0.13391   7.45069 -0.403268 255 255 255
-1.39811  7.10978 -0.59396 255 255 255
-0.866674   8.40472 -0.919348 255 255 255
-0.907424   7.36812 -0.696435 255 255 255
  -1.1616   7.68799 -0.917217 255 255 255
-2.93634  6.60959 -0.63173 255 255 255
0.0915324   6.92811 -0.181998 255 255 255
-1.10315  8.42632 -1.09325 255 255 255
-1.41938   7.1699 -0.56281 255 255 255
  -2.5256   7.52788 -0.938253 255 255 255
 -3.71644   6.56999 -0.680619 255 255 255
 -1.07646   8.15541 -0.782734 255 255 255
-3.89897  6.99155 -1.08991 255 255 255
 0.198524   7.53771 -0.457638 255 255 255
 -1.26973   6.11507 -0.429391 255 255 255
-1.8959 5.38994 0.19448 255 255 255
-1.05674  8.29072 -1.12923 255 255 255
-0.985181   8.31453  -1.09705 255 255 255
-3.04818  7.78994 -1.08112 255 255 255
  1.42531   7.64865 -0.562625 255 255 255
-1.83844  8.52695 -1.46918 255 255 255
-1.90767  7.93623  -1.1463 255 255 255
 -2.53537   7.06888 -0.794382 255 255 255
 -1.88482   6.13067 -0.431286 255 255 255
-2.9619 5.09977 0.26206 255 255 255
-0.736224   8.56433  -1.61936 255 255 255
0.448151  8.64945 -1.31736 255 255 255
-2.05422  7.89607 -1.14296 255 255 255
  -2.0543    5.5112 0.0760551 255 255 255
 -4.01163   6.76212 -0.806315 255 255 255
-0.890844   7.87072 -0.936161 255 255 255
 -2.2582  7.87484 -1.01378 255 255 255
-3.68608  5.29177 0.149399 255 255 255
 -1.86631   6.56167 -0.323077 255 255 255
-1.87769   7.9404 -1.20769 255 255 255
-3.46642  6.56778 -0.59447 255 255 255
 -3.88301   7.37893 -0.738478 255 255 255
-3.62552  6.96359 -0.94462 255 255 255
-1.76857  7.86099 -1.08274 255 255 255
-0.946166   8.14634  -1.09855 255 255 255
0.257437  8.81214 -1.16353 255 255 255
 -3.77833   7.52359 -0.877346 255 255 255
 -3.14045   5.97459 -0.278526 255 255 255
 -4.16553   5.89761 -0.355264 255 255 255
-3.07602  7.59637 -1.09631 255 255 255
 -1.9754   5.1896 0.362029 255 255 255
 -3.11471   6.38746 -0.589587 255 255 255
0.641615  8.43891 -1.24288 255 255 255
-4.23031  5.17066 0.183425 255 255 255
  -2.5467   7.46062 -0.925873 255 255 255
  -1.046  7.67011 -0.95371 255 255 255
 -1.04583   7.67251 -0.950873 255 255 255
 0.451041    8.0415 -0.922723 255 255 255
-0.965358   7.87702 -0.977321 255 255 255
-3.88449  5.21327 0.182413 255 255 255
0.506844  7.54502 -0.60889 255 255 255
0.409458  8.30395 -1.06968 255 255 255
0.0841957   7.52281 -0.509293 255 255 255
 0.542044   6.90599 -0.158478 255 255 255
 -3.66587   5.92246 -0.316303 255 255 255
-1.24974   8.0911 -1.16779 255 255 255
  -2.15645    5.54511 -0.0921552 255 255 255
  1.76648   6.81681 -0.219287 255 255 255
-0.283654   7.68682 -0.581033 255 255 255
 -3.01734    6.3046 -0.461422 255 255 255
 -4.01435   5.70003 -0.261351 255 255 255
   -3.558   5.39009 0.0903937 255 255 255
-2.16484  8.36146 -1.45864 255 255 255
 -3.41423   7.05185 -0.847824 255 255 255
-3.17854  7.78414 -1.12134 255 255 255
 -2.01471   6.02663 -0.445633 255 255 255
 -2.99328   5.54986 0.0961712 255 255 255
-2.31851   7.7695 -1.03466 255 255 255
-2.81165  7.92212 -1.35419 255 255 255
  -1.5549   6.14459 -0.395672 255 255 255
 -3.61755   6.79128 -0.779292 255 255 255
 -2.57602   7.61311 -0.749596 255 255 255
-0.877541   8.46816  -1.14369 255 255 255
-4.28695  5.43122 0.128284 255 255 255
  1.40587   7.40605 -0.492782 255 255 255
-0.662682   8.38113 -0.908603 255 255 255
 -1.87161   6.27418 -0.349498 255 255 255
-2.94017  7.65963 -1.00496 255 255 255
 -3.60965   7.00574 -0.920417 255 255 255
 -2.07133    5.7616 -0.272019 255 255 255
-1.96661  5.06798 0.371698 255 255 255
0.0449301   8.33375 -0.914166 255 255 255
-2.52746  5.36234 0.202818 255 255 255
 -3.0964  7.35167 -0.74539 255 255 255
 -1.24502   7.75155 -0.920427 255 255 255
 -2.40709   7.19088 -0.824305 255 255 255
-1.54108  8.23488 -1.29192 255 255 255
-1.8985 7.03027   -0.44 255 255 255
   -2.095   7.03052 -0.757915 255 255 255
  -3.4468   6.18551 -0.350395 255 255 255
 -2.79044    7.7293 -0.811057 255 255 255
-1.93589  7.93317 -1.17499 255 255 255
-0.531496   8.25873 -0.883924 255 255 255
 -3.96146    5.9839 -0.343727 255 255 255
  -1.6754   6.81968 -0.380777 255 255 255
 -1.12124   6.16397 -0.413626 255 255 255
  0.2716  9.16658 -1.34726 255 255 255
 -1.07774   5.79276 -0.171482 255 255 255
-2.65681  6.18752  -0.5289 255 255 255
-2.70964  7.70146 -0.79135 255 255 255
 -1.55338   7.38316 -0.661709 255 255 255
-3.84179  6.02414 -0.28737 255 255 255
  1.55176   6.80161 -0.201744 255 255 255
0.568004  7.75802 -0.79163 255 255 255
0.309742  8.85506 -1.29853 255 255 255
 0.306629   7.10653 -0.271722 255 255 255
 -1.02059    8.5721 -0.984341 255 255 255
  -3.3787   5.77703 -0.318968 255 255 255
 -2.37533   6.19797 -0.488411 255 255 255
-3.82186  5.36509 0.182258 255 255 255
-3.54619  7.98929 -1.38321 255 255 255
 0.637746   7.48777 -0.775641 255 255 255
0.458773  8.66126 -1.31964 255 255 255
   0.606582     6.13686 0.000495124 255 255 255
-3.90172  5.28489 0.183058 255 255 255
-0.541255   7.18586 -0.385404 255 255 255
-2.17136  7.94067 -1.23641 255 255 255
 -3.78209   7.61856 -0.888521 255 255 255
  1.95661   6.25641 0.0709372 255 255 255
 -1.26157   7.62288 -0.881768 255 255 255
 -2.26056   8.06309 -0.923124 255 255 255
 -3.30859   5.35206 0.0760352 255 255 255
0.517337  8.43741 -1.18586 255 255 255
 -3.59496   6.46779 -0.606595 255 255 255
 0.104131   8.22162 -0.863989 255 255 255
-4.02366  5.02418 0.140165 255 255 255
  -2.74946     5.8022 -0.0525633 255 255 255
-0.54149  7.98317 -1.01091 255 255 255
-3.12507  7.43345 -1.03369 255 255 255
-3.54326   5.1418 0.141084 255 255 255
-0.133243   8.51077   -1.4804 255 255 255
 -3.00825   6.53517 -0.682611 255 255 255
-1.13126  8.20631 -1.03153 255 255 255
-0.308325    7.1312 -0.264951 255 255 255
 -1.0778  8.41205 -1.10825 255 255 255
-0.682831   8.60728 -0.954522 255 255 255
-0.217611   7.51784 -0.476038 255 255 255
-0.99645  8.08666 -1.03287 255 255 255
0.0136651   8.29329 -0.899008 255 255 255
 0.038691   6.77961 -0.071744 255 255 255
 -3.71925   7.03513 -0.985517 255 255 255
 -2.10108   7.39006 -0.629015 255 255 255
-0.304595   6.93247 -0.158873 255 255 255
  -0.7247   7.71417 -0.837126 255 255 255
 -2.79891   5.91249 0.0333408 255 255 255
   1.47644    6.51999 -0.0618019 255 255 255
 -4.01251   7.63415 -0.942972 255 255 255
-0.628483    8.6171 -0.947656 255 255 255
   -4.24649     5.44806 -0.00139704 255 255 255
 -2.82482   7.27338 -0.817856 255 255 255
    1.826   6.97397 -0.208844 255 255 255
0.362746  6.84663 -0.10549 255 255 255
-1.47256  6.52977 -0.20564 255 255 255
-1.95013  7.93926 -1.17202 255 255 255
-4.05528  4.67005 0.429265 255 255 255
 0.119722   8.33549 -0.919225 255 255 255
 -1.86845   7.55924 -0.919214 255 255 255
-2.30303  5.08154 0.361914 255 255 255
 -2.05284   6.55154 -0.228145 255 255 255
 -3.85896   5.98889 -0.341288 255 255 255
 1.96264  6.61444 -0.14043 255 255 255
    1.47507     6.39739 -0.00122294 255 255 255
 -3.40674   6.96865 -0.806235 255 255 255
  0.40366   8.09127 -0.778618 255 255 255
 -2.64824   7.05314 -0.589285 255 255 255
 -1.40599   7.70976 -0.959217 255 255 255
 -1.34099    6.3537 -0.345899 255 255 255
-1.62704  8.21809  -1.3082 255 255 255
  -2.71667     5.5795 -0.0488907 255 255 255
 0.297614   8.34135 -0.937375 255 255 255
 0.312173   7.55443 -0.465252 255 255 255
-0.650886   8.38648 -0.963843 255 255 255
 -0.45672   7.73647 -0.650664 255 255 255
 0.203773   7.46834 -0.392468 255 255 255
-1.61975  6.12922  -0.3712 255 255 255
 -3.16622   6.14179 -0.491301 255 255 255
0.436218  8.46074 -1.11223 255 255 255
-0.0297087    7.18379  -0.274721 255 255 255
-1.82918  6.38661 -0.15391 255 255 255
-1.75748  7.84849  -1.0895 255 255 255
 1.17768 0.891142  2.25323 255 255 255
0.398672 0.439547  2.31269 255 255 255
 -1.4817 -1.61083  3.27915 255 255 255
-0.941737  -1.76623   3.56044 255 255 255
-0.563009  0.487821   2.49588 255 255 255
-0.661267 -0.614641   2.56032 255 255 255
 1.0212 1.05192 2.12579 255 255 255
 1.25701 0.084052  2.70432 255 255 255
2.11462   1.224 2.60177 255 255 255
-1.37178 -1.57976  3.37527 255 255 255
 3.51299 -0.25184  3.67591 255 255 255
 1.19425 0.164163   2.7498 255 255 255
 -1.4158 -2.19406   3.8652 255 255 255
0.934691  1.17035  2.03198 255 255 255
 1.03595 0.961236   2.4855 255 255 255
1.07565 0.11658 2.69709 255 255 255
1.98622 1.61937 2.39783 255 255 255
-1.28924 -1.33258    3.205 255 255 255
 -1.22185 -0.411598   2.72812 255 255 255
 -1.50729 -0.426944   2.71808 255 255 255
