ply
format ascii 1.0
element vertex 1161
property float x
property float y
property float z
property uchar red
property uchar green
property uchar blue
end_header
 1.63981 0.206087  3.41278 255 255 255
 -1.05279 -0.226959   3.03152 255 255 255
 -1.01162 -0.454567    3.1793 255 255 255
 1.83985 0.632797  3.11292 255 255 255
 0.857342 0.0314475   3.11651 255 255 255
 0.213507 -0.768504   2.84165 255 255 255
   3.0101 -0.550585   4.83318 255 255 255
-0.626575  -1.38579    4.0017 255 255 255
  3.01072 -0.327169   4.65532 255 255 255
0.76768 0.26527 2.60379 255 255 255
-1.14553  0.14099  2.82738 255 255 255
0.815748    0.631  2.36559 255 255 255
-0.212052 -0.842711   2.87905 255 255 255
 -1.36547 -0.459559   3.21296 255 255 255
 1.74231 0.211032  3.30667 255 255 255
 0.913053 0.0360622   3.17202 255 255 255
-0.656568 -0.138421   2.74209 255 255 255
0.788515 0.121457  2.76567 255 255 255
 0.427291 -0.495249    2.7449 255 255 255
 2.05651 0.128459  3.52543 255 255 255
-0.765707  -1.23217   3.81958 255 255 255
 -1.32158 -0.500374   3.21345 255 255 255
  2.36441 -0.855807   4.59106 255 255 255
-0.248963 -0.831141   2.89184 255 255 255
  2.00257 -0.784927   4.38397 255 255 255
  2.92289 -0.578504   4.80266 255 255 255
-0.317481 -0.792064   2.84303 255 255 255
 1.02202 0.582653  2.42966 255 255 255
  1.39889 -0.160138   3.48722 255 255 255
 1.03125 0.776276  2.21402 255 255 255
 0.282602 0.0479632   2.96786 255 255 255
  2.07635 0.0155609   3.61894 255 255 255
-0.141857 -0.403529   2.46581 255 255 255
-0.813032  -1.37927   3.95155 255 255 255
0.621131 0.245534  2.86624 255 255 255
 0.244982 0.0650721   2.96787 255 255 255
0.784595  0.59121  2.38536 255 255 255
-0.240274  -0.87874   2.94457 255 255 255
-0.616927  0.276738   2.35575 255 255 255
-0.0473714  -0.457647     2.4893 255 255 255
      2.28 -0.0326116    3.82826 255 255 255
0.682548 0.289722  2.53576 255 255 255
 0.645559 -0.390511      3.43 255 255 255
  1.42066 -0.363978   3.72654 255 255 255
-0.827122  -1.19535   3.76558 255 255 255
 2.20594 0.363467  3.47949 255 255 255
 1.48922 0.509728  3.05981 255 255 255
    -1.27 -0.368733   3.12838 255 255 255
 -1.25354 -0.394462   3.05469 255 255 255
  1.1322 0.523886  2.49492 255 255 255
 1.79809 0.419851  3.24849 255 255 255
-0.993237 -0.650349   3.33767 255 255 255
-0.905063  -1.19467   3.79721 255 255 255
 1.47715 0.330515  3.09069 255 255 255
 1.79167 0.733484  3.10621 255 255 255
0.603709 0.260575  2.81149 255 255 255
-0.846726  -1.21316   3.72435 255 255 255
-1.02312  0.22768  2.75567 255 255 255
-0.133936 -0.925944   2.95311 255 255 255
-0.622311  -1.13591   3.79342 255 255 255
0.672344 0.290568  2.80181 255 255 255
  1.3733 0.444698  2.50061 255 255 255
-0.456825 -0.455038   2.51941 255 255 255
    1.742 -0.266629   3.78428 255 255 255
  1.69543 -0.481976   3.96878 255 255 255
 0.607194 -0.177235   2.80817 255 255 255
 1.01114 0.685005  2.26173 255 255 255
  1.9611 0.121139  3.54546 255 255 255
  0.476532 -0.0139883    3.12526 255 255 255
 1.13349 0.250673   2.7568 255 255 255
0.0200423 -0.379149   2.48862 255 255 255
   1.20078 -0.0986336    3.33465 255 255 255
  1.87432 -0.921726   4.40143 255 255 255
 1.28188 0.088949  3.27868 255 255 255
  1.28192 0.0886461   3.27844 255 255 255
  1.37578 -0.484834   3.78941 255 255 255
1.05666 0.72801 2.24252 255 255 255
-0.89995 0.188633  2.82223 255 255 255
 1.22765 0.487465  2.58738 255 255 255
  1.75706 -0.740199   4.09179 255 255 255
0.431648 0.648515  2.14078 255 255 255
-0.43007 0.102286  2.51242 255 255 255
   2.0245 -0.556214   4.17211 255 255 255
-1.08211 -1.07289  3.68331 255 255 255
-1.07527 -1.39748  3.90132 255 255 255
  1.08895 0.0108695   3.29367 255 255 255
-0.818809  0.286648   2.71889 255 255 255
   1.896 0.584384  3.08626 255 255 255
  1.6317 0.140309  3.34247 255 255 255
  1.33616 -0.613409   3.82343 255 255 255
-0.890751 -0.701646   3.19919 255 255 255
-0.459522 -0.436507   2.48934 255 255 255
 1.19676 0.884394  2.31015 255 255 255
-0.823265 -0.961073   3.59727 255 255 255
 -0.77669 -0.948797   3.66208 255 255 255
 0.181638 -0.472195   2.47987 255 255 255
-0.781784  -1.68922    4.2975 255 255 255
 0.225555 0.0791194   3.04756 255 255 255
 1.59307 0.477392  3.09197 255 255 255
0.951986 0.792173  2.28255 255 255 255
  1.16367 -0.205727   3.44029 255 255 255
0.734153 0.314801  2.84061 255 255 255
  1.16467 -0.997906   4.15216 255 255 255
 2.24633 0.273687  3.54163 255 255 255
-0.0174893  -0.737705    2.73963 255 255 255
 0.226965 -0.726405   2.74475 255 255 255
  1.78066 -0.162867   3.68843 255 255 255
 1.06276 0.473863  2.54189 255 255 255
 -1.30306 -0.709877   3.49817 255 255 255
-0.643438  0.338113   2.49893 255 255 255
   0.65007 0.00417542    3.14715 255 255 255
-0.861833 -0.961559   3.66047 255 255 255
0.932818 0.159127  2.82904 255 255 255
0.475769 -1.07569  3.99544 255 255 255
0.975375 0.768678  2.30066 255 255 255
  1.39727 -0.992695   4.14495 255 255 255
0.123381 -1.01971  3.14175 255 255 255
  1.94237 -0.100488   3.68089 255 255 255
 -0.342219 -0.0328528     2.7262 255 255 255
0.996007 0.738927  2.33701 255 255 255
   1.1897 -0.188073   3.41517 255 255 255
0.507169 -1.06121  3.95961 255 255 255
  2.64667 -0.355059    4.3359 255 255 255
  0.384547 -0.0214096    3.06377 255 255 255
   1.47627 -0.0469772    3.40575 255 255 255
-0.646142  -1.12474   3.79794 255 255 255
-0.765704   -1.3063   3.88564 255 255 255
  2.08204 0.0392686     3.574 255 255 255
-0.890164  0.286877   2.72896 255 255 255
  2.35875 -0.761154   4.53217 255 255 255
   1.59218 -0.0276313    3.54404 255 255 255
  2.88171 -0.302926   4.52126 255 255 255
-1.05373 -1.21614  3.83839 255 255 255
-0.741049  -1.33087   3.88175 255 255 255
 1.29053 0.136423  2.76483 255 255 255
  1.80613 -0.262332   3.79543 255 255 255
 1.91807 -0.35345  3.95985 255 255 255
  1.21278 -0.740228   4.02005 255 255 255
  0.31306 -0.606345    2.6249 255 255 255
0.0851625  0.145582   2.93613 255 255 255
 2.23796 0.221706  3.61479 255 255 255
  1.28349 -0.187488   3.40225 255 255 255
  2.67587 -0.471799   4.44375 255 255 255
-0.580233 -0.222679   2.76399 255 255 255
 0.838721 -0.153807   3.24469 255 255 255
1.97861 0.57946 3.22541 255 255 255
0.739455 0.429749   2.4752 255 255 255
0.738236 0.428223  2.46818 255 255 255
 1.55622 0.855597  2.67538 255 255 255
 -0.31044 -0.820485   2.88936 255 255 255
 0.512534 0.0290726   3.08274 255 255 255
 0.181802 -0.285351   2.62229 255 255 255
0.994254 0.738457   2.2432 255 255 255
  0.29466 -0.928523   3.07874 255 255 255
-0.48468 0.273563  2.57626 255 255 255
  1.2785 0.337918  2.92328 255 255 255
-0.874421  -1.67635   4.29877 255 255 255
2.51503 -0.1482 4.08618 255 255 255
-0.00536367  -0.0701956     2.57072 255 255 255
  0.320779 -0.0117625    2.79347 255 255 255
 1.76345 0.352916  3.26325 255 255 255
0.429411 0.658301  2.20729 255 255 255
  1.47246 -0.554338   3.91286 255 255 255
 1.17757 0.846454   2.2628 255 255 255
0.562915 -1.03879  3.97491 255 255 255
 -1.17921 -0.222945   2.96894 255 255 255
0.432531 0.464597  2.39187 255 255 255
0.545357 -1.14994  4.11082 255 255 255
 -0.17496 -0.510521    2.5834 255 255 255
  2.0322 0.153989   3.4171 255 255 255
0.979043 0.792593  2.32916 255 255 255
 1.25755 0.460175  2.61841 255 255 255
  1.89147 -0.351974   3.96278 255 255 255
-0.393627 -0.579621   2.58778 255 255 255
 0.128397 -0.991561   3.08372 255 255 255
 -1.25196 0.0820001   3.01627 255 255 255
 1.33577 0.343193  2.99506 255 255 255
 -1.0814 0.169231  2.84383 255 255 255
 -1.33454 0.0959926   2.96819 255 255 255
  2.1349 0.146579  3.60404 255 255 255
-1.12971 0.208097  2.81176 255 255 255
 1.88879 0.527149  3.19625 255 255 255
-0.237201  -0.72212   2.80582 255 255 255
0.568801 0.244047  2.90481 255 255 255
 -1.32989 -0.253937   3.04506 255 255 255
-1.17127 0.210246  2.80732 255 255 255
-0.310494 -0.375487   2.60786 255 255 255
   2.4152 -0.197142   4.06671 255 255 255
 1.00376 0.759639  2.26233 255 255 255
  1.94676 0.0101819   3.55601 255 255 255
  1.02283 -0.145168   3.24963 255 255 255
 -1.0356 -1.08337  3.70831 255 255 255
  2.48782 -0.103502   4.04967 255 255 255
 1.41558 -0.10773  3.45259 255 255 255
-1.07538 0.277233  2.82044 255 255 255
-1.02339 0.143637  2.87609 255 255 255
 -1.23874 -0.478357   3.14151 255 255 255
 -1.0318 -1.13482  3.71799 255 255 255
 -0.93198 -0.938176   3.65188 255 255 255
  1.87638 -0.133111   3.72944 255 255 255
 1.01172 0.775147  2.27132 255 255 255
 0.374135 -0.752819   2.86553 255 255 255
-1.00894 -1.12071  3.70474 255 255 255
0.630306   -0.857   2.9181 255 255 255
 1.23365 0.769386  2.32414 255 255 255
-0.875695 -0.882616   3.50339 255 255 255
-0.497809 -0.566154   2.59522 255 255 255
 1.13973 0.671579  2.31555 255 255 255
 0.375057 0.0548403    2.3047 255 255 255
 -1.35071 -0.581579   3.32175 255 255 255
  1.95565 -0.139052   3.67846 255 255 255
0.712467 0.133421  2.90065 255 255 255
 -0.93583 -0.709728   3.26214 255 255 255
 -1.05452 0.0290617   2.97894 255 255 255
-0.0208855    -0.6955    2.66177 255 255 255
-0.084698 -0.705637   2.58396 255 255 255
-0.86621 0.289397  2.72599 255 255 255
1.84532 0.49552 3.22915 255 255 255
 0.577483 -0.159318   2.76307 255 255 255
0.297098 -0.60285  2.57778 255 255 255
 -1.37436 -0.332152   3.08836 255 255 255
 1.84177 0.765704  3.11451 255 255 255
-0.480174  0.197266   2.34358 255 255 255
-0.0214373  -0.190066    2.53769 255 255 255
-0.951808  -1.48061   4.01894 255 255 255
-0.979573  -1.51412   4.14048 255 255 255
 -1.27761 0.0817956   2.90552 255 255 255
1.77451 0.74523 3.08059 255 255 255
 -1.21531 -0.149668   2.94502 255 255 255
 1.26917 0.797726  2.34763 255 255 255
 1.54041 0.830796  2.90952 255 255 255
0.0268176 -0.582201   2.61999 255 255 255
 -1.31604 -0.732794   3.49914 255 255 255
-0.715565 -0.846473   3.42474 255 255 255
 -1.35774 -0.703796   3.42232 255 255 255
-0.715105  -1.08567    3.7313 255 255 255
   1.37877 -0.0938076    3.45414 255 255 255
-0.510386   0.22151   2.21626 255 255 255
 1.31509 0.899965  2.36678 255 255 255
1.61683  -0.333 3.82045 255 255 255
-0.900541  -1.06417   3.68681 255 255 255
 -1.19497 -0.300191   3.03319 255 255 255
 1.87489 0.601565  3.18889 255 255 255
  2.93645 -0.359929   4.63452 255 255 255
-0.214103 -0.607898   2.64797 255 255 255
  1.8668 0.476023  3.20415 255 255 255
0.390246 0.495708  2.62574 255 255 255
-0.139542 -0.305657   2.34058 255 255 255
 0.993489 -0.191521   3.36437 255 255 255
-0.771345 -0.790839   3.30903 255 255 255
   3.2494 -0.616902   4.96984 255 255 255
 -1.17675 -0.254575   2.98097 255 255 255
   1.46146 -0.0273096    3.42176 255 255 255
 -1.17536 -0.301276   3.04562 255 255 255
 1.21697 0.888238  2.34082 255 255 255
 1.72714 0.775867  3.03984 255 255 255
0.0325588 -0.174436   2.68723 255 255 255
  1.98429 -0.265672   3.89713 255 255 255
-0.575729  -1.03176   3.70559 255 255 255
  1.61022 0.0954433   3.33518 255 255 255
 1.82405 0.640959  3.14357 255 255 255
 2.05209 0.356334   3.3864 255 255 255
-0.846983 -0.481909   3.13184 255 255 255
  1.00029 -0.344189   3.54531 255 255 255
0.134742 -1.04225  3.14291 255 255 255
  -1.19601 -0.0159944    3.11269 255 255 255
  0.92873 -0.639368   3.18109 255 255 255
 0.943545 -0.653632   3.26296 255 255 255
 -1.05009 -0.322381   2.97341 255 255 255
-1.10947 0.149556  2.89267 255 255 255
  3.08239 -0.587938   4.89541 255 255 255
 -0.331306 -0.0655419    2.63389 255 255 255
 0.146118 -0.268649   2.60595 255 255 255
 -1.32858 0.0438024   3.08348 255 255 255
-0.124081 -0.573531   2.60882 255 255 255
  2.79714 -0.396406   4.55749 255 255 255
-0.623321  -1.57695   4.28181 255 255 255
  1.58144 -0.704242   4.09315 255 255 255
 -1.13119 -0.121515    3.0634 255 255 255
 1.86697 0.501202  3.17309 255 255 255
  1.32457 -0.935838    4.1859 255 255 255
-0.0215114  -0.550102    2.61325 255 255 255
0.0931193 -0.637352   2.67212 255 255 255
0.796688 0.072993  2.82077 255 255 255
 1.59658 0.854292   2.9325 255 255 255
  1.87865 -0.497107   4.05849 255 255 255
 1.89404 0.584611  3.14072 255 255 255
  0.53362 0.0368727   3.13063 255 255 255
0.0283203 -0.511434   2.52534 255 255 255
 0.228491 -0.958734   2.97845 255 255 255
  1.97327 -0.212951    3.8715 255 255 255
0.764678 0.130653  2.77799 255 255 255
  0.22094 -0.585945   2.65258 255 255 255
  2.88198 -0.304202   4.52254 255 255 255
0.114049 0.165878  2.21116 255 255 255
 -1.23894 -0.670827   3.41401 255 255 255
 -1.13244 -0.196919   3.04711 255 255 255
0.653526 0.233135  3.04556 255 255 255
-0.733355  -1.21218   3.78945 255 255 255
-0.0665805  -0.674101     2.5896 255 255 255
1.35551 0.91547 2.36264 255 255 255
-1.02844 -1.10834  3.68814 255 255 255
0.47263  -1.268 4.21425 255 255 255
0.0105793 -0.622671   2.67392 255 255 255
  -1.1169 -0.381199   3.10547 255 255 255
 -0.171832 -0.0874413    2.57682 255 255 255
 0.484498 -0.127562   3.04043 255 255 255
-0.894238  -1.10941   3.71928 255 255 255
  -1.06491 -0.0796683    3.02706 255 255 255
-0.864883 -0.940155   3.64186 255 255 255
-0.422659  0.241856    2.4025 255 255 255
 -1.12992 -0.295642   3.01817 255 255 255
0.424947 -0.35765  2.92369 255 255 255
 1.32062 0.137694  2.78606 255 255 255
 1.07737 0.464353  2.57807 255 255 255
 1.04503 0.175634  2.75164 255 255 255
-0.952653 -0.716589   3.27417 255 255 255
-0.556184  -1.49582   4.20501 255 255 255
   2.30381 -0.0563035    3.87396 255 255 255
-0.702617  -1.02527   3.72636 255 255 255
   1.3217 -0.133656   3.46024 255 255 255
  2.29616 -0.250207    4.0281 255 255 255
-0.149101 -0.168287   2.43175 255 255 255
-0.480571  0.239311   2.49169 255 255 255
 -1.29184 0.0464304   2.98288 255 255 255
  1.40008 -0.581147   3.89382 255 255 255
 -0.43918 -0.457697   2.50202 255 255 255
0.975677 0.893531  2.62194 255 255 255
 1.06563 0.808851  2.26339 255 255 255
-0.82255 -1.48106  4.05575 255 255 255
-0.335538  -0.52336    2.5923 255 255 255
0.199773 0.278001  2.25473 255 255 255
-0.434253 -0.529575    2.5488 255 255 255
-0.767426  -1.06386   3.68749 255 255 255
 1.03249 0.127638   3.0509 255 255 255
0.730932 0.492063  2.35447 255 255 255
  1.93843 -0.464358   4.06214 255 255 255
 -1.21378 -0.563583   3.30141 255 255 255
0.946146 0.900545  2.57592 255 255 255
 1.71659 0.247432  3.28829 255 255 255
-0.916229  0.276475   2.74401 255 255 255
 1.63938 0.226008  3.34164 255 255 255
-0.518359 -0.556622   2.59653 255 255 255
-0.551604  0.249185   2.35403 255 255 255
 -1.31846 -0.114185   2.98412 255 255 255
 0.153343 -0.598803   2.64883 255 255 255
   1.15051 -0.0902153    3.32365 255 255 255
 0.232063 -0.568537   2.63701 255 255 255
 -1.03563 -0.483423   3.11278 255 255 255
 0.158889 -0.553531   2.59957 255 255 255
-0.260598 -0.794938   2.91483 255 255 255
1.83911 0.46321 3.25491 255 255 255
 0.96935 0.363684  2.52779 255 255 255
 -1.0881 0.162985  2.87481 255 255 255
-0.109289 -0.921134   3.06685 255 255 255
  1.86292 -0.212411   3.81942 255 255 255
 1.85548 0.445006  3.21571 255 255 255
-0.942256 -0.506582   3.15413 255 255 255
-0.841092  -1.13802   3.69393 255 255 255
-1.04499  -1.1424  3.67164 255 255 255
 0.872541 -0.178178   3.28485 255 255 255
0.00829207  -0.385887    2.41489 255 255 255
 0.260829 -0.844773   2.91622 255 255 255
0.355673 0.139437   2.2393 255 255 255
    1.2872 -0.0196433    3.36739 255 255 255
  0.57139 0.0322697   3.15158 255 255 255
 0.100897 -0.860301   2.91438 255 255 255
-0.965371 0.0545696   2.92806 255 255 255
 0.729549 -0.239597   2.92888 255 255 255
-0.032617 -0.636444   2.66356 255 255 255
  2.99488 -0.428644   4.71673 255 255 255
  1.30213 -0.244261   3.56013 255 255 255
-0.534365  -1.40637   4.09995 255 255 255
0.969903 0.748641  2.29824 255 255 255
 -1.3041 -0.57242  3.28123 255 255 255
 0.938055 -0.599228   3.34595 255 255 255
-0.854934   0.12963   2.81881 255 255 255
  -1.3561 -0.814867   3.58088 255 255 255
   1.251 0.484242  2.61957 255 255 255
-0.957349  -1.65247   4.26056 255 255 255
 -1.27614 -0.133635   2.94108 255 255 255
-0.587857   0.24354   2.30786 255 255 255
0.787651  0.26224  2.61001 255 255 255
  1.64465 -0.363693   3.85651 255 255 255
 1.64682 0.189826   3.2307 255 255 255
 1.23653 0.732516   2.3326 255 255 255
    -1.2938 -0.00251763     3.09542 255 255 255
-1.13979 0.192213  2.77812 255 255 255
 0.961631 -0.517579   3.79823 255 255 255
-0.906845   0.20794   2.75747 255 255 255
   2.6088 -0.332343   4.27608 255 255 255
0.107504  -1.0976  3.18487 255 255 255
 0.0265583 -0.0429205    2.64181 255 255 255
0.992708 0.348899  2.53696 255 255 255
  2.03876 0.0450181    3.5923 255 255 255
-0.855205  -1.33875   3.85319 255 255 255
  -1.2738 0.0576933   2.92143 255 255 255
  0.779566 -0.0667252    3.22696 255 255 255
 1.76353 0.228399  3.40253 255 255 255
2.17048  0.1777 3.56482 255 255 255
 -1.31532 -0.169141   2.95904 255 255 255
 1.80945 -0.50958   4.0453 255 255 255
-0.573818  0.236427   2.30289 255 255 255
  0.943133 -0.0378204    3.23466 255 255 255
  1.79874 -0.649574    3.9771 255 255 255
0.469214 0.289388  2.24633 255 255 255
-0.837676  0.315899   2.60694 255 255 255
 1.05613 0.574033  2.46724 255 255 255
-0.895796  -1.54977    4.1802 255 255 255
0.991216 0.871013  2.63336 255 255 255
-0.185424 -0.501933   2.58137 255 255 255
 -1.34866 -0.689019   3.40991 255 255 255
 -1.07811 0.0744549   2.95424 255 255 255
  1.60691 -0.423807   3.86321 255 255 255
-1.22938 0.195055   2.8459 255 255 255
-0.823153 -0.434065   3.08204 255 255 255
-0.0631737  -0.813037    2.90968 255 255 255
-0.851902  -1.04262    3.6627 255 255 255
    1.467 -0.133162   3.50676 255 255 255
 0.61674 0.315948  2.52002 255 255 255
-1.00109  -1.1896  3.78435 255 255 255
  1.81319 -0.218636    3.7579 255 255 255
  1.42284 -0.868869   4.22959 255 255 255
1.30645 0.86721 2.34386 255 255 255
 1.02212 0.718082  2.25231 255 255 255
 1.87538 0.326061  3.29249 255 255 255
0.821428 -1.22281  4.22703 255 255 255
 1.84301 0.739014  3.11617 255 255 255
-0.144805 0.0097688   2.51594 255 255 255
-1.10098 0.140045  2.93975 255 255 255
  1.0006 0.594669  2.42038 255 255 255
 0.417192 -0.049973   3.00944 255 255 255
  1.18167 -0.724754    3.9858 255 255 255
1.00814 0.72009 2.25603 255 255 255
 1.54609 -1.01922  4.34873 255 255 255
 1.71732 0.407688  3.22089 255 255 255
  1.28281 -0.481944   3.78374 255 255 255
   1.2131 -0.115683   3.34135 255 255 255
-0.55748 0.228496  2.34975 255 255 255
0.971894 0.627763  2.42565 255 255 255
-1.10844 -0.14329  3.06123 255 255 255
-0.274159 -0.779594    2.8709 255 255 255
0.779682 0.471175  2.39536 255 255 255
  2.99424 -0.360782   4.63309 255 255 255
-0.337909 -0.767506   2.88658 255 255 255
-1.15955 0.050747  3.01374 255 255 255
 0.164867 -0.703606   2.78535 255 255 255
-0.445071 -0.684968   2.77776 255 255 255
 0.639992 -0.876612   2.95431 255 255 255
 0.992953 -0.561041   3.58587 255 255 255
0.433999 -1.29416  4.24024 255 255 255
 0.107002 -0.973978   3.03929 255 255 255
-0.887082  -1.52135    4.0702 255 255 255
 2.14674 0.287177  3.43202 255 255 255
 -0.9877 0.159534  2.83759 255 255 255
-0.647253 -0.121924   2.73688 255 255 255
 1.87458 0.567722  3.13746 255 255 255
  0.8777 0.429356  2.48406 255 255 255
   1.47271 -0.0410156     3.4598 255 255 255
-0.344594  -1.37904   4.06905 255 255 255
-1.06135 0.172989  2.87281 255 255 255
-0.643384  -1.22971   3.86745 255 255 255
-0.00908395   -0.672487     2.63244 255 255 255
-0.615852  -1.27998   3.94399 255 255 255
 1.06123 0.447469  2.56437 255 255 255
0.188176 -1.01323  3.15243 255 255 255
 1.31657 0.394069  2.97184 255 255 255
 1.03204 0.731842  2.43099 255 255 255
  0.264932 0.00979896    3.04345 255 255 255
  2.17281 -0.703394   4.36334 255 255 255
 0.312968 -0.863056   2.88995 255 255 255
 1.00113 0.593329  2.39516 255 255 255
 1.08155 0.549504  2.46101 255 255 255
 0.102221 -0.951094   3.07803 255 255 255
-0.740508 -0.200085    2.8647 255 255 255
 1.12235 0.538072  2.50738 255 255 255
0.600126 -0.35026  3.40606 255 255 255
   1.92519 -0.0839932    3.66056 255 255 255
0.718883 0.302749  2.87437 255 255 255
 1.03839 0.726586   2.2485 255 255 255
-0.35904 -0.54813  2.58569 255 255 255
-0.936677  -1.23887   3.85946 255 255 255
  1.74605 -0.681253   4.10914 255 255 255
  1.24272 -0.323376   3.58179 255 255 255
 1.03332 0.742584  2.24099 255 255 255
0.359982 0.468475  2.35311 255 255 255
  3.00917 -0.421342   4.71324 255 255 255
 1.84951 0.739107  3.10768 255 255 255
 1.36565 0.913107  2.36997 255 255 255
-0.327313  -1.39283   4.09014 255 255 255
 1.22208 0.263012  2.88438 255 255 255
  1.8011 0.671236  3.12772 255 255 255
0.698912 0.187497  2.95703 255 255 255
0.187281 -0.19689  3.11916 255 255 255
-1.15308 0.151381  2.92845 255 255 255
-0.553674  0.330281   2.59293 255 255 255
 0.138413 -0.982828   3.09331 255 255 255
 -1.23134 -0.453297   3.12775 255 255 255
-0.757839  0.314526   2.69654 255 255 255
 1.34518 0.045946  3.34295 255 255 255
   1.2372 -0.773175   4.04297 255 255 255
-0.377337  0.119604   2.49351 255 255 255
-1.16949 0.087701   2.9591 255 255 255
  2.39653 -0.127912   3.97901 255 255 255
 0.521972 -0.177652   2.87123 255 255 255
 -1.26337 -0.629446   3.37216 255 255 255
  1.3442 0.912586  2.38018 255 255 255
-0.904588 -0.948314   3.65759 255 255 255
  2.89014 -0.242577   4.50221 255 255 255
-1.03304  -1.7422  4.34944 255 255 255
 1.35313 0.895995   2.3647 255 255 255
0.0343575  0.144984   2.76992 255 255 255
-1.17977 0.188376  2.91574 255 255 255
0.88283 0.41128 2.44948 255 255 255
 0.618698 -0.774533   2.95808 255 255 255
0.939372  0.15703  2.77544 255 255 255
0.401373 0.223508  2.28422 255 255 255
 2.13583 0.349018  3.45572 255 255 255
 0.402667 -0.538874   2.67205 255 255 255
   2.46183 -0.0124649    3.97135 255 255 255
  2.30825 -0.147924    3.9446 255 255 255
 2.10512 0.357391  3.42792 255 255 255
 0.112352 0.0447673   2.89678 255 255 255
  1.68629 -0.342333    3.7997 255 255 255
    1.39247 -0.00273281      3.3386 255 255 255
  1.50702 -0.481483   3.87503 255 255 255
   1.7266 -0.500061   4.01783 255 255 255
 -1.29277 0.0215391   3.03722 255 255 255
 -1.30875 -0.605588   3.32021 255 255 255
-0.881936  0.271269   2.70629 255 255 255
 -0.37183 -0.861208   2.89344 255 255 255
 1.18269 0.745395  2.27865 255 255 255
-0.934726  -0.83632   3.52608 255 255 255
 0.817396 0.0445713   3.04848 255 255 255
-0.449341  0.155785   2.49489 255 255 255
-0.151261 -0.420982   2.45687 255 255 255
  -1.22668 -0.0197494    3.02608 255 255 255
-0.441133  -1.25518   3.94331 255 255 255
  1.02227 -0.428045   3.64363 255 255 255
  0.27326 -0.589545   2.55316 255 255 255
  1.12682 -0.309749   3.48902 255 255 255
  2.43574 -0.247942   4.10968 255 255 255
 2.04485 -0.33413  3.97892 255 255 255
  1.68647 -0.652672   3.93191 255 255 255
  3.20624 -0.611018   4.97074 255 255 255
 0.3676 0.24479 2.29302 255 255 255
  1.65316 -0.750649   4.20062 255 255 255
-0.567423  -1.53985   4.23877 255 255 255
1.82792  0.3289 3.30955 255 255 255
-1.12097 0.190658  2.75045 255 255 255
0.566012 0.522139  2.37596 255 255 255
0.316975 0.445475  2.45618 255 255 255
 1.09234 0.691898  2.29899 255 255 255
-0.970234 -0.969676   3.60769 255 255 255
  1.6433 0.238023  3.32374 255 255 255
  1.66933 -0.316404    3.7905 255 255 255
0.708598 0.680339  2.32614 255 255 255
   1.36484 -0.0137392    3.31497 255 255 255
-0.0184686  -0.641887    2.67169 255 255 255
 -0.78859 -0.250576   2.80391 255 255 255
-0.683947  -1.63693   4.25374 255 255 255
-0.320652  -0.51717   2.59642 255 255 255
 -1.26231 -0.699135   3.48534 255 255 255
-0.73549 -1.23659  3.84973 255 255 255
-1.05371 -1.65526  4.30626 255 255 255
 1.43967 0.339425  3.12805 255 255 255
  1.15567 -0.289234   3.45637 255 255 255
0.398259  0.15678  2.33215 255 255 255
0.783162 0.203532  2.79455 255 255 255
0.952888 0.871866  2.57862 255 255 255
-0.0740326  -0.603128    2.59462 255 255 255
-0.68638 -1.08099  3.75416 255 255 255
  2.33668 0.0238342   3.86189 255 255 255
-0.966772  -1.44139   4.07944 255 255 255
  2.49706 -0.471653   4.33742 255 255 255
-0.962474   -1.5312   4.14209 255 255 255
0.731597 0.281783   2.8713 255 255 255
  2.86958 -0.278731   4.52006 255 255 255
 -0.10139 -0.669174   2.56161 255 255 255
-0.871954 -0.591684   3.13473 255 255 255
 0.771855 -0.476425   3.28306 255 255 255
 1.96327 0.118959  3.54279 255 255 255
0.749955 0.597773  2.33394 255 255 255
 -0.45626 -0.518019   2.51469 255 255 255
-0.256981 0.0346824    2.5178 255 255 255
0.833654 -1.18639  4.21767 255 255 255
-0.898479  0.312576   2.68729 255 255 255
 1.75924 0.261145  3.30926 255 255 255
0.0481151  -0.67576   2.71057 255 255 255
 -1.35683 -0.247215   3.02768 255 255 255
 0.319301 -0.718645   2.79966 255 255 255
0.112764 -0.96415  3.02519 255 255 255
 0.878603 -0.873462    3.2873 255 255 255
0.767583 0.189585  2.76976 255 255 255
0.00660361  -0.659435    2.64827 255 255 255
  1.88397 -0.143826   3.72298 255 255 255
0.775667 0.102319  2.85998 255 255 255
 -1.18274 -0.126296   3.07291 255 255 255
-0.264914 -0.777909   2.87708 255 255 255
-0.975495  -1.02044   3.69912 255 255 255
-0.073664 -0.829406   2.91839 255 255 255
  1.55516 -0.702566   4.08456 255 255 255
 0.500873 -0.189201   2.91049 255 255 255
-0.754373 -0.549326   3.19512 255 255 255
  -1.2757 -0.596437   3.33121 255 255 255
  0.440605 -0.0844767    2.94961 255 255 255
   2.49033 -0.0688033    4.02315 255 255 255
 0.102522 -0.996778   3.09315 255 255 255
 0.97673 0.365384  2.52017 255 255 255
0.948878 0.787964   2.2941 255 255 255
-0.511329  0.147878   2.52284 255 255 255
 1.39984 0.476631  2.52718 255 255 255
 1.39487 0.445874  3.00069 255 255 255
0.726915 0.293935  2.81839 255 255 255
-0.552101 -0.493088   2.52663 255 255 255
1.77958 0.46864 3.21069 255 255 255
  1.73204 -0.572507   4.08168 255 255 255
 1.72684 -0.54443  4.05316 255 255 255
 -1.19827 -0.151159    3.0461 255 255 255
  2.56762 -0.265752   4.21986 255 255 255
-0.826833 -0.358832    2.9703 255 255 255
 1.87858 0.613376  3.14459 255 255 255
   1.3628 0.0457293   3.34716 255 255 255
2.44532 0.10452  3.9243 255 255 255
-0.977695  0.164692   2.83728 255 255 255
 1.14624 0.683364  2.37115 255 255 255
 -1.10032 0.0720843   2.96797 255 255 255
0.613109  -0.8339  2.89527 255 255 255
  -1.18411 -0.0714525    3.10019 255 255 255
 0.590453 -0.856909   3.02203 255 255 255
0.263365 0.304735  2.24458 255 255 255
  0.542098 0.00580301    3.10535 255 255 255
   2.9265 -0.518958   4.77192 255 255 255
0.450718 0.319677  2.22833 255 255 255
  2.08269 -0.211663   3.89127 255 255 255
   1.2824 0.0206131   3.33097 255 255 255
 1.31876 0.625717  2.42538 255 255 255
  1.91665 -0.388095   4.00981 255 255 255
-1.01947 0.224773  2.80567 255 255 255
-1.14811 0.122943  2.94332 255 255 255
0.686666 0.185725  2.82389 255 255 255
 -1.19519 0.0878872   3.00813 255 255 255
   1.3437 -0.985516   4.20626 255 255 255
  1.19069 0.0808181    2.8281 255 255 255
-0.920389 0.0781726   2.89389 255 255 255
 -1.24441 -0.466828   3.16858 255 255 255
  1.14828 -0.276324   3.44637 255 255 255
-0.300492   -0.7616   2.86412 255 255 255
-0.336958 -0.994855   3.11862 255 255 255
 2.33289 -0.14455  3.96359 255 255 255
0.996975 0.734654  2.30836 255 255 255
  1.81519 -0.462507   4.02735 255 255 255
-0.352344 -0.983732   3.09799 255 255 255
-0.994191  -1.63466   4.27709 255 255 255
-0.796337  -1.03185   3.68916 255 255 255
-0.890541  -1.50049   4.11291 255 255 255
 1.14303 -1.05218  4.13004 255 255 255
-0.618441  -1.53216   4.20693 255 255 255
0.276645 0.200951  2.32896 255 255 255
  1.31308 0.0359427   3.32296 255 255 255
 -0.09698 -0.599048   2.58324 255 255 255
1.89775 0.31982 3.31564 255 255 255
-0.703086 -0.992945   3.68109 255 255 255
  1.71457 -0.735148   4.02456 255 255 255
 -1.04887 0.0114815   2.97003 255 255 255
  1.14261 -0.264681   3.46076 255 255 255
 0.977576 -0.715005   3.14018 255 255 255
  2.09419 -0.256882   3.93448 255 255 255
-0.00398555   -0.779478     2.83601 255 255 255
1.78837 0.56455 3.16823 255 255 255
-1.13858 0.205024   2.8072 255 255 255
-0.450744 -0.167904   2.77047 255 255 255
-0.577292  -1.39051   4.06863 255 255 255
0.484793 -1.27715  4.14065 255 255 255
-0.989638  -1.13892   3.75361 255 255 255
-0.760043  -1.32704   3.95064 255 255 255
 0.302072 -0.478922   2.50509 255 255 255
0.209663 0.357252   2.1772 255 255 255
  1.96216 -0.687248   4.24062 255 255 255
-0.565076 -0.958871   3.58932 255 255 255
-0.489916  -1.29424   3.95865 255 255 255
-1.04829 0.104631   2.9236 255 255 255
-0.585969  0.219811   2.36251 255 255 255
  1.80138 -0.783273   4.14456 255 255 255
  1.62825 -0.629619   4.02611 255 255 255
0.0718532 0.0187467   2.96336 255 255 255
 1.58877 0.531975  3.14977 255 255 255
 0.977793 -0.517972   3.67181 255 255 255
-0.785249 -0.327571   2.93086 255 255 255
  1.33498 0.0377154   3.18557 255 255 255
  1.50754 -0.848567    4.2961 255 255 255
 0.717485 0.0433506   3.08501 255 255 255
  1.95645 0.0943703   3.53501 255 255 255
 1.08511 0.531838  2.22671 255 255 255
0.0779463 -0.532291   2.56157 255 255 255
-0.709968  0.145544   2.47893 255 255 255
-0.941084 -0.384861   3.04021 255 255 255
 -0.86674 -0.420296   2.96693 255 255 255
-0.890257 -0.422661   3.05886 255 255 255
 0.358257 -0.374022   2.69249 255 255 255
   1.8019 -0.484177   3.91606 255 255 255
 0.415925 -0.153349   3.15941 255 255 255
-0.348442 -0.847865   2.91146 255 255 255
 1.18691 0.575283  2.55814 255 255 255
  2.15069 -0.629545   4.28351 255 255 255
-1.00852 0.132176  2.84525 255 255 255
 -0.26592 -0.793608   2.88548 255 255 255
  -1.21096 -0.0149482    3.09305 255 255 255
-0.633309  -1.21718   3.88204 255 255 255
0.0189006 -0.688671   2.63441 255 255 255
 1.05945 0.632825   2.3673 255 255 255
 0.715908 -0.857042   3.02821 255 255 255
-0.697753  -1.26326   3.86952 255 255 255
1.60804 -0.2522 3.70699 255 255 255
0.721037 0.158493  2.90839 255 255 255
  1.96117 -0.170976   3.74876 255 255 255
 2.53376 0.036452  3.98386 255 255 255
 0.620565 -0.781546   2.95401 255 255 255
-0.131563 -0.230309    2.4179 255 255 255
 -0.13052 -0.277723   2.28603 255 255 255
-0.777423 -0.636667   3.22677 255 255 255
  -1.14109 -0.0124692    3.05209 255 255 255
   2.51082 -0.0562018    4.04785 255 255 255
 1.02722 0.624757  2.38352 255 255 255
 1.11758 0.675468  2.32363 255 255 255
 -1.17524 -0.489202   3.20313 255 255 255
-0.461681 -0.551418   2.55423 255 255 255
 0.174584 -0.220672    2.8249 255 255 255
1.44806 0.67998 2.60142 255 255 255
-0.94086 -1.53351  4.12155 255 255 255
 -1.14948 -0.183161   3.04143 255 255 255
 1.62263 0.117315  3.22989 255 255 255
-1.02136 -1.26463  3.88944 255 255 255
 -0.221097 0.00744588    2.52309 255 255 255
  2.06076 -0.220039   3.89809 255 255 255
  2.77599 -0.236501   4.37514 255 255 255
  -1.07237 -0.0656927    3.00713 255 255 255
-1.09497 -1.47821  4.10243 255 255 255
0.786722 0.100176  2.70312 255 255 255
 1.30327 -1.06333  4.21056 255 255 255
-0.401485 -0.177818   2.71941 255 255 255
 1.19996 -1.03708  4.16475 255 255 255
-0.764523 -0.609903   3.24104 255 255 255
-0.838382  -0.45783   3.03965 255 255 255
 -1.32555 -0.443738    3.1662 255 255 255
 0.661714 -0.680566   2.87697 255 255 255
 1.76807 0.273438   3.1492 255 255 255
 2.02108 0.149215  3.52496 255 255 255
-0.998022 -0.555695   3.13763 255 255 255
-0.130011 -0.461859   2.46749 255 255 255
 -0.98654 -0.647571   3.31105 255 255 255
-0.128669 -0.596606   2.54459 255 255 255
  1.37578 -0.484834   3.78941 255 255 255
-0.0382741  -0.347898    2.37143 255 255 255
  2.77716 -0.278262   4.40512 255 255 255
 0.142992 0.0225715   2.82274 255 255 255
 1.09372 0.515658  2.53978 255 255 255
   1.7581 -0.167245   3.68541 255 255 255
-0.828653  -1.41348   3.90348 255 255 255
  2.52754 -0.168692   4.09911 255 255 255
  2.16256 -0.299027   4.01578 255 255 255
-0.529893  0.209522   2.40913 255 255 255
-0.441171 -0.112259   2.67147 255 255 255
  2.28547 -0.825684   4.50623 255 255 255
 0.687909 -0.622519   2.96877 255 255 255
0.0590977 -0.364316   2.36673 255 255 255
 1.93941 0.365773  3.30533 255 255 255
  2.34583 -0.783868   4.51486 255 255 255
0.611664 0.181421  2.88238 255 255 255
-0.848713 -0.440982   3.08636 255 255 255
-0.0524857  -0.356206    2.39181 255 255 255
-0.709819   -1.4666    4.0895 255 255 255
  3.28165 -0.600203   5.00746 255 255 255
-0.145806  -1.01839   2.95113 255 255 255
-0.867902  0.179582   2.78722 255 255 255
  1.65985 -0.620623    4.1042 255 255 255
0.0539059 -0.863054   2.95015 255 255 255
-0.377971   0.15617   2.38646 255 255 255
 0.278154 -0.606271   2.57618 255 255 255
0.467331 0.553608  2.38087 255 255 255
0.968082 0.826142  2.60567 255 255 255
   -1.15073 -0.00178424     3.04751 255 255 255
0.0251929 -0.135863   2.73419 255 255 255
   1.94959 -0.0275743    3.69204 255 255 255
-0.702254  -1.28567   3.91323 255 255 255
  0.117424 -0.0640826    3.12579 255 255 255
 -1.25037 -0.334303   3.07567 255 255 255
-0.586241  -1.46185   4.14407 255 255 255
-0.917733 -0.408134    3.0251 255 255 255
-0.332474  -0.75733   2.84432 255 255 255
 1.44277 0.288102  3.10089 255 255 255
-0.504006  0.381655   2.56333 255 255 255
1.06109 -0.1255 3.30296 255 255 255
0.107256 -1.03467   3.1443 255 255 255
  1.94059 -0.521011   4.11237 255 255 255
0.0162642 -0.528081   2.55162 255 255 255
 2.33453 0.013607  3.87232 255 255 255
2.08153 0.22028 3.49573 255 255 255
  -1.2764 -0.116497   3.04748 255 255 255
 1.00713 0.721939  2.31356 255 255 255
  1.65895 -0.359849   3.83976 255 255 255
-1.33327 -0.54367  3.26102 255 255 255
 1.17885 0.248574  2.86003 255 255 255
-0.823473  0.222783   2.74444 255 255 255
  1.0429 0.128038  3.00197 255 255 255
 0.316667 -0.349941   2.71054 255 255 255
 1.08338 0.572587  2.47068 255 255 255
-0.385331 -0.464964   2.48918 255 255 255
  2.01559 -0.236716   3.89694 255 255 255
 -1.05416 -0.440308   3.14502 255 255 255
0.458383 0.585009  2.31832 255 255 255
 0.107047 0.0113296   3.02597 255 255 255
 1.56035 -0.52592  3.88214 255 255 255
  1.69014 -0.373914   3.75737 255 255 255
-0.348423 -0.787705   2.88491 255 255 255
 -0.49355 -0.401948   2.44938 255 255 255
  1.26287 -0.795147   4.09239 255 255 255
   1.89571 -0.0186597    3.59907 255 255 255
-0.380902 -0.560981   2.62467 255 255 255
-0.366809 -0.560733   2.61877 255 255 255
 1.38278 0.430696   2.5022 255 255 255
 1.87258 0.536726  3.16254 255 255 255
  2.83064 -0.177242   4.38182 255 255 255
-0.411895 0.0272112   2.46162 255 255 255
0.0835298 -0.606042   2.61784 255 255 255
0.772298 0.165061  2.73706 255 255 255
-0.165728 -0.596159   2.52843 255 255 255
  2.90486 -0.258398   4.50861 255 255 255
-1.27902 0.093132  2.90136 255 255 255
 2.06259 0.359667  3.40778 255 255 255
-0.0706434  -0.845476    2.94609 255 255 255
 -1.10351 -0.378156   3.09837 255 255 255
 -0.724077 -0.0914983    2.72472 255 255 255
   -1.1307 -0.0279523    3.04784 255 255 255
-0.718981 -0.516802    3.1661 255 255 255
 0.178539 -0.520506   2.58688 255 255 255
 -0.46368 -0.635189   2.67563 255 255 255
-0.00763094   -0.496941     2.54849 255 255 255
-0.0941039  -0.658105     2.6145 255 255 255
-0.0569632  -0.277018    2.39015 255 255 255
 0.111192 -0.648583   2.71013 255 255 255
 1.04474 0.631165  2.39051 255 255 255
 1.44749 0.662969  2.55636 255 255 255
  0.302455 -0.0318489    2.87063 255 255 255
-0.915831 -0.556474   3.21879 255 255 255
-0.868115 -0.942825   3.65364 255 255 255
 0.541215 -0.341115   3.36106 255 255 255
1.15317 0.70327 2.38945 255 255 255
-0.826518 -0.957907   3.72958 255 255 255
 1.61736 0.275261  3.28137 255 255 255
-0.555824  0.213454   2.36996 255 255 255
  3.13118 -0.438085   4.80118 255 255 255
  1.46483 -0.515754   3.90191 255 255 255
 -0.22415 -0.859372   2.90077 255 255 255
 0.95235 0.139629   2.8281 255 255 255
-0.0901349  -0.475305    2.54882 255 255 255
-1.15502 0.028928  3.03249 255 255 255
  1.48179 -0.390279   3.75368 255 255 255
-0.922077  0.118587   2.83592 255 255 255
0.483011 0.560781  2.35281 255 255 255
   1.45271 -0.0611431    3.47269 255 255 255
 1.1493 0.01284 3.24774 255 255 255
0.628379 -1.14174  4.13838 255 255 255
 1.13992 0.670442  2.38106 255 255 255
0.647209 0.286127  2.75418 255 255 255
  1.13683 -0.370361   3.58974 255 255 255
 -1.10524 -0.038267   3.02522 255 255 255
-0.0675825   -1.12303    3.27131 255 255 255
  1.79717 -0.240889   3.78031 255 255 255
-0.139946 -0.437111   2.43376 255 255 255
 0.172127 -0.557222   2.56169 255 255 255
0.0376424 -0.627261   2.69208 255 255 255
0.972281  0.73242   2.3302 255 255 255
 -1.0966 0.161779  2.83603 255 255 255
  1.31162 -0.023415   3.33968 255 255 255
0.667785 0.209883  2.93451 255 255 255
0.662948 0.207104  2.90455 255 255 255
 0.722549 0.0496101   3.01692 255 255 255
  0.17287 -0.678812   2.73454 255 255 255
 -1.09655 -0.892291    3.5859 255 255 255
 1.30808 0.868602  2.34786 255 255 255
 1.40729 0.391118  3.04955 255 255 255
  0.21838 -0.723274    2.7761 255 255 255
 1.20518 -1.10849  4.20659 255 255 255
 -1.33183 -0.771177   3.51866 255 255 255
   1.50933 -0.0655408    3.44676 255 255 255
 1.03968 0.597594  2.38589 255 255 255
 0.250649 -0.877097   2.98114 255 255 255
 -1.22409 -0.201732    2.9623 255 255 255
 -0.92416 -0.718313   3.26493 255 255 255
0.921035 0.199634  2.93489 255 255 255
-0.827885  -1.30102   3.90385 255 255 255
  1.1334 0.524903  2.54187 255 255 255
0.851612 0.434036  2.43761 255 255 255
 0.411156 -0.481056   2.66474 255 255 255
  0.948655 -0.0369271    3.26026 255 255 255
-0.0533894  -0.770189    2.85036 255 255 255
 1.91218 0.386675  3.28514 255 255 255
 0.290686 -0.483199   2.50921 255 255 255
1.38127 0.45008 2.53751 255 255 255
-0.886597  -1.52066   4.06782 255 255 255
 1.13235 0.665414  2.38571 255 255 255
   1.5894 0.0690688   3.26132 255 255 255
0.559773 -0.60381  2.69565 255 255 255
  1.93843 -0.464358   4.06214 255 255 255
-0.255839  -1.03344   3.15394 255 255 255
 1.12235 0.538072  2.50738 255 255 255
 1.43032 0.485461  3.01192 255 255 255
   1.10842 -0.0723273    3.32334 255 255 255
 -0.179542 -0.0472798    2.53709 255 255 255
-0.904204  -1.53001   4.10598 255 255 255
  -1.23817 -0.0372559    3.08623 255 255 255
0.629715 -1.16449  4.15359 255 255 255
0.0730949 -0.412516   2.40186 255 255 255
 -0.349454 -0.0573694     2.6435 255 255 255
-0.460951 -0.519711   2.53837 255 255 255
-0.981367  -1.65713   4.31638 255 255 255
0.153302 -1.04519  3.12614 255 255 255
 1.16569 0.539083  2.54248 255 255 255
 1.80547 0.582779   3.1505 255 255 255
0.0204539  0.132564   2.78463 255 255 255
-0.828005 -0.761753   3.28099 255 255 255
  -1.3932 -0.920116   3.69498 255 255 255
 1.01388 0.259493  2.67776 255 255 255
  1.50778 -0.481031   3.87526 255 255 255
   1.59187 -0.0248003    3.47091 255 255 255
 1.01122 0.722184   2.4029 255 255 255
0.828045 0.686376  2.31029 255 255 255
0.825889 0.684009  2.30251 255 255 255
0.00808481  -0.395963    2.41828 255 255 255
 1.44498 0.584274  2.58327 255 255 255
  1.24272 -0.323376   3.58179 255 255 255
    1.9273 -0.0919659     3.6889 255 255 255
  1.69615 -0.939961   4.40621 255 255 255
-0.862277  -0.92166   3.60488 255 255 255
   1.87608 -0.0130234    3.60939 255 255 255
  1.72607 0.0821175   3.43868 255 255 255
 0.148173 -0.891798   2.94595 255 255 255
  0.199675 0.00403932    2.79545 255 255 255
 0.335809 -0.897972   2.95785 255 255 255
  1.0037 0.597413  2.37604 255 255 255
 1.82276 0.613394  3.14107 255 255 255
  2.59983 -0.158531   4.14341 255 255 255
0.0877067 0.0591734   2.96733 255 255 255
-0.371309 -0.783201   2.83752 255 255 255
  2.59704 -0.200807   4.18689 255 255 255
0.780807 0.217578  2.59212 255 255 255
 1.22852 -1.04295  4.16918 255 255 255
   2.0831 -0.914708   4.55831 255 255 255
0.798382 0.104705  3.00397 255 255 255
  3.37329 -0.644107   5.06853 255 255 255
  2.84965 -0.740449   4.72603 255 255 255
  2.21391 -0.800364   4.45008 255 255 255
0.957989 0.745094  2.29102 255 255 255
 1.47382 0.648898  2.60774 255 255 255
 1.23642 0.732435  2.33233 255 255 255
  1.3879 -1.03105  4.20692 255 255 255
-0.987892 0.0981441   2.97838 255 255 255
  1.18167 -0.724754    3.9858 255 255 255
 1.41631 -1.03606  4.23939 255 255 255
 -1.16109 -0.411846   3.12054 255 255 255
  2.10102 -0.671564    4.2873 255 255 255
-1.02894 0.228534  2.83103 255 255 255
  0.402487 -0.0371034    2.95446 255 255 255
0.978439  0.74479  2.29806 255 255 255
  1.82072 -0.204352    3.7371 255 255 255
  -1.09452 -0.0859515    3.04437 255 255 255
  2.54239 -0.345222    4.2566 255 255 255
  2.93687 -0.324015   4.60974 255 255 255
0.594999 0.169644  2.93632 255 255 255
 -1.34126 -0.023647   3.06653 255 255 255
 0.881626 -0.876885    3.3082 255 255 255
  1.43499 -0.957497    4.2395 255 255 255
-0.0138676   0.082525    2.72344 255 255 255
 0.100646 -0.678763   2.74054 255 255 255
  1.13856 -0.143862   3.34427 255 255 255
 0.99662 0.733958  2.42718 255 255 255
0.756588  0.19431  2.81365 255 255 255
-0.886441  0.148763   2.81278 255 255 255
-0.028246 -0.657262   2.72792 255 255 255
 1.59412 -0.41376  3.85375 255 255 255
-0.648739 -0.108572   2.73971 255 255 255
-0.87798 -1.56635  4.13001 255 255 255
0.553035 0.117436  2.85039 255 255 255
1.72026 0.39824 3.25288 255 255 255
-0.122417 -0.471699   2.52554 255 255 255
   1.92988 -0.0834178    3.67154 255 255 255
 -1.28228 -0.608932   3.35072 255 255 255
  1.15635 -0.289238   3.45819 255 255 255
-0.000842395   -0.0419091      2.62855 255 255 255
 1.68194 0.855809  2.98796 255 255 255
  1.35174 -0.972662   4.20371 255 255 255
 1.69935 0.322339  3.26754 255 255 255
-0.769128 -0.353805   3.45494 255 255 255
-0.791224 -0.318932   2.95168 255 255 255
   1.29658 -0.0906386    3.38553 255 255 255
 0.41969 0.230086  2.24959 255 255 255
-0.64087 -1.44341  4.07961 255 255 255
   2.4297 0.0614233   3.93803 255 255 255
-0.416166 -0.473547   2.53536 255 255 255
0.157038 0.110887  2.09868 255 255 255
-0.508233 -0.433168   2.46827 255 255 255
-0.826003  -1.26675   3.82285 255 255 255
 1.26152 0.466264  2.60294 255 255 255
-0.483613 -0.502251   2.55716 255 255 255
1.87448   0.293 3.25069 255 255 255
 0.745107 -0.695958   2.86589 255 255 255
 1.48114 -0.86808  4.26607 255 255 255
-0.305789  -0.80646    2.8912 255 255 255
0.760722 0.116135  2.79491 255 255 255
0.971335  0.60055  2.36314 255 255 255
 0.98189 0.614638  2.37528 255 255 255
  2.09037 0.0881625   3.59752 255 255 255
 1.30977 0.125173  2.80169 255 255 255
0.774803 0.186223  2.73103 255 255 255
-0.467374  -1.24414   3.92444 255 255 255
-0.285574 -0.825446   2.86252 255 255 255
-0.758141  -1.44229   4.04711 255 255 255
-0.730955  -1.25218   3.84519 255 255 255
 -0.0519023 -0.00480766      2.6071 255 255 255
-0.908166 -0.722611   3.25504 255 255 255
 2.50541 0.161477  3.97271 255 255 255
 0.529905 -0.185227   2.79704 255 255 255
-0.491037  0.187106   2.40783 255 255 255
 0.299849 -0.553515   2.54314 255 255 255
 0.214336 -0.804006   2.90469 255 255 255
   2.25731 -0.0222365     3.8137 255 255 255
  2.84579 -0.712293   4.70637 255 255 255
   -1.1317 -0.0779085    3.07925 255 255 255
  2.8682 -0.27865  4.51764 255 255 255
-0.723826  -1.11666   3.76771 255 255 255
-0.225374  -1.04154   3.13992 255 255 255
-0.717842 -0.975544   3.67118 255 255 255
-1.08407 -1.05996  3.70179 255 255 255
0.44082 0.43635 2.41808 255 255 255
 0.137937 -0.591541   2.64705 255 255 255
  2.02217 -0.579844   4.18034 255 255 255
  1.36622 0.0370402   3.33675 255 255 255
-0.0499941  -0.443008    2.50216 255 255 255
  1.25628 -0.757711   4.07989 255 255 255
0.266032 -0.88667  3.00012 255 255 255
  2.22072 -0.171835   3.92513 255 255 255
0.423054 0.453285  2.41898 255 255 255
-0.202162 -0.830008   2.90854 255 255 255
 0.237585 -0.775135   2.87528 255 255 255
   2.5018 -0.530654   4.39555 255 255 255
-0.160977 -0.686207   2.42644 255 255 255
-0.784281  -0.62089   3.27354 255 255 255
 -1.24912 -0.128975   2.97582 255 255 255
   1.84935 -0.0451862    3.62483 255 255 255
 1.80116 0.390606  3.28381 255 255 255
 2.05776 0.341961  3.41419 255 255 255
 1.80231 0.687299  3.11761 255 255 255
   1.0231 0.0209175   3.23354 255 255 255
 1.78951 0.401915   3.2414 255 255 255
 -1.06494 -0.244213   3.04304 255 255 255
 1.16095 -0.32354  3.49239 255 255 255
-0.165166 -0.428051   2.48402 255 255 255
-0.832417  -1.38371   3.99643 255 255 255
-1.02803 -1.64616  4.27197 255 255 255
 -1.28078 -0.553523   3.26245 255 255 255
0.519788 -1.04363  3.99239 255 255 255
 1.29452 -1.05377   4.1824 255 255 255
-0.391664 -0.197815   2.76026 255 255 255
-0.577971  -1.39177    4.0737 255 255 255
 1.76782 0.484034  3.20868 255 255 255
  2.20162 -0.461852   4.16264 255 255 255
 1.14022 -0.42293  3.71266 255 255 255
 -0.33502 -0.619515   2.75507 255 255 255
 -1.2745 0.070192  2.96968 255 255 255
 0.720077 -0.753285   3.04502 255 255 255
  -0.10529 -0.0128162    2.72474 255 255 255
-0.0772735  -0.255401    2.42241 255 255 255
 0.302364 -0.814224   2.89622 255 255 255
0.764533 0.294454  2.63925 255 255 255
 -1.16236 -0.216725   3.05606 255 255 255
  0.69749 -0.417393   3.44674 255 255 255
-1.16674 0.210315  2.93058 255 255 255
-0.0261292  -0.453598    2.50044 255 255 255
0.0145141 -0.718156   2.72527 255 255 255
  0.10535 -0.495282   2.56567 255 255 255
2.14462 0.25689 3.46212 255 255 255
-0.644131  -1.14498   3.80478 255 255 255
 0.077716 -0.532364   2.56124 255 255 255
 1.90403 0.401327  3.24362 255 255 255
   1.3445 -0.571228   3.82898 255 255 255
   1.5011 -0.943222   4.37038 255 255 255
  2.78592 -0.291426   4.42244 255 255 255
 -0.256579 -0.0287353    2.58915 255 255 255
  1.00169 -0.694801   3.30716 255 255 255
1.19027 0.27219 2.81971 255 255 255
1.16907 0.57598 2.59862 255 255 255
-0.648799 -0.202044   2.76504 255 255 255
 0.617949 -0.778326   2.93437 255 255 255
-0.571319  -1.35768   4.05259 255 255 255
-0.944867    -1.072   3.73801 255 255 255
-0.947095  0.235132   2.79962 255 255 255
 0.638338 -0.386981    3.3827 255 255 255
 -0.12009 -0.680195    2.6589 255 255 255
-0.0824907  -0.696558    2.67609 255 255 255
  -1.26772 -0.0270063    2.95957 255 255 255
  1.67217 -0.220929   3.63282 255 255 255
 0.515483 -0.334528   3.32722 255 255 255
-0.591216  -1.32926   4.02001 255 255 255
 0.966761 -0.146249   3.31483 255 255 255
-0.543758 -0.488904   2.59002 255 255 255
   -0.267607 -0.000101825      2.59627 255 255 255
  1.05512 -0.133585   3.30097 255 255 255
-0.826246  -1.19475   3.76198 255 255 255
 0.153348 -0.360731    2.5558 255 255 255
-0.908302  0.167111   2.80047 255 255 255
 1.73886 0.274366  3.28993 255 255 255
  1.40284 -0.423212   3.74079 255 255 255
 -1.34078 -0.276068   3.04124 255 255 255
  1.39743 -0.636044   3.91275 255 255 255
   1.20366 -0.0985589    3.34357 255 255 255
 0.548567 -0.567181   2.78648 255 255 255
 1.84091 0.564453  3.13934 255 255 255
 0.683126 -0.524312   2.99259 255 255 255
-0.0313558  -0.271281     2.4415 255 255 255
 0.0439681 -0.0749969    2.59955 255 255 255
   1.8404 -0.889984   4.39502 255 255 255
0.387263 -0.49531  2.70227 255 255 255
-0.133426 -0.657794   2.58524 255 255 255
 -1.28608 -0.278319   3.03281 255 255 255
    2.3668 -0.0617876    3.90264 255 255 255
  3.27097 -0.599119   4.98938 255 255 255
  2.58578 -0.227981   4.19099 255 255 255
-0.346865 -0.773278   2.87514 255 255 255
 0.469784 -0.391214   2.91889 255 255 255
-0.625976 -0.120631    2.7238 255 255 255
  1.41435 -0.447954   3.76262 255 255 255
  1.91664 -0.352637   3.95874 255 255 255
  3.14308 -0.500183   4.86642 255 255 255
  1.36546 -0.429928   3.76647 255 255 255
-0.757798  -1.20359   3.82604 255 255 255
 0.342098 -0.473852   2.67364 255 255 255
  1.87638 -0.133111   3.72944 255 255 255
   3.1176 -0.634811    4.9477 255 255 255
 0.888617 -0.136873   3.26907 255 255 255
   1.6677 -0.748683   4.19696 255 255 255
  2.90491 -0.258399    4.5087 255 255 255
-0.213132 -0.563781   2.66067 255 255 255
 1.15846 -0.71748  3.97655 255 255 255
-0.126481 -0.620177   2.56329 255 255 255
-0.448308 -0.647272   2.70302 255 255 255
1.93801 0.10481 3.54041 255 255 255
 1.74787 -0.14334  3.67868 255 255 255
-0.483361 -0.563075   2.58525 255 255 255
   2.0901 -0.320811   3.98907 255 255 255
-0.672616 -0.893539   3.49943 255 255 255
-1.04378  0.13908  2.85463 255 255 255
 -1.19325 -0.114377   3.10951 255 255 255
 -1.17362 0.0752303   2.90323 255 255 255
 0.298501 -0.604909   2.59871 255 255 255
0.0416841 -0.637715   2.68914 255 255 255
-0.105972 -0.699633   2.48587 255 255 255
 1.21782 0.145469  2.75084 255 255 255
 1.34012 0.390546  2.83064 255 255 255
  0.871195 -0.0364185    3.22608 255 255 255
0.974934 0.713109  2.45881 255 255 255
