ply
format ascii 1.0
element vertex 1166
property float x
property float y
property float z
property uchar red
property uchar green
property uchar blue
end_header
 -2.28385   7.43577 -0.848402 255 255 255
-1.96706  7.91351 -1.18537 255 255 255
-1.06896  8.15531 -1.13015 255 255 255
-0.715771   7.47784 -0.738427 255 255 255
 1.47831  6.13587 0.153066 255 255 255
0.0912485   7.51725 -0.481575 255 255 255
 -1.67503   6.83046 -0.340262 255 255 255
-1.90699  5.96243 -0.37708 255 255 255
-1.81173  5.01513 0.429175 255 255 255
-2.69972  5.03731 0.212323 255 255 255
-3.40342  5.41848 0.182411 255 255 255
-0.391337   8.29922 -0.856091 255 255 255
-2.83447   6.9264 -0.66968 255 255 255
 -2.50782   5.62451 0.0598828 255 255 255
-0.679613   7.40177 -0.691157 255 255 255
-0.0418158    8.47347   -1.00947 255 255 255
0.423132  8.26532 -1.03616 255 255 255
 -2.98686   5.51562 0.0573362 255 255 255
 1.23508  5.91585 0.268506 255 255 255
-0.476708   7.38213 -0.511242 255 255 255
 -1.27611   7.81003 -0.947139 255 255 255
 -1.34163   6.48401 -0.417666 255 255 255
-1.53809   5.5195 0.168208 255 255 255
 0.593648   7.35073 -0.736245 255 255 255
-1.58553  8.17171 -1.30711 255 255 255
  1.93543    6.2846 0.0772395 255 255 255
 -1.88191    6.2515 -0.441561 255 255 255
-1.06538  5.45584 0.117607 255 255 255
 -2.92739   7.20023 -0.714578 255 255 255
-1.93583   7.7458 -0.66386 255 255 255
 -0.82122   7.32795 -0.673177 255 255 255
 -1.30972   5.97972 -0.417136 255 255 255
 -1.33352   7.71692 -0.967299 255 255 255
 -3.37991   5.79531 -0.323041 255 255 255
-3.32054  4.88986 0.352885 255 255 255
   -2.592   7.73521 -0.888968 255 255 255
-3.06618   5.4529 0.118444 255 255 255
-0.831486   7.37124 -0.632586 255 255 255
-0.587476   5.59261  0.177979 255 255 255
-2.21345  5.00102 0.439269 255 255 255
-1.38287  5.33507 0.334405 255 255 255
 -3.20408   7.23869 -0.790407 255 255 255
 -3.38588   5.57843 -0.117626 255 255 255
  1.51508   7.27047 -0.428263 255 255 255
  -2.0297     5.444 0.0903354 255 255 255
0.517485  8.00661 -1.09715 255 255 255
-3.41505  5.00336 0.164254 255 255 255
-3.69791   7.0387 -1.00372 255 255 255
0.329441  8.47925   -1.024 255 255 255
  -0.15754    6.62479 -0.0191544 255 255 255
 -1.62742   6.02154 -0.296921 255 255 255
-3.00714  7.20221 -0.82258 255 255 255
-0.542809   5.55582  0.194926 255 255 255
 0.440248   7.87031 -0.649365 255 255 255
0.180895  8.09524 -0.78902 255 255 255
 -1.24068   7.61945 -0.872805 255 255 255
 -1.02985   7.23603 -0.801475 255 255 255
-2.84265  7.54958 -1.04714 255 255 255
 -2.82159   7.57408 -0.988871 255 255 255
 -2.66443   7.63893 -0.795324 255 255 255
-3.88202  6.93663 -1.06709 255 255 255
  0.339196    6.82129 -0.0866602 255 255 255
  1.77531   6.84238 -0.207124 255 255 255
0.264375   8.5469 -1.15267 255 255 255
 -2.08775   7.13328 -0.658394 255 255 255
 0.965781   6.78376 -0.562098 255 255 255
-2.12405  7.90047 -1.24029 255 255 255
-0.432297   7.65627 -0.764819 255 255 255
 -1.46595   6.74478 -0.262427 255 255 255
 -2.26627   5.90808 -0.413497 255 255 255
 -1.68541   6.19828 -0.449556 255 255 255
  0.80792   7.52171 -0.785697 255 255 255
-3.70904  5.41578 0.165739 255 255 255
-0.128159   8.34877  -0.95292 255 255 255
-0.637664   7.98085  -1.04613 255 255 255
 -3.70989   5.93516 -0.332674 255 255 255
0.288382  5.76666 0.121478 255 255 255
 0.631785    7.5987 -0.920437 255 255 255
  -2.8287   5.89254 -0.215773 255 255 255
   -4.12365     5.36394 -0.00143151 255 255 255
 -1.40431   7.71525 -0.997869 255 255 255
 -1.77151   7.44118 -0.802924 255 255 255
   -0.799   5.83615 -0.131072 255 255 255
 -2.00092   7.71273 -0.818706 255 255 255
-2.68479  5.18264 0.297384 255 255 255
 -2.31848   6.11385 -0.538602 255 255 255
 0.109923   8.36859 -0.930464 255 255 255
 -3.32986     7.223 -0.866709 255 255 255
 -3.0285  7.81372 -1.07663 255 255 255
 -2.3263  7.85132 -1.05792 255 255 255
0.469888  5.94654 0.181235 255 255 255
 -2.13765   5.49131 -0.126827 255 255 255
 -2.89263   6.12819 -0.487261 255 255 255
-4.10434  4.93251 0.204292 255 255 255
0.435534  8.18163 -1.00707 255 255 255
 0.632561   6.00002 0.0446231 255 255 255
 -0.986015    5.56418 -0.0163567 255 255 255
0.514187  6.35851 0.154282 255 255 255
-4.24053   5.4303 0.210029 255 255 255
-4.22971   5.4376 0.178933 255 255 255
-0.446067   7.83409 -0.680645 255 255 255
0.517685  8.12867 -0.90444 255 255 255
0.317967  8.56961 -1.19098 255 255 255
-3.68336  5.40189  0.17312 255 255 255
 0.313259   8.41213 -0.979748 255 255 255
  -4.1038   5.33248 0.0169042 255 255 255
-1.6522 8.12227 -1.3058 255 255 255
0.553277  8.33247 -1.06235 255 255 255
 -1.39196   7.57282 -0.939503 255 255 255
 -2.72936   7.52948 -0.767976 255 255 255
-1.56192  7.74455 -1.04295 255 255 255
0.569474  8.00757    -1.05 255 255 255
 -1.18038   7.72817 -0.980768 255 255 255
 -2.78695   7.18484 -0.853166 255 255 255
-1.91534  7.83895 -1.14353 255 255 255
   -2.69527     4.95951 0.000763943 255 255 255
 -2.94337   7.17247 -0.822163 255 255 255
 -3.31018   6.44048 -0.515393 255 255 255
-0.558022   7.98838  -1.02918 255 255 255
 -2.79969   5.92982 0.0343188 255 255 255
0.433116  6.47881 0.112663 255 255 255
 -1.25855   5.94108 -0.324442 255 255 255
 -3.08697   6.03777 -0.281369 255 255 255
-0.042964   8.15661 -0.867815 255 255 255
  0.561561    6.76013 -0.0924476 255 255 255
 -1.09625   8.14985 -0.996726 255 255 255
 0.966001   8.02455 -0.831581 255 255 255
 -1.9256  5.36089 0.244825 255 255 255
 0.212074   7.32687 -0.366504 255 255 255
  1.32075   6.79576 -0.195938 255 255 255
  0.688086    5.95205 -0.0157242 255 255 255
-4.17056  5.94015 -0.38244 255 255 255
  -2.6474   6.58862 -0.346099 255 255 255
-3.40086  4.51485 0.435133 255 255 255
 -2.84198    6.1461 -0.459687 255 255 255
-2.95792  7.46082 -1.01386 255 255 255
-0.653088   7.06295  -0.32046 255 255 255
-3.79465  5.25913 0.101385 255 255 255
-3.48262  4.82701 0.369292 255 255 255
 -3.17834   6.92641 -0.418645 255 255 255
-2.86541  5.00304  0.10972 255 255 255
-2.59397  7.47924 -0.96242 255 255 255
 -3.01522   5.84053 -0.100969 255 255 255
 -3.01308   5.84306 -0.113419 255 255 255
-3.46263  4.93984 0.318732 255 255 255
 -4.01776   6.00188 -0.340826 255 255 255
-0.0859597    8.43355  -0.983743 255 255 255
  -1.4137   7.63844 -0.978681 255 255 255
 0.178467    7.7532 -0.602509 255 255 255
-3.47072  4.59956 0.449742 255 255 255
-3.50474  6.56169  -0.5889 255 255 255
  -3.93439    5.64888 -0.0344019 255 255 255
-1.90072  7.70495 -1.07366 255 255 255
-1.61043  7.73882 -1.04381 255 255 255
 -2.03537    6.9107 -0.597082 255 255 255
 -3.40293   6.72426 -0.532924 255 255 255
 -3.09535   7.26629 -0.662754 255 255 255
 -1.97144   6.07752 -0.433096 255 255 255
-1.06423  5.48348 0.159756 255 255 255
 -3.75534   5.74521 -0.175993 255 255 255
   -3.1976    5.63073 -0.0300382 255 255 255
 -2.56661   7.74863 -0.936163 255 255 255
 -4.24658   5.95521 -0.338703 255 255 255
-0.885572   7.20742 -0.686909 255 255 255
-1.29977  8.28861 -1.38073 255 255 255
 -2.03782    6.8242 -0.358317 255 255 255
  -2.94945    4.97146 -0.0142903 255 255 255
  -3.3651   7.07515 -0.800944 255 255 255
  -2.6456   6.48556 -0.254365 255 255 255
-0.469548   7.98437 -0.913837 255 255 255
-0.414938   6.10741  0.277467 255 255 255
  -3.1093   6.20049 -0.527462 255 255 255
-1.91229  7.76029 -1.12773 255 255 255
 -3.50757   6.06784 -0.324142 255 255 255
-1.74891  7.74637 -1.04191 255 255 255
-4.13519  5.43864  0.05622 255 255 255
-0.514411   8.38291  -1.53428 255 255 255
0.311886  8.53961 -1.17897 255 255 255
 -0.94819   7.51699 -0.812716 255 255 255
 -1.97166   7.40304 -0.714335 255 255 255
-1.28694  8.34388 -1.35935 255 255 255
 -3.63971   5.57122 0.0552738 255 255 255
-1.83783  7.79928 -1.13214 255 255 255
-0.109104   7.38874  -0.40063 255 255 255
 -2.92815   6.92227 -0.705624 255 255 255
 -2.53726   7.75027 -0.899266 255 255 255
 0.689696    7.5666 -0.900655 255 255 255
-3.12378   7.4267 -1.02703 255 255 255
 -2.58327   7.18483 -0.702931 255 255 255
-2.90667  6.17576 -0.52035 255 255 255
 -3.20911   7.33663 -0.947043 255 255 255
-2.19076  7.51417 -1.00116 255 255 255
 -1.78603   6.67482 -0.293723 255 255 255
-0.993697   8.19613  -1.14762 255 255 255
 0.137013   8.13996 -0.852227 255 255 255
-1.42024  5.10949 0.409747 255 255 255
 0.399009   7.21398 -0.344984 255 255 255
 -3.10168   6.57012 -0.664421 255 255 255
-0.521531   8.15644 -0.882182 255 255 255
-2.17787  7.96392 -1.20405 255 255 255
-0.379289   7.89976  -0.74454 255 255 255
-0.971529   8.06848  -1.06597 255 255 255
-1.28398  8.25799 -1.28367 255 255 255
 -2.52868   6.25488 -0.468516 255 255 255
 -3.41381   7.25134 -0.733822 255 255 255
-1.63845  5.64706 0.060144 255 255 255
-0.834249   6.92601 -0.609113 255 255 255
 -3.89716    5.8723 -0.311163 255 255 255
 -3.3247  5.48871 0.013101 255 255 255
  -0.8793   7.70821 -0.971861 255 255 255
-0.505293   7.33126 -0.469804 255 255 255
 0.15521  8.85404 -1.13237 255 255 255
 -3.50809   7.28391 -0.692658 255 255 255
  1.00176   7.33005 -0.487472 255 255 255
-0.419097    8.3742  -1.46834 255 255 255
-0.323786   6.19193  0.264814 255 255 255
 -3.95937   6.90703 -0.984012 255 255 255
 0.238909   7.94184 -0.720162 255 255 255
-0.0941003    8.04191  -0.796084 255 255 255
 -3.32141   6.13694 -0.454251 255 255 255
 -1.92867   7.50051 -0.798068 255 255 255
-0.384914   7.42665 -0.427316 255 255 255
 -0.34124   7.92789 -0.734009 255 255 255
-1.69535  7.91999 -1.24326 255 255 255
 -2.68337   6.33009 -0.388203 255 255 255
 -1.20222   7.68373 -0.969582 255 255 255
0.0136148   5.85096 0.0511822 255 255 255
-0.458933   6.37334 0.0307183 255 255 255
-3.85519  4.98838 0.206047 255 255 255
0.361063  6.08036 0.364266 255 255 255
 -3.88768   5.74683 -0.140872 255 255 255
-2.04283  8.03281 -1.24827 255 255 255
-0.219256   7.42636 -0.449424 255 255 255
-1.96141  8.05795 -1.26163 255 255 255
0.163552  8.90176 -1.12888 255 255 255
-0.147525   8.03337 -0.827849 255 255 255
 0.709114    7.6204 -0.901819 255 255 255
-0.952252   8.05043  -1.10022 255 255 255
-0.967803   8.03708  -1.14675 255 255 255
 -2.75667   7.11283 -0.704604 255 255 255
-0.654159   8.22008 -0.889269 255 255 255
 -0.510879    6.49554 -0.0121511 255 255 255
 -2.69191   6.66481 -0.426868 255 255 255
 -1.41344   5.91782 -0.285594 255 255 255
 -1.36606   7.60042 -0.902705 255 255 255
-0.634504   7.33727 -0.509278 255 255 255
-1.36984  8.24171 -1.31475 255 255 255
-2.43387  7.47861 -0.72103 255 255 255
-4.17946  5.02569 0.228324 255 255 255
-0.662348   8.62831 -0.963962 255 255 255
-2.04271  7.98391 -1.22976 255 255 255
 -3.29735   5.92767 -0.269477 255 255 255
-2.04246  8.00707 -1.24737 255 255 255
 -3.1759  5.17566 0.241096 255 255 255
 -2.39155   7.80126 -0.817964 255 255 255
 -1.31785   7.57431 -0.877031 255 255 255
 -1.47747    6.0825 -0.390907 255 255 255
0.473629  8.24483 -1.04168 255 255 255
0.661755  7.89053 -1.02039 255 255 255
  -2.81365    5.71725 -0.0453885 255 255 255
 0.612974   7.48064 -0.861614 255 255 255
-0.314829   8.32402 -0.848882 255 255 255
-1.63289  7.47398 -0.75544 255 255 255
-0.763771   8.35184 -0.877538 255 255 255
-4.19888  5.01936   0.2196 255 255 255
-2.04176  8.05399 -1.27833 255 255 255
 -2.70299    7.5979 -0.790255 255 255 255
-4.13732   5.4719 0.128286 255 255 255
 0.464332   8.15649 -0.955659 255 255 255
 -4.19956   5.96113 -0.342867 255 255 255
 -3.88614   7.35123 -0.730444 255 255 255
-0.0828751    7.65808  -0.749138 255 255 255
 -1.15756   5.54243 0.0129275 255 255 255
 -0.49613   8.51623 -0.901056 255 255 255
 -1.2901  8.08794 -1.20397 255 255 255
-1.66526  7.83145 -1.10929 255 255 255
 -1.42568   7.51981 -0.906547 255 255 255
 -1.68686   7.59063 -0.712234 255 255 255
 0.154403   8.24676 -0.947072 255 255 255
0.150567  8.25149  -0.9535 255 255 255
-0.610913   8.60533 -0.952434 255 255 255
-1.72136  7.60748 -0.75206 255 255 255
 -1.42147   6.94121 -0.480255 255 255 255
-2.94689   7.4365 -1.04734 255 255 255
 -2.77776   5.52611 -0.121307 255 255 255
 0.824548    7.4501 -0.765817 255 255 255
-1.29001  8.22576 -1.29536 255 255 255
 0.817856   7.48461 -0.779578 255 255 255
 -1.87541   7.71685 -0.741699 255 255 255
 -4.02658   6.30198 -0.456371 255 255 255
 -2.87962   5.99605 -0.222277 255 255 255
 -1.28376   7.49335 -0.745675 255 255 255
-0.391913   8.55958  -1.60182 255 255 255
0.385535  8.60243 -1.31601 255 255 255
 -2.39819    7.7111 -0.760578 255 255 255
0.311737  8.49663 -1.02677 255 255 255
-0.876087    6.9386 -0.700799 255 255 255
-1.47394  5.20747 0.391714 255 255 255
-0.939484   8.13476   -1.1404 255 255 255
 -3.4248  4.99992 0.309678 255 255 255
 -3.15424   6.44039 -0.660945 255 255 255
0.0828373   5.93522  0.273688 255 255 255
  -2.7878   7.68011 -0.782568 255 255 255
-0.897976   5.37889  0.306882 255 255 255
 -1.03629   7.63937 -0.999011 255 255 255
-0.556638   8.30583 -0.921348 255 255 255
 -4.05489   5.99819 -0.300081 255 255 255
 -1.30883   7.71045 -0.914077 255 255 255
 -3.64808   6.76288 -0.792998 255 255 255
-2.18935  5.05464 0.417067 255 255 255
 -3.39495   6.21002 -0.408814 255 255 255
-0.662831   7.59003  -0.84357 255 255 255
-0.949099   7.17248 -0.704528 255 255 255
 -1.89746   6.40941 -0.100039 255 255 255
 0.880686   7.04361 -0.588348 255 255 255
-3.49617  4.75533 0.402159 255 255 255
-3.69114  7.18872 -1.09547 255 255 255
 -3.89245   5.72844 -0.172769 255 255 255
  -1.9692   7.31172 -0.619691 255 255 255
-2.20945  4.94325 0.133875 255 255 255
 -2.22873   7.42294 -0.936421 255 255 255
 -1.91395   5.71561 0.0317968 255 255 255
-0.344794   6.93786 -0.157756 255 255 255
0.819548   7.5991 -0.81717 255 255 255
 0.478879   8.13373 -0.931642 255 255 255
  1.43551   6.89243 -0.194729 255 255 255
-0.116625   8.43028 -0.999949 255 255 255
-1.00648  5.10913 0.398472 255 255 255
 0.374798   7.90327 -0.769003 255 255 255
 -1.94799   6.60697 -0.342037 255 255 255
 1.12045  5.59004 0.423034 255 255 255
-1.64327   7.5088 -0.69727 255 255 255
 -3.16281    5.8012 -0.162285 255 255 255
 0.833264   7.46815 -0.723256 255 255 255
 -3.32836   6.42443 -0.509036 255 255 255
 -2.25183    4.9284 0.0741967 255 255 255
 -2.70506   6.61184 -0.505693 255 255 255
-1.37341  7.98358 -1.16208 255 255 255
-4.02215  5.26081 0.155829 255 255 255
0.364771  7.98903 -0.81046 255 255 255
  -4.2114   6.02311 -0.273694 255 255 255
-0.163883   8.25375 -0.893687 255 255 255
-3.39646  4.95153 0.198477 255 255 255
 -1.06814   8.05375 -0.785575 255 255 255
 -1.80588    6.5974 -0.310336 255 255 255
  -1.64499    6.40291 -0.0656173 255 255 255
-0.10999  5.58017 0.304869 255 255 255
 -2.88574    6.0126 -0.314758 255 255 255
 1.31843  6.84493 -0.21551 255 255 255
-0.144075   8.06699 -0.796424 255 255 255
-3.03836  7.51923 -1.08325 255 255 255
  0.720335    6.06219 -0.0980844 255 255 255
  1.24174   7.20392 -0.400537 255 255 255
-3.13179  7.49028  -1.1042 255 255 255
-0.713373   7.63769 -0.698851 255 255 255
 -3.34652   5.76867 -0.341324 255 255 255
 0.290617   8.37969 -0.932534 255 255 255
-0.710762   7.49587 -0.758368 255 255 255
 -2.66633   7.58704 -0.788211 255 255 255
 -2.49734   4.78786 0.0537404 255 255 255
-0.674313   7.38041 -0.570135 255 255 255
 -3.35557   6.98575 -0.822102 255 255 255
 -1.54603   7.35314 -0.705148 255 255 255
0.0276341   8.46218 -0.984106 255 255 255
 -4.20442   6.78423 -0.852309 255 255 255
-1.05563  8.06344 -1.05088 255 255 255
 -1.18723   7.80887 -0.911393 255 255 255
-1.37385  8.00894 -1.17307 255 255 255
 -2.79109   7.55958 -0.778306 255 255 255
-0.724377   7.98554  -1.04193 255 255 255
-0.720591    8.2345 -0.855045 255 255 255
-0.732643   8.22486 -0.896409 255 255 255
 -3.8967  6.78326 -0.82676 255 255 255
 -4.09386   6.38711 -0.543233 255 255 255
-3.59705  4.39399 0.507278 255 255 255
 0.194358    7.2236 -0.334578 255 255 255
-0.879429   8.02285  -1.05605 255 255 255
-0.0869877    7.95404  -0.689089 255 255 255
-1.43729  5.65162 0.128101 255 255 255
-0.423438   7.86553 -0.710399 255 255 255
 -0.721862    6.24587 -0.0539666 255 255 255
-2.94403  5.11359 0.286458 255 255 255
-0.936249   6.88709 -0.655582 255 255 255
  0.49325    7.6596 -0.846547 255 255 255
 -1.06678   6.13784 -0.368613 255 255 255
  -3.1195   7.27475 -0.637324 255 255 255
-0.589537   7.85308 -0.866752 255 255 255
-0.73242  5.08288 0.544501 255 255 255
  0.79115   7.77365 -0.712365 255 255 255
-3.0662 7.80913 -1.0648 255 255 255
-0.442826   7.20714 -0.328988 255 255 255
 -1.6587  7.93814 -1.16623 255 255 255
 -4.16233    6.0266 -0.278909 255 255 255
-0.441362   5.80026  0.198868 255 255 255
-0.136963   8.39548 -0.985531 255 255 255
  0.51244   8.03718 -0.918488 255 255 255
 -1.56067   7.03999 -0.436906 255 255 255
-1.29658  7.94257 -1.14068 255 255 255
 0.477803   7.88573 -0.888151 255 255 255
-2.25227  4.96496 0.188426 255 255 255
-3.75844  5.47755 0.124094 255 255 255
 -2.79776   7.25568 -0.870429 255 255 255
-0.355844   7.69543 -0.626539 255 255 255
 -3.33528   6.32449 -0.504013 255 255 255
-0.125788   8.29647 -0.907976 255 255 255
0.233029  8.54674  -1.0205 255 255 255
   1.77265    6.55765 -0.0774732 255 255 255
0.262034  8.21569 -0.86097 255 255 255
 0.34412  8.27823 -1.01921 255 255 255
   -3.346   6.52173 -0.563799 255 255 255
 -2.82353   7.43079 -0.926376 255 255 255
   1.4607    6.6831 -0.127878 255 255 255
-2.98725  7.48351   -1.126 255 255 255
 -3.65262   5.82793 -0.262022 255 255 255
   1.43944    6.48783 -0.0290077 255 255 255
 -1.82149   6.79339 -0.412025 255 255 255
 -1.67626   6.04562 -0.340994 255 255 255
-0.705005   7.36043 -0.548893 255 255 255
 -3.73271   7.04118 -0.983913 255 255 255
  -1.0904   8.10131 -0.966568 255 255 255
 -1.19157   7.77353 -0.965237 255 255 255
0.346031   8.6019 -1.19599 255 255 255
  1.36427   6.80439 -0.221981 255 255 255
 -1.7353  7.85575 -1.21246 255 255 255
-1.31808  7.94244 -1.13932 255 255 255
 2.02039  6.02448 0.179798 255 255 255
-0.975879   7.24686 -0.735973 255 255 255
-2.55756  5.08866  0.34564 255 255 255
 -3.90831   6.76974 -0.847267 255 255 255
  1.66879   6.67505 -0.127921 255 255 255
 -2.10089   5.75681 -0.267404 255 255 255
 -2.58392   6.62036 -0.602145 255 255 255
  1.80958   6.75045 -0.179055 255 255 255
-2.23682  7.82665 -1.06727 255 255 255
 -3.38426   6.46793 -0.654617 255 255 255
-0.725176   8.11602 -0.904312 255 255 255
 -3.01918   6.87302 -0.490077 255 255 255
-0.290461   8.22381 -0.863456 255 255 255
-2.01722  5.36264  0.16734 255 255 255
0.396337  8.62701 -1.30906 255 255 255
-3.48763  4.85927 0.351591 255 255 255
 -1.33283    6.8891 -0.641378 255 255 255
 -1.60978   6.10366 -0.370063 255 255 255
-2.08329  7.75277 -1.01042 255 255 255
 -4.19501   6.81197 -0.831172 255 255 255
-1.92437  5.59409 0.118988 255 255 255
 -3.48028   7.47468 -0.795274 255 255 255
  -1.705  7.81648 -1.03713 255 255 255
 -2.51918   5.75206 -0.185229 255 255 255
-1.38401  5.55743 0.208637 255 255 255
 -2.58796   6.92304 -0.561769 255 255 255
 -1.56124   5.71523 0.0368369 255 255 255
-0.993666   7.41881 -0.557017 255 255 255
-0.485694   7.90399 -0.864594 255 255 255
 -1.5862  5.02145 0.456202 255 255 255
-1.39705  6.93354 -0.48874 255 255 255
-0.678111   8.23932 -0.936965 255 255 255
  -2.653  5.16862 0.340859 255 255 255
-0.549184   6.13348 0.0473523 255 255 255
-0.241282   7.52097  -0.47539 255 255 255
 -2.85957   6.80858 -0.517581 255 255 255
-1.46209  7.92906 -1.10419 255 255 255
 -1.09155   8.13003 -0.832349 255 255 255
-1.64568  7.87659  -1.1257 255 255 255
-1.24985  7.97898 -1.18718 255 255 255
  1.78508   6.74444 -0.237399 255 255 255
-1.35657   5.9733 -0.35651 255 255 255
0.215778  5.76893 0.112056 255 255 255
 -2.19535   7.53807 -0.981007 255 255 255
 -3.80113   6.97083 -0.929512 255 255 255
-0.788935   7.24935 -0.639123 255 255 255
-1.63146  7.82888 -1.12511 255 255 255
 -1.38996   7.40578 -0.726055 255 255 255
 -2.05039   6.39442 -0.118187 255 255 255
 -1.58405    6.4947 -0.149191 255 255 255
-2.50635  5.37174 0.224275 255 255 255
 0.662733   7.87901 -0.970838 255 255 255
 -3.28912   6.42608 -0.522493 255 255 255
-3.12688  5.07937 0.316953 255 255 255
 -3.38046   6.69479 -0.587407 255 255 255
 -1.13755   7.48659 -0.842021 255 255 255
 -2.32483   7.62206 -0.937237 255 255 255
  -1.9826   6.06006 -0.459569 255 255 255
 -3.40431   6.70361 -0.556133 255 255 255
-0.579569   7.41091   -0.5921 255 255 255
0.0418643   7.40318 -0.368905 255 255 255
 -2.46864   6.19787 -0.527356 255 255 255
 -2.93361   6.60175 -0.624017 255 255 255
 -2.12526   6.95869 -0.807341 255 255 255
-0.88077  7.92565 -1.02057 255 255 255
-3.69813  7.23601 -1.05192 255 255 255
-2.54519  7.67394 -0.81167 255 255 255
 -2.50343   6.87463 -0.842697 255 255 255
-2.23782  7.26361 -0.72002 255 255 255
 -1.97216   6.01961 -0.415476 255 255 255
 -1.61548   6.75313 -0.263651 255 255 255
-3.19847  4.97656 0.281657 255 255 255
0.460728  7.42683 -0.42195 255 255 255
 -3.31021   7.03965 -0.798842 255 255 255
 -3.04463   7.37621 -0.907603 255 255 255
0.515052  8.02775 -1.17756 255 255 255
  1.49824   7.25807 -0.365123 255 255 255
 -2.61731   7.71665 -0.749633 255 255 255
 -2.42766   7.15547 -0.868678 255 255 255
 0.435286   7.87248 -0.745721 255 255 255
 -3.18041   7.35286 -0.751749 255 255 255
 -3.53127   6.43711 -0.620296 255 255 255
 -2.81765   6.12595 -0.417191 255 255 255
-2.42232  7.13921 -0.85199 255 255 255
 -3.57834   6.93067 -0.909795 255 255 255
0.439706  7.59752 -0.54664 255 255 255
  -3.5325   6.08194 -0.377437 255 255 255
-0.828465   7.43278 -0.544783 255 255 255
0.288366  8.54992 -1.00907 255 255 255
-0.289789     8.092 -0.815828 255 255 255
 -0.514536    6.52233 -0.0572319 255 255 255
  1.76296   6.27027 0.0856172 255 255 255
-1.25704  8.05082 -1.16284 255 255 255
   -1.051   7.60262 -0.854799 255 255 255
 0.209266   7.70854 -0.554902 255 255 255
 0.407216   7.68884 -0.692385 255 255 255
 -1.89902   7.43252 -0.872622 255 255 255
 -2.82485    7.6157 -0.979372 255 255 255
 -2.65102   6.52081 -0.248734 255 255 255
 0.956187   7.82728 -0.714451 255 255 255
 -1.25957   7.43682 -0.747947 255 255 255
-0.0703675    8.41612  -0.979223 255 255 255
 0.142349   5.90138 0.0460414 255 255 255
-0.672697   7.36565   -0.5239 255 255 255
-1.99832   5.0197 0.401371 255 255 255
-0.324461   7.32144 -0.383904 255 255 255
-4.13836  5.41042 0.130347 255 255 255
 -1.42525   6.14513 -0.387072 255 255 255
    0.73786     5.90485 -0.00439365 255 255 255
-1.65438  7.91022 -1.11979 255 255 255
-0.956992   7.98156  -1.03829 255 255 255
-0.331466   7.43027 -0.416287 255 255 255
 -1.42708   6.66941 -0.285911 255 255 255
 -1.17619   7.68588 -0.971706 255 255 255
-4.02585  5.05856 0.185155 255 255 255
-3.94563  5.31921  0.20508 255 255 255
-2.27971  4.93979 0.156588 255 255 255
 -2.64248   7.13377 -0.541951 255 255 255
-1.32231  5.06047 0.245502 255 255 255
 -1.16132    6.0305 -0.348689 255 255 255
-0.936673   7.40913 -0.560268 255 255 255
 -1.28427   6.92731 -0.700579 255 255 255
 -1.36379   7.31139 -0.583575 255 255 255
0.0564762   7.52025 -0.472477 255 255 255
 0.215226   8.12953 -0.836071 255 255 255
-2.09557  5.58818  0.01999 255 255 255
-3.69558  4.71341 0.402186 255 255 255
0.418506  8.36364 -1.10598 255 255 255
 -3.3902  5.02256 0.237463 255 255 255
 -3.80966   7.47003 -0.828526 255 255 255
-0.0913105    5.22969   0.495959 255 255 255
-0.583289   8.32699 -0.926578 255 255 255
-0.00880127     7.51708   -0.575414 255 255 255
-1.07989  5.75953 -0.14534 255 255 255
 -2.05378   6.14767 -0.468773 255 255 255
-0.422196   8.12379 -0.872512 255 255 255
 -2.70797   7.38066 -0.659769 255 255 255
-0.34286   8.5077 -1.57058 255 255 255
  0.40426   7.88491 -0.740039 255 255 255
-1.45946  7.84289 -1.09302 255 255 255
  -3.9051   7.65777 -0.978583 255 255 255
-3.11187  7.64595 -1.16089 255 255 255
-0.797201   7.35837 -0.579775 255 255 255
-1.68712  5.20994 0.361517 255 255 255
 -3.07179   7.37104 -0.825529 255 255 255
 0.693819   6.95793 -0.606104 255 255 255
0.331041  8.30133 -1.05471 255 255 255
-0.201247   7.85794 -0.670009 255 255 255
 -1.46734   6.48237 -0.185607 255 255 255
  1.30268   6.19434 0.0595106 255 255 255
-1.93278  7.89676 -1.14615 255 255 255
-0.648983   7.68788 -0.833158 255 255 255
 -2.00281   7.30015 -0.601545 255 255 255
-3.56341  4.37121 0.508323 255 255 255
-2.59766  5.07704 0.403201 255 255 255
-1.67055  5.33477 0.203168 255 255 255
0.255963  8.49222 -1.00301 255 255 255
 -0.77724   7.48173 -0.725821 255 255 255
 -1.94199   7.53636 -0.798214 255 255 255
 -1.47884   7.38653 -0.685892 255 255 255
 -3.24551   6.09233 -0.486583 255 255 255
 0.245556   8.41346 -0.974598 255 255 255
 0.162036   8.39514 -0.937542 255 255 255
-4.16978  6.20512 -0.50283 255 255 255
-3.46943  6.66991  -0.6299 255 255 255
 -0.77737   7.53852 -0.733107 255 255 255
0.0543833   8.24417 -0.869093 255 255 255
 -2.54691   6.83439 -0.557061 255 255 255
 -2.93007   6.06628 -0.451093 255 255 255
 -2.11686   5.52653 -0.133993 255 255 255
0.505718  8.16369 -1.14141 255 255 255
 -1.8617   7.8453 -1.04685 255 255 255
-0.94638  7.96797 -1.05947 255 255 255
 -2.12589    6.9204 -0.774518 255 255 255
 -1.89119   7.48276 -0.900165 255 255 255
 -2.35395   6.93305 -0.805358 255 255 255
 -2.69705    5.8506 -0.298416 255 255 255
 -1.45383   7.63942 -0.976992 255 255 255
 -2.0402  5.52214 0.174886 255 255 255
 -3.28319   7.13531 -0.843708 255 255 255
  1.00742      7.74 -0.679782 255 255 255
 -2.70233   6.36862 -0.479763 255 255 255
-0.408582    5.3952  0.374354 255 255 255
  1.78584   6.81452 -0.196476 255 255 255
 -1.33451   6.84863 -0.628568 255 255 255
-0.385955   6.95066 -0.196976 255 255 255
 1.54029   5.7058 0.374311 255 255 255
-0.113265   7.69871 -0.609174 255 255 255
   0.743612     6.39317 -0.00510066 255 255 255
  -2.55468    5.55494 -0.0925552 255 255 255
-0.993771    7.8221  -1.06832 255 255 255
 -1.42037   7.53967 -0.896642 255 255 255
 0.919192   8.10299 -0.866707 255 255 255
 -1.45613   7.32988 -0.547589 255 255 255
 -3.23821   6.67927 -0.710892 255 255 255
-0.704475   7.16605 -0.391435 255 255 255
 -3.50541    6.5096 -0.598187 255 255 255
 -2.70368   6.68207 -0.407232 255 255 255
-2.03318  7.19088 -0.66593 255 255 255
 -3.99762   6.81521 -0.862794 255 255 255
 -2.62615   7.31118 -0.829848 255 255 255
0.322161  8.48185 -1.08985 255 255 255
 0.316474   7.02759 -0.208882 255 255 255
-0.0259354    6.99876  -0.172917 255 255 255
  -1.3296   6.95389 -0.661547 255 255 255
 0.601469   7.42705 -0.783838 255 255 255
-1.44317  7.88703 -1.10788 255 255 255
 0.252276   7.26169 -0.356868 255 255 255
 -4.08548   5.32818 0.0726164 255 255 255
 -2.84863   6.70395 -0.535015 255 255 255
-1.75255  7.76083 -1.10554 255 255 255
 -2.19836   7.09688 -0.856836 255 255 255
 0.955511   7.93948 -0.768669 255 255 255
 -2.41279   5.80622 -0.271327 255 255 255
-0.651543   7.39881 -0.755227 255 255 255
-0.823516   7.52016 -0.685682 255 255 255
-0.47139  6.17338 0.161968 255 255 255
-0.311642   8.24861  -0.92141 255 255 255
  -2.0674   6.51694 -0.225514 255 255 255
 -0.92601   7.65152 -0.894989 255 255 255
-1.45129  7.93863 -1.13296 255 255 255
 -2.21808   7.51406 -0.961021 255 255 255
 0.747002   6.89578 -0.599035 255 255 255
 -3.19359    6.0358 -0.388075 255 255 255
 -2.34373   4.80012 0.0414894 255 255 255
 -1.28324   7.66817 -0.918207 255 255 255
 0.425102     8.042 -0.878041 255 255 255
 0.307178   8.35356 -0.979742 255 255 255
-4.08588  4.60397 0.479568 255 255 255
 -1.10599    5.7502 -0.192143 255 255 255
-2.16811  8.08599 -1.36197 255 255 255
 -0.539511    6.52281 -0.0450957 255 255 255
   0.12026    6.76886 -0.0815412 255 255 255
 -4.16457   5.32835 0.0697077 255 255 255
-0.256128   8.24697 -0.842255 255 255 255
  -1.824  5.21524 0.335399 255 255 255
0.999864  7.71071 -0.67859 255 255 255
-1.90032  7.83004 -1.12191 255 255 255
-0.318414   7.45337 -0.441035 255 255 255
-1.69662  7.46933 -0.67417 255 255 255
-0.110934   8.28375 -0.917157 255 255 255
-3.12447  5.33073 0.143838 255 255 255
-2.11825  7.78744 -1.04275 255 255 255
 -1.04282   7.99351 -0.768476 255 255 255
-4.13669  4.95598 0.276107 255 255 255
-0.0237259    5.77474   0.110638 255 255 255
-2.16398  7.77003 -1.07483 255 255 255
 -3.39019   7.08681 -0.839071 255 255 255
-2.07958  5.13521 0.397539 255 255 255
 -1.8145  7.89643 -1.12304 255 255 255
0.0452888   8.05154 -0.798015 255 255 255
 -2.36561   7.73807 -0.787673 255 255 255
 -1.13412   5.75346 -0.215345 255 255 255
  -0.66472    6.20893 -0.0479344 255 255 255
-1.70675  5.45383 0.101745 255 255 255
-3.92406  5.39641 0.153735 255 255 255
 -3.20969   6.41847 -0.635022 255 255 255
 -2.93133    6.1813 -0.504323 255 255 255
-0.250905   8.48266  -1.56791 255 255 255
0.856116  7.16211  -0.6327 255 255 255
  1.02425   7.49234 -0.549708 255 255 255
 -2.55009   7.42189 -0.963755 255 255 255
-0.511213   7.88238 -0.873106 255 255 255
  0.104279     6.7821 -0.0763848 255 255 255
 -1.63365    6.7099 -0.303129 255 255 255
-3.3877 5.34889 0.10567 255 255 255
 -3.58086   7.01907 -0.911625 255 255 255
 0.735694   6.00594 -0.086433 255 255 255
 -2.09601   7.36187 -0.648934 255 255 255
-0.395806   7.25048 -0.349718 255 255 255
 -3.11156    6.0906 -0.394409 255 255 255
-1.40935  7.05578 -0.56096 255 255 255
 -3.09543   5.55082 0.0146688 255 255 255
 -3.70724   5.78184 -0.262357 255 255 255
  -3.5844   6.80969 -0.821084 255 255 255
 -2.61055   7.53093 -0.943492 255 255 255
 1.26345  7.15374 -0.34896 255 255 255
 -3.43402   6.11925 -0.302617 255 255 255
-0.394228   5.32132  0.406075 255 255 255
 0.568386   7.83056 -0.828678 255 255 255
  -3.6859   5.64936 -0.175121 255 255 255
  -1.778  7.68429 -0.98231 255 255 255
  0.896162     6.3524 -0.0991788 255 255 255
-0.426577   6.22403  0.216828 255 255 255
-0.892611   7.51982  -0.58488 255 255 255
 0.220926   8.35572 -0.943421 255 255 255
-0.172428   5.22759   0.46754 255 255 255
-1.64231  5.35479 0.216549 255 255 255
 -1.54925   5.94185 -0.338697 255 255 255
-3.63466  5.02849 0.248631 255 255 255
  1.73752   6.63317 -0.121002 255 255 255
-3.27982  7.06581 -0.70378 255 255 255
 -3.06113   6.33777 -0.560266 255 255 255
-2.17896  7.85529 -1.16508 255 255 255
  1.54419   7.20106 -0.228526 255 255 255
 -2.84273   7.45587 -0.936206 255 255 255
-3.19437   5.1562 0.110622 255 255 255
-1.56053  7.90476 -1.13427 255 255 255
 -2.80123   6.71313 -0.549629 255 255 255
-0.471815    8.4454 -0.846335 255 255 255
 -3.13157    6.1019 -0.416057 255 255 255
-0.169426   7.98814 -0.742036 255 255 255
 0.207388   8.34214 -0.944639 255 255 255
 0.226794   8.56686 -0.934121 255 255 255
  -1.7869    7.4116 -0.774712 255 255 255
 -3.1521  7.79402 -1.12223 255 255 255
-1.68043  7.65188 -0.80626 255 255 255
 -3.47259   7.25016 -0.698137 255 255 255
 -3.46732   7.24778 -0.721254 255 255 255
-1.79611  7.84534 -1.12202 255 255 255
 0.323645   8.27891 -0.920104 255 255 255
-3.32573  5.38812  0.18121 255 255 255
-0.813131   8.29079 -0.943819 255 255 255
 0.180544   8.02277 -0.766731 255 255 255
  -3.9729    6.8882 -0.936921 255 255 255
-0.649177   8.58043 -0.946165 255 255 255
-4.20975   5.1011 0.168641 255 255 255
 -3.33186   5.56755 0.0257687 255 255 255
 -3.23097   7.07889 -0.652672 255 255 255
 -3.01727   6.63273 -0.687176 255 255 255
-1.03907  5.06913 0.497495 255 255 255
 -2.55535   6.00409 -0.404184 255 255 255
  -2.9403   6.64464 -0.692395 255 255 255
-3.54561  4.81206 0.360364 255 255 255
 0.687108   6.95653 -0.582019 255 255 255
-1.62281  7.38782 -0.59589 255 255 255
 1.90312  6.22402 0.109248 255 255 255
 -2.92946   7.00651 -0.770607 255 255 255
 -0.499579     6.7725 -0.0845669 255 255 255
-3.56313  5.46325 0.126158 255 255 255
 -4.15837   5.70313 -0.220294 255 255 255
 -3.10706   6.38384 -0.597834 255 255 255
 0.390242   8.10736 -0.797916 255 255 255
 0.714619   7.24896 -0.776962 255 255 255
 0.219281   8.43687 -0.981407 255 255 255
  -3.4299   5.18177 0.0820881 255 255 255
 0.786939   6.32973 0.0196388 255 255 255
0.698701  7.03112 -0.62678 255 255 255
0.317361  8.52942 -1.05528 255 255 255
  1.89075   6.73364 -0.186233 255 255 255
-1.01265  5.23761 0.213745 255 255 255
-0.592887   8.58581 -0.977344 255 255 255
  0.428733    6.70224 -0.0014676 255 255 255
 -0.728726    5.68101 -0.0223931 255 255 255
 -2.58909   6.84396 -0.517158 255 255 255
 0.330881   8.16343 -0.920539 255 255 255
  -2.80626    5.89914 -0.0468652 255 255 255
-1.60533  7.90863 -1.12486 255 255 255
-3.11087  5.18929 0.232914 255 255 255
 -2.62971    7.4591 -0.940695 255 255 255
 -4.19531    6.7994 -0.849345 255 255 255
0.356007  5.36314 0.478072 255 255 255
 -3.25835   7.30549 -0.710112 255 255 255
-3.71658  7.18009 -1.02935 255 255 255
-2.17408  7.77429 -1.06482 255 255 255
 0.409517   8.02515 -0.841726 255 255 255
 -2.10902   7.09356 -0.855982 255 255 255
 -4.28641   6.53813 -0.348225 255 255 255
 -1.3921  7.93282 -1.11328 255 255 255
  -3.6214   7.33706 -0.724491 255 255 255
 -3.35753   6.21712 -0.494009 255 255 255
-1.98425  7.86846 -1.15157 255 255 255
-1.48121  7.80043 -1.11047 255 255 255
-0.743615   8.26589 -0.891211 255 255 255
 -3.19647   5.85427 -0.210736 255 255 255
 -2.54108   6.62338 -0.594403 255 255 255
-2.35608   5.0707 0.375748 255 255 255
  1.9346  5.93793 0.236875 255 255 255
-1.00174  8.09563 -1.09086 255 255 255
-1.50856  7.84557 -1.08985 255 255 255
 0.501402   7.21177 -0.300492 255 255 255
 -1.10877   7.55546 -0.856855 255 255 255
 -2.86616   7.00016 -0.646826 255 255 255
-0.622845   6.02652  0.133002 255 255 255
 -3.22588   6.04561 -0.433723 255 255 255
 -1.52491     6.113 -0.472944 255 255 255
 0.230852   7.15728 -0.307836 255 255 255
 0.431358   8.02248 -0.948485 255 255 255
 -3.40322   7.06907 -0.832952 255 255 255
  -2.9747   6.98497 -0.794364 255 255 255
-1.68654  7.72476 -1.07921 255 255 255
 -3.68161   7.02992 -0.915033 255 255 255
 0.106921   8.38423 -0.948333 255 255 255
-1.34805  5.12389 0.401832 255 255 255
-3.46335  7.30136 -0.71661 255 255 255
-0.269265   7.56561 -0.531319 255 255 255
 -3.09162   6.61311 -0.718157 255 255 255
 -3.56028    5.2056 0.0977651 255 255 255
 -1.64127   7.45428 -0.768962 255 255 255
-0.938333    6.0158 -0.291746 255 255 255
 -2.68156   7.38133 -0.635084 255 255 255
0.00847044     6.3397   0.197341 255 255 255
-2.56266  7.50796 -0.96156 255 255 255
 0.526846   7.44147 -0.616067 255 255 255
0.568541  7.46504  -0.7208 255 255 255
 -2.9625  5.29934 0.177104 255 255 255
  0.20791   6.56991 0.0641566 255 255 255
  1.18702   6.38219 0.0144716 255 255 255
0.324938  8.52385 -1.25701 255 255 255
 1.73459  6.14112 0.151128 255 255 255
-3.40109  7.17245 -0.79146 255 255 255
 -3.0145  7.75153 -1.06967 255 255 255
-3.25028  6.38718 -0.58363 255 255 255
  -0.1587   7.32756 -0.350585 255 255 255
 0.329661   8.12819 -0.800478 255 255 255
 -3.23925   6.73144 -0.681928 255 255 255
 -3.70709   6.87661 -0.868178 255 255 255
 -2.30698     7.526 -0.866207 255 255 255
-1.27207    7.889 -1.07949 255 255 255
 -2.54845    7.7894 -0.809144 255 255 255
 -3.95078   6.50813 -0.688689 255 255 255
 -1.77342   7.54514 -0.704987 255 255 255
 0.384121    6.9761 -0.211705 255 255 255
 -3.12069   6.59331 -0.688078 255 255 255
-0.809266    6.7515 -0.505057 255 255 255
 -3.82592     6.714 -0.793027 255 255 255
 0.168729    7.9021 -0.699379 255 255 255
0.0284121   7.42095 -0.386077 255 255 255
0.0234562   7.41959 -0.395445 255 255 255
0.00581383    7.45928  -0.419069 255 255 255
 -1.6816  7.76201 -1.06005 255 255 255
 -2.96206    6.7866 -0.616064 255 255 255
 -3.22184   6.18586 -0.576575 255 255 255
  0.55773   6.83034 -0.106755 255 255 255
-0.0754197    5.75538   0.129373 255 255 255
 -3.79567   5.95002 -0.345349 255 255 255
-4.23318  5.14524 0.121434 255 255 255
-1.42249  7.88253 -1.11902 255 255 255
-0.877125   6.98184 -0.694856 255 255 255
 0.280834   8.06638 -0.771293 255 255 255
 0.383262   7.42808 -0.398877 255 255 255
-0.893201   7.29601 -0.709398 255 255 255
-2.95721  5.34707 0.197753 255 255 255
 -3.53801   7.25606 -0.676357 255 255 255
0.388521  8.29886 -1.07234 255 255 255
 -1.88931   7.11337 -0.496839 255 255 255
 -2.93036   6.85326 -0.672842 255 255 255
-1.34515  7.90655 -1.10154 255 255 255
-0.841747   7.41832 -0.550255 255 255 255
0.268615  8.52036 -1.01747 255 255 255
 -1.2564  8.09382 -1.20574 255 255 255
 -2.76101   6.48141 -0.515433 255 255 255
-3.94518  7.05712 -1.08547 255 255 255
-3.60213  5.07879 0.238739 255 255 255
 -3.18852   7.05813 -0.564198 255 255 255
-1.55282  5.53522 0.175939 255 255 255
-0.299002   7.86656 -0.703123 255 255 255
-0.68088  8.34967 -0.93299 255 255 255
 0.358474   8.09131 -0.770691 255 255 255
 -3.70468   6.25026 -0.504882 255 255 255
 -4.02643   6.80877 -0.849495 255 255 255
 0.668718   7.96147 -0.814268 255 255 255
 -2.94953   7.14203 -0.830182 255 255 255
-0.427047   8.22821  -1.44687 255 255 255
-0.673977   7.30744 -0.486577 255 255 255
  -2.09519    5.54869 -0.0575212 255 255 255
-0.969629   7.37082 -0.568037 255 255 255
-1.71043  7.77056 -1.10847 255 255 255
-1.92713  5.35424 0.181924 255 255 255
 -0.775412    6.44359 -0.0739396 255 255 255
-0.823446   7.72428 -0.950762 255 255 255
0.177698  8.22597 -0.92562 255 255 255
-2.85824  7.07153 -0.65061 255 255 255
 -3.25783   6.14977 -0.495035 255 255 255
 -1.2517  7.19381 -0.58265 255 255 255
-0.976373     7.675 -0.901874 255 255 255
  0.689178    6.65153 -0.0459717 255 255 255
 -2.74374   6.60322 -0.464926 255 255 255
-0.202083   7.35198  -0.40464 255 255 255
 -3.25256   6.83512 -0.641794 255 255 255
   -2.908   6.19836 -0.540064 255 255 255
 0.686556   6.65227 -0.276674 255 255 255
 -3.51341   6.37025 -0.456695 255 255 255
-0.728502    6.2885  -0.10878 255 255 255
-1.87077  7.75933 -1.08369 255 255 255
  1.00131   7.49523 -0.556106 255 255 255
 -3.24542   7.28285 -0.674289 255 255 255
-0.0330816    8.50623   -1.00857 255 255 255
-2.94327   5.0652 0.198429 255 255 255
-0.300938   6.58142 0.0299045 255 255 255
  0.84246   6.85415 -0.627004 255 255 255
 -1.13017   7.61926 -0.841729 255 255 255
  0.572042     6.6618 -0.0240263 255 255 255
 -0.703351    6.46819 -0.0886966 255 255 255
  -0.437361     6.61721 -0.00721574 255 255 255
-3.43956  5.18582 0.225091 255 255 255
 -3.27346   6.54122 -0.636126 255 255 255
-0.391327   7.30106 -0.341304 255 255 255
 -2.04667    6.9774 -0.658752 255 255 255
  -1.9062    7.4475 -0.875722 255 255 255
-0.861081   8.15826  -1.01851 255 255 255
 -2.1275  5.75925 -0.28502 255 255 255
-0.608702   8.24413  -0.88459 255 255 255
 0.106816   8.31792 -0.938272 255 255 255
 0.679434   6.97413 -0.607954 255 255 255
-3.67465  7.02784 -1.01541 255 255 255
-0.312454     8.192   -0.8692 255 255 255
 0.356861   7.10478 -0.246172 255 255 255
-3.25075  6.30387 -0.59751 255 255 255
-1.79133   7.9232 -1.17923 255 255 255
 1.53073  6.39825 0.033664 255 255 255
-1.50219  7.85998 -1.17721 255 255 255
-1.98395  7.89344 -1.15258 255 255 255
-1.84583  7.88678 -1.16545 255 255 255
 -3.88678   6.62885 -0.751465 255 255 255
 -2.40201   7.29757 -0.924031 255 255 255
 -1.3903  5.30929 0.351804 255 255 255
-0.381215   6.47687 0.0694746 255 255 255
-2.94288  5.02333  0.10426 255 255 255
-0.390842   5.81546  0.229956 255 255 255
-0.805648   8.31592 -0.922359 255 255 255
 -2.40725   7.69299 -0.718441 255 255 255
-3.0374 7.49885 -1.1122 255 255 255
-1.74531  7.91631 -1.19304 255 255 255
-1.48436  6.60308 -0.22169 255 255 255
 1.52128  7.00161 -0.24478 255 255 255
-0.664547   7.63979 -0.848318 255 255 255
 0.343226   6.81358 -0.127889 255 255 255
  1.58823   6.62492 -0.105557 255 255 255
 -4.17753   6.13384 -0.477054 255 255 255
 -2.85244   6.94392 -0.665396 255 255 255
-0.720238   8.08958 -0.909577 255 255 255
 -2.29041   7.58668 -0.986616 255 255 255
  -1.3076   7.68644 -0.913525 255 255 255
 -2.62603   7.29006 -0.851846 255 255 255
0.531574  8.14699  -1.1662 255 255 255
 -2.86893   6.76302 -0.566544 255 255 255
 -2.51118   7.61936 -0.784729 255 255 255
 0.709923   6.40945 0.0727218 255 255 255
-4.08128  5.22548  0.11123 255 255 255
 -0.88285   6.88344 -0.630604 255 255 255
0.0802711   8.36976 -0.942841 255 255 255
0.114147  6.61376  0.02647 255 255 255
-1.91041  7.90634 -1.14903 255 255 255
-0.955118   8.21596  -1.14142 255 255 255
0.0891906   8.20653 -0.914121 255 255 255
 -2.92346   7.11222 -0.777317 255 255 255
  -3.7382   7.01942 -0.961553 255 255 255
  -3.5585   6.07426 -0.460223 255 255 255
-0.221756   7.50718 -0.474428 255 255 255
 -1.48009   7.40259 -0.857413 255 255 255
 0.152071   8.44382 -0.930605 255 255 255
 -1.84442   7.38875 -0.769137 255 255 255
-0.229716   8.03951 -0.807392 255 255 255
-1.98854  6.98325 -0.57769 255 255 255
  -1.69159    6.40569 -0.0786104 255 255 255
 -1.41408   7.51827 -0.919017 255 255 255
 1.52484  5.98051 0.238214 255 255 255
 -3.87788   5.92043 -0.348517 255 255 255
 -2.72295   7.12274 -0.576621 255 255 255
-1.41257  7.92531 -1.09476 255 255 255
 -0.61556   7.63381 -0.890528 255 255 255
-0.547106    7.5585  -0.87646 255 255 255
 0.792838   6.16037 -0.163777 255 255 255
-0.130445   8.06312 -0.813373 255 255 255
-2.98095  7.46609 -1.05685 255 255 255
-3.95975  5.39458 0.150144 255 255 255
 -2.26427   7.53286 -0.949829 255 255 255
  1.42613   6.68452 -0.104058 255 255 255
0.431091  6.49616 0.161314 255 255 255
0.191191  8.11991 -0.83147 255 255 255
 -2.99783   6.54028 -0.678137 255 255 255
0.509455  8.07903 -1.21889 255 255 255
 -3.63278   7.32676 -0.716132 255 255 255
-0.718963   7.45469 -0.774875 255 255 255
 1.17424  6.54315 -0.20916 255 255 255
-0.109942   7.35311 -0.381186 255 255 255
-1.66065  7.72436 -1.05655 255 255 255
 -3.15439   7.20446 -0.863498 255 255 255
-0.700927    8.2669 -0.908555 255 255 255
-3.22597  5.11587 0.196258 255 255 255
 0.730608   6.68162 -0.434951 255 255 255
  -1.3717   6.72412 -0.276307 255 255 255
   0.5935   7.95627 -0.838183 255 255 255
 -3.63055   7.31246 -0.710229 255 255 255
 -2.88713   7.63745 -0.996412 255 255 255
 -1.72443    5.4981 0.0960304 255 255 255
 -2.90238   6.59403 -0.616824 255 255 255
  0.96833   7.72822 -0.685059 255 255 255
 0.449258   8.07507 -0.997525 255 255 255
 -3.26665    6.2623 -0.598563 255 255 255
-0.0618955    7.93329  -0.725601 255 255 255
-1.21176  8.10327  -1.2198 255 255 255
 -2.07926    7.2403 -0.750279 255 255 255
-3.21071  4.44988 0.463867 255 255 255
 -2.88675   6.18434 -0.531273 255 255 255
-2.92029  7.48653 -1.04685 255 255 255
 -3.61806   5.70549 -0.123002 255 255 255
 -3.92195   6.57687 -0.747595 255 255 255
-1.62203  5.46802 0.113399 255 255 255
 -3.13551    7.2591 -0.824857 255 255 255
-2.35646   5.1466 0.230737 255 255 255
 -2.57983   5.62112 -0.119305 255 255 255
-0.634771   8.30274 -0.930807 255 255 255
0.0564946   8.27876 -0.923719 255 255 255
 -2.74448   7.63148 -0.829623 255 255 255
0.547576  8.09711 -1.16693 255 255 255
 -3.57361   6.09942 -0.431177 255 255 255
-1.91067  7.81243 -1.12515 255 255 255
 0.354707    6.6436 0.0365806 255 255 255
-3.76642   5.0801 0.206812 255 255 255
0.012799   8.3201 -0.91779 255 255 255
 -1.66684   7.56391 -0.695361 255 255 255
0.273711  7.19444 -0.31422 255 255 255
 -2.41938    7.2665 -0.907029 255 255 255
  1.2183  5.79542 0.283306 255 255 255
-0.962711   5.99683   -0.2652 255 255 255
 -4.15138   6.35401 -0.427228 255 255 255
 -2.84333   6.82207 -0.545442 255 255 255
-0.675033   6.30694 -0.136799 255 255 255
-0.734267   7.38262 -0.537089 255 255 255
 -3.31988   5.87499 -0.293966 255 255 255
 -3.42868   7.31902 -0.703423 255 255 255
 -3.38183   5.37575 0.0651806 255 255 255
 0.417732   7.54602 -0.476258 255 255 255
0.443723  7.37599 -0.40853 255 255 255
 -2.23525    7.6062 -0.994821 255 255 255
0.451391  8.25867  -1.0433 255 255 255
-0.377448   6.12552  0.323971 255 255 255
 1.63076  6.08635 0.189311 255 255 255
 -1.44996   7.30678 -0.544563 255 255 255
  -1.6898   6.16622 -0.401952 255 255 255
-0.922495   7.01689 -0.741941 255 255 255
-1.85594  6.55116 -0.26306 255 255 255
 0.937436   6.76782 -0.563205 255 255 255
-1.12115  3.28035 0.666088 255 255 255
-2.20601   2.5591  1.21616 255 255 255
-0.275472   3.53537  0.267619 255 255 255
0.793315  2.75315  1.62807 255 255 255
1.91442 3.61843 1.55035 255 255 255
 0.50756  4.47744 0.836213 255 255 255
-2.05028  3.82014  0.67758 255 255 255
1.76525   4.276 1.17898 255 255 255
 -1.6836  4.36191 0.462547 255 255 255
0.383281  5.17208 0.601364 255 255 255
-2.36563  3.81581   0.3209 255 255 255
-0.646455    3.9893  0.474634 255 255 255
 1.00311  4.93768 0.803664 255 255 255
1.05581 4.36197 1.19706 255 255 255
1.39369  3.1768 1.69766 255 255 255
0.131923  3.61657 0.317257 255 255 255
0.327353  3.83306 0.223267 255 255 255
-1.07675  3.55923 0.253084 255 255 255
0.418265  3.57618 0.491141 255 255 255
-2.87044  3.32164 0.334277 255 255 255
-0.490338   2.84646   1.39271 255 255 255
-1.82456  4.29137 0.617707 255 255 255
  0.4723  4.65138 0.912087 255 255 255
2.04387 2.88469 1.80937 255 255 255
-1.76874  2.43372 0.964998 255 255 255
 1.51801  4.78662 0.879216 255 255 255
1.31871 4.00317 1.08191 255 255 255
1.04612 2.43515  1.8908 255 255 255
-1.9701 3.19381 1.01402 255 255 255
-2.00888  3.49459  0.45489 255 255 255
-2.4922 2.35705 1.41802 255 255 255
-0.873651   2.51035   1.49052 255 255 255
-1.29502  4.19256 0.692723 255 255 255
-0.729167   2.87913    1.3549 255 255 255
-2.29448   4.0695 0.215703 255 255 255
-2.14153  3.22731  0.74588 255 255 255
-0.899511   3.00456   1.16389 255 255 255
-2.4312 2.93485 1.18693 255 255 255
-0.459239   2.39153   1.41634 255 255 255
-1.59216  4.60909 0.452982 255 255 255
-0.154379   4.45172   0.53134 255 255 255
-0.244446   4.10189  0.607115 255 255 255
-2.28847  4.06913  0.16115 255 255 255
1.83016 4.16419 1.26283 255 255 255
-1.29205  2.58108  1.43292 255 255 255
-0.613038   3.63317  0.173594 255 255 255
-1.53205  3.10309  1.18136 255 255 255
-0.832982   3.29625  0.411981 255 255 255
0.231938  2.79275    1.552 255 255 255
-2.68772   1.9714  1.27684 255 255 255
-2.08192  3.20901 0.991051 255 255 255
-2.58631  2.76058  1.25893 255 255 255
-1.05847  3.03673  1.01981 255 255 255
 1.21852  4.98276 0.735508 255 255 255
2.29397 2.70876 1.92602 255 255 255
-2.40901  1.76565   1.4239 255 255 255
1.04116 2.55093 1.63265 255 255 255
-2.16832  2.35024 0.993723 255 255 255
-0.281269   3.20468  0.470359 255 255 255
-1.74033  2.62909 0.986928 255 255 255
-2.28729  3.06481  1.04951 255 255 255
-0.873468   2.36689   1.43207 255 255 255
-0.145335   2.43569   1.40953 255 255 255
-1.91228  3.08037   1.0741 255 255 255
-1.90411  3.08557  1.03083 255 255 255
-0.0613732    3.59458   0.283086 255 255 255
 -2.4866  3.68556 0.238624 255 255 255
-2.58023  4.16788 0.130693 255 255 255
0.766157  2.38407  1.77133 255 255 255
0.0566647   2.46121   1.68917 255 255 255
-0.300286   4.40696  0.394317 255 255 255
-1.7956 2.44719  1.0055 255 255 255
-1.67877  4.55065 0.497834 255 255 255
-1.11818  4.01781 0.447262 255 255 255
-2.41737  3.07939 0.997825 255 255 255
-1.78096  3.30737 0.949808 255 255 255
-0.90713  4.39884 0.365567 255 255 255
-1.14141  4.75616 0.313863 255 255 255
-1.12845  3.23029 0.465063 255 255 255
-1.44385  3.17393  1.11474 255 255 255
0.0555747   3.45733  0.323668 255 255 255
-1.49156  2.47839  1.03416 255 255 255
-1.44477  3.49443 0.871909 255 255 255
2.12587 3.01585 1.83334 255 255 255
-2.05016  3.05741  1.15022 255 255 255
-2.04681  3.05928  1.12871 255 255 255
-0.400788     3.534  0.300541 255 255 255
-0.401892   3.53416  0.298371 255 255 255
-2.16444  3.07237  1.05736 255 255 255
-2.46378  2.05473  1.29696 255 255 255
-1.55434  3.90551 0.851852 255 255 255
-1.05174  4.68821 0.352589 255 255 255
0.611177  2.95631  1.41693 255 255 255
2.22269 3.13728 1.57876 255 255 255
-2.57147  3.05386  1.04529 255 255 255
-1.33902  2.83285  1.34119 255 255 255
-2.85561  2.41038  1.48704 255 255 255
-1.15514  2.40432  1.39529 255 255 255
-1.64595  3.27931   1.0894 255 255 255
-2.75892  2.25804  1.34651 255 255 255
-2.45566  2.29799   1.4339 255 255 255
0.626406  3.29016 0.610911 255 255 255
-2.07855  3.76223 0.557427 255 255 255
-0.977001   4.15893  0.419677 255 255 255
-2.86301  2.37524  1.40256 255 255 255
-0.516271   4.33503  0.346343 255 255 255
 -0.9609  3.63636 0.200409 255 255 255
-2.74876  2.94393   1.1843 255 255 255
-0.371316   3.19707  0.452854 255 255 255
-0.719558   4.65553  0.275624 255 255 255
-0.990458   3.82915  0.298025 255 255 255
-0.746347   2.35065   1.42276 255 255 255
0.123493  3.45631 0.338521 255 255 255
2.09394 3.70435 1.08012 255 255 255
-1.01983  4.40029 0.376109 255 255 255
-2.70304  2.89234  1.23678 255 255 255
