ply
format ascii 1.0
element vertex 638
property float x
property float y
property float z
property uchar red
property uchar green
property uchar blue
end_header
 0.0101793 0.00114996  0.0458023 0 255 0
0.0835281 -0.137278 -0.924055 0 255 0
0.0648067  -0.11267 -0.797821 0 255 0
-0.0830646  -0.686336    3.62027 255 255 255
   0.85912 -0.0602602    3.34157 255 255 255
 0.37265 0.112049  2.62283 255 255 255
  0.610084 -0.0900416    3.40636 255 255 255
0.496189 0.011425  3.10617 255 255 255
 0.878041 -0.315069   3.47516 255 255 255
 0.923783 -0.703336   3.39233 255 255 255
  0.716062 -0.0157498    3.33384 255 255 255
 0.995025 -0.146341   3.27294 255 255 255
 0.637438 0.0803061   3.02151 255 255 255
0.281374 0.223812  2.52549 255 255 255
  0.464623 -0.0644977     3.4341 255 255 255
0.0166043 -0.382886   3.13789 255 255 255
0.816969 0.133839  2.77137 255 255 255
0.0967635  -0.34537   3.32459 255 255 255
  1.02025 -0.235652   3.39806 255 255 255
-0.150074 -0.434247   3.42374 255 255 255
  0.57546 -0.552363   3.26615 255 255 255
 -1.96208 -0.811046   5.96723 255 255 255
  1.51243 -0.722736   3.90168 255 255 255
-0.0683056  -0.576706    3.40987 255 255 255
-0.0297148  -0.669969    3.48978 255 255 255
0.572143 0.128387  3.07798 255 255 255
-0.0073087  -0.546473    3.34692 255 255 255
 0.731479 0.0910741   2.88019 255 255 255
0.0762364 -0.392226   3.06492 255 255 255
 0.890594 -0.208197   3.43464 255 255 255
0.709075  -0.1876  3.24103 255 255 255
  1.23378 -0.511693   3.76421 255 255 255
  0.20697 -0.300306   3.33285 255 255 255
  1.30612 -0.447364   3.55394 255 255 255
0.679051 0.210749  2.76753 255 255 255
  0.65348 -0.497864   3.26921 255 255 255
 0.768115 -0.552931   3.32221 255 255 255
  0.480784 -0.0287774    3.66729 255 255 255
 1.06342 -0.29145  3.43488 255 255 255
0.461047 0.238142  2.32394 255 255 255
-0.127141 -0.657114    3.5483 255 255 255
 0.953799 -0.119027   3.28078 255 255 255
0.660121 0.185997   2.7972 255 255 255
0.468885 0.277025  2.34344 255 255 255
0.399906 0.199542  2.39114 255 255 255
0.588443 0.152299  2.91766 255 255 255
 0.807953 -0.471843   3.70735 255 255 255
  1.23836 -0.462323   3.64943 255 255 255
0.0519714 -0.731877   3.47528 255 255 255
0.678493 0.169568  2.76297 255 255 255
  1.44155 -0.894513   4.17797 255 255 255
  1.52352 -0.635961   3.69694 255 255 255
0.00639432  -0.415226    3.25965 255 255 255
 0.929734 0.0380983   2.90468 255 255 255
  1.32998 -0.851932   4.17988 255 255 255
 0.994912 -0.317087   3.52225 255 255 255
1.36104 -0.3903 3.44812 255 255 255
-0.488629 -0.541984   3.67155 255 255 255
0.565422  0.14038  3.01256 255 255 255
 0.35914 0.267848  2.72863 255 255 255
  1.05514 -0.313918   3.58982 255 255 255
  1.35448 -0.430051   3.55959 255 255 255
 0.417303 -0.141597   3.71716 255 255 255
-0.172637 -0.668132   3.56953 255 255 255
  1.11035 -0.175845    3.2316 255 255 255
 0.38744 -0.31532  3.84043 255 255 255
 -2.02214 -0.334673   5.71452 255 255 255
0.765306 0.087086  2.80579 255 255 255
-0.463774 -0.671483   3.66956 255 255 255
 0.923014 -0.291501    3.6006 255 255 255
   0.9161 -0.154278   3.40247 255 255 255
    1.275 -0.585305   3.72434 255 255 255
   1.13309 -0.0499945    3.04839 255 255 255
-0.0895158  -0.264949      3.268 255 255 255
0.937448 -0.25371  3.50887 255 255 255
 0.827538 -0.645784   3.33637 255 255 255
0.00527231  -0.713236    3.39988 255 255 255
-0.102722 -0.552496   3.40206 255 255 255
 0.175067 -0.757714   3.53533 255 255 255
  1.06758 -0.338618   3.55559 255 255 255
 0.945199 -0.161129   3.40389 255 255 255
  1.30374 -0.315591   3.46186 255 255 255
 -2.05211 -0.287214   5.87908 255 255 255
  1.25889 -0.384407   3.55063 255 255 255
-0.476532 -0.867708   4.02801 255 255 255
 0.340354 -0.624011   3.23124 255 255 255
  1.55255 -0.752585   3.89246 255 255 255
  1.12629 -0.296752   3.41153 255 255 255
  1.15179 -0.251725   3.35496 255 255 255
 0.837028 0.0202248   3.09163 255 255 255
   1.12609 -0.0291117    3.04421 255 255 255
  1.35396 -0.497232   3.54169 255 255 255
 1.47377 -0.56336  3.71311 255 255 255
-0.0992908  -0.665125    3.44438 255 255 255
  1.25629 -0.130201   3.12928 255 255 255
 -0.62622 -0.610482   3.78103 255 255 255
 0.574989 -0.380398   4.07809 255 255 255
  1.31464 -0.342168   3.40254 255 255 255
  1.26516 -0.399245   3.51886 255 255 255
    1.15221 0.000393446     2.99035 255 255 255
  1.07077 -0.186245   3.25799 255 255 255
0.639068 0.196699  2.83158 255 255 255
 0.794815 -0.482294   3.80591 255 255 255
-0.00712195   -0.515931     3.39063 255 255 255
0.626059 0.188455  2.84606 255 255 255
-0.479484 -0.592809   3.57765 255 255 255
-0.157494 -0.547092   3.48467 255 255 255
  1.29455 -0.377656   3.46558 255 255 255
-0.0731461  -0.448083    3.18822 255 255 255
 0.618024 -0.155942   3.06605 255 255 255
   1.3387 -0.475474   3.58244 255 255 255
-0.535591 -0.630059   3.62763 255 255 255
-0.0867061  -0.523778    3.29027 255 255 255
 0.343903 -0.135045   3.53679 255 255 255
-0.106668 -0.653861   3.51736 255 255 255
  1.06073 -0.191854   3.29273 255 255 255
  1.31686 -0.659119   3.88553 255 255 255
0.597011 0.290356  2.51897 255 255 255
 0.387283 -0.298508   4.07252 255 255 255
-0.504012 -0.572653   3.59341 255 255 255
  1.33971 -0.666664   3.80069 255 255 255
  0.487141 -0.0928748    3.46188 255 255 255
0.531433 0.310226  2.42442 255 255 255
  1.27721 -0.512551   3.76925 255 255 255
0.304542 -0.53313  3.13494 255 255 255
-0.0582333  -0.706162    3.34956 255 255 255
-9.78868e-05    -0.727326      3.34114 255 255 255
 0.732993 -0.625813   3.31676 255 255 255
  1.00348 -0.329099   3.54949 255 255 255
  1.48157 -0.849741   4.08539 255 255 255
-0.397995 -0.694873     3.671 255 255 255
-0.0283243  -0.729419    3.40564 255 255 255
   1.19262 -0.0767716     3.0005 255 255 255
0.456372 0.460571  2.21045 255 255 255
-0.480069 -0.819729   3.96744 255 255 255
  1.29374 -0.567109   3.71684 255 255 255
-0.329056 -0.601194   3.56483 255 255 255
  1.12767 -0.200576   3.26456 255 255 255
  1.18514 -0.715818   4.12953 255 255 255
 0.878918 -0.177311   3.44196 255 255 255
-0.596497 -0.840016   4.07742 255 255 255
  1.11095 -0.228435   3.34061 255 255 255
 0.937294 -0.211906   3.46839 255 255 255
-0.524886 -0.613315   3.67393 255 255 255
0.804728 0.156351  2.74107 255 255 255
  1.24736 -0.406783   3.59116 255 255 255
-0.140141 -0.590964   3.50937 255 255 255
   1.2898 -0.635862   3.90059 255 255 255
-0.0819386  -0.695925      3.347 255 255 255
0.441805 0.458161  2.21279 255 255 255
  1.21565 -0.488931   3.75537 255 255 255
 -2.05946 -0.287842   5.80171 255 255 255
  1.16246 -0.201865   3.24995 255 255 255
 0.727652 0.0407882   3.09112 255 255 255
0.774118 0.107087  2.74597 255 255 255
 0.993022 -0.096283   3.25457 255 255 255
0.269457 0.417791  2.28733 255 255 255
  1.00086 -0.306972   3.53104 255 255 255
  1.41535 -0.916045   4.15388 255 255 255
-0.105652 -0.608658   3.50997 255 255 255
 0.121981 -0.585078   3.33174 255 255 255
 0.142788 -0.647021   3.40293 255 255 255
 0.132187 -0.364907   3.34251 255 255 255
 0.619486 -0.572419   3.30175 255 255 255
-0.559634 -0.673524   3.64991 255 255 255
  1.58867 -0.915494   4.11141 255 255 255
0.256833 0.432818  2.23808 255 255 255
0.0365556 -0.558761   3.34876 255 255 255
-0.55028 -0.71207  3.74303 255 255 255
  1.58608 -0.773706   3.94537 255 255 255
 0.772886 0.0765898   2.91758 255 255 255
  0.8163 0.322267  2.27105 255 255 255
0.0114484 -0.308931   3.25198 255 255 255
 0.632027 -0.489307   3.42431 255 255 255
 0.145747 -0.359843   3.27851 255 255 255
  0.659766 -0.0173714      3.387 255 255 255
 0.358069 0.0994877   2.41004 255 255 255
-0.411184 -0.694755   3.61743 255 255 255
 -0.55159 -0.688584   3.66966 255 255 255
-0.312803 -0.456625   3.72961 255 255 255
 0.028201 -0.462249   3.25172 255 255 255
 0.115231 -0.605551   3.35256 255 255 255
0.223872   -0.304  3.41052 255 255 255
0.0226754 -0.772996   3.46014 255 255 255
-0.604994 -0.628811   3.81962 255 255 255
0.599841 0.175008   2.8528 255 255 255
 0.604247 -0.576675   3.31129 255 255 255
  1.23624 -0.770481   4.20786 255 255 255
 0.276145 0.0924409   2.46156 255 255 255
0.268406 0.415048  2.33282 255 255 255
 0.953705 -0.145071   3.29559 255 255 255
 1.34065 -0.67159  3.87447 255 255 255
0.721568 0.223234  2.76392 255 255 255
0.471519 0.262328  2.29589 255 255 255
0.0820271 -0.673669   3.45813 255 255 255
  1.27412 -0.518434   3.70123 255 255 255
 0.43697 0.049533  2.57903 255 255 255
-0.0301972  -0.526514    3.38444 255 255 255
   1.5069 -0.606648   3.69699 255 255 255
  1.11059 -0.215773   3.34438 255 255 255
   1.2712 -0.950005   4.21919 255 255 255
  1.31215 -0.859339   4.21905 255 255 255
 0.138769 -0.566933   3.30973 255 255 255
  1.45888 -0.651307   3.84575 255 255 255
 0.44403 0.214991  2.35412 255 255 255
  0.13095 -0.668775   3.43573 255 255 255
  1.19702 -0.732183   4.13483 255 255 255
 -2.06771 -0.320088   5.78034 255 255 255
0.590878 0.188119  2.89291 255 255 255
 0.395967 -0.110348   3.66602 255 255 255
  1.62343 -0.941965   4.10183 255 255 255
0.724718 0.199965  2.51903 255 255 255
-0.020641 -0.353405   3.10759 255 255 255
 0.248291 -0.607246    3.2705 255 255 255
-0.168513 -0.525007   3.43642 255 255 255
0.716693   0.1695  2.71976 255 255 255
-0.624151 -0.847261   4.08123 255 255 255
 0.377078 0.0950621    2.4203 255 255 255
-0.00241138   -0.651457     3.41278 255 255 255
  1.15215 -0.702538   4.15148 255 255 255
-0.0458852  -0.754686    3.43528 255 255 255
 0.196611 -0.540348   3.24501 255 255 255
 0.068744 -0.429006   3.17235 255 255 255
0.557494 0.181472   2.9408 255 255 255
  1.35547 -0.512733   3.56447 255 255 255
 0.573052 -0.197956    3.3293 255 255 255
  1.36342 -0.410354   3.51978 255 255 255
 0.259965 -0.720827   3.42996 255 255 255
0.808585 0.328122  2.24792 255 255 255
 0.119892 -0.690326   3.46268 255 255 255
-0.690131 -0.638658   3.85641 255 255 255
0.218401 0.253995  2.21347 255 255 255
0.396492 0.164384  2.53795 255 255 255
0.644787 0.146502  2.94724 255 255 255
 0.615969 -0.188566   3.11816 255 255 255
 0.558605 -0.410291   3.60323 255 255 255
  1.32112 -0.421479   3.52537 255 255 255
   0.582383 -0.00662787       3.439 255 255 255
 0.186161 -0.563227   3.28972 255 255 255
  0.5161 -0.39291  3.61058 255 255 255
 0.323667 0.0766038   2.46379 255 255 255
 0.541058 -0.108114   3.48297 255 255 255
   1.08046 -0.0722326    3.16467 255 255 255
 0.462824 -0.113532   3.46436 255 255 255
0.626342 0.260427  2.74381 255 255 255
-0.376949 -0.668303   3.63774 255 255 255
-0.149148 -0.532168   3.52837 255 255 255
  1.1506 -0.18688   3.2613 255 255 255
0.934484 0.269522  2.35025 255 255 255
  1.32544 -0.892655   4.21286 255 255 255
 0.855521 -0.152498   3.44623 255 255 255
0.746075 0.180781  2.51059 255 255 255
  0.34863 0.0354431   2.76069 255 255 255
0.922706 0.362575  2.21801 255 255 255
  1.38733 -0.379479   3.46617 255 255 255
-0.0942931  -0.593393    3.48033 255 255 255
-0.574152 -0.601477   3.77091 255 255 255
0.362288 0.089526  2.44196 255 255 255
 -2.08905 -0.255501   5.84918 255 255 255
 0.878041 -0.315069   3.47516 255 255 255
 -2.10479 -0.411112   6.07061 255 255 255
-0.0826164  -0.327214    2.95234 255 255 255
-0.0674924  -0.496756    3.30209 255 255 255
   1.2047 -0.561911   3.88641 255 255 255
  0.46388 -0.507189   3.36884 255 255 255
0.273907 0.347852  2.18893 255 255 255
  1.23906 -0.642219   3.88693 255 255 255
0.427295  0.29348  2.12205 255 255 255
0.284273 0.407046  2.21951 255 255 255
  1.30995 -0.584175   3.71923 255 255 255
 0.540662 -0.388481   3.60922 255 255 255
  1.38807 -0.621197   3.75311 255 255 255
  1.21331 -0.144652   3.17059 255 255 255
-1.96061 -0.74426  5.89551 255 255 255
 0.77825 0.167729  2.75908 255 255 255
 0.432777 -0.377494   3.46886 255 255 255
   0.83192 0.00329107    3.14832 255 255 255
0.723415  0.21493  2.53194 255 255 255
 0.503381 -0.524148   3.30501 255 255 255
 1.23339 -0.16425  3.18571 255 255 255
-0.102897 -0.468555   3.41802 255 255 255
0.607643 0.193555  2.84805 255 255 255
0.654372 0.240182  2.49977 255 255 255
 0.719855 -0.418605   3.97245 255 255 255
 1.26979 -0.34629  3.46835 255 255 255
0.592534 0.208563  2.80857 255 255 255
0.644512 0.235495   2.7425 255 255 255
 0.641812 -0.192298   3.09261 255 255 255
 1.00141 0.192605  2.48175 255 255 255
  1.11709 0.0472951   2.93517 255 255 255
  1.26124 -0.455923   3.62872 255 255 255
-0.505848 -0.531042   3.56288 255 255 255
 0.254909 -0.512496   3.14146 255 255 255
  1.08139 -0.215157   3.35379 255 255 255
0.687251 0.249148  2.71289 255 255 255
  0.679557 -0.0221672    3.38911 255 255 255
  1.18551 -0.715442   4.12962 255 255 255
  1.17346 -0.194518   3.25805 255 255 255
 0.845124 -0.169836   3.43392 255 255 255
0.682185 0.356271  2.31886 255 255 255
0.682185 0.356271  2.31886 255 255 255
  0.391343 -0.0311368    3.32572 255 255 255
  -1.9709 -0.365522   5.82606 255 255 255
0.420311 0.387414  2.28588 255 255 255
-0.135451  -0.58943   3.49696 255 255 255
 -0.42078 -0.701331   3.67493 255 255 255
0.561702 0.190513  2.89364 255 255 255
-0.310028 -0.454163   3.71016 255 255 255
 0.976795 -0.155771   3.25973 255 255 255
 -1.99543 -0.776208   5.91001 255 255 255
 -0.55159 -0.688584   3.66966 255 255 255
 0.416753 0.0412947    2.5944 255 255 255
 0.632862 -0.174757   3.16924 255 255 255
 -2.08089 -0.242021   5.87443 255 255 255
0.0923915  -0.65171   3.42953 255 255 255
  1.20441 -0.108083   3.11971 255 255 255
  1.38901 -0.309005   3.38177 255 255 255
-0.190639 -0.717355   3.66874 255 255 255
0.377963 0.396762  2.44636 255 255 255
  0.97026 -0.202025   3.45154 255 255 255
   1.24921 -0.0512122    3.00277 255 255 255
 0.940878 -0.630072   3.40132 255 255 255
 0.940878 -0.630072   3.40132 255 255 255
0.223872   -0.304  3.41052 255 255 255
-0.0789064  -0.656075    3.49398 255 255 255
0.0444629 -0.614655   3.41725 255 255 255
 0.743042 0.0970522   2.80753 255 255 255
 0.298516 -0.633808   3.31666 255 255 255
-0.0149468  -0.763802    3.43092 255 255 255
 -1.76343 -0.613839   5.79397 255 255 255
 0.557061 -0.150772   3.54274 255 255 255
  0.5161 -0.39291  3.61058 255 255 255
0.935047 0.368596  2.24758 255 255 255
  0.9456 0.131634    2.565 255 255 255
-0.480991  -0.55633   3.57818 255 255 255
-0.337009   -0.6215   3.59926 255 255 255
0.860003 0.291261  2.28364 255 255 255
 0.878278 -0.192776   3.46647 255 255 255
0.0685232 -0.432179   3.19523 255 255 255
0.388171 0.120503  2.46211 255 255 255
0.252192  0.45397   2.2776 255 255 255
 0.025169 -0.720866   3.52154 255 255 255
  1.18242 -0.241701   3.37281 255 255 255
 0.74161 0.213228  2.53478 255 255 255
0.241628 0.281451   2.1649 255 255 255
 0.997234 -0.531959   4.14237 255 255 255
0.876059 0.277022  2.27717 255 255 255
  0.909447 -0.0615142    3.26561 255 255 255
0.472947 0.251955  2.29978 255 255 255
   1.3896 -0.386221   3.45087 255 255 255
0.591289 0.260413  2.46072 255 255 255
  1.32805 -0.809017    4.1241 255 255 255
  0.492507 -0.0722718    3.54516 255 255 255
  1.17337 -0.711241   4.16291 255 255 255
  1.41993 -0.935036   4.16016 255 255 255
0.710911 0.393696  2.21496 255 255 255
-0.490135 -0.847992   3.99875 255 255 255
0.786848 0.349577  2.25345 255 255 255
   1.26142 -0.0626363    3.03808 255 255 255
0.220056  0.44145  2.12748 255 255 255
0.0500938 -0.750789   3.42076 255 255 255
 0.679912 -0.378665   3.98031 255 255 255
0.674663 0.238186  2.75789 255 255 255
  1.5287 -0.60713  3.71864 255 255 255
0.358102 0.393481  2.26391 255 255 255
   1.1622 0.0100539   2.97278 255 255 255
  1.21331 -0.749898   4.16421 255 255 255
 0.582949 -0.196683   3.30676 255 255 255
  0.7926 0.336517  2.23791 255 255 255
0.431124 0.205185  2.50751 255 255 255
  1.33698 -0.444873    3.5719 255 255 255
  0.79252 0.0141264   3.07946 255 255 255
-0.112112 -0.482046   3.32402 255 255 255
  1.05416 -0.307412   3.41736 255 255 255
0.531337 0.437695  2.23111 255 255 255
0.326719  0.37334  2.41341 255 255 255
 1.07619 -0.28831  3.37189 255 255 255
-0.0227608  -0.686748    3.46683 255 255 255
 0.68701 0.219615  2.75449 255 255 255
 -0.50018 -0.627098   3.56669 255 255 255
0.115328 -0.75466  3.51606 255 255 255
 0.068412 -0.740502   3.47173 255 255 255
 0.751823 0.0698922   2.88117 255 255 255
 0.572257 -0.209941   3.43352 255 255 255
0.864171 0.292026  2.26792 255 255 255
0.689935 0.236015  2.74587 255 255 255
-0.638188 -0.612288    3.6797 255 255 255
   1.4908 -0.511011   3.62356 255 255 255
  0.595175 -0.0192271     3.4704 255 255 255
0.451392 0.276513   2.2481 255 255 255
   1.13065 -0.0105416    3.03224 255 255 255
0.672939 0.146514  2.85066 255 255 255
  1.28335 -0.930863   4.20266 255 255 255
 -1.98633 -0.755418   5.89422 255 255 255
  1.08197 -0.274647   3.40845 255 255 255
   1.14772 0.00234101    2.99822 255 255 255
-0.0483152  -0.678047    3.42142 255 255 255
 1.49635 -0.65545  3.62742 255 255 255
  1.07609 -0.264451   3.41593 255 255 255
0.193353 0.498759  2.24352 255 255 255
 0.374542 -0.508494   3.08079 255 255 255
  1.44467 -0.570259   3.70827 255 255 255
 0.995721 -0.520726    3.9271 255 255 255
 0.440229 -0.403619   3.31422 255 255 255
0.699089 0.116961  2.90248 255 255 255
-0.0874242  -0.261838    3.23391 255 255 255
 0.755643 0.0696541   2.70836 255 255 255
  1.24475 -0.453098   3.57161 255 255 255
 0.122977 -0.400904   3.06771 255 255 255
0.00124544  -0.401987     3.1898 255 255 255
0.442605 0.462741  2.22392 255 255 255
0.401144 -0.38384  3.39325 255 255 255
-0.402436 -0.552729   3.47507 255 255 255
  1.23624 -0.770481   4.20786 255 255 255
-0.378258 -0.670391   3.64958 255 255 255
-0.128122 -0.674594   3.33801 255 255 255
0.252992 -0.56533  3.26246 255 255 255
-0.0417175  -0.736693    3.39201 255 255 255
0.461266 0.474116   2.2254 255 255 255
   1.04044 -0.0161953    3.05348 255 255 255
0.628406  0.23342  2.73683 255 255 255
   1.16263 -0.0479745    3.06197 255 255 255
 0.248973 -0.742495   3.46195 255 255 255
 -2.04493 -0.328017   5.76056 255 255 255
0.764043 0.352309  2.22104 255 255 255
  0.910369 -0.0613963    3.26839 255 255 255
   1.02969 -0.0919978    3.22582 255 255 255
 0.138485 -0.448834   3.07218 255 255 255
0.0691771 -0.438599   3.15717 255 255 255
  1.53545 -0.858074   4.14813 255 255 255
  1.17337 -0.711241   4.16291 255 255 255
  1.05691 -0.154328   3.24626 255 255 255
0.0319447 -0.730699   3.51862 255 255 255
 1.07619 -0.28831  3.37189 255 255 255
0.448191 0.213437  2.46697 255 255 255
-0.576588 -0.532171   3.56942 255 255 255
  0.74375 0.0848791   2.84302 255 255 255
0.748476  0.14472  2.75457 255 255 255
 0.592497 -0.202094   3.24944 255 255 255
   1.17912 0.00249326    2.96328 255 255 255
0.00862114  -0.504906     3.3893 255 255 255
 -2.16765 -0.207665   6.00087 255 255 255
-0.129634 -0.493294    3.3747 255 255 255
 1.07872 -0.41378  3.67894 255 255 255
  1.37682 -0.866373   4.17009 255 255 255
  0.72816 -0.421606   4.01192 255 255 255
 0.939363 -0.160935   3.38454 255 255 255
 -0.62622 -0.610482   3.78103 255 255 255
   1.2677 -0.396869    3.5225 255 255 255
0.0285109 -0.302099   3.17255 255 255 255
-0.0910838   -0.74576    3.41523 255 255 255
  1.28249 -0.420053   3.55532 255 255 255
 0.878704 -0.152741   3.39494 255 255 255
  1.47745 -0.676598   3.85835 255 255 255
-0.184806 -0.653884   3.60246 255 255 255
 1.14121 -0.69635  4.11328 255 255 255
-0.0819386  -0.695925      3.347 255 255 255
-0.530421 -0.682035   3.64052 255 255 255
  0.869231 -0.0603066    3.37938 255 255 255
0.503021 0.199865  2.87091 255 255 255
  1.39413 -0.721416   3.91165 255 255 255
0.501234 0.430557  2.21776 255 255 255
 0.826437 0.0965998   2.66162 255 255 255
  1.27666 -0.494245   3.74209 255 255 255
0.00501135   -0.71118    3.38858 255 255 255
0.347254 0.116753  2.43136 255 255 255
  1.25889 -0.384407   3.55063 255 255 255
  1.17498 -0.751682   4.08956 255 255 255
  1.22869 -0.632983   3.99192 255 255 255
0.795418 0.273513  2.36344 255 255 255
0.639969 0.427039  2.15185 255 255 255
 0.324792 -0.439784   3.25608 255 255 255
-0.330629 -0.603828   3.58079 255 255 255
-0.543013 -0.701396    3.6673 255 255 255
-0.508218 -0.616521   3.58993 255 255 255
-0.530421 -0.682035   3.64052 255 255 255
0.388171 0.120503  2.46211 255 255 255
0.599841 0.175008   2.8528 255 255 255
-0.632882 -0.616426    3.7351 255 255 255
  1.45799 -0.818513   4.09142 255 255 255
  1.33605 -0.332194   3.39262 255 255 255
   1.3823 -0.785559   4.07202 255 255 255
0.394806 0.045218  2.51809 255 255 255
0.700474 0.380125  2.19032 255 255 255
-0.165344  -0.69375   3.43134 255 255 255
 0.138648 -0.631614   3.38555 255 255 255
0.0865509 -0.688715   3.46123 255 255 255
  1.15799 -0.720789   4.12515 255 255 255
0.817191 0.302246  2.22341 255 255 255
0.663434 0.342208  2.33644 255 255 255
  1.31084 -0.602506   3.73426 255 255 255
  1.13122 -0.168257   3.24282 255 255 255
0.762269 0.349884  2.23379 255 255 255
  1.32356 -0.807208   4.29161 255 255 255
 0.186748 -0.745609   3.50753 255 255 255
0.815669 -0.18059  3.31203 255 255 255
  1.32544 -0.892655   4.21286 255 255 255
0.940694 0.260285  2.34398 255 255 255
0.333568 0.125702  2.47449 255 255 255
 0.401175 -0.371582   3.40889 255 255 255
  1.36783 -0.835635   4.17672 255 255 255
-0.343878 -0.583713   3.61929 255 255 255
0.508776  0.38831  2.29417 255 255 255
-0.539564 -0.614587   3.66562 255 255 255
0.659861 0.207625  2.73767 255 255 255
  1.34901 -0.812897   4.12301 255 255 255
-1.33638 -1.08509  5.56868 255 255 255
 0.151021 -0.431163    3.0695 255 255 255
0.346122 0.219986  2.83075 255 255 255
 1.00332 0.207088  2.45161 255 255 255
0.913641 0.275937  2.31808 255 255 255
 0.193643 -0.708466   3.46571 255 255 255
-0.157785 -0.560864   3.47726 255 255 255
0.736013 0.129748   2.7563 255 255 255
0.873979 0.366382  2.21868 255 255 255
0.469676 0.477712  2.18265 255 255 255
  1.36657 -0.357152   3.43883 255 255 255
 1.29382 -0.75439  4.12031 255 255 255
 0.48573 0.332261  2.37995 255 255 255
0.529123 0.300375  2.43928 255 255 255
 0.981568 -0.281253   3.50159 255 255 255
0.754705 0.359804   2.2233 255 255 255
 0.94937 0.249348   2.3333 255 255 255
-0.590073 -0.607555   3.77924 255 255 255
0.745382 0.176054  2.59545 255 255 255
0.465906 0.472413  2.19193 255 255 255
   1.3855 -0.820032   4.14992 255 255 255
0.855669 0.239674  2.40407 255 255 255
 0.340185 0.0243917   2.68759 255 255 255
  1.45201 -0.502495   3.61412 255 255 255
-0.488697 -0.876979   4.05432 255 255 255
0.630189  0.22317  2.74607 255 255 255
0.728634 0.188601  2.51053 255 255 255
   1.4423 -0.656376   3.84507 255 255 255
    1.131 -0.219942    3.2871 255 255 255
  1.38434 -0.923167   4.15901 255 255 255
0.775908 0.166797  2.75076 255 255 255
0.834146 0.178636  2.81687 255 255 255
0.580912 0.218737  2.84179 255 255 255
0.896379 0.317549  2.23805 255 255 255
0.525853 -0.35844  3.87019 255 255 255
-0.577801 -0.698549   3.71991 255 255 255
-0.260801 -0.611831   3.60007 255 255 255
0.77474 0.33802 2.23162 255 255 255
  1.34841 -0.498546   3.54503 255 255 255
0.0418162 -0.627587   3.40656 255 255 255
 0.623996 -0.187353   3.16385 255 255 255
   1.3967 -0.556731   3.63771 255 255 255
 0.259965 -0.720827   3.42996 255 255 255
-0.0227608  -0.686748    3.46683 255 255 255
 1.00156 -0.34988  3.60367 255 255 255
0.749475 0.361467  2.23275 255 255 255
0.747933 0.371873  2.23418 255 255 255
0.368528  0.37871  2.42836 255 255 255
0.438186 0.202992  2.37684 255 255 255
 1.32762 -0.92692   4.1655 255 255 255
-0.114411 -0.456535   3.28655 255 255 255
  1.25538 -0.373504   3.50631 255 255 255
 0.80789 0.246212  2.46821 255 255 255
  1.26869 -0.148701   3.15734 255 255 255
  1.29156 -0.585198   3.72162 255 255 255
 0.823928 0.0500548   2.70726 255 255 255
1.23428  -0.478   3.707 255 255 255
  1.37297 -0.420496   3.52939 255 255 255
0.631478 0.223937  2.75071 255 255 255
0.402896 0.156555   2.4281 255 255 255
0.959697 0.254239   2.3877 255 255 255
   1.3561 -0.644935   3.87078 255 255 255
  1.45201 -0.502495   3.61412 255 255 255
 0.981098 0.0471289   2.92569 255 255 255
  1.34671 -0.807919   4.14364 255 255 255
-0.696184 -0.717553   3.98498 255 255 255
  1.09016 -0.556189   3.77747 255 255 255
  1.36493 -0.534602    3.5944 255 255 255
 0.786256 -0.469393   3.88786 255 255 255
 -1.84957 -0.599802   5.81394 255 255 255
  -1.9709 -0.365522   5.82606 255 255 255
-0.577801 -0.698549   3.71991 255 255 255
0.735098 0.222151   2.4806 255 255 255
0.589832 0.289081   2.4725 255 255 255
  0.49833 -0.412797   3.36664 255 255 255
0.802253 0.333828  2.26817 255 255 255
-0.0214071  -0.548488    3.22811 255 255 255
 0.307666 -0.614319   3.29738 255 255 255
0.297427 0.408845  2.29788 255 255 255
 -2.09911 -0.281163   5.76666 255 255 255
  1.29103 -0.421275   3.52276 255 255 255
-0.0824515  -0.380804    3.17903 255 255 255
  1.23424 -0.571117   3.84593 255 255 255
 0.671031 -0.407722   4.07745 255 255 255
-2.17187 -0.23499  5.91611 255 255 255
0.620873 0.224111  2.75736 255 255 255
  1.34125 -0.772724   4.16538 255 255 255
0.476573 0.261272   2.2794 255 255 255
  1.47756 -0.550055   3.69416 255 255 255
 0.344793 0.0509583    2.4634 255 255 255
 1.37034 -0.81741   4.1403 255 255 255
 -2.08157 -0.294786   5.80458 255 255 255
-1.31801 -1.07006  5.49351 255 255 255
 0.241865 -0.577919   3.22458 255 255 255
0.728854 -0.39872  3.99945 255 255 255
 -0.69273 -0.714937    3.9687 255 255 255
0.327343 0.131399  2.46521 255 255 255
-0.266375 -0.580373   3.45626 255 255 255
0.400509 -0.38429  3.39312 255 255 255
 0.550914 -0.108393   3.53924 255 255 255
 0.45933 0.226202  2.30456 255 255 255
0.0426875 -0.445641   3.25006 255 255 255
0.730479 0.362821  2.21105 255 255 255
0.360742 0.123286  2.39762 255 255 255
-0.186106 -0.704838   3.68146 255 255 255
0.358025 0.238264  2.81687 255 255 255
0.531409 0.437212  2.23105 255 255 255
  1.35909 -0.329479   3.38077 255 255 255
 0.77305 0.168762  2.53368 255 255 255
  0.92505 -0.239897   3.37627 255 255 255
  0.25006 -0.281429   3.45755 255 255 255
0.580912 0.218737  2.84179 255 255 255
-0.397995 -0.694873     3.671 255 255 255
0.254744 0.481791  2.25606 255 255 255
0.383727 0.307982  2.21044 255 255 255
  1.29814 -0.805421   4.16644 255 255 255
  1.26971 -0.470045   3.64003 255 255 255
 -1.97392 -0.848364   5.98659 255 255 255
 0.901814 -0.274537   3.53571 255 255 255
0.347135 0.116491  2.43131 255 255 255
0.695809  0.39446  2.21688 255 255 255
0.508776  0.38831  2.29417 255 255 255
0.847763 0.298112  2.26576 255 255 255
-0.136577  -0.60747   3.54708 255 255 255
  1.13471 -0.291818   3.47612 255 255 255
 1.31042 -0.34225  3.39307 255 255 255
-0.464175 -0.634841   3.59773 255 255 255
 0.506011 -0.430453   3.39578 255 255 255
-0.041418 -0.518934   3.36089 255 255 255
  1.08702 -0.365133   3.61069 255 255 255
 0.721475 -0.498318   3.48143 255 255 255
  -1.9426 -0.330193   5.80781 255 255 255
