ply
format ascii 1.0
element vertex 1155
property float x
property float y
property float z
property uchar red
property uchar green
property uchar blue
end_header
-1.27991 0.181217  2.79381 255 255 255
  -1.14518 -0.0340989    2.90425 255 255 255
  -1.24884 -0.0404513    2.94058 255 255 255
 -1.05111 0.0478121   2.89648 255 255 255
-0.338359 0.0964857   2.62778 255 255 255
 -0.254014 -0.0255787    2.71522 255 255 255
-0.985773    0.1716   2.84661 255 255 255
-0.311798  0.099203   2.64947 255 255 255
-0.385127  0.428642   2.75572 255 255 255
-0.864091  0.355483   2.73798 255 255 255
 -0.467528 -0.0584417    2.77144 255 255 255
  -0.370984 -0.00424038     2.72914 255 255 255
 -0.448464 -0.0539745    2.76145 255 255 255
 -1.11865 0.0625488   2.88862 255 255 255
-0.330802 0.0478538   2.72297 255 255 255
-0.367282  0.112557   2.63543 255 255 255
-0.37999  0.17386   2.6013 255 255 255
-1.06929 0.197855   2.8218 255 255 255
-0.549718  0.161612   2.63891 255 255 255
-0.657638  0.185505   2.61669 255 255 255
  -1.14045 -0.0926412    2.91619 255 255 255
 -1.21186 0.0283846   2.90453 255 255 255
-1.09336 0.151244  2.82553 255 255 255
-0.0986717   0.026972    2.71249 255 255 255
-0.0866566 0.00482851    2.75824 255 255 255
 -0.259744 -0.0114979    2.72544 255 255 255
-0.480477 -0.126645   2.77974 255 255 255
-0.0847143   0.191882    2.84128 255 255 255
-0.934161  0.261851   2.80544 255 255 255
-0.633897  0.412321   2.72383 255 255 255
-0.978932 -0.452443   2.95471 255 255 255
-0.169664  0.205175   2.91193 255 255 255
  -1.24548 -0.0195795     2.9373 255 255 255
-0.945468  0.175548   2.82435 255 255 255
-0.831384 -0.341929   2.92518 255 255 255
-0.651833  0.454948   2.70366 255 255 255
-0.255255 0.0980441   2.65898 255 255 255
-0.680124  0.331193   2.48419 255 255 255
 -0.271028 -0.0301385    2.72135 255 255 255
-0.411797  0.010675   2.72954 255 255 255
 -1.15526 -0.271384   2.86183 255 255 255
-1.05203 0.269844  2.75715 255 255 255
-0.0782095 -0.0583895    2.82528 255 255 255
-0.497297  0.393704   2.71406 255 255 255
-0.182351 0.0707981   2.68494 255 255 255
-0.232835  0.251843   2.77631 255 255 255
-0.326945  0.314854   2.75986 255 255 255
-0.97918 0.313889  2.76278 255 255 255
-0.350734  0.124344   2.65758 255 255 255
-0.203494  0.410486   2.78777 255 255 255
-1.24122 0.198599  2.80321 255 255 255
-0.179478 0.0167416   2.70148 255 255 255
-0.873992  0.315582   2.76497 255 255 255
-0.546355   0.21735   2.59587 255 255 255
-0.504614 -0.188922   2.83663 255 255 255
-0.955683  0.229205   2.82224 255 255 255
-1.09594 -0.22542  2.88545 255 255 255
-0.581091  0.500845   2.70323 255 255 255
-0.557705  0.388786   2.76659 255 255 255
-0.462814  0.355244   2.70052 255 255 255
-0.518547 -0.148126   2.82625 255 255 255
-0.744365 -0.472288   3.03198 255 255 255
-0.408425   0.42333   2.77099 255 255 255
 -0.45998 -0.107638   2.74149 255 255 255
-0.347468  0.134005   2.64048 255 255 255
-1.13487 0.294105  2.74362 255 255 255
-0.270779 0.0707663   2.62702 255 255 255
-0.360783  0.423571   2.76794 255 255 255
-0.836048 -0.128742   2.80716 255 255 255
-0.965423 -0.435378   2.94641 255 255 255
-0.484371  0.480049   2.71115 255 255 255
-0.133765 0.0440831   2.67233 255 255 255
 -1.20016 -0.232265   2.85313 255 255 255
-0.338346 0.0858403   2.66377 255 255 255
 -0.87862 -0.601144   3.05565 255 255 255
-0.369271  0.179008   2.62321 255 255 255
-1.02407 0.289759  2.76368 255 255 255
-0.951849 -0.570015   3.08932 255 255 255
-0.459409  0.395767   2.74763 255 255 255
-1.21823 0.113957  2.86145 255 255 255
-0.542789 -0.184435   2.84455 255 255 255
 -1.17023 -0.321014    2.8931 255 255 255
 -0.302021 -0.0148947    2.68639 255 255 255
 -1.11473 0.0106631   2.90072 255 255 255
-0.599683  0.144024   2.64158 255 255 255
-1.25515 0.253488   2.7672 255 255 255
-0.717962  0.204218   2.57574 255 255 255
-0.688632  0.342475   2.47829 255 255 255
-1.15352 0.172671   2.8217 255 255 255
-0.326144 0.0182882   2.68285 255 255 255
-0.418333  0.419846   2.75055 255 255 255
   -1.181 0.0549258    2.8914 255 255 255
 -1.21453 0.0918157   2.87416 255 255 255
 -0.2498 0.107317  2.67948 255 255 255
-0.214187 -0.113615   2.75588 255 255 255
-0.636336  0.234261   2.48806 255 255 255
-0.695353  0.262743   2.48861 255 255 255
-0.432301  0.459475   2.73701 255 255 255
-0.271449 0.0630754    2.6693 255 255 255
 -1.17311 -0.756307   3.15329 255 255 255
-1.23243 0.242839  2.76423 255 255 255
-1.12472 0.188594  2.81546 255 255 255
-0.53402 0.256691  2.56932 255 255 255
-1.02196 0.310596   2.7573 255 255 255
-0.618946  0.451531   2.72996 255 255 255
-0.547453  0.115985   2.65558 255 255 255
-0.454693 -0.181921   2.84272 255 255 255
  -0.296783 0.000722316     2.73063 255 255 255
-0.973322  0.328386   2.75049 255 255 255
 -1.15382 0.0183797   2.91441 255 255 255
-1.05779 0.283733  2.75687 255 255 255
-0.647323  0.284768   2.45922 255 255 255
-0.298881  0.065557   2.67114 255 255 255
 -1.21954 -0.158614   2.93239 255 255 255
-1.10524 0.316066  2.73645 255 255 255
-1.13806 0.324708  2.72477 255 255 255
   -1.06 0.246247  2.78706 255 255 255
-0.506699  0.429278   2.74916 255 255 255
-0.846016  -0.26407   2.87892 255 255 255
-0.96985 0.187512  2.82494 255 255 255
-1.18568 0.271804  2.74949 255 255 255
 -1.16445 0.0342553   2.89544 255 255 255
-0.464309  -0.23405   2.88513 255 255 255
-0.359234 0.0703311   2.69218 255 255 255
-0.859254 -0.340017   2.87491 255 255 255
   -1.24899 0.000274753     2.92342 255 255 255
-1.25183 0.267509  2.75682 255 255 255
 -0.31212 0.0734959   2.65913 255 255 255
-0.967554   0.23209    2.8099 255 255 255
 -1.1336 0.254907  2.77787 255 255 255
-0.562117   0.18009   2.36584 255 255 255
-1.19189 0.151028  2.83297 255 255 255
-0.997344  0.196005   2.82695 255 255 255
-0.771419 -0.163678    2.7524 255 255 255
-1.26161 0.127764   2.8414 255 255 255
-0.814497 -0.278014   2.88095 255 255 255
-1.21355 0.200697  2.79413 255 255 255
-1.17716 0.258811  2.77671 255 255 255
-1.02319 0.150152  2.85165 255 255 255
 -0.91955 -0.442949   2.98436 255 255 255
-1.19011 0.222258   2.7872 255 255 255
-0.955483  0.187272    2.8329 255 255 255
 -1.19176 0.0496777   2.89044 255 255 255
  -1.19919 -0.0230757    2.93059 255 255 255
-0.573115  0.274254   2.52101 255 255 255
-1.22184 -0.19767  2.89748 255 255 255
-1.21937  0.24938  2.75676 255 255 255
   -1.2221 -0.0144121    2.93361 255 255 255
-1.11376 0.234596  2.80942 255 255 255
-1.15546 0.206791  2.81214 255 255 255
-1.07127 0.333085  2.73683 255 255 255
-0.757912 -0.394605   2.97925 255 255 255
-0.98256 0.228311  2.80909 255 255 255
 -1.16422 -0.238176   2.88285 255 255 255
-0.997471  0.226887   2.80623 255 255 255
-0.962577 -0.706914   3.05198 255 255 255
-1.12822 0.277623  2.76758 255 255 255
-0.558971  0.149554   2.65097 255 255 255
 -1.21421 -0.024806   2.93066 255 255 255
 -1.26037 0.0933804   2.86618 255 255 255
  -1.14224 -0.0379524    2.91768 255 255 255
 -1.13964 0.0604613   2.89462 255 255 255
-0.952206  0.308313   2.76279 255 255 255
 -1.24708 0.0461442    2.9027 255 255 255
 -0.807271 -0.0538219    2.74203 255 255 255
   -1.18474 -0.00692017     2.92466 255 255 255
 -1.2414 0.098598  2.86701 255 255 255
  -0.43908 -0.0928808    2.71611 255 255 255
 -1.09929 -0.322335   2.90789 255 255 255
 -1.25502 0.0696825   2.88763 255 255 255
-1.20224 -0.21048  2.89638 255 255 255
  -1.07573 -0.0378332     2.9055 255 255 255
-0.94122 0.231081  2.81229 255 255 255
-1.11261 0.220485  2.80935 255 255 255
 -1.00953 0.0890781   2.87136 255 255 255
 -1.05806 0.0641478   2.88883 255 255 255
 -1.3295 0.643634  2.49841 255 255 255
-1.24001 0.634459   2.5766 255 255 255
-0.77457 0.865265  2.47327 255 255 255
-0.718013  0.848187   2.47177 255 255 255
-1.11446 0.634023  2.55001 255 255 255
-0.700125  0.868754   2.49124 255 255 255
-0.925009   0.62719   2.55301 255 255 255
-0.855323  0.494876   2.48366 255 255 255
-0.881427  0.518393   2.40178 255 255 255
-0.933658  0.646305   2.54548 255 255 255
-1.14123 0.648039  2.52662 255 255 255
 -0.4052 0.861365  2.23044 255 255 255
-0.926919  0.656862   2.54173 255 255 255
-0.863402  0.495496    2.4118 255 255 255
-0.425073  0.729961   2.06668 255 255 255
-1.08439 0.594066  2.58355 255 255 255
-0.971512  0.636518   2.57042 255 255 255
-1.11962 0.536324  2.55586 255 255 255
-1.32184 0.651594  2.50046 255 255 255
-1.11229 0.577179  2.53988 255 255 255
-1.19129 0.673685  2.49395 255 255 255
-1.05545 0.631571  2.50542 255 255 255
-1.16812 0.668479  2.51787 255 255 255
-1.25028  0.54736  2.55941 255 255 255
-1.14921  0.53678   2.5817 255 255 255
-0.872717  0.535538   2.44945 255 255 255
-1.36502  0.67087  2.51986 255 255 255
-1.24818 0.562315  2.58834 255 255 255
   2.2559 -0.384608   3.69205 255 255 255
0.861572  0.20325  3.00063 255 255 255
-0.122666  -0.62341   2.69833 255 255 255
-0.302849  0.231577   2.76004 255 255 255
  0.929744 -0.0320861    3.20319 255 255 255
 0.38556 0.159628  2.58511 255 255 255
 0.623549 -0.062567   3.15308 255 255 255
 0.494447 0.0442963   2.80426 255 255 255
0.0455502  0.490623    2.5458 255 255 255
  1.29642 -0.098506   3.33031 255 255 255
0.504772 0.237473  2.56775 255 255 255
1.52824 0.69389 2.48375 255 255 255
 0.742044 -0.756735   2.87524 255 255 255
0.931665 -0.31573  3.26119 255 255 255
 0.954071 -0.736713   3.06745 255 255 255
  -1.2082 -0.422357   2.88265 255 255 255
-0.817267  -1.06881   3.40479 255 255 255
 0.759453 0.0203328   3.17539 255 255 255
1.92718 0.51308 3.06949 255 255 255
   1.1302 -0.132782   3.30332 255 255 255
 -0.71219 -0.401939   2.97546 255 255 255
0.700061 0.135673  3.04119 255 255 255
 -1.29113 -0.247643   2.80078 255 255 255
0.284386 0.289711  2.49316 255 255 255
0.0869922  0.220041   2.50499 255 255 255
 1.06161 0.118326  2.85356 255 255 255
  0.446867 -0.0352207    3.06752 255 255 255
0.168488 0.182936   2.5078 255 255 255
-0.0277157  -0.365071    2.54594 255 255 255
    1.41482 -0.00782359     3.25378 255 255 255
-0.0404253 -0.0831178    2.84527 255 255 255
   0.292905 -0.00155115     3.02897 255 255 255
-0.131318 -0.316554   2.47497 255 255 255
-1.42364 0.349127  2.68813 255 255 255
 -1.34766 -0.171703   2.79938 255 255 255
0.952994 0.200799  2.90859 255 255 255
 -1.51892 -0.354093   2.83473 255 255 255
  2.4386 -0.28694   3.6884 255 255 255
-0.916989  -1.14698   3.36151 255 255 255
  2.46576 -0.386456   3.74324 255 255 255
0.0465536  -0.32163   2.61784 255 255 255
  -1.55745 -0.0592037    2.81165 255 255 255
 0.479814 -0.591507   2.68868 255 255 255
  2.31414 -0.101078   3.52306 255 255 255
-0.177618 -0.179541   2.57114 255 255 255
-0.416825 -0.922241   2.85267 255 255 255
 2.39058 0.146194  3.45917 255 255 255
  1.12902 -0.235253   3.32184 255 255 255
 0.332715 -0.850767   2.88613 255 255 255
-0.183881 -0.393562   2.54678 255 255 255
 0.786963 -0.671536   2.89269 255 255 255
-0.902447   -1.3679   3.48638 255 255 255
 0.557952 -0.556426   2.82718 255 255 255
 0.0392302 -0.0652536    2.82885 255 255 255
-0.786763  -1.47795   3.58755 255 255 255
-0.424701  0.372716   2.76303 255 255 255
-0.974003  -1.34101    3.5098 255 255 255
 0.671709 -0.823125   2.89153 255 255 255
-1.23359 0.103638  2.82929 255 255 255
-0.695127  -1.08163    3.4458 255 255 255
 -1.29513 -0.512665   2.96673 255 255 255
-0.990304 -0.652009   3.06946 255 255 255
 0.295481 -0.905363   2.89072 255 255 255
  1.70052 -0.709385   3.74064 255 255 255
  1.70635 -0.793422   3.83482 255 255 255
 1.32779 0.330566  2.82882 255 255 255
-0.926343  -1.56334    3.6296 255 255 255
-0.816388  -1.27054   3.47781 255 255 255
 -1.28367 0.0299203   2.91524 255 255 255
-1.30937 0.354292  2.68736 255 255 255
 -1.40702 -0.156731   2.78455 255 255 255
-0.163596 -0.565282   2.65529 255 255 255
-0.116633 -0.537445   2.63116 255 255 255
  1.39963 -0.161656   3.37424 255 255 255
-0.300823 -0.373849   2.72922 255 255 255
 -1.01809 -0.895194   3.24073 255 255 255
 0.040986 -0.664157   2.74706 255 255 255
-0.0741377  -0.621689    2.67378 255 255 255
0.612866 0.186877  3.02847 255 255 255
  -1.4813 -0.313078   2.85049 255 255 255
  1.33802 0.0967808   2.92649 255 255 255
0.0969958 0.0314138   3.06945 255 255 255
-0.0520547   -0.51231    2.60401 255 255 255
 2.12862 0.219103  3.25945 255 255 255
0.824055 0.144282  2.92844 255 255 255
  1.6515 0.472889   2.9311 255 255 255
-1.27773 -0.26796  2.80217 255 255 255
0.0301802 -0.379345   2.52441 255 255 255
 -1.23327 -0.284861   2.85236 255 255 255
 0.965373 -0.198415   3.29896 255 255 255
  -1.51817 -0.0291704    2.85903 255 255 255
 0.733405 -0.174977    2.9956 255 255 255
0.0279706 -0.753149   2.73288 255 255 255
 -1.38472 -0.792994   3.10904 255 255 255
  0.18813 -0.867597   2.85931 255 255 255
 1.36542 0.200069  2.89153 255 255 255
-0.544664  -1.41427   3.66392 255 255 255
  2.69457 -0.111147   3.64106 255 255 255
  -1.12511 -0.0185133    2.90479 255 255 255
-0.948039    -1.413   3.49835 255 255 255
 1.88891 0.496962   3.0796 255 255 255
-1.11227 0.081805  2.88343 255 255 255
   1.0722 -0.393608   3.49386 255 255 255
-0.705736   -0.1141   2.76385 255 255 255
-0.912125  -1.04636   3.35863 255 255 255
 -1.35791 -0.355155   2.86916 255 255 255
-1.30026 0.402616  2.66489 255 255 255
  1.48863 -0.696059   3.76053 255 255 255
-1.01473 -1.01109  3.31837 255 255 255
-0.370065 -0.873571   2.79895 255 255 255
 -1.57495 -0.227882   2.75406 255 255 255
 1.35467 -0.54223   3.6092 255 255 255
-0.294033 -0.776873    2.8081 255 255 255
-1.22254 0.448927  2.66209 255 255 255
0.677725 0.167892  3.00571 255 255 255
 1.33933 -1.06754  3.77861 255 255 255
-0.826576  -1.14484   3.38518 255 255 255
-1.19132 -0.86254  3.21493 255 255 255
-0.439814 0.0380564   2.65672 255 255 255
  2.13374 -0.821826   3.93363 255 255 255
-0.0265612   -0.19439    2.70038 255 255 255
 -1.33516 -0.470114   2.92067 255 255 255
0.415751 0.241942  2.48375 255 255 255
 2.05072 0.107069  3.33609 255 255 255
-0.962288  -1.16458   3.35895 255 255 255
  -1.60431 -0.0191593    2.82882 255 255 255
  2.22837 -0.646892   3.85011 255 255 255
 0.225875 -0.184492   3.24315 255 255 255
-1.00715 0.353141  2.72708 255 255 255
-0.646818  -1.15346   3.48542 255 255 255
  1.82363 -0.138137   3.44343 255 255 255
 -1.54145 -0.132175   2.78056 255 255 255
-0.563567  -1.47348   3.68807 255 255 255
-0.504714 -0.518147   2.59495 255 255 255
-0.681141  -1.33228   3.56356 255 255 255
 2.52816 0.104228  3.50709 255 255 255
  1.69627 -0.283467    3.4922 255 255 255
  1.27417 -0.991705   3.74592 255 255 255
-1.23193 0.347546  2.71239 255 255 255
0.0675082 -0.725683   2.74343 255 255 255
-1.13441  0.40924  2.68819 255 255 255
 0.159806 -0.281362   2.77412 255 255 255
 1.95453 0.515737   3.0562 255 255 255
 2.00702 0.431975  3.05947 255 255 255
-0.341097  0.370239   2.79619 255 255 255
 0.650736 -0.113383   3.08074 255 255 255
  1.50101 -0.486123   3.58531 255 255 255
 -1.25608 -0.331156   2.85166 255 255 255
 2.58036 -0.20345  3.64913 255 255 255
-0.00362161  -0.0273334     2.83662 255 255 255
 -1.48877 0.0839704   2.85264 255 255 255
 1.52177 0.293032  2.99458 255 255 255
-1.10537 -1.42322  3.50215 255 255 255
0.098572 0.265347  2.43725 255 255 255
  2.73386 -0.284246   3.78815 255 255 255
 1.88837 0.238492  3.15487 255 255 255
0.516065 -1.23277  3.80798 255 255 255
 -1.40906 -0.524705   2.92694 255 255 255
0.785617 0.298988  2.91851 255 255 255
 0.647394 -0.506213   2.87035 255 255 255
-1.19177 0.429008  2.68099 255 255 255
 0.776804 -0.566625   2.95578 255 255 255
  2.76186 -0.573386   4.02339 255 255 255
  2.14394 -0.718723   3.86106 255 255 255
-0.882372  -1.31611   3.46283 255 255 255
-1.63413 0.151686   2.7907 255 255 255
  1.86736 -0.863253    3.9175 255 255 255
 0.300432 -0.952944   2.97671 255 255 255
 -1.32343 0.0585246   2.85737 255 255 255
-1.54405 0.409927  2.65694 255 255 255
-0.640527  -1.04823   3.42735 255 255 255
-0.845969  -1.49433    3.5411 255 255 255
 1.94351 0.724265  2.95759 255 255 255
-0.71106 -1.49194  3.61793 255 255 255
-0.975241 -0.850796   3.26235 255 255 255
-0.899532 -0.874927   3.30135 255 255 255
-1.05909 -1.12947  3.32021 255 255 255
 -1.59927 -0.383391   2.84731 255 255 255
  0.447756 0.00467203    3.16193 255 255 255
0.0230249  0.228831    2.9147 255 255 255
-0.161546 0.0205226   2.69635 255 255 255
  1.19614 -0.294475    3.4037 255 255 255
  1.42541 -0.528293   3.65099 255 255 255
 1.95865 -0.83321  3.91759 255 255 255
   1.9408 -0.593925   3.71679 255 255 255
  2.74071 -0.794532   4.05518 255 255 255
-0.864789  -1.43045   3.52947 255 255 255
 -1.43227 -0.767749   3.08606 255 255 255
0.513346 0.317301  2.42164 255 255 255
-0.254643  0.199943    2.8134 255 255 255
  2.63628 -0.706634    3.9712 255 255 255
-0.220273 -0.700236   2.65104 255 255 255
0.724833 -1.16687  3.76726 255 255 255
-0.627253  0.372465   2.66433 255 255 255
-0.171015 -0.600909   2.66217 255 255 255
0.00668958   0.603547    2.66049 255 255 255
-0.757738  -1.14185   3.46024 255 255 255
 0.52715 -1.14202    3.737 255 255 255
-0.593022    -1.444   3.66984 255 255 255
 -0.7444 -1.57116  3.65326 255 255 255
0.665098 -1.15169  3.80209 255 255 255
-0.791937  -1.53982   3.62104 255 255 255
-1.35064 0.419134  2.62082 255 255 255
-0.1946  0.1158 2.81872 255 255 255
-0.777689  0.565754   2.59533 255 255 255
   1.07477 -0.0993477    3.28083 255 255 255
0.759432 0.267868  2.94969 255 255 255
0.519453  0.35652  2.41135 255 255 255
  -1.44586 -0.0473035    2.88028 255 255 255
0.434835 0.268525  2.46077 255 255 255
-0.0208641   0.176024    2.92335 255 255 255
-1.53641 0.378082  2.66093 255 255 255
 2.19864 0.303139  3.20106 255 255 255
1.91528 0.41637 3.09828 255 255 255
 -1.39575 -0.295084   2.83702 255 255 255
  2.45319 -0.275558    3.6694 255 255 255
-0.864878   -1.1079   3.36118 255 255 255
-1.27063 0.387937  2.67285 255 255 255
0.650223 0.219597  2.95027 255 255 255
 0.809597 -0.470639   3.27309 255 255 255
 1.95327 0.331998  3.10207 255 255 255
  -0.81488 -0.0713074    2.76562 255 255 255
  1.3898 -0.49408  3.59003 255 255 255
0.725022 0.354455  2.81593 255 255 255
  -1.59944 -0.0903372    2.76985 255 255 255
-0.694577 -0.146411   2.79111 255 255 255
-0.663584 -0.944714   3.38113 255 255 255
0.00267491  -0.686558    2.69488 255 255 255
 0.231109 0.0167143    3.0014 255 255 255
-0.666671  -1.28107   3.52968 255 255 255
  1.81282 -0.834936   3.88359 255 255 255
-0.970975 -0.889529   3.25773 255 255 255
    0.2416 -0.0513997    3.09502 255 255 255
  0.379773 -0.0793687    3.12842 255 255 255
 -1.37306 -0.425462   2.89249 255 255 255
 -1.14499 -0.865389   3.21353 255 255 255
 1.93169 0.360301  3.11572 255 255 255
  2.25103 -0.051294   3.47757 255 255 255
-1.49275  0.16302  2.79649 255 255 255
-0.179971 -0.517534   2.63137 255 255 255
0.135103 -1.00475  2.94768 255 255 255
 1.91334 -0.85206  3.93118 255 255 255
  1.85375 -0.383531   3.62167 255 255 255
-0.35453 0.096184  2.63869 255 255 255
-0.712234  -1.12557   3.43463 255 255 255
-0.72603 0.487897  2.69607 255 255 255
 1.14759 -1.08443  3.77737 255 255 255
0.771732 0.241084  2.85653 255 255 255
  1.55326 -0.950951    3.8946 255 255 255
 1.10447 -1.10116  3.80333 255 255 255
0.473199 0.164804  2.53854 255 255 255
  1.73675 -0.707563   3.68032 255 255 255
 -0.114679 -0.0486827    2.80911 255 255 255
-0.0430402  -0.390855    2.56391 255 255 255
-0.0902569   0.254437    2.86505 255 255 255
 2.45974 0.164818  3.48654 255 255 255
 -1.51066 -0.153076   2.77167 255 255 255
-0.754385  0.463591   2.65775 255 255 255
-0.379991 0.0571354   2.63753 255 255 255
  1.66509 -0.253135    3.4999 255 255 255
-0.260997  0.108291   2.65098 255 255 255
 -1.53882 -0.296054   2.79851 255 255 255
-1.08761 -1.10574  3.31272 255 255 255
-1.09969 -1.06874  3.29488 255 255 255
  -1.5732 -0.308703   2.80903 255 255 255
    1.5359 -0.0568407    3.32469 255 255 255
 1.20732 -1.05141  3.74925 255 255 255
  1.09124 0.0860622   3.06167 255 255 255
-1.14839 0.320889   2.7178 255 255 255
   -1.29683 -0.00201341     2.92022 255 255 255
 1.46442 -1.05801  3.82153 255 255 255
  1.40491 -0.888843   3.81456 255 255 255
 2.04344 0.589315  2.96204 255 255 255
-0.163296 0.0594771   2.70703 255 255 255
-0.665246  -1.23451   3.51262 255 255 255
  1.08196 -0.322288   3.37327 255 255 255
 -1.25175 -0.180158   2.86065 255 255 255
  1.58734 -0.426239   3.53624 255 255 255
-0.359835 -0.187713    2.8113 255 255 255
 -1.19743 -0.379088   2.90245 255 255 255
-0.319872 -0.899997   2.83539 255 255 255
-0.470487 -0.465857   2.56062 255 255 255
   -1.21185 -0.00709088     2.93069 255 255 255
0.334824 0.179276   2.4247 255 255 255
-0.0335547  -0.612543    2.69622 255 255 255
 2.18275 0.275529  3.21402 255 255 255
-0.00126096   0.0906339     2.85029 255 255 255
  2.83103 -0.788763   4.07049 255 255 255
-1.37261  0.28767  2.72536 255 255 255
 -1.33357 0.0908442   2.84436 255 255 255
 1.78712 0.121565  3.24396 255 255 255
0.614381 0.204195  2.99977 255 255 255
0.595236  0.43697  2.58195 255 255 255
 0.38586 0.366369  2.82903 255 255 255
1.15731 -0.3186 3.45999 255 255 255
  2.28119 -0.161182   3.54918 255 255 255
  2.51161 -0.280895   3.68664 255 255 255
-1.11634 0.465012  2.63828 255 255 255
-1.12417 0.313325   2.7317 255 255 255
-0.694214  -1.22428   3.49049 255 255 255
 -1.18915 -0.319509    2.8682 255 255 255
-0.029937 0.0804179   2.91144 255 255 255
 1.95303 -0.88033  3.91868 255 255 255
  1.05814 -0.433543   3.50734 255 255 255
  2.75393 -0.616183   4.02475 255 255 255
 -1.54314 -0.243664   2.77254 255 255 255
  1.54816 -0.464256   3.56041 255 255 255
-1.44116 -0.25589  2.81421 255 255 255
-0.698244  -1.26562   3.49843 255 255 255
-0.0102043   0.548487    2.75488 255 255 255
 0.379714 -0.112781   3.16647 255 255 255
-0.208352 -0.609066   2.67986 255 255 255
 2.17966 0.329486  3.20245 255 255 255
  1.27891 -0.170651   3.29731 255 255 255
-0.298527  0.379015   2.78948 255 255 255
  2.51668 -0.316596     3.691 255 255 255
-0.754366  0.551483    2.6145 255 255 255
 -1.62882 0.0837271    2.8226 255 255 255
-0.0110061   0.551477    2.69724 255 255 255
 0.331465 -0.283405   3.06659 255 255 255
-1.15873 0.509281  2.62115 255 255 255
0.348345 0.571732  2.46733 255 255 255
 0.70146 0.350739  2.91358 255 255 255
0.0887416 -0.171144   2.95197 255 255 255
0.267722 0.126786  2.45156 255 255 255
-1.66426  0.33411  2.69418 255 255 255
 -1.58374 -0.410004   2.85769 255 255 255
-0.808115  -1.10823   3.37356 255 255 255
  2.86882 -0.749485    4.0225 255 255 255
  1.95514 -0.979813   3.94824 255 255 255
-0.71633 -1.16278  3.45062 255 255 255
-0.797462 -0.933614   3.35413 255 255 255
-1.59169 0.273931   2.7279 255 255 255
-1.28266 0.208786  2.78578 255 255 255
 -1.30912 -0.207884   2.80077 255 255 255
-1.24861 0.423854   2.6592 255 255 255
-0.0624419   0.163862     2.8722 255 255 255
0.863665 0.139239  2.84688 255 255 255
-0.968909 -0.966818   3.34534 255 255 255
-0.816448  0.496404   2.57537 255 255 255
-0.452884 -0.581078   2.58867 255 255 255
0.373565 -0.62889   2.6761 255 255 255
  -1.53802 -0.0358678    2.86975 255 255 255
-0.0737749   0.228831    2.89161 255 255 255
   -1.5096 -0.0408253    2.89902 255 255 255
0.640699 -0.47542  2.96948 255 255 255
-0.697412  -1.56475   3.67016 255 255 255
-0.922631 -0.702918   3.03342 255 255 255
-1.69926 0.111452  2.81758 255 255 255
  -1.1745 -0.147337   2.92582 255 255 255
 -1.22077 -0.498435    2.9442 255 255 255
0.975559 -0.28726  3.35644 255 255 255
   2.471 -0.44468   3.7722 255 255 255
-0.078071  -0.44962   2.59657 255 255 255
  2.01647 0.0221797   3.34465 255 255 255
 -1.57447 -0.195559   2.76003 255 255 255
 -1.27553 -0.553362   2.99493 255 255 255
 -1.40748 -0.674242   2.98576 255 255 255
 -1.45794 -0.156202    2.7705 255 255 255
-0.561277  -1.34644   3.62782 255 255 255
 0.999627 -0.138203   3.28809 255 255 255
  0.156007 -0.0144342    3.03549 255 255 255
 -1.38913 -0.758881   3.15325 255 255 255
0.290976 0.609582  2.66193 255 255 255
0.554425 -1.10949  3.71144 255 255 255
  1.41581 -0.631613   3.61118 255 255 255
-0.720329  -1.03026   3.42516 255 255 255
   1.36815 -0.0187158    3.28601 255 255 255
 2.23851 0.336142  3.13978 255 255 255
-0.684648  -1.47013   3.62107 255 255 255
-0.866757 -0.238023   2.88027 255 255 255
-0.849115  -1.13962   3.37424 255 255 255
-0.976713  -1.00484   3.34195 255 255 255
 -1.42786 -0.359169   2.88346 255 255 255
1.03948 0.69876 2.42913 255 255 255
 1.41005 -1.07825  3.80624 255 255 255
-0.00996898    0.494742     2.74914 255 255 255
-1.17189 0.358906  2.70916 255 255 255
  -1.63333 -0.0966867    2.73922 255 255 255
0.931282 0.051693  2.92726 255 255 255
-1.26924 0.117888  2.84603 255 255 255
-0.952327 -0.613343   3.08388 255 255 255
-1.38595   0.2406  2.76473 255 255 255
-0.135116 -0.240769   2.58922 255 255 255
 1.88371 -0.37303  3.63039 255 255 255
  1.76866 -0.668269   3.70032 255 255 255
  0.307557 -0.0825267    3.13453 255 255 255
0.062974 0.217938  2.94985 255 255 255
 0.352392 -0.695094   2.71365 255 255 255
  2.51637 -0.668256   3.93194 255 255 255
0.0529488 -0.684602   2.71728 255 255 255
 -1.57002 -0.359353   2.82204 255 255 255
 0.208853 -0.227143   3.01355 255 255 255
   1.0068 -0.248481   3.32418 255 255 255
-0.784838  -1.03934   3.39699 255 255 255
-0.443793  0.126723   2.58396 255 255 255
 -1.59023 -0.119852   2.73442 255 255 255
 -1.41107 -0.575913   2.94605 255 255 255
  2.89278 -0.529595   4.03572 255 255 255
-0.583255  -1.32124   3.60958 255 255 255
-1.33193 0.331547   2.6927 255 255 255
 1.48724 0.426639  2.99074 255 255 255
 0.843511 -0.667567    2.9779 255 255 255
 1.15221 0.872406  2.21965 255 255 255
-0.666471  -1.57638   3.69925 255 255 255
-0.798407  -1.16927   3.40201 255 255 255
0.0680727 -0.766574   2.74031 255 255 255
 0.682484 -0.447102   3.13926 255 255 255
-1.36853 0.260025  2.75522 255 255 255
 -1.39669 0.0622131   2.86892 255 255 255
  2.44353 -0.169081   3.59399 255 255 255
  1.34549 -0.992505   3.78494 255 255 255
  2.01971 -0.607953   3.77519 255 255 255
 -1.64005 -0.075713   2.72897 255 255 255
-0.0405975  -0.669937    2.63228 255 255 255
-0.147237 -0.510424   2.59315 255 255 255
 0.122774 -0.713107    2.7445 255 255 255
  1.17146 -0.347895   3.42577 255 255 255
-0.0509563 -0.0328948    2.77483 255 255 255
-1.01739 -1.19921  3.33265 255 255 255
-1.56163 0.166105  2.77496 255 255 255
-1.02293 0.374634  2.71388 255 255 255
-0.609971  0.169118    2.6227 255 255 255
 -1.40395 -0.491431   2.92103 255 255 255
  1.47884 -0.975444   3.83734 255 255 255
-0.337144 -0.150357   2.81069 255 255 255
-0.289383  -0.84166   2.79092 255 255 255
 0.529844 -0.204018   3.21223 255 255 255
-0.869141 -0.946863   3.33928 255 255 255
-0.783948 -0.206315   2.77713 255 255 255
-0.334559 -0.179078   2.85886 255 255 255
-1.40944 0.297453  2.70855 255 255 255
  1.03524 -0.147023   3.29956 255 255 255
  1.88544 -0.465947   3.65486 255 255 255
 -1.51631 -0.484331    2.8836 255 255 255
  0.275348 -0.0693008     3.1041 255 255 255
-1.30465 0.471341  2.60015 255 255 255
 0.712142 -0.872501   2.87045 255 255 255
-0.913678   -1.2945   3.45484 255 255 255
  1.50854 -0.330295   3.51408 255 255 255
-0.898095   -1.6276   3.64292 255 255 255
 0.325133 -0.602386   2.63782 255 255 255
0.187431 0.122156  2.90824 255 255 255
  1.9652 0.712856  2.93849 255 255 255
-1.24242 0.317252  2.72634 255 255 255
 2.14491 0.319245  3.19407 255 255 255
-0.901971 -0.600878   3.04676 255 255 255
-1.73758 0.139176  2.78181 255 255 255
 -1.30692 -0.173043   2.82997 255 255 255
  1.43491 -0.410118    3.5547 255 255 255
-1.62669 0.360606  2.66929 255 255 255
 -1.37994 -0.126807   2.80849 255 255 255
 0.213364 -0.757786   2.80503 255 255 255
-0.241567   -0.9088   2.84265 255 255 255
 0.282814 0.0798562   3.05189 255 255 255
0.0562657   0.12988   2.83348 255 255 255
-0.453676  -0.73603   2.76226 255 255 255
 0.218041 -0.905545   2.90259 255 255 255
0.0254768  0.134187   2.82444 255 255 255
0.299759 -0.61519  2.68886 255 255 255
 1.18828 -1.16232  3.84668 255 255 255
 -1.35683 -0.634513   2.98986 255 255 255
   1.4396 0.0512272   3.18397 255 255 255
  1.79878 -0.648422   3.63761 255 255 255
   -1.564 -0.382826   2.83279 255 255 255
  1.75073 -0.830381   3.81683 255 255 255
-0.13834 0.200727  2.87096 255 255 255
0.155941 0.466641  2.28992 255 255 255
 0.68154 0.271539  2.92407 255 255 255
0.0838062  0.171346   2.91961 255 255 255
 1.28532 -0.30411  3.43114 255 255 255
-1.63242 0.335212   2.7008 255 255 255
-0.678811  0.534565   2.65134 255 255 255
0.501434 -1.22529  3.79424 255 255 255
-0.833921  -1.20189   3.40893 255 255 255
 -1.08588 -0.856883   3.24858 255 255 255
 0.691706 -0.908162    2.8957 255 255 255
 -1.45277 -0.456051   2.92158 255 255 255
 0.565145 -0.343124   3.34001 255 255 255
-1.43113 -0.27927  2.82437 255 255 255
0.868145 -1.21378  3.81192 255 255 255
   1.3208 -0.257971   3.39591 255 255 255
 1.59088 -1.04183  3.88783 255 255 255
0.929337 0.059021   3.0681 255 255 255
 -1.22876 -0.181465    2.8884 255 255 255
 1.08845 0.968288   2.6643 255 255 255
 -1.40854 -0.698146   3.04874 255 255 255
 -1.58876 0.0423617   2.81261 255 255 255
 -1.46237 -0.259769   2.79347 255 255 255
-1.31669 0.306027    2.719 255 255 255
0.874539 -1.17948  3.78723 255 255 255
   1.36292 0.00739582    3.29191 255 255 255
 -1.02806 -0.577156   3.05165 255 255 255
-0.712996  -1.29728   3.50453 255 255 255
 0.271961 -0.995682   2.91888 255 255 255
  1.78132 -0.185883   3.50099 255 255 255
-0.000771107     0.474437      2.78958 255 255 255
-1.31088 0.423384  2.60601 255 255 255
  2.73722 -0.230208    3.7644 255 255 255
-0.350299  -0.85658    2.8015 255 255 255
-0.0244827  -0.518985    2.66046 255 255 255
-1.24945 0.375739  2.67589 255 255 255
-0.370881  -0.13095   2.78103 255 255 255
 1.17936 0.630503  2.51557 255 255 255
-0.418538  0.409759   2.77174 255 255 255
  -1.29317 -0.0671075    2.95609 255 255 255
-0.668138  0.509733   2.67135 255 255 255
-1.53759 0.161811  2.80376 255 255 255
-1.37797 0.310641  2.70921 255 255 255
 -1.56656 -0.135983   2.74896 255 255 255
 1.17421 -1.06407  3.77572 255 255 255
   1.5579 -0.547759    3.5731 255 255 255
-1.39033 -0.60039  2.93629 255 255 255
0.00712442   0.211542    2.90439 255 255 255
-0.919916   -1.4973   3.54671 255 255 255
  1.69653 -0.622073   3.73978 255 255 255
-0.140221 -0.614755    2.6215 255 255 255
-1.12338 0.392989  2.68318 255 255 255
0.164893 -1.01119  3.00654 255 255 255
  1.51324 -0.118602   3.35489 255 255 255
 -0.58238 -0.515645   2.59409 255 255 255
 0.237764 -0.879984   2.88961 255 255 255
 -1.6191 0.350501  2.69988 255 255 255
-0.236455  0.025886   2.69652 255 255 255
 0.514531 -0.344131   3.22857 255 255 255
-0.000382251     0.526443      2.69735 255 255 255
 0.177181 -0.993818   3.00304 255 255 255
 -1.62874 -0.409009   2.88492 255 255 255
 1.95231 0.478654  3.01303 255 255 255
 -1.50211 -0.375194   2.84084 255 255 255
-0.324069  0.429523   2.32783 255 255 255
    2.21696 -0.00913729     3.44383 255 255 255
-0.948709  -1.02953   3.33439 255 255 255
-0.667698  -1.09217   3.46568 255 255 255
  1.53121 -0.370726   3.49458 255 255 255
 -1.57754 -0.035398   2.85638 255 255 255
 0.383967 0.0192921   3.03188 255 255 255
 0.275792 0.0547811   3.04564 255 255 255
 1.79699 -0.26814  3.54467 255 255 255
  2.43173 -0.367807   3.72181 255 255 255
  2.19935 -0.721032   3.87669 255 255 255
  1.44779 -0.426892   3.53379 255 255 255
  1.40822 0.0441661   3.27012 255 255 255
   2.13501 -0.0250622    3.46631 255 255 255
 1.43815 0.341644  2.95661 255 255 255
-0.854548  -1.17018   3.38851 255 255 255
-0.0453094  -0.744487    2.65748 255 255 255
   1.2247 -0.182798   3.30117 255 255 255
-0.734395 -0.205679   2.81102 255 255 255
-0.632065 -0.953929   3.36122 255 255 255
 -1.6526 0.168844  2.78013 255 255 255
  1.68883 -0.663472   3.77827 255 255 255
0.728604  0.27971  2.95311 255 255 255
 -1.60688 -0.226297   2.75405 255 255 255
 0.780666 -0.472007   3.28257 255 255 255
-0.786486  -1.21677    3.4358 255 255 255
-0.057249 -0.481178   2.62236 255 255 255
-1.07082 -1.17179  3.30655 255 255 255
-0.502021 -0.618164   2.66472 255 255 255
 -1.63226 -0.232612   2.76778 255 255 255
   1.4761 -0.118311   3.35859 255 255 255
-1.64961 0.188673  2.78335 255 255 255
 -0.40855 0.0283326   2.72095 255 255 255
0.710019 0.268825  2.95642 255 255 255
-1.10283 -0.95234  3.24607 255 255 255
-0.473205 -0.519327   2.56136 255 255 255
-1.57725 0.201625  2.76463 255 255 255
-0.196665 -0.498223   2.62063 255 255 255
   1.52904 -0.0807467    3.36019 255 255 255
-0.129393 -0.441261    2.5195 255 255 255
 -1.36619 -0.325521   2.85989 255 255 255
-0.819124 -0.310609   2.87755 255 255 255
  1.73721 -0.200354   3.48028 255 255 255
-1.64572 0.234345  2.74392 255 255 255
-0.678863  -1.12383   3.46092 255 255 255
0.0693937  0.334766   2.33519 255 255 255
  1.99981 0.0450906   3.35215 255 255 255
0.785444 0.336848  2.67396 255 255 255
 -1.14089 -0.949921    3.2292 255 255 255
  1.98659 0.0153247   3.37013 255 255 255
-1.51388 0.372599  2.67706 255 255 255
-1.20747 0.519092  2.61015 255 255 255
  1.49032 -0.407282   3.50715 255 255 255
-0.930366 -0.982744   3.35339 255 255 255
-1.72488 0.231671  2.70799 255 255 255
-0.117375 -0.422493   2.52832 255 255 255
-0.831835  0.568825   2.62066 255 255 255
  2.90443 -0.463922   3.99919 255 255 255
-1.32761  0.14415  2.82651 255 255 255
-0.991752  -1.15278   3.34943 255 255 255
  1.6123 0.316394  3.07722 255 255 255
-0.636539  0.485542   2.66815 255 255 255
 -1.32439 -0.674517   3.05719 255 255 255
 -1.41507 -0.403756   2.85958 255 255 255
  2.64725 -0.674092   3.95246 255 255 255
  0.65097 -0.140065   2.92089 255 255 255
  -1.4059 0.0853011   2.84888 255 255 255
  2.79873 -0.465207   3.96061 255 255 255
 1.15957 -1.11809   3.7866 255 255 255
 0.129439 -0.843341    2.8595 255 255 255
 1.16467 0.818209  2.26708 255 255 255
  1.53377 -0.517634   3.59719 255 255 255
     2.19535 -0.000735695      3.45786 255 255 255
-0.518143 -0.547228   2.56751 255 255 255
 1.17484 0.862944  2.22858 255 255 255
 -0.167741 -0.0566547    2.76208 255 255 255
-0.123701  -0.59319   2.68514 255 255 255
-0.609663  0.503817   2.68549 255 255 255
  2.78934 -0.220265     3.786 255 255 255
-0.130744 -0.491373    2.5712 255 255 255
-1.51971 0.171064  2.79671 255 255 255
 0.307755 -0.108799   3.04359 255 255 255
-0.562348 -0.417906   2.50344 255 255 255
-0.562235 -0.417495   2.50067 255 255 255
 2.27224 0.128964  3.35132 255 255 255
0.0704116 -0.818056   2.80443 255 255 255
-0.933074   -1.3478   3.49386 255 255 255
-1.38953 0.374464  2.70842 255 255 255
-0.80599 -1.20266  3.41212 255 255 255
0.703724 0.207931  3.01392 255 255 255
 -0.1895 -0.12326  2.64579 255 255 255
-0.272363  0.267908   2.83898 255 255 255
 1.18597 0.555205  2.58769 255 255 255
  1.10676 -0.209465    3.2932 255 255 255
0.0784028 -0.145761   3.04407 255 255 255
  1.27744 -0.971525   3.77556 255 255 255
-0.146353 -0.600658   2.66333 255 255 255
0.444976 -1.31314  3.80526 255 255 255
     2.538 -0.0159698    3.54785 255 255 255
  2.78696 -0.440605   3.96602 255 255 255
 -1.24735 -0.482913    2.9657 255 255 255
 1.25878 -1.12595  3.83467 255 255 255
  1.20129 -0.187132   3.29982 255 255 255
-1.32867 0.480571  2.61787 255 255 255
 1.06393 -1.11539  3.72835 255 255 255
-0.079591  -1.48054    3.7954 255 255 255
 -1.42281 0.0409811   2.86995 255 255 255
 1.44449 -0.70541  3.70741 255 255 255
  -1.3364 -0.420468   2.89926 255 255 255
 1.12239 -1.13886  3.81499 255 255 255
 -1.54934 -0.394848   2.84435 255 255 255
-1.10791 -1.03962  3.27536 255 255 255
-0.288534 0.0283487   2.73491 255 255 255
 -1.28962 -0.661702   3.07306 255 255 255
 0.26511 0.359607  2.34298 255 255 255
0.679865  0.38493  2.62221 255 255 255
 -1.08338 0.0586708   2.88627 255 255 255
   1.41728 -0.0287077    3.19285 255 255 255
-1.22968 0.394337  2.67862 255 255 255
  1.71745 -0.405439   3.62818 255 255 255
  -1.40111 -0.0280688    2.90594 255 255 255
 -1.09977 -0.473845   2.99224 255 255 255
 1.92831 0.286465  3.09995 255 255 255
 0.312178 -0.255731   3.08481 255 255 255
-0.863363  0.355002   2.73597 255 255 255
  1.24456 -0.271341   3.38331 255 255 255
 1.13651 0.816223  2.41207 255 255 255
-0.497153 -0.501226   2.58248 255 255 255
  1.80551 -0.315789   3.57045 255 255 255
 0.160348 -0.479308   2.59062 255 255 255
  1.79408 -0.641879   3.74659 255 255 255
-0.555966  -1.25563   3.57903 255 255 255
  2.92984 -0.255416   3.83618 255 255 255
-0.0229849  -0.497432    2.63348 255 255 255
 0.255542 -0.764174   2.78001 255 255 255
 2.31439 0.288604  3.22187 255 255 255
 1.33395 -1.02827  3.76941 255 255 255
  1.49659 -0.729401   3.71626 255 255 255
 -1.12563 -0.464318   2.98895 255 255 255
  1.98062 -0.146825   3.50509 255 255 255
-1.13772 0.491727  2.63872 255 255 255
-0.321519  0.087876   2.65856 255 255 255
 -1.47027 -0.587339   2.91718 255 255 255
  0.469889 -0.0663162    3.06294 255 255 255
 -1.60971 -0.127147   2.72641 255 255 255
  -1.55628 -0.0222509    2.86701 255 255 255
  2.81906 -0.378529   3.93225 255 255 255
-1.67554 0.178767  2.77438 255 255 255
 1.67273 -0.68855  3.75402 255 255 255
-0.715424  -1.20037    3.4735 255 255 255
0.930451 -1.21605  3.82653 255 255 255
0.612465 0.417984  2.59729 255 255 255
  1.85409 -0.568073    3.6578 255 255 255
  1.40929 -0.543422    3.6291 255 255 255
 0.264647 -0.525861   2.61648 255 255 255
 0.39803 -1.34089  3.77566 255 255 255
 -1.28934 -0.628539   3.04724 255 255 255
 0.48655 -1.28442  3.81153 255 255 255
-0.579532  -1.47115   3.69881 255 255 255
 0.952273 -0.248659   3.30083 255 255 255
  2.69683 -0.296778   3.75253 255 255 255
-0.101421 -0.664296   2.59553 255 255 255
 1.27335 -1.07811  3.79824 255 255 255
 1.43302 0.160195   2.7492 255 255 255
-0.0464532  -0.688378    2.60841 255 255 255
1.81368 0.29192 3.17436 255 255 255
 0.731393 -0.639054   2.91565 255 255 255
 1.89874 0.577693  3.04586 255 255 255
-1.55688 0.151404  2.80842 255 255 255
-1.70159 0.234305  2.73863 255 255 255
  1.79465 -0.356239   3.58952 255 255 255
 -1.61691 -0.115363   2.72287 255 255 255
   1.9501 -0.170509   3.42543 255 255 255
  -1.62444 0.00227743    2.84952 255 255 255
  1.08153 -0.333622    3.3645 255 255 255
 -1.48003 -0.537189   2.95556 255 255 255
-0.816852 -0.938241   3.34152 255 255 255
 -1.50957 -0.250377   2.78221 255 255 255
-1.05244 -1.65244  3.63811 255 255 255
-0.743869   -1.0336   3.42453 255 255 255
  1.62735 -0.916178   3.88426 255 255 255
-0.561603  -1.18242   3.52238 255 255 255
-1.21447   0.4205  2.66747 255 255 255
-0.797136 -0.619291   3.06749 255 255 255
-0.402251 -0.611694   2.63798 255 255 255
  1.25356 -0.189007   3.32332 255 255 255
0.535676  -1.2253  3.80458 255 255 255
  1.81364 -0.869921   3.88767 255 255 255
 -1.45512 -0.515424   2.95265 255 255 255
-0.071965 -0.682154   2.62212 255 255 255
-0.89882 -1.43559   3.5168 255 255 255
 0.461886 -0.570386   2.70829 255 255 255
 0.219768 0.0280137   2.94845 255 255 255
-0.763869  0.554792   2.57969 255 255 255
-0.128488  0.291078   2.84881 255 255 255
 -0.178824 -0.0291798    2.69654 255 255 255
-1.33518 -0.70894  3.08526 255 255 255
 1.41059 -1.04567  3.80392 255 255 255
-1.29785 0.469515  2.64124 255 255 255
-0.0074473  0.0606587    2.89755 255 255 255
   1.44553 -0.0547837    3.24724 255 255 255
0.261449 0.113249  2.56097 255 255 255
 0.377659 -0.367758   2.83074 255 255 255
-1.67647 0.161143  2.78573 255 255 255
 0.243087 -0.222995   3.11567 255 255 255
  1.92509 -0.939514   3.95542 255 255 255
  -1.57295 -0.0186502    2.85162 255 255 255
-0.601345  -1.58746   3.76193 255 255 255
 -1.57391 0.0681254   2.84778 255 255 255
 0.53696 0.617998  2.45982 255 255 255
 0.478664 -0.164696   3.17407 255 255 255
 0.352404 -0.637456   2.66838 255 255 255
-1.24621 0.396027  2.66795 255 255 255
-0.00771168   -0.751963     2.70332 255 255 255
-0.458903 -0.695425   2.72292 255 255 255
  1.43851 -0.609778   3.60735 255 255 255
 -1.22631 -0.281197   2.83996 255 255 255
0.174426 -1.22346    3.153 255 255 255
-0.178841 -0.492297    2.6102 255 255 255
  0.314991 0.00964597    3.05839 255 255 255
  2.22461 -0.181161   3.56778 255 255 255
-0.56647 -1.41947  3.66519 255 255 255
  2.52835 -0.644837   3.91716 255 255 255
   1.9266 -0.893294   3.91708 255 255 255
  1.92721 -0.172287   3.44919 255 255 255
-1.07791 0.396395   2.7045 255 255 255
-0.347225 -0.537426   2.61987 255 255 255
-0.978788  0.313917   2.76301 255 255 255
-0.76195 -1.30036   3.4714 255 255 255
-0.071079   0.18596   2.84643 255 255 255
-0.751327  -1.61973   3.69221 255 255 255
 2.82223 -0.32753  3.88251 255 255 255
-0.475904 -0.614195   2.62063 255 255 255
 -1.68648 0.0950677     2.829 255 255 255
 -1.0538 0.270534  2.76388 255 255 255
-0.974153  0.204572   2.83514 255 255 255
-0.360095 -0.823591   2.82744 255 255 255
  1.30046 -0.199427   3.33121 255 255 255
  1.23381 -0.737143   3.72692 255 255 255
   0.2128 -0.938166   2.87222 255 255 255
  1.85924 -0.396538   3.62475 255 255 255
  3.09987 -0.570653   4.06267 255 255 255
-0.132431 -0.694776   2.61525 255 255 255
-0.787812  -1.59233   3.64499 255 255 255
-1.10439 0.303901  2.74704 255 255 255
 0.631812 -0.871852   2.94735 255 255 255
-0.394527  -1.33148   3.63955 255 255 255
0.624288 -1.21457  3.72686 255 255 255
 0.956793 -0.162786   3.32553 255 255 255
-0.548534 -0.698233   2.73671 255 255 255
 -1.11473 0.0106631   2.90072 255 255 255
  1.26719 -0.228679   3.36358 255 255 255
0.337825 0.558733  2.59735 255 255 255
  2.44899 0.0528417   3.51748 255 255 255
-1.26091 0.464527  2.61653 255 255 255
 0.387346 -0.774908   2.84848 255 255 255
  1.01798 -0.203008    3.3242 255 255 255
-0.506621 -0.529327   2.58457 255 255 255
-1.20502 0.262812  2.75566 255 255 255
-1.20779 0.263517  2.76348 255 255 255
  2.07809 -0.270863    3.5961 255 255 255
 -1.26253 0.0828106   2.88796 255 255 255
0.450599 0.124767  2.47089 255 255 255
-1.06441 -1.08829  3.30211 255 255 255
-1.64008 0.223307  2.76641 255 255 255
0.943514  0.23044  2.90995 255 255 255
-0.172864 -0.583373   2.64078 255 255 255
-0.66002 0.525637  2.65279 255 255 255
  2.56294 -0.225283   3.64594 255 255 255
0.872543  0.24649  2.88211 255 255 255
-1.08535 0.372685   2.6992 255 255 255
 0.324653 -0.624304   2.65306 255 255 255
-1.27928 0.481596   2.6059 255 255 255
   2.4461 -0.506249   3.81515 255 255 255
-1.10605 0.115039  2.85434 255 255 255
   1.8444 -0.294012    3.5968 255 255 255
-0.974748  -1.09912    3.3303 255 255 255
  1.25919 -0.899417    3.7896 255 255 255
 -1.69491 0.0789644   2.82997 255 255 255
-0.807282  -1.60184   3.65871 255 255 255
0.00704359  -0.725298    2.67527 255 255 255
  2.50809 -0.616275   3.89638 255 255 255
  -1.011 -1.17783  3.33529 255 255 255
 2.03398 0.033021  3.33517 255 255 255
-0.698061   0.49407   2.66438 255 255 255
 1.24834 -1.09599  3.79477 255 255 255
  -1.58926 -0.0046504    2.84906 255 255 255
  1.27318 -0.248052   3.37323 255 255 255
 0.453962 -0.409109   2.84046 255 255 255
 0.359747 0.0435373   2.92524 255 255 255
-1.66417 0.263065  2.71654 255 255 255
  1.40969 -0.434439   3.56193 255 255 255
-0.178608 -0.539862   2.64552 255 255 255
-0.698624  -1.28221   3.51749 255 255 255
 0.190477 -0.200232   3.06136 255 255 255
 1.42332 0.943067  2.27176 255 255 255
-1.17519 0.409549   2.6676 255 255 255
0.0686222 -0.899056   2.90457 255 255 255
  1.38941 -0.676526   3.67873 255 255 255
  0.895012 -0.0387784    3.23607 255 255 255
-0.124728 -0.653914   2.59589 255 255 255
0.0250462 0.0258993   2.94096 255 255 255
 0.14027 -1.04472  3.00684 255 255 255
  3.18608 -0.627517   4.09295 255 255 255
  2.44843 -0.111954   3.55611 255 255 255
 -1.4778 0.283602  2.72884 255 255 255
-1.60847  0.12585  2.81468 255 255 255
-1.52627  0.35845    2.667 255 255 255
-0.695049  -1.44274   3.58949 255 255 255
0.277583 0.102899  3.04699 255 255 255
 1.76215 -0.35136  3.58036 255 255 255
  2.26532 -0.923493   4.02514 255 255 255
-0.619924  -1.10943   3.47448 255 255 255
  2.46102 -0.254601   3.65653 255 255 255
 -1.76016 0.0830568   2.84139 255 255 255
0.517135 0.614479  2.45588 255 255 255
  1.33762 -0.516805   3.60764 255 255 255
   0.28887 -0.0579774    3.04066 255 255 255
-0.404805 -0.229769   2.86586 255 255 255
 -1.54474 0.0271919   2.85302 255 255 255
 -1.32049 -0.174148   2.81295 255 255 255
-0.929856   -1.0547     3.343 255 255 255
  1.35631 -0.203335   3.35903 255 255 255
 -1.42766 -0.845882   3.13622 255 255 255
  2.87543 -0.180298   3.81164 255 255 255
-0.0251566  0.0233278    2.84118 255 255 255
 -1.52847 -0.268568   2.80102 255 255 255
 -1.15056 -0.145431     2.903 255 255 255
  1.6294 -1.03155  3.91708 255 255 255
  2.08826 -0.189179   3.55761 255 255 255
-1.40489  0.22115  2.77597 255 255 255
 -1.63353 -0.365868   2.85548 255 255 255
-1.06861 0.153526  2.86544 255 255 255
  3.11768 -0.682964   4.04682 255 255 255
 -1.27418 -0.639287   3.05514 255 255 255
  1.09375 -0.364305   3.41112 255 255 255
0.815229 0.090883  3.12196 255 255 255
-0.870235 -0.994277   3.37517 255 255 255
 -1.3576 0.337612  2.69038 255 255 255
-1.0329 0.41016 2.69987 255 255 255
 1.07595 0.984861  2.67109 255 255 255
0.889262 0.164501  2.84954 255 255 255
   1.13305 -0.0739487    3.30054 255 255 255
  1.38515 -0.971647   3.80829 255 255 255
-0.123298  0.476665   2.33874 255 255 255
    2.3363 -0.0287902    3.46747 255 255 255
-0.303625 -0.809536   2.82698 255 255 255
0.309918 0.605818  2.67631 255 255 255
  1.08252 -0.309708   3.36043 255 255 255
0.150259 0.194621  2.44613 255 255 255
  3.00696 -0.525796   4.02174 255 255 255
   1.6514 -0.276989   3.52588 255 255 255
-0.501466 -0.356864   2.71817 255 255 255
 -1.26281 -0.157801   2.87885 255 255 255
  1.44923 -0.955316   3.81687 255 255 255
 0.339724 -0.654176   2.66717 255 255 255
  1.92715 -0.401984   3.67493 255 255 255
-0.751655  -1.52342   3.62299 255 255 255
-0.796357 -0.147935   2.80049 255 255 255
 -0.371283 -0.0642918    2.68274 255 255 255
  1.51396 -0.970776   3.83926 255 255 255
  1.79661 -0.424729   3.66255 255 255 255
-0.783667  -1.00311   3.39199 255 255 255
-0.146911 -0.558747   2.66305 255 255 255
 2.79545 -0.18406  3.74727 255 255 255
 0.69258 -1.11526  3.76004 255 255 255
 -1.08669 0.0869644   2.87644 255 255 255
0.0726391 -0.559136   2.66236 255 255 255
0.146274 -1.02511  2.99283 255 255 255
 2.13361 0.342248  3.18882 255 255 255
0.0923857 -0.616779   2.70158 255 255 255
  1.04493 -0.178916     3.325 255 255 255
 1.35319 0.113803  3.23997 255 255 255
-0.380211  0.410721   2.74475 255 255 255
0.0798812 -0.341454   2.64478 255 255 255
-1.43301 0.021331  2.89356 255 255 255
  2.81728 -0.151615    3.7582 255 255 255
 0.603373 -0.577135   2.85601 255 255 255
 -0.380545 -0.0154785    2.72356 255 255 255
0.0101983  0.506226   2.70132 255 255 255
-1.45097 0.038594   2.8884 255 255 255
 0.203329 0.0648751   2.96012 255 255 255
 0.518664 -0.439762   2.86442 255 255 255
 0.476457 -0.421167   2.89465 255 255 255
 2.02124 0.116069    3.322 255 255 255
-0.676246  -1.43533   3.59003 255 255 255
-0.536931  -0.58342   2.57148 255 255 255
0.109201 0.195946   2.4471 255 255 255
0.599188   0.1394  3.04151 255 255 255
   1.34267 -0.0581762    3.28579 255 255 255
  0.56686 0.0400042   3.14584 255 255 255
  1.72932 -0.337063    3.5752 255 255 255
  2.65391 -0.091954    3.6157 255 255 255
  -1.38867 -0.0108018    2.91234 255 255 255
0.608864 -1.08403  3.70192 255 255 255
 2.71988 -0.71836  3.97694 255 255 255
-0.275194 -0.435986    2.7002 255 255 255
 -1.01561 -0.513339   3.01246 255 255 255
-0.675331  -1.20355   3.49447 255 255 255
 -1.65626 0.0798197   2.83127 255 255 255
-1.28447 0.130389  2.82717 255 255 255
-1.28443 0.130296  2.82703 255 255 255
  -1.53593 -0.0930524    2.81452 255 255 255
 2.11138 -0.30339   3.6264 255 255 255
 1.77351 -1.00269  3.97972 255 255 255
  2.41441 -0.347654   3.70829 255 255 255
  2.11015 -0.705913   3.86899 255 255 255
0.292562 0.621915  2.61539 255 255 255
 -0.24173 -0.887006   2.83171 255 255 255
-0.958512  -0.59468   3.07943 255 255 255
-1.25511  0.28165  2.74686 255 255 255
 -1.41409 -0.916081     3.193 255 255 255
-1.07293 0.382532  2.70206 255 255 255
-0.0114543  -0.527749    2.63892 255 255 255
-0.522983 -0.609243   2.58855 255 255 255
0.262793 -1.07913  3.05846 255 255 255
-1.38666 0.395573  2.66006 255 255 255
 -1.18477 -0.911533   3.21812 255 255 255
   1.44457 -0.0683641    3.30134 255 255 255
 0.236191 0.0698426   2.92809 255 255 255
 -0.79804 -0.291679   2.89382 255 255 255
