ply
format ascii 1.0
element vertex 1230
property float x
property float y
property float z
property uchar red
property uchar green
property uchar blue
end_header
 1.69854  5.04641 0.556735 172 163 132
-2.99751    3.418 0.281577 23 31 34
 -2.56112   4.74252 0.0579117 126 132 128
-0.418422   5.39156  0.294897 224 219 216
 -2.99652   4.73748 0.0745696 173 178 181
-0.663733   3.34541   0.30105 209 211 208
 1.91514  3.92218 0.867769 19 25 15
  0.4219  5.78742 -0.02049 70 88 38
0.431967  3.55008 0.310866 2 11 20
 1.18262  4.26893 0.834532 74 79 75
0.0529291   5.62159  0.224749 198 186 172
-0.497592   5.34012  0.323506 189 188 183
-1.53689  5.34274 0.182363 239 239 229
-0.626862   4.67987  0.372283 57 59 71
-0.937279   2.50957   1.34359 18 22 5
-0.687224   4.28675  0.394236 40 47 39
-1.07909  4.45027 0.260048 104 129 74
-1.20267  4.77427 0.152135 249 253 255
-0.859479   5.56748  0.174097 99 98 94
-2.25099  5.02948 0.303425 27 36 45
 -3.05697    4.6835 0.0943208 179 181 178
-0.430965   4.68503  0.365581 7 13 11
-0.0887496    2.59898     1.3942 118 131 88
-1.46194  4.66943  0.42141 207 205 192
-2.94114  2.13006  1.20879 0 6 2
 -1.0094  4.61518 0.224055 97 98 103
-1.93792   4.8584 0.375655 196 198 187
-1.37928  2.81753  1.10495 94 104 70
-2.41363  5.06458 0.258255 66 67 71
 0.4384 4.53198 0.78176 224 227 232
 -0.81082   5.51411 0.0307961 75 88 58
 -1.3581  4.43904 0.503769 49 50 42
-2.92523   3.5877 0.226979 184 185 180
 -2.71749   4.26854 0.0370405 219 222 229
-0.560238   3.37063  0.329995 231 232 227
 -2.64037   4.76925 0.0572625 39 43 52
0.130654   3.8713 0.278907 210 212 209
-1.42415  3.01571  1.08787 79 78 47
-0.691633   4.81458  0.241579 138 137 93
0.344409  5.32002 0.365971 224 217 209
 0.518823   5.85823 -0.103048 58 73 44
-2.97833  3.43315 0.263355 224 234 236
-0.722456   5.45995  0.131131 221 225 208
0.964288  5.79451  0.22591 135 136 130
-2.03297  3.64026 0.573589 86 87 82
-0.132397   5.19526   0.39417 181 163 149
 -2.0485  4.20828 0.270312 87 89 84
-0.464527   3.59725  0.211979 44 48 51
0.262738  4.42659 0.547071 187 188 193
-0.101928   5.68581  0.171995 141 125 100
-1.3808 3.83256 0.72422 74 76 75
-2.34186  4.54477 0.146939 220 225 219
0.309075   4.9983 0.554591 192 169 151
-0.0853686     3.6302   0.203583 174 183 190
 -2.6661  3.68117 0.269873 19 22 27
   1.867  4.72128 0.746719 124 116 79
-0.559175   5.61064  0.175374 110 102 91
-1.02127  4.99271 0.146359 32 33 27
-0.600553   5.26547   0.34117 240 241 236
-0.218909   5.03104  0.491666 144 96 82
-2.12495   3.7874 0.440082 223 223 223
-1.86807   4.0126 0.672306 230 221 212
-0.839746   4.26202  0.389156 78 92 67
 1.46238  5.42655 0.533006 107 111 110
-2.54398  4.42215 0.472313 104 95 78
-2.80841  4.07129 0.194933 29 33 34
1.96324 4.65813 0.76333 16 15 13
0.275673   3.8114 0.313359 44 49 53
-0.797682   4.03761  0.433031 8 27 21
-0.406641   5.42553  0.269183 138 136 137
   -2.49  4.52278 0.135067 232 235 240
-0.491927   4.63836  0.310039 32 36 39
-1.72746  2.64257 0.992178 14 18 27
0.192983    4.322 0.585427 44 49 53
-0.916441   3.41934  0.254583 53 54 58
-2.09746  4.95257 0.170816 127 123 122
-0.57271   2.6972  1.16083 73 74 40
 1.32955  5.74089 0.251708 72 68 59
-1.68038  4.40588 0.377745 104 116 78
-1.68194  4.40769  0.40316 104 116 78
 -2.98597   4.69529 0.0591184 48 57 62
   0.63873    5.92857 -0.0964619 59 75 38
-0.93303   3.8763 0.292774 15 21 19
-2.68645  4.31764 0.155207 6 11 17
-1.85119  2.93366  1.09971 220 223 192
-2.97219  4.03651 0.168241 160 165 168
-0.440029   3.45521   0.30211 51 54 47
-1.90472  3.70907 0.748962 13 15 12
  0.436051    5.79746 -0.0693525 33 50 5
-1.63112  2.62864 0.812642 165 179 180
-0.114176   4.87471  0.593822 187 165 142
-2.94822  4.23612 0.112109 179 180 182
-2.35367  5.02681  0.25365 110 110 110
1.15313  3.9893 1.10399 21 16 12
-2.94077   3.7218 0.263301 90 92 91
-3.06079   4.0968 0.171663 171 174 179
0.475742  3.76224 0.223673 153 161 150
-0.480167   3.39884  0.301589 192 194 193
-0.611547   3.97659  0.482172 18 25 35
-2.97151  2.78706 0.927653 111 110 92
 -2.9457  4.56941 0.149861 120 127 120
2.07609 3.18982 1.18272 11 24 4
 -2.66952    4.7465 0.0564046 217 222 218
-2.88575  3.43659 0.334558 115 119 122
-0.648097   3.68435  0.202583 179 178 174
-1.81994  5.15765 0.281727 227 224 217
-3.22346  4.33384 0.368683 57 67 32
-1.51342  3.13979 0.919006 220 222 211
-1.13706  4.08962 0.388821 205 208 191
0.198023  4.59339 0.747216 180 172 170
-2.77358  3.33399 0.303909 209 218 227
 -1.6159  4.03522 0.608462 61 72 30
-0.508032   3.38621  0.280335 218 218 216
-0.618952   4.86807  0.277345 230 222 209
-2.27737  4.60504 0.171244 114 114 112
0.688079   5.6802 0.283078 214 197 179
0.986298  5.27938 0.438439 172 153 123
 -2.70858   4.75557 0.0640116 184 184 186
0.0670086   5.40289  0.329889 177 159 135
-0.00349904     5.78083   0.0199962 78 91 65
 0.83182  5.25917 0.435376 176 170 156
-2.41677  4.45539 0.202489 19 9 0
   0.558932     5.95965 -0.00676233 0 6 0
-2.65728  4.52477 0.170747 178 183 187
-0.807969   4.47319  0.326923 236 236 226
-0.327706   3.87649  0.516603 52 63 59
-1.86176  3.32224 0.689878 15 27 3
-0.254974   5.61793  0.214931 217 218 213
0.532985  5.77214 0.107524 128 137 110
-1.62126   5.1291 0.297607 225 216 207
-0.0887865    3.36343   0.337703 147 151 154
-2.92905  4.33227 0.117901 23 26 31
-0.399904   5.54981  0.215424 203 202 198
-0.567046   5.16252  0.364815 17 11 11
-1.56558  4.66757 0.353152 198 194 185
2.20501 3.36111 1.01787 76 90 57
0.327342  4.25597 0.513577 83 86 93
0.410353  5.68917 0.013912 68 77 46
 -2.0403  4.23885 0.542099 45 47 42
-1.63089  4.69269  0.36583 28 39 23
-0.469346   5.57773 0.0719071 217 219 206
 -2.99709   4.76874 0.0391212 184 187 192
  -2.72336    4.79431 -0.0096998 83 88 92
-0.203763   4.45191  0.452023 41 51 60
-1.97317  3.73301 0.774964 68 65 56
0.153252  4.93074 0.565992 226 209 189
-1.86098  3.91117 0.721723 34 30 27
 1.88073  4.15742 0.758809 64 70 60
-1.92285  4.99173 0.329408 45 47 25
 -2.47811   4.96445 0.0260606 26 25 30
0.299255  4.55857 0.762694 182 182 180
-1.24473  3.86457 0.702562 43 48 52
-0.160071   5.20671  0.372611 198 176 153
 -2.9146  3.38304 0.294436 36 45 62
0.728186  4.47683 0.854556 209 209 201
-0.0809131    3.38401   0.348422 160 163 168
 0.191728   5.76361 0.0457438 96 116 65
0.790914  5.26059 0.439239 176 180 181
-0.574525   5.60053  0.187444 114 111 102
-0.868204   3.67954  0.196674 191 192 187
-1.56233  3.18055  0.96236 29 34 14
-1.20507  4.98006 0.123413 226 225 220
-2.96941  3.77288 0.372307 114 114 106
-2.46724  2.51018  1.15291 103 108 88
0.512235  3.45435 0.368543 196 205 210
-1.92545  4.44039 0.438021 106 101 82
 -2.8061  4.13515 0.168903 176 177 171
0.0416831   2.47097   1.46566 112 126 75
-1.92384  4.70428 0.412385 233 239 225
 1.82985  4.75402 0.725984 157 140 97
-1.36493  5.17605 0.307073 179 162 154
-2.89697  4.63337 0.106201 166 171 167
-1.77258  4.71657 0.228702 83 80 73
-2.90462  4.64107 0.094496 81 85 88
-2.67744  3.72344  0.34413 28 28 26
-0.93713  3.82841 0.225316 142 132 123
-1.89907  4.73283 0.381405 26 25 5
 1.03018  5.68771 0.253595 193 181 167
-1.99651  3.56231 0.451459 75 77 72
-2.90235  4.33043 0.113649 22 25 32
-1.37984  3.34946 0.821929 69 75 61
1.25094 5.30861  0.4351 231 230 228
 -2.3298  4.50519 0.239222 33 33 41
0.468403  3.21976 0.514216 154 163 170
-1.65593  2.73606 0.949487 15 24 33
-1.63827  2.78396  1.00379 115 118 125
 1.59897  3.97179 0.990238 118 124 110
-2.44507  4.64954 0.112193 196 201 207
-1.83698  4.91826 0.296291 73 84 52
 0.34204  5.04747 0.523292 202 186 173
-3.10662  4.47074 0.278627 76 76 78
 0.48647  3.58009 0.322683 82 90 93
-0.573946   3.68372  0.201163 211 216 219
-1.80847  5.01589 0.345036 189 189 179
-0.302856    4.7151  0.394256 19 20 14
-0.556482   3.82805  0.287275 207 209 206
-0.653258   4.65842  0.346355 24 31 41
-2.50572  3.22617 0.534946 68 69 74
 1.35714  5.16212 0.230233 180 177 158
-1.88019  4.85077 0.472318 67 72 52
-1.49266  4.75194 0.423691 225 219 223
-2.16165  4.97786 0.207061 119 118 114
 -1.19159   3.65471 0.0985201 51 50 56
  1.4775  4.17733 0.947139 8 14 2
-0.717896    4.9673  0.142286 24 40 13
-0.578588   3.54264  0.278396 219 218 213
-2.71101  4.21869 0.120331 70 70 70
-2.71878  4.21645  0.12825 70 70 70
0.0980943   5.17486  0.439715 119 97 84
  -2.6039    4.8374 0.0348691 58 58 56
0.539633  3.24014 0.522145 230 231 236
-0.284705   2.55639   1.28559 90 100 73
 -2.3676  4.19214 0.128167 228 234 232
-0.34887   3.5705  0.22679 26 35 42
-2.84278  4.73524 0.039392 208 208 210
-0.542371   4.01107  0.456042 68 102 67
-0.33288  4.04117 0.397994 231 233 220
-1.98301  4.17267 0.480791 168 173 169
-3.05608  4.12408 0.182144 149 152 145
-3.05105  4.12311 0.167769 149 152 145
0.687075  3.71589 0.307824 211 210 205
-3.06588  4.14951 0.116301 232 234 233
-0.353538   4.96621  0.511146 202 198 189
 -1.98636   4.88503 0.0956383 57 60 65
 -1.8466   2.5967 0.830264 226 236 237
-2.47211  3.70911 0.233413 41 46 52
-1.86403  4.48207   0.4671 76 79 62
-2.73489  3.94028 0.247483 46 50 53
 1.13966   4.2852 0.913892 55 42 26
-1.45654  3.97863 0.706762 82 86 87
-1.29275  3.88591 0.658083 79 82 87
 -2.0669  3.75967 0.791392 15 19 18
-0.463379   3.46353  0.327726 55 55 55
 -2.69468   4.82807 0.0212909 171 175 176
-2.46533  4.63328 0.139454 25 25 35
0.891671  4.77308 0.704058 217 196 177
0.715616  3.16655 0.497199 21 34 42
-0.706621   2.51788   1.37187 148 138 103
 1.57018    5.405 0.406221 26 20 0
-1.09848  4.98899 0.132964 69 73 59
  0.436733    5.73164 0.00505673 30 49 4
  -2.9197     4.673 0.0567365 39 46 56
-0.45889  3.45788  0.28621 214 216 211
-2.39697  5.00574 0.198951 126 128 123
-1.80868  5.14307  0.31474 39 34 31
-2.55692  3.51457 0.305541 43 44 49
-0.529723   4.45957  0.251637 233 236 225
 -2.6379  4.23841 0.116962 43 44 48
 -2.27681   4.82088 0.0619526 175 179 182
-2.79167  4.39819 0.302851 119 115 103
-1.21454  4.35378 0.309777 103 106 111
-0.760514   3.66965   0.15948 130 130 138
-0.11903  4.34798 0.335446 121 124 129
0.365141  4.89296  0.64742 196 174 151
0.839662   5.4052 0.357168 197 187 175
-0.329788   4.55601  0.263418 229 234 227
 1.12004  4.94067 0.621729 67 64 45
-0.347366   2.50647   1.22228 96 112 75
-3.37987  4.16296  0.54282 214 214 202
-1.24264  4.33136 0.508823 69 69 67
-2.92925  4.04891 0.227745 210 210 218
-0.268702    3.6229   0.24419 40 45 49
-1.84781  5.07001 0.311786 240 236 227
 -2.23071   4.84129 0.0676321 54 55 50
-3.28936  2.60975  1.13447 177 184 168
-1.93353  4.78381  0.17612 66 62 63
-1.53394  3.45811 0.877109 177 178 170
-2.98564  3.53247  0.26699 168 171 176
-0.756954   3.17488  0.409203 128 135 141
-0.757764   3.17675  0.401054 128 135 141
-2.57351  3.98803 0.269047 35 38 43
0.761672  4.50282 0.837457 165 149 124
-1.84435   3.2468 0.822827 49 53 30
-2.75312   3.3926 0.304546 27 31 42
-0.0656553    5.15154   0.428524 183 170 154
-1.14992  4.41645  0.33076 107 122 91
-2.36902  4.13161 0.243712 183 182 178
-1.18415  4.99664 0.102307 227 228 222
-2.62914   3.8782 0.237617 229 232 241
-1.09222  4.53231 0.214593 44 46 43
-1.67433   4.7291 0.320244 71 85 59
-3.06221  4.02198  0.20311 221 225 224
-0.200176   5.51676  0.235159 46 35 41
-1.94852  3.80364 0.780355 80 80 68
 0.244129   5.74748 0.0932323 4 13 0
 -2.38243   4.82246 0.0830579 60 60 58
-0.862627   5.26217  0.320372 97 96 94
-2.84924  3.72323 0.333484 42 44 41
-1.31407  3.88146 0.650715 85 88 93
-2.97849   4.1045 0.157457 176 183 191
 1.96516  4.38427 0.572063 9 18 0
-2.09918  4.52307  0.19227 191 195 204
-1.84245  3.73826 0.798485 232 225 215
-3.03134  3.05066 0.831353 13 28 5
-0.271343   5.01264  0.471042 224 187 168
-0.719619   3.68339  0.202309 191 181 179
-0.722785   3.68488   0.18573 191 181 179
 2.19842  4.00738 0.682095 32 46 11
  1.3328  5.22546 0.465658 42 51 32
-1.39411  5.23486 0.157255 78 81 52
 -2.5283  4.29037 0.166402 15 14 19
 -1.8681  4.81231 0.422895 12 20 5
-2.89646   4.5667 0.141723 180 183 176
-0.0581108    3.51761   0.256649 179 191 191
1.28472 5.40492 0.37969 138 127 121
0.256752  4.37845 0.601651 50 55 61
 -3.1475  4.41464 0.435189 78 79 73
0.129941  4.98928 0.551852 203 181 160
-1.54714  3.66696 0.778354 97 97 89
-1.9785 5.04126 0.32599 230 231 223
 1.27638  4.09545 0.896278 97 91 75
0.275803  3.52062 0.343776 44 48 57
-1.27191  5.11528 0.331489 19 19 21
-1.39733  2.71886  1.19279 67 73 63
-1.55446  5.12784 0.298172 237 232 229
-0.106341   5.18208    0.4053 191 174 164
-0.917726   4.39723  0.317388 228 238 239
0.432663  5.09908 0.494671 222 217 211
-1.11509  4.03829 0.409293 64 73 56
-2.88703  4.45743 0.396216 116 108 87
-0.569232   4.38244  0.408977 231 236 232
-2.25707  4.24886 0.110517 124 120 121
-2.51307  2.75554  1.13278 81 97 35
-2.63657  4.31419 0.143721 6 11 15
-0.663022   2.74063   1.16215 79 77 39
-1.83277  4.70609 0.414473 217 209 196
-0.77321   3.7128 0.260943 17 27 36
-0.416773   5.47557  0.252517 141 133 130
-0.0841771    5.74664  0.0658945 8 17 0
-2.70042  4.01418 0.219782 11 18 26
0.705126  5.73387 0.232964 189 181 162
 0.21596  5.18949 0.446711 165 139 126
-2.58024  4.34931 0.240061 9 9 11
-0.314538   4.89676  0.533239 129 119 109
-0.682573   4.35937  0.338428 225 226 221
-1.49981  4.82499  0.30475 61 69 45
-3.18926  4.44548  0.41279 210 211 206
-0.193953   5.17348  0.392258 174 143 122
0.714846  5.37548 0.378839 216 192 158
0.267546  3.75684 0.190317 246 249 254
1.16974 5.28247 0.45061 218 214 211
-2.42253  4.00617  0.25044 71 72 74
-1.59152  3.64631 0.785319 26 21 17
-0.676479   4.51392  0.266563 235 237 223
-2.77145  3.36278 0.291594 218 221 230
 1.27296   5.2552 0.468376 166 162 151
-2.98681  3.64491  0.17165 77 82 86
-3.05049  3.50891 0.259485 107 112 116
-2.95567  4.08445   0.1725 44 54 64
-2.85382  4.54173 0.159115 207 217 226
1.71427 3.46487 1.30484 8 15 0
-0.369937   3.89511  0.408167 0 4 0
-2.18736  4.54468  0.14394 223 227 236
-2.46518  3.58043  0.25518 201 207 207
-1.24996  5.35499 0.228879 229 232 223
-2.57392  3.93421  0.28732 75 79 78
-1.19894  4.62024 0.240014 51 52 56
-3.05228  3.48894  0.26541 190 199 204
-0.586689    3.2582  0.412079 76 83 89
-0.586838   3.25841  0.407151 76 83 89
-1.48077  4.74055 0.440719 119 114 110
 1.36416  5.42162 0.375641 111 113 112
-0.63085  4.22349 0.372597 11 16 20
 -1.7591  4.78969 0.426791 225 222 213
-2.4514 4.55665 0.18279 190 191 186
-2.69681  4.52866 0.193206 169 171 170
-2.93604  2.81179 0.913151 18 28 4
0.602089  5.52719 0.297741 74 64 52
-3.11541  4.53631 0.137271 231 227 226
 -2.49817    4.7876 0.0234261 229 233 244
-2.73383  3.60203 0.223136 48 52 55
-2.95615  3.74258 0.321822 39 43 46
-1.87735  4.91923   0.3612 237 239 228
0.227675  4.58339 0.760025 201 193 191
-1.29226  4.02636 0.587736 51 60 13
 -1.19443   3.64319 0.0831207 180 179 184
-2.54534  4.43586 0.426538 56 49 33
-3.36528  4.02431 0.571749 219 215 206
   -2.51017     4.88133 -0.00354438 123 124 126
-2.37485  4.64964 0.123972 112 112 112
-0.549781    5.3001  0.329264 230 233 238
-2.36365  4.38411 0.344255 63 62 60
  0.465511    5.76087 -0.0346176 19 43 0
 -1.1084  3.97728 0.396636 3 13 5
 -2.4553   4.5408 0.113682 221 228 236
-1.86497  2.60881 0.812555 223 232 239
-2.45394  4.11338 0.149103 231 235 246
-2.06286  5.12525 0.313162 95 94 102
   0.68907    5.97235 -0.0496872 0 12 0
0.346971  5.25083 0.428318 192 185 177
-1.1917 3.50635 0.28356 186 188 187
-2.20223  3.27473 0.521456 61 61 71
0.227745  3.86356 0.305883 212 216 215
-0.918503   5.34421  0.254665 96 93 86
-2.55711  4.02055 0.179761 204 209 215
0.624647  5.55443 0.294194 117 104 96
1.32555 3.40865 1.25862 56 63 45
-1.9068 3.78778  0.7895 68 61 53
1.31145 3.41948 1.26265 88 91 80
0.676705  5.74796 0.206554 85 74 68
-0.602542   5.00528   0.15451 199 204 198
 -2.95897   4.28308 0.0817141 136 138 137
1.84629 3.67346 1.17175 124 115 72
-0.405899   4.34896  0.369128 105 109 108
0.370477  4.21684 0.549097 79 83 94
-2.68234  3.57307 0.186644 122 123 128
-2.69886  3.33528 0.394764 20 21 23
-2.75298  4.43896 0.369529 14 4 0
-0.283095   3.74736  0.333422 26 29 38
-2.55208  4.05664 0.189524 82 85 90
0.290336  3.75986 0.370456 33 42 51
-2.63012  3.55471 0.241536 90 94 95
 -1.0175  3.67845 0.179909 196 196 198
-2.15905  4.62801 0.188684 196 198 195
  -2.585  4.38822 0.324016 16 7 2
-3.02955   4.5851 0.155076 193 199 197
-0.532771   4.31223  0.331303 15 23 25
-1.96044  3.70726 0.750175 32 24 21
 2.01057  3.82361 0.903821 6 12 2
0.447751  3.56973 0.285147 243 250 255
-0.442338   3.63744  0.156189 9 19 21
-1.56069  2.90905  1.11985 124 133 88
-2.98652  4.20908 0.119336 142 143 147
0.300125  3.76305 0.251234 73 73 73
-2.63274  3.46672 0.264694 170 171 173
 1.18967  5.81817 0.191065 53 40 31
-1.55725  4.70869 0.411996 77 82 78
  1.7299  5.02755 0.559888 183 172 142
-1.66435  5.13964 0.314306 90 89 87
-1.58018  4.91299 0.371651 247 244 237
-2.92423  4.59935 0.109929 210 215 218
-1.66118  2.81834  1.12054 14 19 23
0.171456  3.29541 0.430494 247 250 255
-1.34749  2.78558  1.20513 19 31 9
1.56784 3.76427 1.14227 73 86 42
 0.569597    5.7471 0.0723158 64 73 44
-1.58475  3.86216 0.703059 33 33 25
 1.89786  4.45595 0.867165 101 104 75
-1.63414  2.96888  1.01895 129 133 132
-1.66406  3.98542 0.553578 97 116 60
-2.44756  4.36012 0.270141 94 91 82
-1.92061  4.64087 0.435069 73 83 46
-1.09789  4.55134 0.223663 16 25 8
-2.08532  3.92803 0.712386 26 25 21
-1.70789  3.28593 0.805024 179 181 167
-2.17511  3.39027 0.462795 188 187 185
-2.41417  3.63247 0.234923 236 236 234
-1.28718  4.01004 0.590844 103 113 79
-0.0609009    5.31186   0.375787 221 211 202
-2.75355  4.36089 0.228568 19 19 21
-1.93064  4.34196 0.553042 230 219 215
-2.13635  4.76221 0.156862 192 185 179
-1.72694  3.93134 0.627415 84 88 51
0.0965669   4.63397  0.705923 178 178 178
 1.24664  4.49478 0.802393 62 60 37
-0.04252  3.45503  0.34182 43 48 54
-0.732581   4.99341  0.158974 101 102 86
1.90532 2.73165 2.21501 50 63 37
 1.02536  4.78932 0.717517 168 144 120
 1.05284  5.27593 0.409912 183 171 145
-0.361025   5.42618  0.308651 198 197 193
2.15429 3.09455 1.34561 5 10 3
-2.80269   3.7737 0.421307 35 31 19
-0.90398  3.62785 0.176161 69 65 56
 1.95604   4.3505 0.569843 12 22 0
0.999945  5.14277  0.49772 127 122 103
 0.79724   4.5404 0.814651 199 167 146
-2.85899  3.98107 0.261045 152 153 148
-0.33511  3.28541 0.390101 211 220 227
-2.95581  3.42679 0.329932 193 200 206
-1.91028  4.49612  0.43212 22 31 10
-0.0808778    5.68937   0.185606 39 34 12
0.558754  5.50536 0.308014 109 102 86
-0.647971   3.23546  0.419887 43 55 55
-1.87057  3.43715 0.878427 32 32 30
1.52704 3.81928 1.14392 26 28 15
-0.445752   5.46225  0.242566 234 233 228
-2.17764  4.61047 0.157016 234 232 235
 1.00752  4.79962 0.706128 136 106 82
 2.25812   3.4825 0.934201 98 106 85
  -1.563  4.91095 0.369031 205 201 202
-1.16808  4.86596 0.214024 46 58 34
-2.64722  4.43193 0.377382 12 9 0
-3.20854  4.63455 0.271269 39 46 30
-0.367805   4.89865  0.529457 206 202 203
1.47536 5.57174 0.33337 87 72 69
-0.37829  5.15257 0.428268 210 203 187
-1.19126  4.98683 0.114551 99 100 92
-1.58619  3.84166 0.715168 33 28 9
 -1.7259  4.80629 0.410972 81 82 74
-2.03223  3.59947 0.499924 102 103 98
-0.0322681    5.76914  0.0458356 12 26 1
-0.236464   3.46397  0.344726 62 65 72
-0.220112   4.95221  0.538492 172 140 119
 -3.0056   3.7646 0.352678 94 95 87
-0.89235   5.2104 0.336551 46 13 6
-1.55801  3.84365 0.713924 30 35 13
 1.46846  5.33176 0.449204 100 81 83
0.725118  5.36339 0.377779 169 140 110
  0.314892     5.7694 -0.0836351 66 84 42
1.98441 3.87524 1.14136 87 82 78
-1.58337  4.74036 0.424977 223 215 212
-2.88046  4.45706 0.417387 72 61 43
-3.09286  3.04303 0.874474 97 100 89
  -1.95  4.0436 0.62165 243 237 225
-0.470317   5.13651  0.419563 250 238 222
1.12661 5.18033 0.48451 90 78 66
-0.183997    4.9417  0.544451 175 149 122
-0.627666   4.26867  0.500673 49 54 58
0.352902  2.76829  1.34356 236 236 228
0.341199  5.06829 0.513392 223 210 202
 1.91499  3.93475 0.691594 4 12 0
 -2.77434   4.18493 0.0994397 60 63 68
-2.85216  3.96106  0.26876 184 185 190
-2.00552  3.75312 0.781754 124 121 112
-2.63176  3.49498 0.255373 67 70 77
-2.24359  3.69491 0.235232 103 104 106
  -2.7484   4.78303 -0.026639 167 169 166
-1.91668  3.86488 0.730214 103 101 88
0.376278  5.01947 0.537163 221 205 189
-0.19277 0.350698   2.3514 202 193 184
-0.18745 0.339625  2.26959 210 203 195
  1.34631 0.0931298   2.37077 84 88 74
  2.06694 -0.597704   3.11657 208 183 153
 1.46777 0.365992  2.37869 15 23 12
0.908948 -0.12388  2.68355 207 200 192
 1.06857 0.737656  2.08846 4 8 7
0.484032 0.167483  2.19484 187 186 182
  1.52999 -0.908033   3.15545 173 159 156
-1.01695 0.214053  2.33255 176 159 139
-0.675717 -0.683815   2.26141 199 200 194
  1.1515 0.618342  2.06497 20 28 15
-0.687978  -1.46403   3.02117 160 139 120
-1.10876 -0.23236  2.35431 28 30 16
 -1.01905 -0.622932    2.6226 202 195 185
 1.18851 0.547227  2.12712 221 232 236
 0.649764 -0.721878   2.45448 4 11 17
 1.45072 0.250082  2.47425 7 11 10
0.441507 0.225844  2.11436 59 75 39
 -1.01615 0.0609243   2.40043 80 75 56
-0.736802  0.236831    2.0672 131 122 113
0.235498 0.266182  2.03197 41 59 21
-0.46737 -1.02874  2.43771 202 203 197
 -1.09409 -0.944075   2.75834 211 206 200
  -1.00054 -0.0500094     2.2915 9 10 4
-0.204111 -0.662173    2.2785 49 63 76
-0.611899  -0.45166   2.25198 87 92 96
0.905297 0.206867   2.3114 231 241 243
-0.73611 0.388997  2.28597 19 19 19
-0.948476  -0.65219   2.61269 184 180 171
 1.08334 0.887676  2.00604 84 92 71
-0.0751312  -0.882771    2.33539 233 233 235
  1.83709 -0.605067   3.02382 22 21 19
0.532225 0.282764  2.01973 196 192 180
   1.6161 -0.376855   2.94039 201 194 184
 1.29002 0.534429  2.13866 18 20 15
0.576075 0.519512  2.08072 248 252 251
 0.314765 -0.463986   2.42428 32 39 45
 0.960605 0.0755229    2.3755 19 35 0
-0.386383 0.0779976    2.2162 185 182 177
 -1.14885 0.0990321   2.40533 63 50 33
  1.37343 -0.693558   3.02567 190 188 176
  -0.25227 0.00849197    2.26138 237 236 241
-0.696313  -0.33134   2.44154 35 38 45
-0.436042  0.370776   2.10815 169 165 154
 -0.371651 -0.0428851    2.29861 98 96 97
-0.933912  -1.22196   2.84332 50 57 41
 1.00178 0.136117  2.34624 233 236 241
 1.37913 0.505359  2.08881 9 16 8
   2.42254 -0.0764581    2.89973 218 202 189
 -0.65683 -0.293074   2.26661 197 199 198
-0.625916 -0.440371   2.29514 91 96 100
 0.115137 -0.835604   2.36628 162 163 158
  1.40847 -0.642314   3.04374 201 196 190
 1.37922 0.562366  2.09939 16 26 15
-0.558009  0.260834   2.28134 0 5 1
   2.32728 -0.0183007     2.8688 168 146 133
 -1.0403 -0.10942  2.36216 59 56 39
0.31042 0.30898 2.26315 7 10 15
-0.496142 -0.201733    2.3859 74 87 96
-0.298843  0.122289    2.4238 6 10 11
0.643831 0.263342  2.45721 168 168 160
-0.0767648  -0.770275    2.25988 160 169 178
0.0433321  -0.80346   2.35128 174 173 178
 0.301919 -0.786367   2.34599 208 210 205
  2.40979 -0.307534   3.01394 163 129 102
  0.30941 0.0832566   2.09169 12 17 10
 0.251839 -0.215261   2.50246 75 80 84
-0.310139 -0.042928   2.30147 24 23 18
0.641802 -0.92055  2.46923 58 64 76
0.444466 0.186514  2.08149 186 189 182
-0.71177 -1.52133  2.98633 93 87 75
 0.345318 0.0901656   2.05851 24 29 25
 -0.77618 -0.994459   2.77094 163 163 155
-0.709446  0.188692   2.19902 179 116 101
-1.03615 0.303235  2.30529 198 188 179
-0.937256  -1.55499    2.9806 211 203 192
  1.2872 0.730634  1.90546 45 60 27
-0.880249 -0.778716    2.5564 193 195 192
  1.27306 -0.884526   3.16535 200 187 168
  -0.879 0.305032  2.17475 62 71 44
  1.32569 -0.863716   3.12299 148 143 140
0.768181 0.536293  2.12697 253 255 254
 -0.43606 -0.177651   2.30816 224 224 222
 1.13463 0.820797  1.86617 60 70 45
-0.751208  -1.52628   3.01259 164 147 127
 1.05231 0.885181  1.97486 62 72 45
-0.158225  -1.04471    2.4363 31 34 39
  0.32069 -0.143056   2.61116 101 123 84
  2.30419 -0.678282   3.16621 184 157 128
   1.95154 -0.0385744    2.79875 161 162 154
-0.258979 -0.984941   2.40595 182 183 188
 1.96097 0.334351  2.50396 208 210 209
-0.0605129   0.510979    2.24556 232 242 234
  1.42431 -0.520368   2.97388 75 76 81
 0.151994 -0.277412   2.70655 53 66 82
  1.20412 -0.902551   3.10617 194 186 173
 1.27348 0.732758  1.93259 33 47 14
 1.27719 0.855978  1.89798 13 21 8
-0.467372 -0.625971   2.18355 200 205 209
  1.37449 -0.697494   2.95035 104 85 78
 2.52265 -0.56135  3.12961 177 151 128
-0.369646 -0.357659   2.41519 5 13 24
-0.466964  0.341866   2.34758 173 164 157
 0.473938 -0.523295   2.45605 77 87 97
 1.7432 0.40288 2.51272 179 173 159
 1.25273 0.903272  1.84899 58 76 34
 1.28931 -0.77784  3.08896 50 44 44
 1.09654 0.951684  2.22155 6 8 7
 1.13889 0.436831  2.18413 210 220 221
 1.49109 0.436734  2.15509 28 34 22
 1.67729 -0.55255  3.03444 110 100 90
 1.14038 -0.20376  2.75682 73 84 52
0.966559 0.315237  2.23419 236 246 248
 1.42528 0.454719  2.21863 28 32 15
0.514295 -1.24066  3.12807 79 77 54
 1.29405 0.919019  1.86673 3 9 0
-0.248235 -0.219428    2.2951 82 92 101
0.772238 0.520357  2.06412 218 229 231
-0.939885  -1.05767   2.83148 194 178 165
  -1.17064 -0.0266128    2.46156 83 64 47
 1.40749 0.138595  2.36097 36 40 26
-0.133034 -0.347319   2.19926 14 19 25
-0.404839  0.279314   2.36191 19 23 22
0.816439 0.394389  2.16886 250 254 255
1.65134 -1.0674 3.26423 150 152 149
0.136847 0.228648    2.246 114 122 85
0.363084 0.145338  2.09562 55 58 47
  1.60563 -0.137363   2.77517 239 242 249
 1.26119 0.869695  1.88913 61 70 49
0.0572019  0.309044   1.99438 45 56 42
0.255834  -0.5246  2.33525 107 110 115
  1.74746 -0.617188   3.06904 177 149 127
 0.298373 -0.447825   2.41213 9 19 28
 1.45286 0.454647  2.06131 26 39 22
  1.48578 -0.669367   3.02984 55 57 54
 1.40458 0.753014  1.96328 41 61 34
0.645014  0.15963  2.47664 111 115 116
-0.732672  -1.20663   2.91998 33 22 2
0.466979 0.697461  1.96908 68 77 86
-0.0826596  -0.264295    2.28527 4 11 19
0.0922912 -0.090691   2.58229 159 171 151
 1.18748 0.893515   1.8384 81 99 61
 1.12498 0.836034  1.86541 2 9 1
 1.23018 0.897715  1.87047 62 81 36
  1.94207 -0.310489   2.94741 123 107 94
 0.838959 -0.381639   2.61211 164 164 152
-0.391558 -0.631048   2.24475 38 42 41
 1.26464 0.718379    1.934 9 17 2
1.22202  0.7136 2.02081 6 13 6
  2.45608 0.0640688   2.88602 179 156 142
    0.926 0.0883188    2.3851 53 71 23
0.052996 -1.03741  2.48535 205 210 214
  2.03399 -0.670882   3.12569 173 147 120
1.28891 0.89165 1.85881 58 72 37
  1.02545 -0.332914    2.7895 236 242 242
-0.245717  0.161874    2.4094 89 103 78
0.760988  0.12843  2.46514 80 90 63
  2.19737 -0.405714   3.01512 199 176 145
-0.136312 -0.816971   2.26791 48 50 47
 1.50001 0.547679  2.13687 54 68 55
  1.3973 0.602189  2.04941 8 16 3
 -0.280444 -0.0331489    2.28993 235 235 237
0.477059 -1.27535  3.16471 168 147 126
-0.429732 -0.138611   2.28336 213 214 219
  2.39801 -0.278861   2.97334 210 182 161
  2.59808 -0.710158   3.19487 171 149 128
-0.585746  -0.53675   2.19205 37 35 46
0.328254 0.008593  2.02871 35 44 25
 0.111294 -0.940032   2.45798 172 167 164
-0.571487 -0.703443   2.22244 115 117 114
-0.540766 -0.629006   2.18954 176 185 194
 1.52309 0.253312   2.5766 26 31 11
 1.2269 0.85387 1.86648 54 70 33
-0.559922 -0.686086   2.20595 126 128 125
 0.305599 0.0394972   2.04351 81 92 60
 1.12183 0.121646  2.36799 229 232 237
 1.02176 0.902234  1.97827 86 89 78
  1.0064 0.227259     2.28 238 243 246
 1.88628 0.427591  2.57089 46 37 28
 2.43358 0.102459   2.8626 248 224 212
-0.0339378   -0.87196    2.32562 228 232 233
0.586395 0.176141  2.49628 82 80 83
  -0.2797 -0.543942   2.17086 233 231 232
-0.398477 -0.227543   2.41144 99 106 112
 1.37862 0.606325  2.06323 12 24 2
  1.38532 -0.572454   3.00234 58 61 70
  2.69264 -0.589516   3.22638 98 70 49
-0.745342  0.265531   2.06078 21 17 14
-0.441164 -0.194615   2.30239 22 24 36
 0.603463 -0.708609   2.39274 118 121 128
 1.21985 0.834441  1.85227 46 58 36
 0.385239 0.0943448   2.05465 77 87 60
-0.321464 -0.978189   2.40586 69 70 75
-0.0569774   -0.29019    2.28603 83 92 99
0.0623114 -0.148227   2.66511 7 11 14
-0.178058  0.130834   2.45346 88 94 82
 1.45814 -1.07933  3.22573 120 117 102
 1.13196 0.292926  2.26187 210 221 225
  2.32361 -0.871467   3.27458 150 114 90
  1.33252 -0.689148   3.03949 44 44 36
-0.0381448   0.169641    2.45746 21 17 16
 1.00583 0.788918   2.1729 20 17 12
 1.76637 0.151916  2.59933 52 60 19
 1.11528 0.675538  2.07856 47 58 41
0.655046 0.174362  2.48495 228 228 226
0.687788 0.260298  2.42339 80 150 199
 1.03119 0.665536  2.06867 63 58 62
  1.34563 0.0195581   2.32413 21 27 17
  -1.0275 -0.502117    2.5221 210 205 201
 1.89378 0.309115  2.61858 80 83 76
  1.83745 -0.537675   3.06347 177 147 123
-0.636842 -0.613088    2.2002 188 193 199
  1.82893 -0.459166   2.96634 131 115 100
0.157097 0.289151  1.99536 69 85 48
 0.423697 -0.265258   2.61179 14 21 14
-1.00711 -1.32346  2.87332 37 24 15
  1.11456 -0.441039   2.88897 201 202 197
-0.477579 -0.328922   2.45985 191 194 201
 1.59168 -1.01447   3.2612 167 161 147
  2.32442 -0.187581   2.91297 191 162 132
 -0.33372 -0.548959   2.35631 69 74 80
  1.56586 -0.467031   2.94189 213 217 218
 1.48979 -0.63549  3.05361 70 69 65
  1.50484 -0.974981   3.25436 159 152 134
0.0567016 -0.244853    2.6284 64 73 68
-0.742043 -0.301472   2.38807 148 148 148
 1.34374 0.398993  2.23457 44 48 47
  0.391995 0.00315232    2.09159 70 79 52
 1.16643 0.586697  2.11731 38 37 42
 0.660796 0.0645131   2.55267 41 55 32
 1.37154 0.130564  2.44559 20 23 16
-1.25957 0.077792  2.40948 181 173 154
-1.05416 -1.44062  2.93957 207 203 192
 1.27938 0.531164  1.96904 92 105 79
 -1.08513 -0.619852   2.55843 197 192 186
0.281526  0.20956   2.4173 17 31 8
-0.923897  -1.16436    2.8343 19 19 11
-0.0564779  -0.689267    2.27277 246 245 241
0.0952051 -0.360231   2.32224 74 83 90
  1.26682 -0.170401   2.74101 96 105 78
0.855222 0.462247  2.10909 249 253 252
-0.957404  -1.55163   2.97292 69 73 85
-0.950471  0.228171   2.37208 168 148 121
-0.506123  0.175057   2.27653 90 94 97
 1.12021 0.845918  1.88382 85 95 68
-0.914971   -1.1122   2.83758 109 95 82
0.103893 0.523857  1.91571 9 21 1
  1.1298 0.418918  2.18632 203 212 219
 -0.372122 -0.0161348    2.29591 172 167 163
0.751014 0.691885  2.03376 183 192 197
 0.47326 0.308642  2.02388 33 46 26
-0.845576 -0.187349   2.36081 185 180 174
0.0148293 -0.103718   2.48345 243 244 246
 0.341535 -0.586333   2.34563 117 127 129
 1.14145 0.865335  1.87382 19 32 14
0.749559 0.345943  2.21119 233 237 236
  1.25981 -0.186543   2.74487 28 37 10
  1.59471 -0.132038    2.7665 240 241 246
 1.25238 0.691869  2.02715 93 103 79
 0.316425 -0.468893   2.38645 76 86 95
-0.378268 -0.173474   2.31086 170 168 173
-0.244114 -0.742533   2.25076 129 139 141
-0.408729 -0.320889   2.41667 231 238 244
-0.355745 0.0376694   2.23989 184 182 185
 1.21061 0.832582  1.87799 5 16 0
0.0528529 -0.703276   2.30859 236 238 233
-0.962852  -1.58335    2.9961 33 33 35
0.0154793 -0.854512   2.33037 80 85 91
 0.365546 -0.774802   2.37771 69 73 72
 -0.46226 -0.338599    2.4691 217 220 227
-0.865293 -0.778412   2.58446 111 111 109
  1.99618 -0.165516   2.84449 105 103 104
-0.440342  0.408771   2.02682 49 65 29
 0.339275 -0.571547   2.35936 10 15 21
 -0.410623 -0.0382157     2.2411 239 240 235
-0.518824  0.118951   2.25201 173 170 163
0.000896474   -0.751089     2.32036 239 244 240
0.206053 0.385618  1.95802 14 25 11
 1.62857 0.506202  2.50469 215 204 198
-0.51366 -1.06936  2.43583 224 225 229
 -1.14443 0.0423133   2.43726 183 163 138
  1.17973 -0.865233   3.11396 232 229 224
  1.02248 -0.835634   2.57389 237 229 227
-0.365474 0.0583816   2.25608 127 131 156
-0.373281 -0.217093    2.3394 237 237 237
1.01188 0.35991 2.14855 243 252 251
-0.336767  0.412719   2.06019 161 158 141
-0.0928137  -0.132804     2.3948 179 183 182
 0.225297 -0.926856   2.43248 212 217 221
 -0.346155 -0.0935438    2.29048 101 99 100
-0.375882   -0.2581   2.44716 152 165 173
 0.648721 -0.943728    2.4894 98 108 107
-0.905606  0.303217   2.33886 78 65 46
0.205569 0.248705  2.02201 20 28 13
0.0937068 -0.846733   2.35991 59 64 70
-0.798823  -1.50288   2.99623 26 28 14
0.754671 0.042946  2.53835 53 69 30
  -0.7246 -0.188403   2.37924 181 180 175
-0.203291  -0.24413   2.18306 233 234 236
-0.239916  0.184461   2.41045 78 99 56
  2.23078 -0.787345   3.20493 120 92 70
 0.124127 -0.773002   2.34688 202 206 205
0.785485 0.401568  2.17515 224 230 230
 1.15704 0.761292  1.93035 54 63 44
  1.45076 -0.772963   3.04566 43 52 59
   2.10228 -0.0410377    2.77007 113 100 109
 1.14551 0.786699  1.91205 4 15 0
  1.36147 -0.122124   2.74388 11 11 0
0.296102 0.109552  2.09345 77 88 54
  1.63264 -0.514527   2.98261 102 105 110
-0.437473 -0.592467   2.19144 68 69 73
  1.6949 0.893078  2.30008 217 233 220
-0.954072  -1.25863    2.8566 203 190 184
0.875185 0.118592  2.39303 67 88 32
  -1.23548 -0.0087577    2.45225 73 65 52
-0.998308 -0.851975   2.60915 93 94 88
-0.400378  0.395461   1.95189 54 65 31
 1.56318 0.587959  2.09101 57 65 42
1.64079 0.49876 2.50392 63 54 55
 1.85282 0.162394  2.59602 55 55 47
  -1.27337 -0.0634827    2.48214 86 77 68
-0.255479 -0.957651   2.44371 16 18 17
  -0.27207 -0.0492365    2.28644 21 11 12
0.490629 0.438287  2.16811 249 251 250
 -1.00322 -0.725626   2.56276 67 68 70
 1.12946 0.800463   1.9082 65 77 53
 0.705577 -0.286121   2.47858 76 91 60
   1.40788 0.00295988    2.71224 128 119 112
-0.266371 -0.961866   2.42615 110 112 111
  1.31396 -0.261421   2.81956 30 29 27
0.939896 0.422885  2.15759 245 253 255
 1.34984 -0.95838  3.20799 212 193 176
-0.968575  -1.59775   2.99926 145 146 150
     1.11602 -0.000426506      2.55298 86 90 57
-0.00179129   -0.157424     2.36393 34 28 28
-0.334947  -1.16443   2.55042 55 58 67
 -0.350081 -0.0748351    2.31913 240 229 233
 1.30505 0.922988  1.86046 9 19 10
 0.536799 -0.572214   2.46835 82 89 97
  0.151641 -0.0545704     2.4556 86 112 64
  1.52674 -0.657808    3.0088 211 213 210
  0.10089 -0.811732    2.3618 201 203 200
0.313798 -0.35197  2.77407 70 71 76
  2.27203 -0.133148   2.86253 168 141 114
 0.852321 -0.263657   2.64957 23 25 4
 1.03464 0.959634  2.20579 15 19 5
-0.672656  0.311328   2.30303 8 8 10
-0.838904 -0.328847   2.44547 123 121 109
 0.168231 -0.290647   2.73391 3 13 15
 1.37142 -1.06178  3.20103 62 46 31
 0.311635 0.0632027   2.13496 14 20 16
 1.42712 0.461609  2.02258 54 68 45
  1.3375 -1.11584  3.17709 174 152 138
 0.708095 -0.953354   2.49634 26 30 33
 1.18345 0.304167  2.27196 194 206 206
 1.28894 0.105331  2.56948 17 26 9
-0.269394 -0.167791   2.32606 9 18 23
 -1.03219 -0.967908    2.7527 25 27 52
  2.36227 -0.189287   2.91423 204 173 142
  -0.40958 -0.0236114    2.27604 16 12 3
-0.0601138  -0.732637    2.31757 190 193 186
-0.105873 -0.739276    2.2844 112 120 131
-0.582243  0.176606   2.19648 78 68 67
  1.94972 -0.616401   3.09478 192 165 136
-0.797763  -1.56093   3.02252 29 30 12
 1.15784 0.773977  1.91085 15 24 5
 2.14502 -0.79983  3.19434 148 113 91
 1.48328 0.423054  2.12459 42 49 33
  2.05019 -0.416724   2.99022 197 178 163
0.0800476   -1.1424   2.53997 71 72 74
0.321177 0.101623  2.07616 75 86 56
-0.304817 -0.943386   2.42031 103 106 111
  1.2512 0.216047   2.3484 87 81 81
 1.31154 0.660805  2.03717 3 15 1
0.353428 -0.16019  2.60198 11 24 7
0.666889  0.23083  2.46192 37 40 49
 1.14576 0.852028  1.88527 7 15 4
 -1.14958 0.0674545   2.42586 183 163 136
-0.699814   -1.1223   2.87532 56 50 36
0.135579 -1.14456  2.53215 24 33 38
 1.18238 0.866004  1.85633 19 28 11
-0.795762 -0.276985   2.37152 233 236 245
 -0.214309 -0.0219702    2.25294 77 79 78
  1.55761 -0.126324   2.77887 196 195 191
 0.332528 -0.450914   2.42895 75 84 91
 1.33824 0.625028  2.01641 11 18 2
-0.961807  -1.62295   2.99726 231 245 248
 1.31343 0.771898  1.91748 45 60 29
-0.34257 -1.05077  2.43354 157 159 156
 1.44724 0.285245  2.49242 61 76 43
  1.00197 -0.666525   2.96165 182 186 187
-0.182912 -0.799214   2.11366 75 66 71
 1.51283 0.730503  2.14205 15 30 33
-0.350828 -0.478925   2.30565 201 202 206
 1.43962 -1.00617  3.21207 97 98 103
  1.1077 0.780531  1.94967 14 22 7
0.76403  0.6953 2.03431 217 228 232
-0.445108 0.0795829    2.2657 196 191 185
0.00632107  -0.767556    2.33249 204 204 204
-0.888577  0.110586   2.29501 190 168 154
-0.395165 -0.603655   2.20645 239 242 247
  2.57193 -0.543203   3.14245 107 79 58
0.582676 0.462869  2.13564 227 231 230
  2.63172 -0.237965    3.0051 174 144 118
  0.24241 -0.908134   2.43028 199 200 205
  1.99241 -0.314462   2.94321 56 39 31
  2.13629 -0.430924   3.02614 193 167 140
-0.806809 -0.173727   2.33803 199 215 231
-0.897551 -0.805799   2.57861 119 121 118
 1.11718 0.842689  1.91304 8 14 2
  0.340573 -0.0790824    2.58369 97 111 85
   1.42673 -0.0333155    2.74236 187 186 181
 0.388315 -0.251331    2.6069 35 42 35
  -1.0626 -0.635345   2.54228 109 102 92
-0.716991 -0.774177    2.2759 222 223 225
   1.7975 -0.688821   3.01761 23 12 6
 0.635935 -0.979144   2.42858 217 222 218
  2.00499 -0.562426    3.0659 191 158 125
  1.1567 0.840676  1.88615 0 6 0
 0.81516 0.413074  2.14198 240 245 248
0.132203 -1.13471  2.54635 71 76 80
-0.277927  0.297031   2.38775 12 12 20
-0.607292 -0.816909    2.3131 136 137 142
 1.03792 0.904737  1.98698 19 26 10
-0.566198 -0.621721   2.21012 172 186 187
0.0404792  -1.05586   2.41413 142 147 151
0.744502 0.218654  2.43454 64 102 147
-0.426883 -0.675292   2.24855 157 168 172
-0.395679  0.355521   1.98836 161 157 145
 0.232442 -0.916187   2.43504 61 62 67
 1.20685 0.276394   2.2588 185 200 203
-0.495945  0.276176   2.35907 5 10 3
-0.0974301  -0.655215    2.25505 182 174 172
  1.91193 -0.407938   2.98989 118 91 70
 0.709367 -0.796832     2.387 226 225 220
-1.14611 0.115746  2.40781 65 59 43
-0.712968  -1.37271   2.97824 178 171 153
 1.04389 0.873255  1.99913 69 74 67
 1.09591 0.866926  1.89181 12 20 5
 1.05618 0.832395  1.99856 72 79 61
  1.45408 0.0410432   2.33368 77 87 63
  1.48938 0.0983839   2.37581 56 61 41
  1.43129 -0.989296   3.20502 29 23 23
-0.804847  -1.35796   2.93531 116 110 96
-0.757289  -0.21255   2.36052 37 44 62
-0.290155  -1.18351   2.55965 54 59 63
 1.15119 0.767576   1.9188 14 22 7
-0.97491 0.221421  2.37223 225 206 191
-0.613377  0.191224   2.17311 241 240 238
-0.650715  0.212321   2.15668 81 78 73
 1.08532 0.635752  2.04618 224 226 221
0.930414 0.291101  2.24747 223 227 226
   -1.10684 -0.00127482     2.45528 146 134 112
-1.04101 -0.84866  2.58787 18 18 20
 1.76623 0.142615  2.68371 107 101 75
0.495861 0.322139  2.06927 187 185 170
  0.100658 -0.0242675    2.52926 2 4 0
0.572658 0.745324  1.99041 215 223 225
-0.872239  -1.41953   2.93824 51 49 34
0.0768316  -0.51196   2.18361 210 214 217
 1.83835 0.665773   2.4583 195 189 175
 -1.08743 -0.626588   2.54398 75 72 57
 -0.13785 -0.714101    2.3012 103 103 113
0.968837 0.253101   2.2604 242 247 250
-0.404058  0.254717   2.35222 26 37 21
1.25788 0.23319 2.36124 192 184 181
 1.24011 0.767193  1.88291 11 26 0
-0.284358 -0.410535   2.26019 198 201 206
-0.336021   -1.0349   2.43461 29 30 32
 1.84975 0.243814  2.60489 3 11 0
 1.12245 0.314619  2.20068 203 212 217
-0.932983  0.304382   2.32982 179 175 148
 0.70255 0.296862  2.23383 60 59 64
-0.844036 -0.249531   2.21577 214 211 204
  1.77653 -0.595185   3.07184 205 179 154
0.599372 -0.25417   2.4661 1 9 0
 0.109224 -0.777633   2.34808 234 239 235
-0.978606 -0.990189   2.76937 34 2 7
 1.12821 0.840798  1.91469 67 76 59
-1.03905 -1.18912  2.82421 71 67 55
  2.73518 -0.545039   3.24083 45 21 9
 0.423951 -0.673089   2.31377 62 54 52
-0.862336 -0.142896   2.33781 158 157 153
 -0.23751 -0.608465   2.25871 74 74 74
  1.89368 -0.295497   2.90119 207 196 192
  1.06648 -0.304437   2.81689 165 169 154
 -1.02345 -0.973445   2.78556 27 24 31
-0.596604 -0.610686   2.23345 50 53 60
  0.174954 -0.0417873    2.49699 3 21 0
0.0385543  -1.04489   2.44052 131 138 146
0.830167 0.115452  2.41512 0 5 0
1.10521 0.45104 2.18163 37 50 58
-0.0110598  -0.792889    2.32944 42 43 48
-0.411908 -0.996952   2.41106 34 37 44
 -1.2438 0.115705  2.38521 170 160 150
-0.233688 -0.158676   2.33679 0 8 17
0.539529 0.581367   2.0568 250 251 253
  1.55406 -0.105134   2.77437 228 221 213
  2.29734 -0.126457   2.87178 65 43 22
  1.20079 -0.160157   2.76998 20 19 17
 1.60975 -0.50066  2.99433 217 217 215
 -1.06748 -0.772389   2.58377 109 111 108
-0.137778 -0.788609   2.25181 200 201 203
-0.361462 -0.483522    2.3014 64 64 66
 1.76324 0.132906  2.69813 58 51 32
 0.116044 -0.595321   2.24126 206 206 198
 1.07907 0.624387  2.05219 247 248 250
-0.527478 -0.592285   2.20457 163 172 181
-0.762744  0.316509   2.17927 10 10 10
-0.415078 -0.279619    2.3873 7 20 29
 0.576477 -0.731463   2.33854 234 230 227
  1.74838 0.0534692   2.71725 240 243 224
-0.397022 -0.616117   2.22173 75 77 74
0.568635 -0.67177  2.44151 115 119 128
 1.26246 0.696706  1.97617 8 21 3
1.80079 0.11697 2.62976 193 201 154
-0.584685 -0.646371    2.1923 214 215 217
-1.08033 0.230874  2.36433 84 76 65
 0.492688 -0.186176   2.55032 91 106 73
0.00620972  -0.143466    2.37942 87 91 94
  2.52583 -0.434988   3.07379 184 160 136
-0.570701 0.0172273   2.28237 141 141 131
 1.07647 0.629294    2.075 114 122 125
  1.36217 -0.918975   3.19277 185 174 156
 -0.89848 -0.294313   2.41504 181 149 124
0.807056 0.232218  2.26225 77 76 82
 0.261137 -0.967519   2.46198 146 153 163
  1.69683 -0.527883   3.03393 65 57 44
  1.2968 0.887078  1.85287 16 26 2
0.429122  0.18949  2.09803 55 57 44
0.545622 0.387753  2.19157 248 246 249
-0.216478 -0.670961   2.28695 0 12 21
  1.05167 -0.472871   2.89627 204 201 192
0.571485 -1.25024  3.13197 108 101 75
-0.917142  -0.71798   2.62682 86 87 82
0.0320789 -0.213681   2.65713 31 32 37
-0.373679  -1.01647   2.42571 35 39 42
 0.964623 -0.818278   2.55247 207 212 208
   1.45956 -0.0864929    2.72228 35 33 18
   1.36354 -0.0760859    2.75261 174 165 160
-1.05485 0.137394  2.40756 104 92 70
0.591628 0.338145  2.20227 81 74 68
-1.05042 -1.14273  2.83438 66 58 47
   2.09402 -0.0810399     2.7995 210 204 190
 1.32934 0.487509  2.17818 68 69 74
   2.10957 -0.0684171    2.80006 220 213 207
 1.11585 0.848206  1.89638 8 19 2
  1.04866 -0.383927   2.81604 84 88 97
 2.00871 0.228527  2.61583 89 98 107
0.925948 0.433197  2.13672 205 214 221
0.0953357 -0.937734    2.4442 77 77 79
    1.4504 -0.0573949    2.77074 29 28 26
0.116857 -0.96737  2.44378 141 140 145
 1.41752 -0.31709  2.89315 210 216 212
   1.38657 -0.0918248    2.75994 27 27 27
-0.857361 -0.274159   2.22297 188 184 181
 -0.309572 -0.0526956    2.35467 14 23 18
 0.317834 -0.872228    2.4129 4 10 22
 1.03946 0.279425  2.26031 83 88 94
-1.00365 -1.47226  2.92372 64 63 59
  2.67517 -0.543449   3.21179 79 57 36
  1.56122 -0.532379   2.97587 221 221 223
-0.808987  -1.25005   2.90261 59 46 37
 -0.39652 -0.877633   2.38956 185 196 200
 0.847119 -0.200811   2.73941 169 160 155
-0.859216 -0.931384   2.65659 229 229 229
-0.829589  -1.12017   2.86629 190 177 161
-0.492024  0.413416   2.09059 189 194 171
  2.18287 -0.912016    3.2391 124 92 69
   2.55172 -0.0680458    2.92244 227 209 199
-0.281937   0.13407    2.3707 75 83 62
-1.11162 0.271133  2.31498 96 84 70
-0.0840589  -0.627476    2.20048 178 173 170
 1.19806 0.290644  2.26916 188 197 202
 1.08025 0.811905  1.97948 74 83 62
0.829436 0.158122  2.41647 7 12 5
-0.986175  0.134016   2.37904 99 95 70
 -0.60351 -0.606398   2.23437 186 187 189
-0.787689   -1.1831   2.88871 24 22 9
  1.32664 -0.781373   3.10109 156 149 141
 0.107121 -0.240835   2.60843 58 66 69
-1.07121 -1.26374  2.84331 17 17 19
   2.32165 -0.0446914    2.87181 91 63 41
  1.68507 -0.123646   2.79112 78 81 90
-0.815166  -1.17732   2.87264 20 16 7
 1.09919 0.622425  2.07217 37 38 42
 1.33163 -1.07836  3.19109 31 23 12
0.863763 0.179873  2.34476 76 58 48
-0.309924  0.206742   2.40343 7 18 4
  2.77594 -0.490944   3.22301 202 176 163
0.0945349  -1.16877   2.56906 26 29 36
 1.86985 0.351835    2.587 92 96 82
-0.914783  -1.30271   2.86802 187 190 173
  2.81685 -0.617392   3.31509 29 4 0
 0.569522 -0.281373   2.47832 14 23 4
0.53423 0.57701 2.06827 94 95 97
0.0731838    -1.108   2.54389 187 190 197
  1.47375 -0.998767   3.23487 29 20 23
  1.94645 -0.474188    3.0322 136 110 87
  -1.14014 -0.0129674    2.46598 99 85 59
-0.820506  -1.43502   2.96041 130 132 119
  1.11955 0.0351908   2.46949 74 94 45
 1.04067 0.268168  2.25753 243 248 254
   1.055 0.867378  1.97797 15 22 4
0.511146 -1.28085   3.1756 168 156 134
 0.108291 -0.946731   2.45278 176 168 166
  0.313364 -0.0225743    2.17136 175 176 160
  2.06176 -0.298865   2.93593 204 182 161
-0.569792 0.0780115   2.26689 154 155 147
-0.633561  -1.48142   3.03887 75 72 53
 1.75972 0.092887  2.62925 193 200 167
     2.396 -0.0606133    2.89876 65 49 36
  1.69159 -0.676766   3.09456 189 150 119
 -0.38448 -0.276254   2.44303 211 214 223
 0.240771 -0.879117    2.3886 52 56 59
  2.27274 -0.199752   2.92041 161 131 105
 2.17301 0.286606  2.64054 69 70 62
-0.643807  -1.53127   3.08914 173 167 153
  1.30727 -0.425293   2.90284 96 97 102
  0.36686 -0.120696   2.60428 86 94 79
 1.86071 -0.24972  2.88282 239 248 255
0.510655 0.300651  2.04198 65 64 46
 1.34534 0.861065  1.86804 16 28 4
0.411743 0.328518  2.01517 13 25 5
-0.754473  -1.35762   2.94939 48 49 33
   1.47333 -0.0713351     2.7472 150 131 124
-0.395167 -0.279831   2.45317 48 52 63
 -0.51331 -0.840442   2.36478 184 191 199
0.706558 0.238899  2.43881 2 42 67
 0.825676 0.0899862   2.43519 3 15 0
 0.925134 0.0698811   2.37365 37 57 6
 1.03075 0.666854  2.05092 143 142 140
-0.599814  0.120708   2.20535 156 153 144
 1.97423 0.421015  2.53219 44 45 29
 1.06223 0.826241  1.99491 2 10 0
-1.24093  0.16073  2.37961 88 82 70
 -1.10521 -0.141189   2.47424 12 12 2
0.889064 0.152499  2.44536 166 148 124
  1.76245 -0.635921   3.09291 162 135 114
-1.01099  -1.3463  2.85412 55 62 70
 1.9198 0.19015 2.60301 233 247 255
-0.199115 -0.791115   2.27325 39 33 33
-0.297894 -0.923715   2.41851 196 204 206
0.491333 0.544133  2.06892 253 255 254
1.10123 0.86331 1.90276 98 108 83
  2.75134 -0.476127   3.20042 25 5 0
-0.554829 -0.161559   2.35588 209 211 234
  2.21875 -0.574499     3.097 187 158 128
-0.322435 -0.929863   2.39746 28 29 33
-0.403302 -0.969615   2.38682 20 23 28
0.846266 0.194242  2.27115 231 227 228
-0.299641 -0.130945   2.29446 237 232 226
  1.69626 -0.110664   2.77999 112 115 124
0.600131 0.337816  2.18009 244 241 248
 0.179854 -0.109264    2.5397 96 130 56
 -1.24341 -0.183165   2.50443 22 23 9
 1.15258 0.600926  2.08926 0 5 0
-0.410609  0.317345   2.32837 7 18 22
-0.884788  -1.55692   3.00699 43 39 28
 0.714397 -0.137837   2.71254 28 29 34
  1.37368 -0.273503   2.85808 205 206 200
 1.25378 0.198404  2.45171 190 184 184
  1.42444 -0.612827   2.99633 230 237 243
 1.14996 0.592537  2.08866 136 137 132
 0.80624 0.427193  2.17417 65 68 73
  0.764446 0.00324202    2.57538 11 24 4
  0.301717 -0.0858461    2.55394 5 30 0
  1.86458 -0.552794   3.06071 182 160 136
 0.270804 -0.218611   2.49765 220 223 228
-0.232776 -0.797193   2.26112 187 177 175
-0.908392 -0.372782   2.44187 5 7 19
   0.377183 0.000521124       2.154 66 72 44
 -1.00377 -0.798112   2.58193 184 184 186
-0.785194 -0.226255   2.37263 19 21 33
 1.95872 0.240978  2.59377 98 106 109
0.0399448  -1.01401   2.47198 242 241 249
-0.903104 -0.674909   2.61523 219 215 203
 1.21261 -0.84508  3.13864 118 115 108
  1.62544 -0.840982   3.16849 204 191 183
 2.47406 -0.48919  3.09699 144 125 108
0.210347 -1.01413  2.46549 208 213 217
  -0.2029 -0.747948   2.19013 86 71 74
-0.950266  -1.16222   2.85395 43 36 26
-0.69398 -1.10821  2.86456 218 207 187
1.93051  0.3079 2.55704 67 71 57
 -1.04402 -0.687746   2.59794 196 187 178
-0.627114  0.200034   2.12706 175 170 164
-1.02899 0.221687  2.31054 221 211 199
-0.40533  -1.0061  2.39756 208 209 211
0.665708 0.052803  2.55432 85 105 68
-0.290412   0.17748   2.38329 17 32 1
  1.28522 -0.915508   3.18512 205 192 173
  1.66113 -0.891776   3.20028 175 172 155
  1.14049 0.0667282   2.54626 37 40 29
-0.920292 -0.479772   2.52107 149 144 141
 1.15806 0.782248  1.90091 14 22 7
-0.202524 -0.554125   2.21992 159 164 170
-0.667285 0.0806433   2.29072 187 180 174
 1.35496 -1.05387  3.22346 24 11 0
 0.134587 -0.915023   2.44066 211 210 218
  1.94442 -0.498666   3.04622 212 189 171
  2.28758 -0.059705   2.86602 170 138 115
 -0.375974 -0.0437267    2.35359 108 102 102
  0.585225 -0.0604954    2.65205 42 43 48
-0.133649 -0.781609   2.26202 42 47 43
-0.084976  -0.72987   2.30022 227 227 239
  1.31278 -0.666836   3.05334 88 88 78
 1.98892 0.397441  2.54458 47 48 40
-0.860221 -0.676234   2.62051 5 36 56
