ply
format ascii 1.0
element vertex 306
property float x
property float y
property float z
property uchar red
property uchar green
property uchar blue
end_header
 0.0101793 0.00114996  0.0458023 0 255 0
0.0835281 -0.137278 -0.924055 0 255 0
 -1.72907 -0.428932   5.68474 255 255 255
 -1.73874 -0.504446   5.70844 255 255 255
0.373643 0.112743  2.62864 255 255 255
  0.490305 0.00991608    3.07431 255 255 255
 0.868791 -0.312463   3.44034 255 255 255
 -1.83842 -0.666273   5.83106 255 255 255
0.816969 0.133839  2.77137 255 255 255
0.0939645 -0.340056   3.19227 255 255 255
-0.142149 -0.424558   3.28052 255 255 255
 -1.96208 -0.811046   5.96723 255 255 255
  1.51266 -0.723466   3.90311 255 255 255
-0.0707628    -0.5759    3.39611 255 255 255
-0.280447 -0.432998    3.8055 255 255 255
 0.075611 -0.392441   3.06484 255 255 255
 -1.87374 -0.454747   5.74188 255 255 255
 0.705583 -0.186811   3.22548 255 255 255
  1.22819 -0.510069   3.74841 255 255 255
 0.206824 -0.305571    3.4231 255 255 255
  1.30811 -0.446064   3.55764 255 255 255
  -1.9018 -0.523523    5.7298 255 255 255
  1.07833 -0.288289   3.48777 255 255 255
 0.46097 0.237693  2.32387 255 255 255
0.461261 0.267098  2.28017 255 255 255
 0.40147 0.200249  2.40078 255 255 255
 0.807953 -0.471843   3.70735 255 255 255
  1.23836 -0.462323   3.64943 255 255 255
  1.50342 -0.635433   3.64369 255 255 255
0.00380447   -0.41129    3.18205 255 255 255
  1.36293 -0.389782   3.45164 255 255 255
 -1.79379 -0.595366    5.7723 255 255 255
-0.470877 -0.530127   3.53484 255 255 255
  1.05587 -0.312751   3.58979 255 255 255
 -1.78225 -0.503423   5.70352 255 255 255
 1.34632 -0.42606   3.5269 255 255 255
 -2.02214 -0.334673   5.71452 255 255 255
  0.76577 0.0874553   2.80716 255 255 255
-0.463923 -0.671451   3.66952 255 255 255
 -1.85626 -0.786207   5.94608 255 255 255
  1.27492 -0.585405   3.72433 255 255 255
   1.0682 -0.337659    3.5556 255 255 255
 -2.05211 -0.287214   5.87908 255 255 255
  1.25884 -0.383452   3.54921 255 255 255
1.55179 -0.7535 3.89225 255 255 255
  1.35211 -0.496372   3.53664 255 255 255
  1.47284 -0.562933   3.71068 255 255 255
-0.626641 -0.610758   3.78277 255 255 255
 0.574989 -0.380398   4.07809 255 255 255
  1.31464 -0.342168   3.40254 255 255 255
   1.2681 -0.396226   3.52254 255 255 255
-0.479612 -0.592778   3.57762 255 255 255
-0.160203 -0.545473    3.4619 255 255 255
  1.29678 -0.377589   3.47061 255 255 255
-0.0737614  -0.448178    3.18813 255 255 255
 0.629768 -0.153877   3.14105 255 255 255
  1.33875 -0.475405   3.58245 255 255 255
-0.537183 -0.631859   3.63795 255 255 255
  -1.8876 -0.764442   5.95491 255 255 255
  1.31641 -0.659648   3.88542 255 255 255
0.588782 0.285655  2.46232 255 255 255
-0.503971 -0.572664   3.59342 255 255 255
 1.35526 -0.67693   3.8673 255 255 255
0.531472 0.310824  2.42448 255 255 255
  1.27377 -0.510943   3.75883 255 255 255
0.998684 -0.32732  3.53225 255 255 255
  1.48157 -0.849741   4.08539 255 255 255
0.458578 0.462007  2.22011 255 255 255
 -1.85998 -0.446853   5.70896 255 255 255
-0.331187 -0.603767   3.58065 255 255 255
  1.18514 -0.715818   4.12953 255 255 255
  1.11147 -0.227477   3.34064 255 255 255
-0.527436 -0.616208   3.69099 255 255 255
  1.24793 -0.405873    3.5912 255 255 255
  1.28347 -0.632875   3.88179 255 255 255
0.442245 0.457776  2.21381 255 255 255
  1.21593 -0.488535    3.7554 255 255 255
 -2.05946 -0.287842   5.80171 255 255 255
 0.997535 -0.305164    3.5179 255 255 255
-0.539413 -0.439626   4.06209 255 255 255
-0.559925 -0.673981   3.65245 255 255 255
 -0.54419 -0.702711   3.67464 255 255 255
  1.58088 -0.778927   3.94207 255 255 255
0.816301 0.322329  2.27105 255 255 255
0.0102926 -0.311094   3.27083 255 255 255
 0.143269 -0.357905   3.22304 255 255 255
 0.357759 0.0988394   2.40992 255 255 255
-0.552983 -0.690228    3.6786 255 255 255
-0.312058 -0.456649    3.7295 255 255 255
 0.223818 -0.304032   3.41052 255 255 255
 -1.79978 -0.537827     5.754 255 255 255
 -0.60493 -0.628917   3.81997 255 255 255
  1.22476 -0.764627   4.17158 255 255 255
  1.33732 -0.670636   3.86602 255 255 255
0.471457 0.261845  2.29582 255 255 255
  -1.9051 -0.778866   5.95047 255 255 255
  1.28549 -0.521118    3.7433 255 255 255
  0.43704 0.0496654   2.57905 255 255 255
  1.50645 -0.606732    3.6962 255 255 255
  1.31113 -0.860299   4.21872 255 255 255
   1.4585 -0.651783   3.84567 255 255 255
0.445574 0.215521  2.36251 255 255 255
  1.19672 -0.732493   4.13476 255 255 255
 -2.06771 -0.320088   5.78034 255 255 255
-0.170385 -0.526563   3.44641 255 255 255
 0.376794 0.0944605   2.42019 255 255 255
  1.14151 -0.696035   4.11331 255 255 255
  1.35391 -0.511825   3.55999 255 255 255
 0.573052 -0.197956    3.3293 255 255 255
  1.36868 -0.410618   3.53165 255 255 255
 -0.68997 -0.638723   3.85645 255 255 255
0.387441 0.156646   2.4334 255 255 255
 0.622552 -0.187184   3.15736 255 255 255
 0.555728 -0.410653   3.58858 255 255 255
 -2.05106 -0.272546   5.83585 255 255 255
   1.3242 -0.422151   3.53313 255 255 255
 0.509463 -0.389665    3.5722 255 255 255
  -1.8322 -0.500758   5.72503 255 255 255
-0.378931 -0.670287   3.64938 255 255 255
-0.146837 -0.522818   3.41753 255 255 255
0.934488 0.269573  2.35026 255 255 255
  1.31437 -0.888057   4.18306 255 255 255
 0.344407 0.0323542   2.70794 255 255 255
 0.93504 0.368856   2.2476 255 255 255
-0.0983078   -0.59604    3.50156 255 255 255
-0.573928 -0.601544   3.77095 255 255 255
  0.36181 0.0885775   2.44175 255 255 255
 -2.08905 -0.255501   5.84918 255 255 255
 0.868791 -0.312463   3.44034 255 255 255
 -2.10479 -0.411112   6.07061 255 255 255
  -1.7146 -0.768999   5.81499 255 255 255
  1.20195 -0.560447   3.87726 255 255 255
  1.23906 -0.642219   3.88693 255 255 255
 1.30924 -0.58506  3.71904 255 255 255
-1.74232 -0.65072   5.6914 255 255 255
 0.541051 -0.388134   3.60921 255 255 255
  1.38431 -0.620316   3.74416 255 255 255
-1.96061 -0.74426  5.89551 255 255 255
 -1.76184 -0.551869   5.74766 255 255 255
-0.100148 -0.461016   3.31425 255 255 255
 0.720665 -0.417742    3.9723 255 255 255
  1.27355 -0.343031   3.47482 255 255 255
 0.650808 -0.190537   3.14433 255 255 255
  1.25864 -0.454899   3.62119 255 255 255
  1.18514 -0.715818   4.12953 255 255 255
  1.16518 -0.190122    3.2192 255 255 255
 0.68218 0.356681  2.31889 255 255 255
 0.68218 0.356681  2.31889 255 255 255
  -1.9709 -0.365522   5.82606 255 255 255
-0.312058 -0.456649    3.7295 255 255 255
 -1.99543 -0.776208   5.91001 255 255 255
-0.552983 -0.690228    3.6786 255 255 255
 0.416753 0.0412947    2.5944 255 255 255
 0.627573 -0.174107   3.14526 255 255 255
 -2.08089 -0.242021   5.87443 255 255 255
  1.38923 -0.308587    3.3818 255 255 255
-1.92887 -0.48565  5.72791 255 255 255
0.377842 0.397403  2.44675 255 255 255
 -1.91764 -0.412534   5.69296 255 255 255
 -1.88414 -0.486808   5.72415 255 255 255
 0.223818 -0.304032   3.41052 255 255 255
 -1.76343 -0.613839   5.79397 255 255 255
 -1.80314 -0.475415   5.67733 255 255 255
 0.509463 -0.389665    3.5722 255 255 255
 0.93504 0.368856   2.2476 255 255 255
0.945742 0.132252  2.56505 255 255 255
-0.480522 -0.556741   3.57955 255 255 255
 -0.33854 -0.622593   3.60624 255 255 255
-1.54814 -0.74466  5.54889 255 255 255
0.388171 0.120503  2.46211 255 255 255
 0.997234 -0.531959   4.14237 255 255 255
0.475073 0.252807  2.31017 255 255 255
0.594601 0.262453  2.47441 255 255 255
  1.32757 -0.809504   4.12399 255 255 255
  1.16189 -0.705357   4.12464 255 255 255
0.710911 0.393696  2.21496 255 255 255
0.786848 0.349568  2.25345 255 255 255
 0.679912 -0.378665   3.98031 255 255 255
  1.51445 -0.605196   3.67753 255 255 255
0.358317 0.393008  2.26441 255 255 255
  1.20279 -0.745028   4.13154 255 255 255
 0.578631 -0.195656   3.28384 255 255 255
0.800692   0.3411   2.2607 255 255 255
0.420805 0.194473  2.40834 255 255 255
  1.34145 -0.443054   3.58237 255 255 255
-0.113268 -0.483199    3.3316 255 255 255
   1.0738 -0.306595    3.4946 255 255 255
0.531409 0.437212  2.23105 255 255 255
  1.09133 -0.285753   3.42601 255 255 255
-0.501228  -0.62816   3.57277 255 255 255
0.573064 -0.20896  3.43335 255 255 255
0.874791 0.296572  2.29553 255 255 255
-0.638892 -0.613194   3.68458 255 255 255
 -1.98633 -0.755418   5.89422 255 255 255
  1.08257 -0.273603   3.40847 255 255 255
 1.49635 -0.65545  3.62742 255 255 255
  1.43012 -0.567997   3.66314 255 255 255
 0.986345 -0.516374   3.89157 255 255 255
 -1.05591 -0.922619   5.41582 255 255 255
 -1.85626 -0.786207   5.94608 255 255 255
  1.25864 -0.454899   3.62119 255 255 255
0.442245 0.457776  2.21381 255 255 255
0.400509 -0.38429  3.39312 255 255 255
-0.404696 -0.555593     3.493 255 255 255
  1.22476 -0.764627   4.17158 255 255 255
-0.378931 -0.670287   3.64938 255 255 255
  -1.7264 -0.602548   5.73617 255 255 255
0.461266 0.474116   2.2254 255 255 255
 -2.04493 -0.328017   5.76056 255 255 255
  1.16189 -0.705357   4.12464 255 255 255
  1.09133 -0.285753   3.42601 255 255 255
0.438124 0.202736   2.3768 255 255 255
-0.576033 -0.532355   3.56947 255 255 255
 0.592497 -0.202094   3.24944 255 255 255
 -2.16765 -0.207665   6.00087 255 255 255
-0.130046 -0.493334   3.37464 255 255 255
  1.08292 -0.415076   3.69258 255 255 255
 -1.85714 -0.350926   5.72292 255 255 255
-0.626641 -0.610758   3.78277 255 255 255
   1.2681 -0.396226   3.52254 255 255 255
0.0277758 -0.304265    3.1917 255 255 255
  1.27765 -0.418987   3.54273 255 255 255
  1.47711 -0.677024   3.85827 255 255 255
  1.14151 -0.696035   4.11331 255 255 255
0.498373 0.197235  2.84534 255 255 255
 1.38812 -0.71877  3.89562 255 255 255
0.503335 0.432369  2.22688 255 255 255
 0.831685 0.0978479   2.67793 255 255 255
  1.27676 -0.494109   3.74211 255 255 255
0.347135 0.116491  2.43131 255 255 255
  1.25884 -0.383452   3.54921 255 255 255
-0.331187 -0.603767   3.58065 255 255 255
 -0.54419 -0.702711   3.67464 255 255 255
0.388171 0.120503  2.46211 255 255 255
-0.631567 -0.615775   3.73005 255 255 255
  1.45718 -0.819374   4.09119 255 255 255
  1.38134 -0.786567   4.07172 255 255 255
0.394806 0.045218  2.51809 255 255 255
 -1.44265 -0.790051   5.69842 255 255 255
0.710685 0.386136  2.22212 255 255 255
  1.15802 -0.720751   4.12516 255 255 255
  1.29959 -0.798261    4.2009 255 255 255
 0.815033 -0.179777   3.30802 255 255 255
  1.31437 -0.888057   4.18306 255 255 255
0.333358 0.125245   2.4744 255 255 255
 0.401175 -0.371582   3.40889 255 255 255
  1.36676 -0.836688   4.17637 255 255 255
-0.332964 -0.571392   3.49446 255 255 255
  1.34901 -0.812897   4.12301 255 255 255
 1.00336 0.207347  2.45162 255 255 255
0.913649 0.276048  2.31809 255 255 255
  1.37649 -0.816857   4.12673 255 255 255
0.863304 0.243089  2.42513 255 255 255
   1.4423 -0.656376   3.84507 255 255 255
-0.577801 -0.698549   3.71991 255 255 255
  1.34839 -0.498578   3.54502 255 255 255
0.749475 0.361467  2.23275 255 255 255
0.747935 0.371812  2.23418 255 255 255
0.438124 0.202736   2.3768 255 255 255
  1.26362 -0.370759   3.52869 255 255 255
0.807951 0.246692  2.46825 255 255 255
  1.28673 -0.584073   3.70945 255 255 255
  1.23459 -0.477569   3.70704 255 255 255
  1.37297 -0.420496   3.52939 255 255 255
0.402883 0.156516  2.42809 255 255 255
   1.3384 -0.804248   4.12054 255 255 255
  1.09016 -0.556189   3.77747 255 255 255
  1.36451 -0.534251   3.59307 255 255 255
 -1.84957 -0.599802   5.81394 255 255 255
  -1.9709 -0.365522   5.82606 255 255 255
-0.577801 -0.698549   3.71991 255 255 255
 -1.80314 -0.475415   5.67733 255 255 255
0.802253 0.333828  2.26817 255 255 255
 -2.09911 -0.281163   5.76666 255 255 255
  1.29103 -0.421275   3.52276 255 255 255
  1.23424 -0.571117   3.84593 255 255 255
 -1.81956 -0.400403   5.71118 255 255 255
 -1.90982 -0.806685   6.01843 255 255 255
-2.17187 -0.23499  5.91611 255 255 255
  1.47752 -0.550119   3.69415 255 255 255
 0.344364 0.0502382   2.46326 255 255 255
  1.36976 -0.818018   4.14015 255 255 255
 -2.08157 -0.294786   5.80458 255 255 255
 -1.76157 -0.441913   5.71675 255 255 255
0.327209 0.131101  2.46516 255 255 255
-0.271185 -0.582716   3.47935 255 255 255
0.400509 -0.38429  3.39312 255 255 255
-1.73925  -0.5333  5.74484 255 255 255
0.463545  0.22774  2.32607 255 255 255
0.0423502  -0.44574   3.25003 255 255 255
0.531409 0.437212  2.23105 255 255 255
   1.3592 -0.329267   3.38079 255 255 255
 0.944964 -0.241122   3.47455 255 255 255
  0.25006 -0.281429   3.45755 255 255 255
0.383673 0.306725  2.21016 255 255 255
  1.29814 -0.805421   4.16644 255 255 255
  1.26971 -0.470045   3.64003 255 255 255
 -1.97392 -0.848364   5.98659 255 255 255
 0.901814 -0.274537   3.53571 255 255 255
 -1.89413 -0.647986   5.73198 255 255 255
0.347135 0.116491  2.43131 255 255 255
0.847763 0.298112  2.26576 255 255 255
  1.13471 -0.291818   3.47612 255 255 255
  1.31464 -0.342168   3.40254 255 255 255
  1.08746 -0.364481   3.61072 255 255 255
  -1.9426 -0.330193   5.80781 255 255 255
