ply
format ascii 1.0
element vertex 1170
property float x
property float y
property float z
property uchar red
property uchar green
property uchar blue
end_header
 0.276516 -0.782648   1.38043 255 255 255
0.860178 -1.16338  1.31543 255 255 255
 0.232706 -0.558057    1.3409 255 255 255
 0.165372 -0.738053   1.30032 255 255 255
0.719732 -1.06529  1.32259 255 255 255
 1.41934 -1.02972  1.44438 255 255 255
  0.26032 -0.787438   1.37357 255 255 255
 0.301625 -0.824272   1.38719 255 255 255
  1.00835 -0.919306   1.39973 255 255 255
 1.37543 -1.23818  1.46156 255 255 255
0.355723 -0.46951  1.35673 255 255 255
 0.617793 -0.788767   1.19931 255 255 255
 0.253686 -0.657146   1.36012 255 255 255
  0.84447 -0.970713   1.25219 255 255 255
 0.414645 -0.324134   1.36248 255 255 255
 0.996935 -0.965745   1.39507 255 255 255
 0.453654 -0.210211   1.24573 255 255 255
  1.17544 -0.517782   1.38453 255 255 255
 0.490391 -0.433535   1.35585 255 255 255
  1.32057 -0.963997   1.44513 255 255 255
 0.409128 -0.310592   1.34733 255 255 255
 0.945724 -0.412718   1.34768 255 255 255
 0.678982 -0.346179   1.35485 255 255 255
 1.05107 -1.22016  1.45568 255 255 255
  1.44644 -0.691467   1.42891 255 255 255
 0.570909 -0.547661   1.34357 255 255 255
1.49154 -1.2322 1.48011 255 255 255
 0.699406 -0.690767    1.2112 255 255 255
 0.257191 -0.557928   1.36833 255 255 255
 1.37014 -1.09435  1.44306 255 255 255
0.617299 -0.53208  1.35087 255 255 255
0.525201 -0.11553  1.29972 255 255 255
0.62716  -0.367 1.35673 255 255 255
 0.685773 -0.640053    1.1979 255 255 255
 0.960372 -0.941798   1.39743 255 255 255
1.26186 -1.4203 1.46094 255 255 255
0.409978 -0.85078  1.40862 255 255 255
  1.20305 -0.683687    1.4004 255 255 255
  0.438417 -0.0289142    1.23165 255 255 255
 0.671712 -0.969325   1.25698 255 255 255
-0.134549  -0.38898    1.3539 255 255 255
 1.19245 -1.39118  1.43479 255 255 255
  1.1017 -1.30682  1.43547 255 255 255
  1.05927 -0.974768    1.4337 255 255 255
0.760878 -0.62806  1.18897 255 255 255
 0.567641 -0.415777   1.35793 255 255 255
  1.33023 -0.899261   1.44715 255 255 255
0.931249  -0.5208   1.3529 255 255 255
0.635024 -1.21918  1.31687 255 255 255
0.358932 -0.29252  1.21272 255 255 255
 0.588291 -0.215518    1.3281 255 255 255
  1.05381 -0.926548   1.40737 255 255 255
0.767585 -1.14704  1.31991 255 255 255
 1.16452 -1.45122  1.46379 255 255 255
 0.552653 0.0674462   1.30267 255 255 255
0.513282 0.102053  1.30699 255 255 255
  0.43075 -0.402915   1.35733 255 255 255
  1.13964 -0.642208   1.37516 255 255 255
0.789771 -1.19861  1.30641 255 255 255
1.20245 -1.1688  1.4396 255 255 255
 0.904408 -0.779507   1.40192 255 255 255
  1.38903 -0.989049   1.44855 255 255 255
 1.52273 -1.12544  1.46256 255 255 255
1.07491 -1.4574 1.42626 255 255 255
 0.549644 0.0176048   1.29125 255 255 255
-0.044327 -0.467403   1.31396 255 255 255
 0.254068 -0.646452   1.35265 255 255 255
 0.633035 -0.201618   1.35213 255 255 255
 0.465335 -0.032548   1.26816 255 255 255
  1.04888 -0.862311   1.41399 255 255 255
  1.54271 -0.868201   1.43221 255 255 255
  1.4509 -1.17817  1.46259 255 255 255
0.906647 -1.10824  1.30814 255 255 255
 0.739617 -0.989735    1.2656 255 255 255
0.799624 -1.42709  1.45155 255 255 255
 0.641231 -0.150096   1.35019 255 255 255
 1.53379 -1.10814  1.47133 255 255 255
 0.981567 -0.759505   1.40276 255 255 255
0.757602 -1.20405  1.31313 255 255 255
 0.223882 -0.600892   1.30702 255 255 255
  1.35267 -0.734842   1.42155 255 255 255
 0.272953 -0.875545    1.3917 255 255 255
0.839572 -1.07896  1.31707 255 255 255
 0.732839 -0.649157    1.1865 255 255 255
   0.33172 -0.0637005     1.2796 255 255 255
0.661786 -1.00443  1.25087 255 255 255
  1.26592 -0.821853   1.38477 255 255 255
1.43558 -1.2422  1.4843 255 255 255
 0.582389 -0.220446   1.30701 255 255 255
0.763614 -0.64269  1.18816 255 255 255
 1.23961 -1.37314  1.46293 255 255 255
 0.748057 -0.111132   1.36384 255 255 255
0.985924 -1.23775  1.45306 255 255 255
 1.35495 -1.24735  1.47095 255 255 255
 0.451092 -0.155105   1.27248 255 255 255
0.893434 -1.13189  1.30635 255 255 255
  1.40113 -0.854899   1.45049 255 255 255
 0.995139 -0.846237    1.4061 255 255 255
 0.753804 -0.753331   1.19455 255 255 255
  1.28823 -0.693728   1.41799 255 255 255
0.808898 -1.38766  1.44917 255 255 255
 0.831192 -0.981209   1.24021 255 255 255
 1.03917 -1.53908  1.43982 255 255 255
  0.28815 -0.677051   1.35917 255 255 255
  1.07436 -0.808284    1.4112 255 255 255
0.599006 -1.19622   1.3136 255 255 255
 0.368778 -0.906705   1.40201 255 255 255
 0.546688 -0.545133   1.34277 255 255 255
 0.938532 -0.484645   1.36901 255 255 255
  1.53379 -0.935171   1.43722 255 255 255
 0.832124 -0.829787   1.26755 255 255 255
 0.794055 -0.447034   1.35583 255 255 255
 0.363229 -0.358671   1.21304 255 255 255
0.645306  -0.6571  1.21276 255 255 255
0.818902 -1.15455  1.31459 255 255 255
0.0113886 -0.282273   1.33559 255 255 255
 0.685189 -0.953152   1.24952 255 255 255
 0.940303 -0.579434   1.36594 255 255 255
 1.11837 -1.46589  1.45717 255 255 255
 0.540162 -0.117932   1.29884 255 255 255
 0.668838 -0.793033    1.2287 255 255 255
 0.274285 -0.434157   1.26895 255 255 255
0.744481 -1.23224  1.31382 255 255 255
0.723903 -1.23135  1.31531 255 255 255
  1.45844 -0.749563   1.44118 255 255 255
 0.290725 -0.754662   1.37626 255 255 255
  1.03155 -0.415112     1.387 255 255 255
 0.683527 -0.266693   1.35763 255 255 255
 0.487359 -0.414809   1.35939 255 255 255
0.866423   -1.452  1.40109 255 255 255
  1.63688 -0.876969   1.44455 255 255 255
 0.600785 -0.782563   1.20443 255 255 255
 0.733795 -0.748253   1.19631 255 255 255
 0.836474 -0.931844   1.25854 255 255 255
0.958394 -1.39019  1.45592 255 255 255
 0.345393 -0.308661   1.22318 255 255 255
0.943637 -1.35019  1.45373 255 255 255
 0.334777 -0.414767   1.32908 255 255 255
 1.01663 -1.31213  1.43701 255 255 255
0.958522  -1.3897  1.45545 255 255 255
  0.392432 -0.0195342     1.2391 255 255 255
 0.179617 -0.743466   1.30484 255 255 255
 0.947761 -0.455465   1.36533 255 255 255
 0.798924 -0.877825    1.2633 255 255 255
 0.496319 -0.264302    1.3407 255 255 255
 0.327417 -0.601851   1.35213 255 255 255
 1.01073 -1.21932  1.45623 255 255 255
 0.491309 -0.209283   1.33208 255 255 255
0.462959 -0.56084  1.35184 255 255 255
 0.579425 -0.161766   1.29786 255 255 255
 0.48953 -1.07191  1.38813 255 255 255
 0.549365 -0.541244     1.355 255 255 255
0.912401 -1.39722  1.45425 255 255 255
  1.51826 -0.910915   1.44128 255 255 255
 0.731223 -0.715734    1.1989 255 255 255
 0.730503 -0.717177   1.19832 255 255 255
0.403395 -1.06243  1.39607 255 255 255
 1.32372 -1.37916    1.471 255 255 255
  1.52728 -0.985575     1.432 255 255 255
  1.26222 -0.799499   1.40634 255 255 255
0.775356 -1.40054   1.4571 255 255 255
 1.58923 -0.81114  1.45417 255 255 255
 0.318474 -0.749284   1.37473 255 255 255
 0.611773 -0.363769   1.36276 255 255 255
 1.67399 -1.04013  1.48115 255 255 255
0.591042 -1.13486     1.31 255 255 255
0.811895  -1.4128  1.44798 255 255 255
 0.696994 -0.959243    1.2478 255 255 255
  0.66525 -0.670435   1.19874 255 255 255
  1.61994 -0.842968   1.44558 255 255 255
 1.22258 -1.07188   1.4401 255 255 255
 0.68138 -1.21061  1.31892 255 255 255
 0.396911 -0.325347     1.351 255 255 255
1.47643 -1.1314 1.45762 255 255 255
 0.310218 -0.377234   1.21843 255 255 255
 0.899854 -0.504008   1.35141 255 255 255
0.796927 -0.82666  1.25554 255 255 255
  1.74409 -0.969094   1.49831 255 255 255
0.687737 -0.67817  1.20719 255 255 255
 0.688761 -0.677079    1.2017 255 255 255
 0.485056 -0.556961   1.35351 255 255 255
0.428733 0.030316  1.24014 255 255 255
 0.934577 -0.462863   1.36423 255 255 255
 0.745356 -0.829152   1.26055 255 255 255
 1.55178 -1.08999  1.46503 255 255 255
 0.752136 -0.635562   1.19995 255 255 255
  1.72332 -0.934867   1.50445 255 255 255
 0.70804 -0.75058  1.19706 255 255 255
 0.278443 -0.424354   1.25443 255 255 255
 0.703524 -0.704578   1.19781 255 255 255
 0.344912 -0.636037   1.36073 255 255 255
0.826914 -1.15146  1.32942 255 255 255
  1.0792 -0.36491  1.37672 255 255 255
 0.615447 -0.968716   1.25472 255 255 255
 0.482615 -0.283471   1.34252 255 255 255
0.0679522 -0.421755   1.35604 255 255 255
  1.73584 -0.971738   1.50324 255 255 255
 0.974769 -0.433041   1.34762 255 255 255
 0.217244 -0.726107   1.33947 255 255 255
 0.630355 -0.783187   1.20241 255 255 255
0.844155 -1.14182  1.31794 255 255 255
 0.741839 -0.736142    1.1947 255 255 255
 0.997089 -0.694768   1.38574 255 255 255
  1.44334 -0.962083   1.46378 255 255 255
-0.00165576   -0.538877     1.35592 255 255 255
 0.667343 -0.624502   1.19022 255 255 255
0.778272  -1.4111  1.45026 255 255 255
 0.655303 -0.721156   1.19994 255 255 255
   1.6393 -0.860782   1.44421 255 255 255
 0.100944 -0.678891   1.33396 255 255 255
 0.979007 -0.914203   1.39964 255 255 255
 1.16271 -1.42613  1.46127 255 255 255
-0.0498469  -0.483937    1.30564 255 255 255
  1.41031 -0.865795   1.44927 255 255 255
0.866865 -1.11578  1.31454 255 255 255
   1.231 -1.46095  1.44533 255 255 255
 0.529171 -0.189496     1.331 255 255 255
 0.505261 -0.436808   1.36076 255 255 255
 0.546883 -0.626915   1.23185 255 255 255
 0.396284 -0.302625   1.34668 255 255 255
 0.800553 -0.863609    1.2627 255 255 255
  1.51204 -0.823401   1.45552 255 255 255
 0.820088 -0.596767   1.20028 255 255 255
 0.59383 -0.52711  1.35071 255 255 255
 0.948171 -0.365663   1.35719 255 255 255
 0.304325 -0.671347    1.3679 255 255 255
 1.16695 -1.21893  1.45556 255 255 255
0.731678 -0.73227  1.19738 255 255 255
0.815334 -1.12881  1.32393 255 255 255
 0.396839 -0.481131   1.35152 255 255 255
 0.764359 -0.664288   1.19687 255 255 255
 0.294446 -0.392071   1.23389 255 255 255
 0.835361 -0.184834   1.36286 255 255 255
 0.684457 -0.359382   1.36188 255 255 255
 0.991544 -0.910609   1.39567 255 255 255
1.15926 -1.2453 1.46908 255 255 255
 0.868987 -0.881205   1.26582 255 255 255
  1.28734 -0.648862   1.41779 255 255 255
 0.961132 -0.969398   1.39643 255 255 255
 0.743702 -0.332962   1.33648 255 255 255
0.0591306 -0.476078   1.35447 255 255 255
  1.42347 -0.710529   1.41189 255 255 255
0.904174 -1.09929  1.32274 255 255 255
 1.35725 -1.39152    1.472 255 255 255
 0.657291 -0.864224   1.26455 255 255 255
 1.20135 -1.13609  1.44281 255 255 255
  1.11869 -0.466307   1.36928 255 255 255
 1.11168 -1.34489  1.45899 255 255 255
  1.34625 -0.644636   1.42445 255 255 255
  1.05477 -0.579664   1.37067 255 255 255
  1.03009 -0.776974   1.41225 255 255 255
 0.719391 -0.111846   1.36076 255 255 255
 0.406388 -0.887211   1.40051 255 255 255
0.726972 -1.20409  1.31711 255 255 255
  1.32891 -0.945391   1.45076 255 255 255
  0.759122 -0.0705215    1.36176 255 255 255
0.808068 -0.69743  1.19471 255 255 255
  0.68336 -0.185516   1.35952 255 255 255
 0.982327 -0.291087   1.36288 255 255 255
 0.790706 -0.949762   1.24826 255 255 255
 0.725277 -0.976037   1.25747 255 255 255
 0.690002 -0.966268   1.24206 255 255 255
  0.398313 -0.0118547    1.23286 255 255 255
0.830684 -1.19769  1.29996 255 255 255
 0.61206 -1.00259   1.2573 255 255 255
 0.742356 -0.724224   1.20911 255 255 255
  0.471631 -0.0227951    1.26626 255 255 255
  0.483082 -0.0238029    1.25434 255 255 255
0.426596 -1.03784  1.40256 255 255 255
1.13104 -1.4747 1.45164 255 255 255
  0.51991 -0.635048   1.23204 255 255 255
 1.69947 -1.04305  1.48799 255 255 255
0.950437 -1.48339  1.44888 255 255 255
0.555601 -0.10208  1.31019 255 255 255
0.800346 -1.41073  1.45328 255 255 255
 1.15079 -1.61026   1.4356 255 255 255
 0.675089 -0.667247   1.19832 255 255 255
  1.3356 -1.39566  1.47039 255 255 255
  1.07367 -0.934367   1.41638 255 255 255
 1.43477 -1.25897  1.48447 255 255 255
1.07703 -1.1169 1.43331 255 255 255
0.856784 -1.11645  1.31736 255 255 255
  0.666888 -0.0333203    1.33566 255 255 255
 1.25956 -1.26883  1.46648 255 255 255
 0.246231 -0.378307   1.38661 255 255 255
 0.722559 -0.947345   1.25324 255 255 255
 0.325343 -0.462793   1.35643 255 255 255
0.764068 -1.18396  1.32098 255 255 255
 0.493303 -0.546599   1.35238 255 255 255
 1.01168 -1.45163  1.45695 255 255 255
 0.392362 -0.310115     1.293 255 255 255
-0.0734259   -0.51075    1.35309 255 255 255
 0.506369 -0.493703   1.35642 255 255 255
 0.87584 -1.15406  1.31947 255 255 255
  0.75556 -0.507456   1.35501 255 255 255
-0.00979829   -0.601558     1.35162 255 255 255
  1.26198 -0.796964   1.40854 255 255 255
 0.704653 -0.721122    1.2014 255 255 255
 0.346479 -0.646114    1.3574 255 255 255
 1.48944 -1.25304  1.48501 255 255 255
 0.344088 -0.695431   1.35048 255 255 255
  0.559621 0.00777253    1.29215 255 255 255
0.990482  -1.2981  1.46343 255 255 255
 0.621475 -0.993078    1.2506 255 255 255
 0.391558 -0.312174   1.32771 255 255 255
0.885569 -1.15768  1.31568 255 255 255
 0.711083 -0.230328   1.36012 255 255 255
 0.322923 -0.650876   1.36329 255 255 255
0.0542164 -0.321553    1.3157 255 255 255
  0.32503 -0.231123   1.21312 255 255 255
 1.15387 -1.28457  1.47471 255 255 255
1.15018 -1.2787 1.46387 255 255 255
0.692488 -1.20106  1.32174 255 255 255
 0.968063 -0.459699   1.38162 255 255 255
 0.794298 -0.916357   1.25735 255 255 255
 0.227098 -0.627863   1.34585 255 255 255
 1.54917 -0.85264  1.43789 255 255 255
 0.305581 -0.275875    1.2119 255 255 255
 0.661871 -0.139104   1.35767 255 255 255
 1.34288 -1.26679  1.47888 255 255 255
0.720455  -1.1064   1.3107 255 255 255
 0.259399 -0.384425   1.20738 255 255 255
 0.360856 -0.710517   1.38519 255 255 255
 0.669597 -0.349971   1.35252 255 255 255
 0.541151 0.0124885   1.29722 255 255 255
 0.426928 0.0442485   1.24378 255 255 255
 0.705384 -0.736007    1.1993 255 255 255
  0.76626 -0.488406   1.34131 255 255 255
-0.0670153  -0.537194    1.35418 255 255 255
0.621026 -1.12986  1.31452 255 255 255
-0.00078083   -0.287149     1.33218 255 255 255
 0.413158 -0.176317   1.27563 255 255 255
 0.498327 -0.472128   1.35603 255 255 255
  1.06881 -0.579349   1.38296 255 255 255
 0.508801 -0.746953   1.22525 255 255 255
0.936856 -0.78695  1.40061 255 255 255
 0.709977 -0.761199   1.20629 255 255 255
0.668028 -1.14056  1.32104 255 255 255
1.47744 -1.1661 1.48096 255 255 255
 0.424246 0.0640242   1.23888 255 255 255
 0.836242 -0.941136   1.25231 255 255 255
0.771757 -1.20096  1.31976 255 255 255
  1.13474 -0.764405   1.41207 255 255 255
0.811804 -1.16199  1.30269 255 255 255
-0.0126974  -0.534083    1.35486 255 255 255
 0.647401 -0.178764   1.36166 255 255 255
0.839648 -1.15122  1.31558 255 255 255
0.610874   -1.189  1.31824 255 255 255
 0.550693 0.0937806    1.3085 255 255 255
 0.652979 -0.692144   1.20557 255 255 255
 0.605054 0.0270336   1.29798 255 255 255
0.774548 -1.18628  1.32752 255 255 255
0.653733 -1.08672  1.32355 255 255 255
0.443734 -1.03179  1.39835 255 255 255
0.0946621 -0.527927   1.35684 255 255 255
 1.19912 -1.28103  1.43644 255 255 255
 1.28193 -0.68373  1.42066 255 255 255
  1.54705 -0.886972   1.44767 255 255 255
  1.29218 -0.784663    1.4116 255 255 255
 0.784612 -0.834764   1.25799 255 255 255
 1.06532 -1.30667  1.44535 255 255 255
0.0459206  -0.41244   1.35627 255 255 255
0.822071 -1.37765  1.43033 255 255 255
   0.49574 -0.0957838    1.28668 255 255 255
 0.306365 -0.653863   1.36333 255 255 255
 1.14773 -1.49565  1.45246 255 255 255
 1.24208 -1.44897  1.42085 255 255 255
  1.57845 -0.846806   1.45209 255 255 255
 0.283448 -0.705353   1.35715 255 255 255
 0.818053 -0.928062   1.25162 255 255 255
 0.338634 -0.411053   1.20497 255 255 255
   0.8175 -0.876271   1.26415 255 255 255
 0.571633 -0.222585   1.33692 255 255 255
  1.42414 -0.707467   1.41579 255 255 255
 0.915131 -0.591624   1.36876 255 255 255
  1.2155 -1.46805  1.45663 255 255 255
 1.07003 -1.05064  1.42757 255 255 255
 0.645595 -0.732767   1.20464 255 255 255
 0.645586 -0.732727   1.20551 255 255 255
 0.627517 -0.950845   1.25871 255 255 255
  1.38664 -0.907731   1.44965 255 255 255
  0.82189 -0.145226   1.36408 255 255 255
 0.752973 -0.233871   1.35931 255 255 255
  0.88916 -0.873341   1.25659 255 255 255
  1.42123 -0.830784   1.43893 255 255 255
 0.203807 -0.717337   1.33705 255 255 255
0.776196 -0.93818  1.25975 255 255 255
 0.729117 -0.935648   1.26381 255 255 255
 0.502022 -0.742059   1.22316 255 255 255
 0.429499 0.0573077   1.23889 255 255 255
 0.975785 -0.983074   1.40518 255 255 255
 0.765187 -0.971955   1.25905 255 255 255
  1.22482 -0.962075   1.42963 255 255 255
0.968314  -1.2943  1.46117 255 255 255
 0.274515 -0.436935   1.30297 255 255 255
 0.04107 -0.53118  1.35535 255 255 255
  1.1157 -1.09217  1.44036 255 255 255
 0.357348 -0.151876   1.20927 255 255 255
 1.51304 -1.21614  1.48438 255 255 255
0.656662 -1.12489  1.31843 255 255 255
0.975226 -1.03143  1.41366 255 255 255
 0.638224 -0.734164   1.20464 255 255 255
 1.31182 -1.38172  1.46878 255 255 255
 1.26449 -1.43808  1.41582 255 255 255
0.00396238  -0.621951    1.33999 255 255 255
  0.56708 -0.323685   1.34965 255 255 255
  1.43923 -0.735579   1.42592 255 255 255
0.683112 -1.12888   1.3173 255 255 255
 0.673333 -0.723528   1.18831 255 255 255
 0.786525 -0.971242   1.25391 255 255 255
 0.620382 -0.980134   1.25081 255 255 255
0.916855 -1.09687   1.3298 255 255 255
0.714779 -1.13318  1.32134 255 255 255
 0.677752 -0.894038   1.26361 255 255 255
0.658692 -1.14168  1.32004 255 255 255
  1.29183 -0.929267   1.43579 255 255 255
 0.711421 -0.156478   1.35924 255 255 255
 0.653115 -0.877611   1.26426 255 255 255
 1.33896 -1.32268  1.47512 255 255 255
 1.13751 -1.18467  1.44488 255 255 255
   0.41523 -0.0838865    1.24028 255 255 255
  0.489538 -0.0458571    1.27523 255 255 255
 1.18196 -1.11645  1.42905 255 255 255
  1.1837 -1.11647  1.43337 255 255 255
 0.486747 -0.349699   1.36261 255 255 255
 0.77893 -1.10292  1.32374 255 255 255
0.737446  -1.2118  1.31705 255 255 255
 0.802333 -0.977864   1.23809 255 255 255
 0.538515 -0.112128    1.2988 255 255 255
0.513761 -0.54215  1.35083 255 255 255
 0.270795 -0.659131   1.36568 255 255 255
0.630306 -0.40665  1.35573 255 255 255
 1.25455 -1.42084  1.46638 255 255 255
 0.555456 -0.264276   1.34813 255 255 255
0.976691 -0.85982  1.39324 255 255 255
  0.540855 -0.0906837    1.27027 255 255 255
0.779747 -1.38353  1.45466 255 255 255
 0.276338 -0.443332   1.35196 255 255 255
 1.34435 -1.37362  1.46931 255 255 255
 1.44384 -1.28034  1.46721 255 255 255
 0.436127 -0.143354     1.297 255 255 255
0.896364 -0.52811  1.35408 255 255 255
 1.32116 -1.35472  1.45053 255 255 255
  1.31117 -0.675387   1.42188 255 255 255
 1.09201 -1.29673  1.46048 255 255 255
 1.35961 -1.20779  1.44308 255 255 255
 0.846074 -0.270075   1.35739 255 255 255
0.845358 -1.37568  1.44987 255 255 255
 0.250983 -0.711352   1.36838 255 255 255
 0.542883 -0.414224     1.357 255 255 255
 1.17495 -0.45011  1.41641 255 255 255
 0.337625 -0.677979    1.3624 255 255 255
 0.220092 -0.412947    1.2113 255 255 255
   0.4764 -0.443247     1.354 255 255 255
 0.846307 -0.684865   1.20072 255 255 255
0.643352 -0.66418  1.20733 255 255 255
 0.431585 0.0710112   1.24336 255 255 255
 1.37446 -1.40168  1.46952 255 255 255
  1.23136 -0.843764   1.35994 255 255 255
0.686146 -0.88976  1.26281 255 255 255
1.44998 -1.0355  1.4542 255 255 255
0.0832965 -0.276588   1.30842 255 255 255
0.844885 -1.05705  1.31541 255 255 255
 0.660485 -0.950956    1.2628 255 255 255
-0.0264414  -0.440932    1.35816 255 255 255
0.606036 -1.01125  1.24916 255 255 255
 0.371337 -0.408717    1.3538 255 255 255
  1.00688 -0.535309   1.38238 255 255 255
 0.636028 -0.910951   1.26022 255 255 255
 0.636262 -0.910421   1.25948 255 255 255
   0.39251 -0.0107321    1.22933 255 255 255
  1.0424 -0.44503  1.37922 255 255 255
0.731124 -1.18602  1.30374 255 255 255
  1.37113 -0.618419   1.42283 255 255 255
 1.59041 -0.82379  1.45304 255 255 255
 0.654511 -0.151532   1.35607 255 255 255
  0.19601 -0.461568   1.35431 255 255 255
 0.257937 -0.292718   1.21325 255 255 255
 0.580851 -0.469442   1.35688 255 255 255
 0.878098 -0.438053   1.35224 255 255 255
0.834467 -1.04961  1.31388 255 255 255
0.866702 -1.15856  1.32223 255 255 255
  0.65368 -0.709953   1.20423 255 255 255
 0.276292 -0.344504   1.20848 255 255 255
 1.35846 -0.63223  1.41668 255 255 255
 0.75329 -1.16623   1.3203 255 255 255
 0.877315 -0.868133   1.26055 255 255 255
 1.05159 -1.45768  1.41446 255 255 255
  1.47817 -0.851607   1.45247 255 255 255
 0.222097 -0.247868   1.21742 255 255 255
  1.75517 -0.937631   1.50353 255 255 255
0.751414 -1.13531  1.32532 255 255 255
 0.228154 -0.392463   1.21059 255 255 255
  0.38328 -0.640182   1.36636 255 255 255
  1.29155 -0.681877   1.41253 255 255 255
 1.06467 -1.32815  1.45822 255 255 255
0.644415 -0.91067  1.25734 255 255 255
 0.238433 -0.211207   1.21826 255 255 255
 0.316165 -0.339193   1.21933 255 255 255
 0.239259 -0.746624   1.37335 255 255 255
 0.301448 -0.874265   1.38609 255 255 255
 0.184173 -0.355807   1.21218 255 255 255
  1.06752 -0.596955   1.38971 255 255 255
 0.778713 -0.696902   1.20836 255 255 255
 0.375074 -0.396332   1.35717 255 255 255
 0.445606 -0.606218   1.34209 255 255 255
 0.210335 -0.272823   1.21871 255 255 255
  1.21635 -0.709114   1.41109 255 255 255
 0.997841 -0.939418   1.39474 255 255 255
  1.40622 -0.644106   1.42703 255 255 255
  0.88442 -0.541236   1.34817 255 255 255
    1.304 -0.770901   1.40944 255 255 255
 0.838758 -0.686825   1.20186 255 255 255
 0.420177 0.0221191   1.23884 255 255 255
0.765675 -1.47314  1.45307 255 255 255
  1.46781 -0.946569   1.44667 255 255 255
 0.373475 -0.167393   1.20261 255 255 255
 0.927569 -0.483653   1.35017 255 255 255
 0.775151 -0.680346   1.20715 255 255 255
 0.331754 -0.191091   1.21434 255 255 255
  1.60816 -0.832259   1.44156 255 255 255
 0.276964 -0.395746   1.20561 255 255 255
0.915551 -1.02108  1.35878 255 255 255
 0.773113 -0.662142   1.20973 255 255 255
 0.647841 -0.889816    1.2602 255 255 255
 1.48238 -1.15291  1.47859 255 255 255
  1.14911 -0.617493   1.39143 255 255 255
 0.716623 -0.149113    1.3562 255 255 255
 0.416594 0.0267647   1.23388 255 255 255
 1.20805 -1.39249  1.46457 255 255 255
 1.34605 -1.39069  1.47177 255 255 255
  0.464763 -0.0278927    1.26979 255 255 255
 0.723227 -0.945015   1.25167 255 255 255
0.645354 -1.14825  1.32489 255 255 255
 0.40035 -0.61887   1.3633 255 255 255
0.699687 -1.21803  1.31635 255 255 255
 0.774397 -0.861449   1.26174 255 255 255
  1.12487 -0.663903   1.35956 255 255 255
 0.388671 -0.291706    1.2263 255 255 255
0.671788 -0.99153  1.25966 255 255 255
  1.21183 -0.827317   1.40251 255 255 255
  1.19007 -0.723718   1.40992 255 255 255
 0.64417 -1.17325  1.31793 255 255 255
   1.2087 -0.879982   1.42692 255 255 255
 1.00431 -1.40501  1.45076 255 255 255
 0.542778 -0.458022   1.35734 255 255 255
 1.21767 -0.99995  1.44248 255 255 255
 0.836803 -0.653324     1.203 255 255 255
  0.24349 -0.480542    1.3489 255 255 255
  1.34872 -0.749964   1.41082 255 255 255
  1.20906 -0.722541   1.41491 255 255 255
 0.799964 -0.469297   1.35567 255 255 255
1.07976 -1.0454 1.42798 255 255 255
0.61444 -1.1664 1.31842 255 255 255
 1.65891 -1.00555  1.46712 255 255 255
0.28278  -0.642 1.35302 255 255 255
  1.25387 -0.813453   1.41666 255 255 255
1.10538 -1.1545 1.43277 255 255 255
  0.69744 -0.645785   1.19991 255 255 255
 1.00923 -1.56653  1.46471 255 255 255
 1.21348 -1.07427  1.43359 255 255 255
   1.1301 -0.508286   1.38286 255 255 255
 0.988225 -0.512598   1.37673 255 255 255
  1.45426 -0.944779   1.44797 255 255 255
 0.201522 -0.386424   1.20575 255 255 255
 0.741075 -0.637107   1.18729 255 255 255
 0.793233 -0.841214     1.254 255 255 255
  1.00519 -0.447729    1.3846 255 255 255
 1.17021 -1.18744  1.45083 255 255 255
 0.709735 -0.917459   1.26378 255 255 255
  1.41253 -0.816053   1.44211 255 255 255
 0.635549 -0.192386   1.35917 255 255 255
 0.754143 -0.119527   1.36484 255 255 255
  1.03668 -0.585991   1.37341 255 255 255
 0.972475 -0.525291   1.38454 255 255 255
 0.502876 -0.920898   1.27786 255 255 255
  1.02908 -0.889601   1.40942 255 255 255
0.746063 -1.16432  1.31529 255 255 255
 0.230671 -0.245644   1.21638 255 255 255
  1.07169 -0.642912   1.37883 255 255 255
  1.1432 -1.30624  1.46793 255 255 255
 0.575187 -0.350276   1.35779 255 255 255
 1.08039 -1.24942  1.45082 255 255 255
 0.641378 -0.897175   1.26505 255 255 255
 0.787398 -0.924523   1.25567 255 255 255
-0.0022627  -0.403327    1.34843 255 255 255
 1.26929 -1.22528  1.47226 255 255 255
 1.23177 -1.29199  1.44225 255 255 255
 1.00055 -0.56306  1.38298 255 255 255
  0.487488 -0.0712839    1.27365 255 255 255
 0.264404 -0.291948   1.21381 255 255 255
 1.12695 -1.02754   1.4424 255 255 255
 0.901782 -0.997385   1.37963 255 255 255
 0.860176 -0.680425   1.20764 255 255 255
 0.789515 -0.956149   1.23814 255 255 255
 0.276327 -0.264743   1.21463 255 255 255
 0.210847 -0.290802   1.21558 255 255 255
 0.657835 -0.917161   1.26831 255 255 255
0.776885 -1.35909  1.46723 255 255 255
 0.984443 -0.800968   1.40023 255 255 255
  0.22706 -0.254846   1.21569 255 255 255
0.250822  -0.2005  1.21686 255 255 255
0.656711 -1.17468   1.3217 255 255 255
0.931304 -1.09413  1.32156 255 255 255
  1.35382 -0.744353   1.40955 255 255 255
 0.274887 -0.435913   1.26981 255 255 255
 0.938066 -0.935385   1.39932 255 255 255
0.242511 -0.21828  1.21724 255 255 255
 0.727454 -0.912326   1.24844 255 255 255
 0.268318 -0.282791   1.21411 255 255 255
0.746327 -1.14976  1.31128 255 255 255
  1.17079 -0.445955   1.38036 255 255 255
-0.138717 -0.391496   1.36052 255 255 255
 0.576433 -0.806082   1.18966 255 255 255
 0.851565 -0.617609   1.20241 255 255 255
 1.15148 -1.26401  1.45501 255 255 255
 0.247135 -0.209602   1.21603 255 255 255
 0.671055 -0.261075   1.35677 255 255 255
  0.7478 -1.38636   1.4508 255 255 255
 1.10536 -1.34046  1.46827 255 255 255
 0.699698 -0.904479   1.25315 255 255 255
0.970934 -1.40649  1.45971 255 255 255
 0.239188 -0.227929   1.21546 255 255 255
 0.550147 -0.108952   1.30593 255 255 255
  0.71777 -0.977071   1.25037 255 255 255
0.841053 -1.41442  1.45492 255 255 255
0.945225 -1.37269  1.45413 255 255 255
  0.666793 -0.0436709    1.33533 255 255 255
  0.43356 -0.588134   1.34194 255 255 255
 1.54414 -1.23371  1.48455 255 255 255
 1.14283 -1.34266  1.47883 255 255 255
 0.348762 -0.406543   1.20605 255 255 255
 0.342712 -0.217885   1.21375 255 255 255
 0.355993 -0.212829     1.212 255 255 255
 0.708778 -0.973249   1.25077 255 255 255
 0.324051 -0.285884   1.20914 255 255 255
 0.409729 -0.431451   1.36302 255 255 255
 0.548032 -0.272652    1.3399 255 255 255
 0.990923 -0.674368   1.37925 255 255 255
 0.775625 -0.986948   1.26102 255 255 255
 0.434347 0.0379344   1.24022 255 255 255
0.623911 -1.07776  1.32248 255 255 255
 0.524056 -0.121406   1.30427 255 255 255
  1.13842 -0.508955   1.38646 255 255 255
 1.36637 -1.07537  1.44435 255 255 255
 0.723808 -0.854791   1.24192 255 255 255
0.717736  -1.4153  1.45094 255 255 255
 1.07795 -1.08532  1.43007 255 255 255
  0.28477 -0.376321   1.20675 255 255 255
1.62385 -1.0429 1.48347 255 255 255
0.0676127 -0.306957   1.30399 255 255 255
 0.274998 -0.372166   1.21032 255 255 255
0.688972 -1.16368  1.32197 255 255 255
 0.515133 -0.279237   1.33744 255 255 255
 1.08057 -1.14028   1.4388 255 255 255
 0.999836 -0.538949   1.37442 255 255 255
0.803303 -1.17917  1.30312 255 255 255
  1.0514 -1.06678  1.43273 255 255 255
 0.811427 -0.925441   1.26812 255 255 255
   0.8243 -0.709468   1.20905 255 255 255
1.12334 -1.1318   1.439 255 255 255
0.489274 -1.05802  1.38538 255 255 255
 0.310566 -0.214271   1.21466 255 255 255
0.791112 -1.45762  1.44929 255 255 255
0.314859 -0.20537  1.21406 255 255 255
 0.305978 -0.626519   1.33787 255 255 255
 1.34007 -1.29601  1.47889 255 255 255
 1.41749 -1.21657  1.47855 255 255 255
   1.4406 -0.813447   1.44365 255 255 255
 0.977847 -0.334919   1.36113 255 255 255
 0.785117 -0.365791   1.36063 255 255 255
  1.14646 -0.753007   1.40967 255 255 255
 1.03538 -1.14947  1.44243 255 255 255
 0.851672 -0.700394     1.197 255 255 255
   0.520807 -0.00622341     1.30488 255 255 255
 0.604971 -0.105641   1.33022 255 255 255
  0.17928 -0.474223   1.35462 255 255 255
 0.722482 -0.845501   1.24323 255 255 255
  1.70679 -0.963793   1.50216 255 255 255
  0.40281 -0.631353   1.36287 255 255 255
0.283043 -0.35399  1.21069 255 255 255
 0.257458 -0.774166   1.38705 255 255 255
 1.09475 -1.13417  1.43695 255 255 255
 0.768051 -0.891109   1.24872 255 255 255
 0.575974 -0.261837   1.33115 255 255 255
  1.04366 -0.373318   1.36554 255 255 255
 1.17054 -1.15879   1.4401 255 255 255
 0.655297 -0.887792   1.26332 255 255 255
 0.717429 -0.643854   1.19128 255 255 255
 0.278801 -0.363137   1.21093 255 255 255
 0.258275 -0.809125   1.38835 255 255 255
  1.61201 -0.837676   1.43695 255 255 255
0.811095 -1.33523  1.45693 255 255 255
 0.405355 -0.475835   1.35514 255 255 255
 1.24458 -1.36125  1.47129 255 255 255
 1.29848 -1.35724  1.46971 255 255 255
 0.155732 -0.691559   1.33207 255 255 255
 1.24689 -1.39427  1.47033 255 255 255
 1.05913 -1.36694  1.46077 255 255 255
 1.06017 -1.36877  1.46421 255 255 255
 0.692639 -0.670651   1.21001 255 255 255
 0.786648 -0.917374   1.25588 255 255 255
 0.287155 -0.344925   1.21104 255 255 255
0.765367 -1.40735  1.45156 255 255 255
 1.12109 -1.36145  1.46746 255 255 255
 0.291408 -0.336199   1.21022 255 255 255
 0.599289 -0.782471   1.20067 255 255 255
  0.241395 -0.0351265    1.33595 255 255 255
 0.237124 -0.301889   1.21509 255 255 255
 0.963102 -0.308995   1.35841 255 255 255
 1.09839 -1.40036  1.46404 255 255 255
 0.619985 -0.890633   1.25581 255 255 255
0.821352 -1.38345  1.45419 255 255 255
 0.49177 -0.52585  1.36047 255 255 255
 0.245543 -0.695203   1.33947 255 255 255
 0.971559 -0.697555   1.38488 255 255 255
0.779015 -1.14391  1.31755 255 255 255
 0.299106 -0.242022   1.21316 255 255 255
 1.11921 -1.33766  1.46657 255 255 255
0.742498  -1.1993  1.31699 255 255 255
 0.558209 -0.228622   1.33879 255 255 255
  1.07537 -0.492534   1.39538 255 255 255
  1.1449 -1.12083  1.43941 255 255 255
  0.544495 -0.0220677    1.30259 255 255 255
 0.420077 -0.304126   1.36034 255 255 255
1.19411 -1.1204 1.43604 255 255 255
 0.238511 -0.742628   1.35435 255 255 255
0.851731 -1.15794  1.31843 255 255 255
 0.372085 -0.357206   1.30966 255 255 255
1.40527 -1.2298 1.48112 255 255 255
0.996199 -0.92979  1.39376 255 255 255
0.865908 -1.14731  1.31453 255 255 255
 0.975959 -0.476359   1.37958 255 255 255
0.748223  -1.1201  1.32131 255 255 255
 0.982161 -0.957401   1.39675 255 255 255
 0.663379 -0.908942    1.2619 255 255 255
 1.49016 -0.91825  1.45152 255 255 255
0.0445802 -0.645787    1.3416 255 255 255
 0.693393 -0.147482   1.36283 255 255 255
 1.18381 -1.36088  1.46991 255 255 255
 1.33256 -1.17105  1.44304 255 255 255
 1.04892 -0.79705  1.40678 255 255 255
 1.20046 -1.20258  1.43714 255 255 255
 0.285723 -0.930672   1.38365 255 255 255
 0.476656 -0.570182   1.33667 255 255 255
-0.0145966   -0.45603    1.35779 255 255 255
 0.374275 -0.873124   1.39882 255 255 255
-0.0316144  -0.359323    1.35525 255 255 255
  0.50843 -0.451424   1.35528 255 255 255
 1.60574 -1.03935   1.5136 255 255 255
 1.53917 -1.29181  1.47849 255 255 255
 1.32531 -1.32705  1.49016 255 255 255
 0.864159 -0.379438   1.35556 255 255 255
  1.39514 -0.668169   1.42342 255 255 255
  1.33895 -0.810397    1.4177 255 255 255
  1.47275 -0.589702   1.42847 255 255 255
   1.0253 -0.287936   1.36099 255 255 255
 1.08802 -1.20784  1.45113 255 255 255
   0.5665 -0.420609   1.36037 255 255 255
 0.591784 -0.630635   1.21661 255 255 255
 1.30762 -0.63526  1.34258 255 255 255
   1.0295 -0.221363   1.35518 255 255 255
 1.61717 -1.20189   1.4881 255 255 255
1.52886  -1.374 1.48888 255 255 255
0.949502 -1.05371  1.42259 255 255 255
  1.75443 -0.934761   1.50901 255 255 255
 0.962703 -0.879486   1.40597 255 255 255
 1.52027 -1.24381  1.48347 255 255 255
  1.09493 -0.760342   1.38739 255 255 255
  1.57739 -0.859006   1.44112 255 255 255
 0.883369 -0.607582   1.37317 255 255 255
  0.910713 -0.0687911     1.3663 255 255 255
  1.05022 -0.369389     1.367 255 255 255
  0.775417 -0.0679443     1.3637 255 255 255
 0.939569 -0.989466   1.41456 255 255 255
  1.40307 -0.583031   1.42231 255 255 255
  1.08174 -0.168563   1.35823 255 255 255
 0.768335 -0.832807   1.25668 255 255 255
  0.82004 -0.505598   1.35249 255 255 255
 0.656635 -0.685725   1.20936 255 255 255
 1.43654 -1.48235  1.44566 255 255 255
 1.58976 -1.38592  1.47189 255 255 255
 1.46601 -1.35129  1.48242 255 255 255
  1.14637 -0.658352   1.39718 255 255 255
 0.837383 -0.295367   1.35868 255 255 255
  1.6581 -1.22468  1.46822 255 255 255
  1.48403 -0.626308   1.42365 255 255 255
 1.77703 -1.21016  1.49824 255 255 255
  0.87702 -0.778856   1.39778 255 255 255
 1.69322 -1.35754  1.49358 255 255 255
 1.47422 -1.49708   1.4462 255 255 255
 0.649504 -0.791281   1.22314 255 255 255
  1.09939 -0.269022   1.36411 255 255 255
 1.46839 -1.22535  1.48754 255 255 255
 1.69452 -1.27542  1.49547 255 255 255
  1.50283 -0.939121   1.44152 255 255 255
  1.39583 -0.763525   1.37402 255 255 255
    1.62 -1.35756  1.48117 255 255 255
   1.3882 -0.792863   1.41722 255 255 255
 0.375932 -0.433843    1.3583 255 255 255
  1.19037 -0.309552   1.39433 255 255 255
  1.97166 -0.924193   1.50037 255 255 255
  1.01125 -0.429942   1.38602 255 255 255
  1.36305 -0.653481   1.42902 255 255 255
  1.53267 -0.463592   1.42158 255 255 255
 1.35998 -1.09175  1.43101 255 255 255
  1.49141 -0.833061   1.44775 255 255 255
 0.868267 -0.578098   1.36633 255 255 255
  1.58873 -0.746845   1.45784 255 255 255
 1.67592 -1.07548  1.48415 255 255 255
  0.835922 -0.0329882    1.36756 255 255 255
 0.776923 -0.607613   1.18353 255 255 255
  1.41311 -0.825907   1.44606 255 255 255
0.873469 -1.03546  1.39454 255 255 255
 1.27718 -1.52027  1.43576 255 255 255
 1.47154 -1.21724  1.47451 255 255 255
 1.38293 -1.21503  1.47033 255 255 255
0.923333 -1.00932  1.39588 255 255 255
  1.59002 -0.907082   1.45067 255 255 255
  1.49839 -0.548481   1.43159 255 255 255
 1.36258 -1.55848  1.44457 255 255 255
 0.927536 -0.035809   1.36345 255 255 255
  1.4296 -1.59634  1.43069 255 255 255
 0.509689 -0.633868   1.22213 255 255 255
 1.3239 -1.4558 1.40566 255 255 255
0.621985 -0.75055  1.20786 255 255 255
  0.95678 -0.917908   1.39646 255 255 255
 0.970977 -0.665184   1.37846 255 255 255
 1.64788 -1.13187  1.46475 255 255 255
  1.64043 -0.700228   1.45547 255 255 255
  1.70508 -0.745549   1.45835 255 255 255
 1.48961 -1.38703  1.44559 255 255 255
  1.84324 -0.984684   1.45738 255 255 255
 1.83634 -1.20772  1.50775 255 255 255
 1.30113 -0.91555  1.44229 255 255 255
 1.69676 -1.11625  1.47801 255 255 255
 0.818896 -0.789496   1.37637 255 255 255
  1.4312 -1.42201  1.40752 255 255 255
1.19629 -1.0091 1.43291 255 255 255
 0.796607 -0.921834   1.26343 255 255 255
  1.56513 -0.814788   1.46833 255 255 255
1.67284  -1.191 1.48394 255 255 255
0.834438 -1.05446  1.32455 255 255 255
  1.09416 -0.386117   1.38472 255 255 255
 1.68523 -1.32871  1.49277 255 255 255
 0.642171 -0.168333   1.35256 255 255 255
 1.12419 -1.12039   1.4377 255 255 255
 1.13933 -1.24082  1.46144 255 255 255
 0.347702 -0.451687   1.35367 255 255 255
0.983925 -1.09088   1.4326 255 255 255
 0.626903 -0.851608   1.26857 255 255 255
 1.69221 -1.24188  1.49049 255 255 255
 0.642982 -0.152236   1.34755 255 255 255
 1.33371 -1.03596  1.43198 255 255 255
 0.930551 -0.504979   1.35041 255 255 255
 1.15816 -0.71162  1.39135 255 255 255
 0.773106 -0.865222   1.25245 255 255 255
  1.53739 -0.968817   1.41768 255 255 255
 1.50917 -1.47488  1.43831 255 255 255
 1.40093 -1.52457  1.45216 255 255 255
 1.56505 -1.22806  1.51402 255 255 255
   1.7341 -0.943404   1.50029 255 255 255
 1.54266 -1.40433  1.48101 255 255 255
 1.68545 -1.09459    1.475 255 255 255
 1.71827 -1.05444  1.49348 255 255 255
  1.19238 -0.883941   1.41738 255 255 255
 1.67569 -1.16723   1.4966 255 255 255
  0.896665 -0.0687232    1.36707 255 255 255
 1.84456 -1.01504  1.48466 255 255 255
  1.04676 -0.264523   1.36195 255 255 255
1.11106  -1.411 1.45243 255 255 255
 1.73682 -1.01669   1.4966 255 255 255
  0.85387 -0.257349   1.35894 255 255 255
  1.04707 -0.595578   1.36112 255 255 255
  1.33033 -0.898232   1.44747 255 255 255
 1.15001 -1.21777  1.45704 255 255 255
  0.77938 -0.915878   1.26009 255 255 255
   1.0666 -0.342512   1.37421 255 255 255
  1.78781 -0.911886   1.50151 255 255 255
 0.964459 -0.443319   1.35762 255 255 255
 1.25865 -1.39476  1.44746 255 255 255
 0.905945 -0.659506   1.35899 255 255 255
  1.25043 -0.651302    1.3938 255 255 255
 1.70977 -1.00899  1.48231 255 255 255
 0.398754 -0.438141   1.35994 255 255 255
  1.90219 -0.905971   1.50467 255 255 255
 1.14395 -1.25454  1.44703 255 255 255
 0.465945 -0.552053   1.37544 255 255 255
  1.54628 -0.868773   1.43852 255 255 255
 1.57189 -1.23125  1.47055 255 255 255
  1.09142 -0.489688   1.38434 255 255 255
  1.3877 -1.56309  1.45342 255 255 255
 0.638686 -0.775508   1.20694 255 255 255
  0.92329 -0.612619   1.36855 255 255 255
  1.49611 -0.992785   1.42384 255 255 255
  1.55314 -0.746756   1.45172 255 255 255
  1.63094 -0.726967   1.45662 255 255 255
  1.59641 -0.724097   1.45322 255 255 255
0.899592 -0.54393  1.36299 255 255 255
1.62158 -1.1714 1.48475 255 255 255
 1.95838 -0.84886  1.49705 255 255 255
  1.40038 -0.854212   1.44677 255 255 255
  0.68843 -0.607308   1.21121 255 255 255
 1.63522 -1.32734   1.4638 255 255 255
  1.1201 -1.47482  1.47149 255 255 255
  1.59555 -0.978955   1.44276 255 255 255
 0.585481 -0.301487   1.35574 255 255 255
 1.65245 -1.15796  1.49381 255 255 255
 1.52884 -1.41265  1.44128 255 255 255
  0.805042 -0.0883447    1.36465 255 255 255
  2.02598 -0.971781   1.50341 255 255 255
0.999573 -1.24442  1.43975 255 255 255
  1.2913 -1.57766  1.45284 255 255 255
  1.32192 -0.916181   1.44535 255 255 255
 0.358692 -0.621843   1.35072 255 255 255
1.42931 -1.0794 1.43115 255 255 255
 1.53604 -1.21033  1.49206 255 255 255
 1.78765 -1.00546  1.49897 255 255 255
 0.844098 -0.186768   1.36629 255 255 255
 1.30104 -1.46322  1.42132 255 255 255
  1.33347 -0.556239   1.39381 255 255 255
 1.76871 -1.18861  1.50259 255 255 255
 0.544317 -0.547103   1.34706 255 255 255
 0.687732 -0.810235   1.22188 255 255 255
 1.67136 -1.39904  1.49039 255 255 255
  1.03924 -0.246798   1.36574 255 255 255
  1.08491 -0.889052   1.40886 255 255 255
 1.17195 -1.13234  1.43682 255 255 255
 0.396293 -0.483259   1.35044 255 255 255
 1.49319 -1.26156  1.46638 255 255 255
   1.6924 -0.993472   1.48582 255 255 255
  1.07953 -0.792246   1.42489 255 255 255
  1.10717 -0.363156   1.38044 255 255 255
  0.26242 -0.562081   1.35589 255 255 255
 0.912804 -0.154353   1.36581 255 255 255
0.990332  -1.1628  1.44365 255 255 255
 0.851602 -0.767385   1.35789 255 255 255
  1.11732 -0.331413   1.33624 255 255 255
 0.719791 -0.730049   1.19911 255 255 255
  1.43557 -0.835436   1.44668 255 255 255
 1.44556 -1.05234  1.44261 255 255 255
 1.42293 -1.56363  1.44814 255 255 255
 1.37462 -1.49924  1.42648 255 255 255
  1.6196 -1.32537  1.47427 255 255 255
 0.590066 -0.382434   1.35912 255 255 255
 1.30616 -1.07905  1.40418 255 255 255
 1.26659 -1.58351  1.45445 255 255 255
0.850637 -0.69742  1.19583 255 255 255
 0.683696 -0.655242   1.21205 255 255 255
 0.501439 -0.551686   1.35872 255 255 255
 1.23638 -1.10607  1.41611 255 255 255
  1.6517 -1.04632  1.45793 255 255 255
 1.74819 -1.21534  1.49892 255 255 255
 2.04116 -0.91287  1.50621 255 255 255
  0.85386 -0.684403   1.20563 255 255 255
  1.53369 -0.601861   1.42791 255 255 255
 0.722847 -0.371305   1.30708 255 255 255
 1.43309 -1.19023  1.47473 255 255 255
 0.515676 -0.426324   1.35902 255 255 255
  1.6547 -1.10408  1.49016 255 255 255
 0.706979 -0.735083   1.19713 255 255 255
 0.987375 -0.543089   1.37671 255 255 255
  1.12839 -0.949662   1.36512 255 255 255
 0.533118 -0.624881   1.23305 255 255 255
 0.662728 -0.756846   1.20549 255 255 255
 0.533595 -0.298815   1.34817 255 255 255
 0.667873 -0.768449   1.20128 255 255 255
  1.39871 -0.724077   1.41412 255 255 255
  1.42084 -0.585533   1.42039 255 255 255
 1.45844 -1.49207  1.44338 255 255 255
 0.654545 -0.154041   1.35596 255 255 255
 1.47197 -1.11969  1.45823 255 255 255
  1.35675 -0.586299   1.41399 255 255 255
  1.03494 -0.432513    1.3784 255 255 255
  1.4017 -1.37772  1.47726 255 255 255
 1.73251 -1.14262  1.49726 255 255 255
  1.00074 -0.547601   1.37502 255 255 255
 0.688092 -0.250268   1.35535 255 255 255
 1.24547 -0.54264  1.38152 255 255 255
 1.20862 -1.00989  1.44588 255 255 255
  0.749702 -0.0905682    1.36325 255 255 255
 0.751165 -0.734608   1.19674 255 255 255
 0.742158 -0.707952   1.21123 255 255 255
 1.45917 -1.06945  1.44435 255 255 255
 0.894185 -0.614639   1.37592 255 255 255
 0.971745 -0.469062   1.37656 255 255 255
  1.62035 -0.843216   1.44581 255 255 255
 0.383646 -0.571066   1.34918 255 255 255
  1.74354 -0.968811   1.49729 255 255 255
 0.492784 -0.657681   1.23105 255 255 255
 0.987272 -0.280161   1.36429 255 255 255
 1.28656 -1.41759  1.42561 255 255 255
0.891303 -1.09251  1.32995 255 255 255
  1.05461 -0.579926   1.37045 255 255 255
  1.07227 -0.470602   1.38078 255 255 255
  1.06893 -0.596293   1.39569 255 255 255
 0.836615 -0.636924   1.20718 255 255 255
  0.822301 -0.0545853    1.36692 255 255 255
 1.14008 -1.18631   1.4497 255 255 255
1.24851 -1.2797 1.44897 255 255 255
  1.34165 -0.747708   1.42216 255 255 255
  1.25832 -0.591913   1.37631 255 255 255
 1.27691 -1.13269  1.41183 255 255 255
1.22465 -0.9611 1.42836 255 255 255
 1.56411 -1.44355  1.42115 255 255 255
  1.04834 -0.215242   1.35642 255 255 255
0.655721 -0.16626  1.35857 255 255 255
  1.13967 -0.878104   1.41403 255 255 255
 1.67517 -1.40405  1.47877 255 255 255
 0.746358 -0.681484   1.20774 255 255 255
  1.49955 -0.643307   1.41231 255 255 255
 1.41419 -1.19969  1.47106 255 255 255
  1.06969 -0.195523   1.36243 255 255 255
0.874661 -0.91322  1.26537 255 255 255
 1.29017 -1.46704  1.41362 255 255 255
  1.6387 -1.16774  1.48582 255 255 255
 1.37862 -1.17452  1.47233 255 255 255
 0.931171 -0.591396   1.37151 255 255 255
 1.75334 -1.16118  1.49808 255 255 255
 1.41311 -1.40147  1.48087 255 255 255
 0.852139 -0.659648    1.2009 255 255 255
 1.40367 -0.60506  1.42413 255 255 255
 1.02948 -1.29147  1.44033 255 255 255
  1.26025 -0.973925   1.44572 255 255 255
  1.42928 -0.969524   1.45258 255 255 255
  0.85258 -0.326379   1.35976 255 255 255
 0.537271 -0.328052   1.35719 255 255 255
 1.51838 -1.39028  1.45599 255 255 255
 1.49235 -1.45064  1.43662 255 255 255
1.02772 -1.1586 1.44029 255 255 255
 1.47111 -1.44029  1.44181 255 255 255
 1.29355 -1.58593  1.43943 255 255 255
 1.39322 -1.48257  1.42225 255 255 255
 1.35995 -1.57071  1.41776 255 255 255
 0.882198 -0.685051   1.37636 255 255 255
 1.31963 -1.41763  1.42411 255 255 255
 1.27192 -1.42309  1.43697 255 255 255
 1.3269 -1.4098 1.47847 255 255 255
  1.05275 -0.874607   1.40886 255 255 255
 0.837727 -0.688346    1.1972 255 255 255
 1.12047 -1.12917  1.43018 255 255 255
 1.32567 -1.57749  1.41866 255 255 255
  1.64595 -0.862313   1.45574 255 255 255
 1.97132 -1.08684  1.50532 255 255 255
0.958299 -1.24179   1.4531 255 255 255
 1.03532 -1.12446  1.42892 255 255 255
 0.897966 -0.022312   1.36883 255 255 255
  1.46187 -0.539923   1.41661 255 255 255
 0.802372 -0.909947   1.26667 255 255 255
 1.30451 -1.26971  1.47665 255 255 255
 1.30442 -1.26925  1.47571 255 255 255
 0.607819 -0.514114    1.3593 255 255 255
 0.685474 -0.361468   1.35596 255 255 255
 0.754522 -0.653335    1.1888 255 255 255
  1.11199 -0.217477   1.35416 255 255 255
0.890522 -1.12262  1.32892 255 255 255
  1.13143 -0.492041   1.36754 255 255 255
  1.69529 -0.763556   1.45824 255 255 255
 1.69421 -1.15694   1.4891 255 255 255
 1.58875 -1.17807  1.48546 255 255 255
 1.55242 -1.40665  1.41019 255 255 255
 0.963761 -0.518485   1.37569 255 255 255
  0.971419 -0.0267746    1.36889 255 255 255
0.990668 -1.29794  1.46316 255 255 255
 1.28145 -1.58898  1.44695 255 255 255
 1.54347 -1.07383  1.47127 255 255 255
0.955732 0.022874  1.36891 255 255 255
 0.679656 -0.687849   1.20398 255 255 255
  1.00771 -0.536188   1.37952 255 255 255
 1.12325 -1.03838  1.43898 255 255 255
  0.758726 -0.0702578    1.36224 255 255 255
  0.82414 -0.136281   1.36497 255 255 255
 1.15246 -1.28031  1.46533 255 255 255
 1.30581 -1.58423  1.44834 255 255 255
 1.44711 -1.20536   1.4848 255 255 255
  0.825619 -0.0831226    1.36808 255 255 255
 0.577972 -0.303589   1.34787 255 255 255
 1.06897 -1.04902   1.4248 255 255 255
 0.304558 -0.497651   1.35782 255 255 255
 1.85821 -1.06312  1.43808 255 255 255
  1.52118 -0.524443      1.43 255 255 255
  1.3137 -1.62259  1.41666 255 255 255
 0.607687 -0.400322    1.3594 255 255 255
  1.60965 -0.850155   1.44875 255 255 255
  1.76303 -0.866987   1.49562 255 255 255
 0.757937 -0.336887   1.35882 255 255 255
  1.8658 -1.05528  1.43859 255 255 255
1.58444 -1.3799 1.48721 255 255 255
 1.02437 -1.04831  1.41548 255 255 255
 0.850516 -0.956611   1.26442 255 255 255
 0.582515 -0.293596    1.3482 255 255 255
  1.30726 -0.382216   1.39875 255 255 255
  1.7521 -1.19338  1.49778 255 255 255
 1.33971 -1.32265  1.47501 255 255 255
 0.434018 -0.464119   1.35139 255 255 255
  1.46769 -0.968446   1.44184 255 255 255
 1.63172 -1.37977  1.49112 255 255 255
  1.15378 -0.835523   1.41467 255 255 255
 1.27192 -1.22936  1.48108 255 255 255
 0.747702 -0.717847   1.19832 255 255 255
   1.2913 -0.545976   1.38985 255 255 255
 0.598428 -0.458687   1.35683 255 255 255
  1.18944 -0.722569    1.4075 255 255 255
  1.09291 -0.786843   1.41408 255 255 255
 1.89102 -1.07865  1.46766 255 255 255
1.31258 -1.5659 1.45536 255 255 255
  0.86307 -0.119232   1.36404 255 255 255
  1.16728 -0.384068   1.39661 255 255 255
  1.50918 -0.958231   1.42729 255 255 255
1.55565 -1.4245 1.42152 255 255 255
  1.25897 -0.563118   1.38448 255 255 255
 0.868168 -0.894018   1.26485 255 255 255
 1.35961 -1.20798  1.44231 255 255 255
 0.741553 -0.959551   1.25273 255 255 255
 0.741103 -0.718156   1.19244 255 255 255
 1.41313 -1.01507  1.43932 255 255 255
 1.5826 -1.2344 1.46657 255 255 255
  1.8146 -0.80423  1.48401 255 255 255
  1.00873 -0.236752   1.36976 255 255 255
 0.680019 -0.256671   1.35685 255 255 255
 0.729665 -0.717826   1.20028 255 255 255
  1.40855 -0.414703   1.39519 255 255 255
  1.54787 -0.846523   1.41549 255 255 255
 1.48583 -1.24565  1.49108 255 255 255
  1.32596 -0.883119   1.43974 255 255 255
1.70743 -1.3272 1.49893 255 255 255
  2.04033 -0.927973   1.50522 255 255 255
 0.808054 -0.435399   1.35588 255 255 255
0.937852 -1.24592  1.45713 255 255 255
   1.6972 -0.978824   1.49602 255 255 255
  1.95023 -0.935027   1.50333 255 255 255
  1.04278 -0.444574   1.38071 255 255 255
  1.07087 -0.664647   1.39909 255 255 255
 1.09906 -1.04947  1.42922 255 255 255
  1.78408 -0.890019   1.50239 255 255 255
  1.11535 -0.877063    1.4056 255 255 255
  1.7234 -1.11973  1.49866 255 255 255
  1.19336 -0.592448   1.34109 255 255 255
 0.469609 -0.328907   1.35416 255 255 255
  1.45206 -0.692437   1.42293 255 255 255
 1.53672 -1.08497  1.45953 255 255 255
  1.96606 -0.909289   1.50319 255 255 255
  1.95683 -0.913145   1.50601 255 255 255
  1.73761 -0.983886   1.49893 255 255 255
 0.945277 -0.742573   1.40422 255 255 255
 0.945642 -0.742519   1.40138 255 255 255
 0.841999 -0.924398   1.26607 255 255 255
  0.72573 -0.702161   1.20649 255 255 255
 1.42223 -1.05668  1.43915 255 255 255
 0.699619 -0.880072   1.26683 255 255 255
  1.56018 -0.852999   1.40144 255 255 255
 0.628694 -0.143555   1.34223 255 255 255
 1.67659 -1.21754  1.49498 255 255 255
 1.28853 -1.33477  1.48529 255 255 255
  1.13206 -0.390411    1.3811 255 255 255
  1.18715 -0.341033   1.38819 255 255 255
 1.17191 -1.27182  1.43558 255 255 255
  0.76578 -0.662074   1.20831 255 255 255
  1.17977 -0.261523    1.3637 255 255 255
0.860498  -0.6561  1.20469 255 255 255
 1.47571 -1.23258  1.48258 255 255 255
  1.19146 -0.369676   1.39681 255 255 255
 0.843614 -0.645185   1.20196 255 255 255
 1.70924 -1.31525  1.49897 255 255 255
 1.71916 -1.34483  1.49868 255 255 255
 0.896361 -0.306556   1.36163 255 255 255
 1.48275 -1.38507  1.48032 255 255 255
0.968676 -1.23334  1.45274 255 255 255
 0.788798 -0.843906    1.2676 255 255 255
 1.27434 -1.18083  1.43933 255 255 255
