ply
format ascii 1.0
element vertex 1119
property float x
property float y
property float z
property uchar red
property uchar green
property uchar blue
end_header
-0.0712045  -0.132339    1.59133 255 255 255
-0.0774181   -0.14992    1.58634 255 255 255
-0.379088 -0.414232   1.32353 255 255 255
-0.159905 -0.330746   1.51193 255 255 255
 0.259375 -0.422012   1.27143 255 255 255
-0.120076 -0.550447   1.29694 255 255 255
0.0203885 -0.140988   1.64247 255 255 255
-0.430338 -0.335312   1.29523 255 255 255
  0.09632 -0.267272    1.4818 255 255 255
-0.923085 0.0111469   1.64801 255 255 255
-0.880898 0.0636663    1.6838 255 255 255
 0.152862 -0.497137   1.39677 255 255 255
-0.886501 -0.163564   1.49931 255 255 255
-0.319361 -0.514444   1.24089 255 255 255
-0.331951 -0.425288    1.3498 255 255 255
 -0.11186 -0.562606   1.29152 255 255 255
-0.0379383  -0.155237    1.60612 255 255 255
-0.179912 -0.202351   1.51731 255 255 255
  0.04848 -0.543149   1.29117 255 255 255
 -0.49257 0.0974033   1.30578 255 255 255
-0.0829622  -0.166643    1.58243 255 255 255
-0.147236 -0.599995   1.24943 255 255 255
-0.164762  -0.13654   1.53435 255 255 255
-0.324878 -0.406084   1.36556 255 255 255
 -0.794939 -0.0617408    1.57351 255 255 255
0.0699617 -0.211511   1.64057 255 255 255
-0.828083 -0.231411   1.31841 255 255 255
0.0865405  -0.38593   1.60314 255 255 255
0.168827 -0.58503  1.22924 255 255 255
-0.294866 -0.532338    1.2509 255 255 255
  -0.77233 -0.0605389    1.58696 255 255 255
-0.482291 -0.372345   1.24553 255 255 255
 0.230522 -0.538854   1.23262 255 255 255
-0.829064 -0.169515   1.42698 255 255 255
 -0.811172 -0.0333183    1.61582 255 255 255
-0.573184  -0.45436   1.13559 255 255 255
-0.211956 -0.279285   1.47183 255 255 255
-0.0146219  -0.133465    1.63054 255 255 255
-0.0638147  -0.485315     1.4556 255 255 255
-0.774902 -0.208656   1.34293 255 255 255
-0.169374 -0.392857   1.45862 255 255 255
-0.838564 -0.238397    1.3003 255 255 255
-0.644952  0.186232   1.11563 255 255 255
-0.885748 -0.124079   1.54555 255 255 255
0.0196582 -0.482867   1.32824 255 255 255
-0.0125171 -0.0804351    1.59687 255 255 255
-0.301311 -0.527305   1.27438 255 255 255
0.00217821  -0.273107    1.55933 255 255 255
-0.134764 -0.120066   1.55481 255 255 255
0.0465102 -0.165253   1.64986 255 255 255
-0.754089 -0.335633   1.18127 255 255 255
-0.277688 -0.339315   1.36202 255 255 255
-0.893822 -0.107974   1.54296 255 255 255
 0.251654 -0.494346   1.23045 255 255 255
0.0254633 -0.270928   1.60485 255 255 255
-0.921512 -0.164414   1.51919 255 255 255
 0.273237 -0.223625    1.4722 255 255 255
  -0.12272 -0.0885757    1.56715 255 255 255
 -0.861971 -0.0711216    1.56959 255 255 255
-0.548534 -0.483632   1.14756 255 255 255
-0.105166 -0.181261   1.56043 255 255 255
0.170171 -0.53082  1.25259 255 255 255
 0.146215 -0.501264   1.29866 255 255 255
-0.170466 -0.269539   1.50742 255 255 255
 0.206177 -0.386654   1.44059 255 255 255
-0.0825828  -0.248553    1.56379 255 255 255
 0.240978 -0.529299   1.25919 255 255 255
-0.855814 -0.046912   1.62087 255 255 255
 0.240764 -0.533892    1.2042 255 255 255
-0.429965   -0.3886   1.28158 255 255 255
-0.863311 -0.112318   1.54464 255 255 255
-0.838869 0.0450167   1.71144 255 255 255
-0.0640779  -0.230233     1.5782 255 255 255
-0.571358 -0.468998   1.12883 255 255 255
 0.296624 -0.324885   1.77335 255 255 255
-0.824604 -0.060809   1.59605 255 255 255
0.0632474 -0.119711   1.66063 255 255 255
 -0.921224 -0.0151533     1.6181 255 255 255
-0.803811 -0.215356   1.32816 255 255 255
-0.122991 -0.310869    1.5263 255 255 255
-0.0823549  -0.528158    1.33676 255 255 255
-0.0407357  -0.563656    1.25187 255 255 255
 -0.159144 -0.0927791    1.54172 255 255 255
-0.153968 -0.119258   1.54225 255 255 255
-0.409233 -0.344751   1.31154 255 255 255
-0.00338178   -0.448618     1.39799 255 255 255
-0.00588435   -0.198682     1.60419 255 255 255
0.0092135 -0.362304   1.43923 255 255 255
 -0.92847 -0.187809   1.47599 255 255 255
  0.22381 -0.276523   1.69856 255 255 255
-0.00483413   -0.211878     1.60969 255 255 255
 0.159999 -0.421919   1.60165 255 255 255
0.0819896 -0.564322   1.27531 255 255 255
-0.122472 -0.188786   1.55574 255 255 255
 -0.38425 -0.273525   1.34488 255 255 255
-0.323743 -0.337404   1.37598 255 255 255
-0.214789 -0.193035   1.49335 255 255 255
-0.142898 -0.168776   1.53978 255 255 255
-0.159297 -0.161243    1.5351 255 255 255
-0.197246 -0.166818   1.61076 255 255 255
-0.376379 -0.450627   1.31708 255 255 255
0.0382893 -0.219216   1.62725 255 255 255
-0.185659 -0.248084   1.50796 255 255 255
-0.034631 -0.337933   1.56345 255 255 255
  0.18736 -0.487804    1.2789 255 255 255
-0.571797 -0.488319   1.13092 255 255 255
-0.274155  -0.38329   1.38239 255 255 255
-0.148755 -0.214591   1.61728 255 255 255
-0.968588 -0.128692   1.54476 255 255 255
-0.638191  0.177039   1.11858 255 255 255
0.00717068  -0.601404    1.25921 255 255 255
0.00717066  -0.601404    1.25921 255 255 255
0.0277131 -0.126794   1.68158 255 255 255
-0.512467 -0.402867   1.20137 255 255 255
0.0199925 -0.101884   1.60078 255 255 255
-0.0587614  -0.140346    1.59465 255 255 255
-0.354825  -0.48808   1.32155 255 255 255
-0.887979 0.0391471   1.64485 255 255 255
-0.814717 -0.240652   1.35789 255 255 255
-0.830656 -0.276201   1.27159 255 255 255
-0.906508 0.0958475   1.70795 255 255 255
 -0.943618 -0.0365688    1.61712 255 255 255
-0.590767 -0.450863   1.11841 255 255 255
-0.0471327  -0.551492    1.30141 255 255 255
-0.474975 -0.360194   1.24935 255 255 255
-0.811445 0.0181999   1.70404 255 255 255
0.00878787  -0.250056    1.61158 255 255 255
-0.0827285  -0.414583    1.46123 255 255 255
 -0.38776 -0.433462   1.30662 255 255 255
-0.357394 -0.440142   1.30007 255 255 255
0.0476768 -0.239654   1.55945 255 255 255
 -0.36609 -0.516705    1.2481 255 255 255
-0.833326 -0.220168   1.31009 255 255 255
-0.0283342  -0.130556    1.61091 255 255 255
0.0345113 -0.567767   1.29747 255 255 255
-0.196333 -0.612164   1.22638 255 255 255
  0.15783 -0.318877   1.49035 255 255 255
-0.0751403  -0.174325     1.5863 255 255 255
0.0208636 -0.307904   1.46074 255 255 255
-0.206285  -0.14787   1.60395 255 255 255
0.0488032 -0.150531   1.65147 255 255 255
-0.194815 -0.296761    1.4814 255 255 255
 0.161125 -0.138213   1.68543 255 255 255
 -0.606834 -0.0769147    1.10575 255 255 255
-0.0350596  -0.299165    1.67923 255 255 255
-0.153396 -0.136619   1.54028 255 255 255
-0.133381 -0.492702   1.33653 255 255 255
-0.854592 -0.259139   1.28417 255 255 255
 0.075163 -0.514526   1.31821 255 255 255
-0.314979 -0.466142   1.34395 255 255 255
-0.302783 -0.278485   1.41334 255 255 255
-0.408023 -0.321253   1.32046 255 255 255
0.0581267  -0.11016   1.65631 255 255 255
-0.0865431  -0.526169    1.30787 255 255 255
-0.226685 -0.127738   1.60335 255 255 255
-0.345436 -0.335935   1.36602 255 255 255
 0.200293 -0.602844   1.19696 255 255 255
-0.222967 -0.421374   1.43431 255 255 255
 0.225268 -0.413345    1.3318 255 255 255
-0.0135227  -0.278277    1.58899 255 255 255
-0.216746 -0.319215   1.46336 255 255 255
 0.221357 -0.426245   1.32471 255 255 255
-0.646451 -0.376259   1.15522 255 255 255
-0.563958 -0.503921   1.13118 255 255 255
-0.194807 -0.155964   1.61441 255 255 255
0.0496424 -0.262332    1.6197 255 255 255
-0.283765 -0.492066   1.25147 255 255 255
 -0.870293 -0.0716744    1.62399 255 255 255
-0.494892 -0.398803   1.22074 255 255 255
-0.269883 -0.545469   1.22336 255 255 255
-0.0267595   -0.52547    1.31578 255 255 255
 -0.106281 -0.0736214    1.57607 255 255 255
-0.305881 -0.331587   1.40434 255 255 255
-0.0502795  -0.561079    1.26352 255 255 255
-0.424235 -0.292962   1.31339 255 255 255
 0.273022 -0.263628   1.72989 255 255 255
0.0295642 -0.247538   1.61397 255 255 255
0.0203993 -0.582672   1.28607 255 255 255
-0.830387 0.0493735   1.71902 255 255 255
-0.413929 -0.330997   1.31187 255 255 255
0.00389762  -0.320387    1.49163 255 255 255
-0.0737324  -0.145059    1.64973 255 255 255
-0.0331568 -0.0945234    1.61001 255 255 255
0.0124331 -0.479142   1.36371 255 255 255
-0.533425 -0.360703   1.18482 255 255 255
 -0.892891 -0.0964369    1.58042 255 255 255
0.0631112 -0.433131   1.37879 255 255 255
 -0.908143 -0.0307233    1.60709 255 255 255
-0.847041 -0.284987   1.26531 255 255 255
0.321718 -0.23208   1.4469 255 255 255
-0.855992 -0.232531   1.31739 255 255 255
 0.215824 -0.589868   1.16824 255 255 255
-0.106659 -0.587626   1.25332 255 255 255
-0.132692 -0.322656   1.48833 255 255 255
-0.580285 -0.432786   1.20787 255 255 255
 0.237259 -0.524478   1.22282 255 255 255
-0.918451 -0.170338   1.49202 255 255 255
  0.23171 -0.577013     1.189 255 255 255
-0.850143 -0.188289   1.39246 255 255 255
 0.217361 -0.579109   1.17541 255 255 255
-0.0537411 -0.0909343    1.59199 255 255 255
 -0.10479 -0.336452   1.51236 255 255 255
-0.00382235   -0.445866     1.38735 255 255 255
 0.106542 -0.512894   1.29921 255 255 255
 -0.975651 -0.0432889    1.61772 255 255 255
 -0.100997 -0.0646189    1.57861 255 255 255
-0.387261 -0.471839   1.32167 255 255 255
-0.0223079  -0.196626    1.60635 255 255 255
-0.801897 0.0387257   1.72388 255 255 255
 0.070203 -0.560759   1.29789 255 255 255
-0.553413 -0.500558   1.15197 255 255 255
0.0631563 -0.246722   1.53846 255 255 255
 0.235741 -0.569794    1.2057 255 255 255
-0.252885 -0.560575   1.26414 255 255 255
-0.84532 -0.21856  1.31202 255 255 255
 0.152429 -0.522836   1.31407 255 255 255
-0.433776 -0.406801   1.28067 255 255 255
-0.0045027  -0.111403    1.62782 255 255 255
-0.278798 -0.367041     1.766 255 255 255
 0.287944 -0.239493   1.39488 255 255 255
-0.520482 0.0911682    1.2663 255 255 255
 0.189716 -0.435835   1.27828 255 255 255
 0.146896 -0.552032   1.26664 255 255 255
0.0466043 -0.564984    1.2902 255 255 255
-0.162482  -0.19327   1.53053 255 255 255
  0.24427 -0.366332   1.32647 255 255 255
 -0.928445 -0.0860412    1.56182 255 255 255
-0.833144 -0.242801   1.30932 255 255 255
  0.15476 -0.545453   1.24813 255 255 255
0.140486 -0.40745  1.39398 255 255 255
-0.816911 0.0347457    1.7191 255 255 255
-0.0198437  -0.112797    1.59944 255 255 255
 -0.119579 -0.0748952    1.56634 255 255 255
-0.607234 -0.465366   1.09647 255 255 255
-0.172912 -0.246518   1.51293 255 255 255
-0.179731 -0.092765    1.5282 255 255 255
-0.277358 -0.465881   1.27481 255 255 255
0.0723109 -0.175187   1.62815 255 255 255
0.276222 -0.20788  1.47011 255 255 255
-0.379573 -0.296929   1.34427 255 255 255
0.0620861 -0.610911   1.21243 255 255 255
-0.163726 -0.172901   1.61416 255 255 255
-0.629949 -0.497031   1.21687 255 255 255
-0.390576 -0.256518   1.34117 255 255 255
 0.202209 -0.407075   1.38683 255 255 255
 -0.27412 -0.223049   1.44264 255 255 255
 -0.198508 -0.0988339    1.51312 255 255 255
-0.139914 -0.231709   1.56486 255 255 255
-0.778482 -0.186343   1.33249 255 255 255
-0.304539 -0.277325   1.41167 255 255 255
 -0.554182 0.00961747    1.22377 255 255 255
-0.827193 -0.153782   1.47884 255 255 255
-0.659491 -0.398595   1.18764 255 255 255
-0.356901 -0.227541   1.37826 255 255 255
-0.0102006  -0.450467    1.38385 255 255 255
 0.209823 -0.610447   1.17433 255 255 255
-0.170458 -0.184601   1.61482 255 255 255
-0.348902 -0.412495   1.26807 255 255 255
  -0.83097 -0.0438204    1.61429 255 255 255
0.0142255 -0.599285    1.2613 255 255 255
 0.269043 -0.204313   1.69783 255 255 255
 0.262015 -0.269605   1.45157 255 255 255
 -0.962467 -0.0312758    1.59304 255 255 255
-0.470932 -0.393076   1.24733 255 255 255
-0.00990971   -0.324164      1.4573 255 255 255
  0.24708 -0.517771   1.21912 255 255 255
 -0.539617 -0.0279352     1.2394 255 255 255
-0.0439211  -0.169097    1.60949 255 255 255
0.0266673 -0.598028   1.21087 255 255 255
-0.881087 0.0181082   1.71331 255 255 255
-0.323276 -0.263388   1.40238 255 255 255
0.0209765 -0.354551   1.48948 255 255 255
-0.0299038  -0.195188      1.602 255 255 255
-0.510063 -0.512859    1.1864 255 255 255
 -0.870916 -0.0617858    1.56967 255 255 255
-0.211116 -0.306325   1.47056 255 255 255
 0.138676 -0.606997   1.20283 255 255 255
-0.012703  -0.26379   1.59467 255 255 255
 -0.877111 -0.0387876    1.56161 255 255 255
0.0640617 -0.264182   1.65509 255 255 255
-0.370282 -0.453416   1.31695 255 255 255
-0.481181 -0.364357   1.30821 255 255 255
-0.307391 -0.268605   1.41207 255 255 255
-0.282409 -0.230046   1.44138 255 255 255
-0.191843 -0.145627   1.59903 255 255 255
0.0844474 -0.174384   1.63367 255 255 255
-0.119887 -0.303199   1.52605 255 255 255
 -0.881261 -0.0727565    1.55626 255 255 255
 -0.947693 -0.0430369    1.59097 255 255 255
0.0136549 -0.278971   1.54145 255 255 255
0.0352514 -0.602106   1.21697 255 255 255
 0.245829 -0.518777   1.25259 255 255 255
-0.551341 -0.504963   1.14799 255 255 255
0.227849 -0.16127  1.70001 255 255 255
-0.167591 -0.177884   1.53052 255 255 255
-0.0589202  -0.104568    1.59594 255 255 255
-0.223981 -0.550166   1.32483 255 255 255
-0.855192 -0.237876   1.30518 255 255 255
 0.359659 -0.210341   1.71649 255 255 255
-0.0176017  -0.204491    1.61218 255 255 255
-0.842386 -0.283121   1.27258 255 255 255
 0.316182 -0.267321   1.69303 255 255 255
-0.0651686   -0.10972    1.59514 255 255 255
0.0327172 -0.589457   1.27437 255 255 255
0.0133027 -0.451564   1.27529 255 255 255
-0.934183 0.0402774   1.59869 255 255 255
0.0382266 -0.277107   1.60976 255 255 255
 0.123003 -0.530959   1.29472 255 255 255
-0.306564 -0.519265   1.27106 255 255 255
-0.0718914  -0.224929    1.57523 255 255 255
 0.144162 -0.405134   1.40601 255 255 255
0.0794481 -0.601285   1.24556 255 255 255
-0.0644396  -0.406104    1.41103 255 255 255
-0.627227 -0.464436    1.2413 255 255 255
-0.913652  -0.17734   1.47945 255 255 255
-0.292529 -0.349229   1.32575 255 255 255
-0.0336862   -0.26476    1.58499 255 255 255
-0.0250183  -0.433921     1.5392 255 255 255
-0.185611 -0.166645   1.51662 255 255 255
 0.122882 -0.381967   1.60913 255 255 255
-0.0790925  -0.190554    1.57576 255 255 255
 0.171198 -0.381848   1.61765 255 255 255
-0.221958 -0.577347   1.24882 255 255 255
-0.369349   -0.2602   1.36287 255 255 255
-0.382004 -0.469563   1.29676 255 255 255
-0.0278934  -0.147157    1.61416 255 255 255
0.0475617 -0.276844   1.61353 255 255 255
-0.249883 -0.440451   1.37959 255 255 255
0.0153475  -0.20429   1.61998 255 255 255
-0.854757 -0.299269   1.26141 255 255 255
0.0350553 -0.598498   1.23991 255 255 255
0.0550676 -0.265965   1.53714 255 255 255
-0.290568 -0.326224   1.40746 255 255 255
 0.031858 -0.293589   1.60262 255 255 255
 0.238842 -0.551597   1.05663 255 255 255
-0.0967382   -0.55874    1.27527 255 255 255
 0.248923 -0.298287   1.72882 255 255 255
0.0903363 -0.415256   1.43433 255 255 255
-0.149357 -0.188823   1.53414 255 255 255
 0.274078 -0.328833   1.66451 255 255 255
0.0289133 -0.337752   1.48929 255 255 255
0.0215462   -0.4916   1.33019 255 255 255
-0.0250787  -0.294588    1.57892 255 255 255
-0.0798459  -0.100217    1.70659 255 255 255
-0.360118 -0.489148   1.21947 255 255 255
 -0.38139 -0.513379   1.27737 255 255 255
-0.773059 -0.274291   1.21194 255 255 255
0.0879194 -0.570184   1.25866 255 255 255
-0.851082 0.0479113   1.71325 255 255 255
-0.157734 -0.150476   1.59949 255 255 255
-0.332928 -0.495904   1.26525 255 255 255
 0.246916 -0.564189   1.15929 255 255 255
-0.855538 0.0252527   1.70236 255 255 255
 0.159658 -0.381373   1.61997 255 255 255
-0.187079 -0.386068   1.42672 255 255 255
-0.0823378  -0.092213    1.58693 255 255 255
 0.358018 -0.210072   1.77829 255 255 255
-0.178453 -0.381657   1.44162 255 255 255
 -0.94706 -0.127161   1.56392 255 255 255
 0.179186 -0.619094   1.18993 255 255 255
-0.0781428  -0.140244    1.59741 255 255 255
 0.218145 -0.561371   1.20133 255 255 255
-0.258983   -0.3206   1.41548 255 255 255
 0.298339 -0.252164   1.44959 255 255 255
-0.0347145  -0.373967     1.5468 255 255 255
-0.0542313  -0.318883    1.55562 255 255 255
 0.108008 -0.492648   1.35651 255 255 255
-0.138835 -0.188293   1.54111 255 255 255
  0.11623 -0.354374   1.46062 255 255 255
-0.238107 -0.540812   1.26635 255 255 255
-0.387847 -0.307351   1.33678 255 255 255
 0.151963 -0.491326   1.31664 255 255 255
-0.200352  -0.39772   1.44517 255 255 255
-0.821527 -0.195432   1.38905 255 255 255
0.0907727 -0.255889   1.55737 255 255 255
0.0299809 -0.206287   1.62563 255 255 255
0.00886017  -0.103819    1.60381 255 255 255
-0.0409503  -0.467486    1.41345 255 255 255
0.0962307 -0.361859   1.44974 255 255 255
-0.0570964  -0.156377    1.60799 255 255 255
 -0.131863 -0.0548725    1.58654 255 255 255
0.00570267  -0.461871    1.35247 255 255 255
-0.242685 -0.522604   1.27033 255 255 255
0.0720026 -0.275921   1.55518 255 255 255
-0.0201309 -0.0963725    1.70359 255 255 255
 0.118036 -0.342199   1.62124 255 255 255
-0.188913 -0.107379   1.52112 255 255 255
  0.18688 -0.614506   1.18906 255 255 255
  0.23987 -0.342533   1.65397 255 255 255
 -0.41808 -0.431924   1.29549 255 255 255
-0.846858 -0.138559   1.55915 255 255 255
 0.241942 -0.343352   1.75013 255 255 255
0.0161404 -0.443926   1.37974 255 255 255
0.0109577 -0.467703   1.35566 255 255 255
-0.899427 -0.127485   1.54829 255 255 255
0.0330914 -0.303741   1.67174 255 255 255
-0.137411 -0.284911   1.49646 255 255 255
-0.275918 -0.289106   1.39465 255 255 255
0.0330318 -0.176392   1.63179 255 255 255
-0.261015 -0.342383   1.43101 255 255 255
-0.115931 -0.588083   1.28612 255 255 255
 0.296849 -0.315714   1.76772 255 255 255
-0.310789 -0.330719   1.39514 255 255 255
-0.558879 -0.465483   1.21248 255 255 255
0.0840104 -0.160925   1.66203 255 255 255
-0.449101 -0.337737   1.27481 255 255 255
-0.116445 -0.276889    1.5375 255 255 255
 -0.133821 -0.0926748    1.56255 255 255 255
-0.120676 -0.540043   1.26673 255 255 255
 0.302385 -0.285929    1.6849 255 255 255
-0.400337 -0.459411   1.29612 255 255 255
-0.536117 -0.446545    1.1955 255 255 255
-0.340694 -0.281451   1.38512 255 255 255
 -0.859437 -0.0214766    1.63564 255 255 255
-0.142977  -0.15443   1.54303 255 255 255
0.000652233   -0.214826     1.62299 255 255 255
-0.0542671  -0.134992    1.60096 255 255 255
0.0238223  -0.48789   1.34371 255 255 255
-0.0705255  -0.151419    1.64959 255 255 255
-0.0671429  -0.327129    1.54784 255 255 255
 0.138305 -0.534619    1.3027 255 255 255
-0.0723579  -0.073528    1.59696 255 255 255
-0.0763551 -0.0908604    1.59206 255 255 255
-0.820972 0.0109144    1.6866 255 255 255
-0.0713226  -0.286494    1.51747 255 255 255
-0.103548 -0.097575    1.5893 255 255 255
-0.950317 -0.130878   1.55623 255 255 255
-0.207447 -0.189966   1.50061 255 255 255
-0.548854 -0.385514   1.16532 255 255 255
-0.903005 0.0266354    1.6684 255 255 255
-0.218948 -0.378344   1.43137 255 255 255
-0.204238 -0.526858   1.29541 255 255 255
0.0208637 -0.188842   1.62705 255 255 255
 -0.981565 -0.0293058    1.63577 255 255 255
-0.284853 -0.311406   1.41937 255 255 255
-0.730389 -0.381263   1.15684 255 255 255
 -0.38098 -0.417688   1.29559 255 255 255
 0.108316 -0.599954   1.08504 255 255 255
0.0194019 -0.371178   1.44393 255 255 255
0.0796758 -0.143984   1.65661 255 255 255
-0.0124061  -0.196087    1.59908 255 255 255
-0.0558241  -0.223005    1.58648 255 255 255
-0.439687 -0.411506   1.27256 255 255 255
 -0.825148 -0.0170701    1.60385 255 255 255
-0.940882  0.113053   1.77133 255 255 255
  0.13941 -0.135954   1.67873 255 255 255
0.0647118  -0.17759   1.65117 255 255 255
 0.248159 -0.297606   1.67251 255 255 255
-0.0237135  -0.576391    1.26036 255 255 255
-0.159798 -0.331296   1.43338 255 255 255
 0.176741 -0.359444   1.40426 255 255 255
-0.341465 -0.320456    1.3962 255 255 255
 -0.24274 -0.326654   1.45606 255 255 255
-0.184927 -0.361225    1.4325 255 255 255
-0.0959381 -0.0551044    1.58131 255 255 255
-0.481578 -0.383356   1.28767 255 255 255
0.0517311 -0.329369   1.69659 255 255 255
 -0.781987 -0.0621804    1.60501 255 255 255
-0.000685072    -0.280434      1.59264 255 255 255
-0.874193 0.0811582   1.73608 255 255 255
-0.823492 -0.208546    1.3532 255 255 255
-0.217826 -0.298945   1.47156 255 255 255
-0.924132 -0.165075    1.5236 255 255 255
-0.0132998   -0.22484    1.60367 255 255 255
 0.216968 -0.166714    1.6958 255 255 255
0.0287602   -0.3337   1.46526 255 255 255
 -0.183131 -0.0985832    1.52174 255 255 255
 0.240811 -0.544582   1.20146 255 255 255
-0.311415 -0.504806   1.29135 255 255 255
-0.899716  0.090797   1.75105 255 255 255
 0.162948 -0.158903   1.68095 255 255 255
 0.136447 -0.346107   1.56125 255 255 255
-0.155926 -0.228066   1.52796 255 255 255
 -0.822167 -0.0604582    1.59131 255 255 255
-0.595364 -0.487922   1.17446 255 255 255
-0.448001 -0.416532   1.26478 255 255 255
-0.00478112   -0.516476     1.32154 255 255 255
-0.197525 -0.166546   1.61098 255 255 255
-0.987729 0.0766323    1.6876 255 255 255
 0.332906 -0.257342   1.70242 255 255 255
-0.507968 -0.406366   1.21011 255 255 255
-0.654899 -0.512717    1.1623 255 255 255
-0.868711 0.0286106   1.66294 255 255 255
-0.380096 -0.440826   1.31352 255 255 255
-0.393802 -0.327879    1.3283 255 255 255
 -0.26139 -0.362442   1.42318 255 255 255
-0.149047 -0.209906   1.55887 255 255 255
-0.942333 -0.102055   1.56471 255 255 255
-0.573672 -0.492238   1.20507 255 255 255
-0.913993 0.0825427   1.53375 255 255 255
-0.582847 -0.473502   1.12251 255 255 255
 0.227116 -0.463358   1.29684 255 255 255
-0.653742 -0.476758   1.16948 255 255 255
  -0.508711 -0.00943621     1.28027 255 255 255
-0.274318 -0.279983   1.43753 255 255 255
-0.414284 -0.297965   1.31224 255 255 255
 -0.109607 -0.0810935    1.57141 255 255 255
-0.612657 -0.422859   1.17007 255 255 255
-0.0378534  -0.120483     1.6024 255 255 255
0.0258889 -0.160314   1.68527 255 255 255
-0.0312962   -0.39949    1.54297 255 255 255
0.280602 -0.31853  1.67286 255 255 255
-0.902503 0.0369419   1.64441 255 255 255
-0.962949 -0.104485   1.54473 255 255 255
-0.0551923  -0.238814    1.57857 255 255 255
-0.0207638  -0.330727    1.57487 255 255 255
-0.0950934  -0.423586    1.41337 255 255 255
-0.930864 -0.118365   1.55285 255 255 255
 0.161784 -0.458736   1.33749 255 255 255
0.0369619 -0.245902   1.62125 255 255 255
-0.638809 -0.474586   1.06007 255 255 255
-0.835078 -0.338581    1.2475 255 255 255
 0.301689 -0.140044   1.46872 255 255 255
 0.270799 -0.280643   1.73249 255 255 255
 0.212884 -0.141405   1.69295 255 255 255
-0.622808 -0.465357   1.07859 255 255 255
-0.164234 -0.150168   1.53538 255 255 255
  -0.87035 -0.0716639    1.62406 255 255 255
-0.863175 -0.224385   1.34066 255 255 255
-0.299695 -0.543567   1.26958 255 255 255
0.0444194 -0.355904   1.47769 255 255 255
 0.351492 -0.179997    1.7254 255 255 255
-0.221083 -0.541247   1.32557 255 255 255
-0.148423 -0.509676   1.32186 255 255 255
-0.263697 -0.231467   1.44656 255 255 255
0.101705 -0.51153  1.31844 255 255 255
-0.549104  0.112621   1.22467 255 255 255
0.0455917 -0.490632   1.32898 255 255 255
-0.234476 -0.206967   1.63252 255 255 255
0.203142 -0.47131  1.29879 255 255 255
-0.0333733 -0.0854136    1.61319 255 255 255
 0.235858 -0.452146   1.33674 255 255 255
0.00841501  -0.187037    1.62129 255 255 255
0.0875951 -0.235237    1.5757 255 255 255
-0.851931 -0.183433   1.43828 255 255 255
  -0.940095 -0.00430718     1.65493 255 255 255
-0.922138  0.109748   1.75178 255 255 255
 0.209422 -0.608381   1.17095 255 255 255
-0.390258 -0.313699    1.3352 255 255 255
0.221047  -0.1462  1.69955 255 255 255
-0.988171  0.115557   1.82038 255 255 255
 0.308913 -0.136221   1.46776 255 255 255
-0.607101 -0.477692   1.09557 255 255 255
-0.0277376  -0.108332    1.59873 255 255 255
 0.082222 -0.616677   1.20633 255 255 255
-0.0166993   -0.36624    1.55937 255 255 255
-0.488585  -0.40002   1.19335 255 255 255
 0.225421 -0.453133   1.30366 255 255 255
-0.0875665 -0.0570905    1.58576 255 255 255
 0.219677 -0.526721   1.23606 255 255 255
-0.421624 -0.404839   1.29074 255 255 255
 0.205856 -0.134727   1.69773 255 255 255
-0.350316 -0.252494   1.38092 255 255 255
-0.886683  0.036656   1.57641 255 255 255
-0.607472 -0.485753   1.09461 255 255 255
-0.537597 -0.471922   1.22701 255 255 255
-0.842233 -0.228274   1.31971 255 255 255
-0.0643972 -0.0636556     1.5972 255 255 255
 0.170923 -0.416951   1.36898 255 255 255
-0.0439769  -0.195806     1.6377 255 255 255
-0.237175 -0.401986   1.43486 255 255 255
-0.869861 -0.203202   1.37984 255 255 255
-0.0421138  -0.322488    1.56483 255 255 255
0.0911427 -0.248002   1.55658 255 255 255
-0.562863  -0.42629   1.14503 255 255 255
-0.778836 -0.314282   1.29453 255 255 255
-0.603878 -0.399985   1.17615 255 255 255
0.0561999 -0.587562   1.24045 255 255 255
-0.0652598  -0.110135    1.59159 255 255 255
-0.798019  -0.21922   1.35133 255 255 255
 0.115447 -0.563357   1.25217 255 255 255
-0.406969 -0.337881   1.31584 255 255 255
 0.196439 -0.400427   1.38442 255 255 255
-0.921846 -0.362734   1.25147 255 255 255
-0.137832 -0.497379   1.37065 255 255 255
-0.913502 -0.351682   1.25634 255 255 255
 0.225238 -0.152351   1.69026 255 255 255
-0.131661 -0.070827   1.58424 255 255 255
-0.840112 -0.197722    1.3724 255 255 255
-0.192335 -0.310054   1.68544 255 255 255
 -0.51993 -0.485962   1.18203 255 255 255
0.0608837 -0.533127   1.28054 255 255 255
-0.941827 -0.382038   1.25371 255 255 255
-0.840642 -0.100851   1.55683 255 255 255
-0.394094 -0.262788   1.34302 255 255 255
-0.243737 -0.317002   1.45047 255 255 255
0.308313 -0.25156  1.43648 255 255 255
-0.143419 -0.565968    1.2223 255 255 255
-0.405751 -0.272796   1.33565 255 255 255
-0.430634 -0.366439   1.29037 255 255 255
0.0428099 -0.493302   1.35556 255 255 255
  0.23547 -0.434195   1.32463 255 255 255
-0.504847 0.0588889   1.29309 255 255 255
  0.10309 -0.150858   1.66627 255 255 255
-0.953694   0.10608   1.77408 255 255 255
-0.459439 -0.470157    1.1784 255 255 255
-0.237641 -0.273956   1.70523 255 255 255
-0.598618  -0.47423   1.06662 255 255 255
-0.117186 -0.517537   1.34069 255 255 255
 0.173244 -0.509306   1.32025 255 255 255
-0.109076 -0.205663   1.55913 255 255 255
-0.043022 -0.101466   1.60132 255 255 255
  0.05486 -0.226589   1.63125 255 255 255
-0.282824 -0.529245   1.25777 255 255 255
-0.131816 -0.108844   1.59073 255 255 255
-0.415657 -0.324931   1.81392 255 255 255
0.0307562 -0.168979   1.62099 255 255 255
0.000359796   -0.391846     1.45868 255 255 255
-0.0633415   -0.07073    1.58633 255 255 255
-0.411166 -0.305065   1.76233 255 255 255
-0.935873 -0.220928   1.42877 255 255 255
-0.0779987  -0.245242    1.63993 255 255 255
-0.0853367  -0.325801     1.6698 255 255 255
-0.0450457  -0.299066    1.56866 255 255 255
-0.0824434  -0.472482    1.47277 255 255 255
-0.909591 -0.360192   1.25293 255 255 255
0.246255 -0.28141  1.67658 255 255 255
-0.0459298  -0.250783    1.62789 255 255 255
-0.471438 -0.393362   1.24776 255 255 255
0.0376045 -0.296871   1.66343 255 255 255
-0.350338 -0.421635   1.34029 255 255 255
-0.174072 -0.599083   1.33358 255 255 255
 -0.119643 -0.0559436    1.57561 255 255 255
-0.391549 -0.276071   1.33654 255 255 255
 -0.497347 -0.0220835    1.28522 255 255 255
-0.119154 -0.531201   1.30364 255 255 255
  -0.14051 -0.0775517     1.5501 255 255 255
0.0787188 -0.118168   1.61586 255 255 255
-0.540422  -0.46186   1.17836 255 255 255
-0.432266 -0.545832   1.17284 255 255 255
 -0.86168 -0.134657   1.55652 255 255 255
 -0.203581 -0.0982499    1.60465 255 255 255
 -0.24418 -0.372101   1.43457 255 255 255
0.0645543 -0.274493   1.55225 255 255 255
-0.866975  -0.03188   1.61742 255 255 255
-0.0282718  -0.230907    1.60947 255 255 255
-0.171274 -0.193458   1.62099 255 255 255
-0.151735 -0.630834   1.19976 255 255 255
-0.245069 -0.243549   1.66346 255 255 255
-0.0351992  -0.419652    1.40389 255 255 255
-0.633839 -0.494322   1.19022 255 255 255
-0.00081732   -0.199929     1.63813 255 255 255
0.0986275 -0.414682   1.48455 255 255 255
-0.181712 -0.150888   1.60343 255 255 255
0.0266835 -0.491202   1.33742 255 255 255
  0.10404 -0.367439   1.60641 255 255 255
-0.471781 -0.387392   1.24743 255 255 255
 -0.52955 0.0608711   1.25862 255 255 255
-0.590252  -0.39873   1.18705 255 255 255
 0.232543 -0.343802   1.65223 255 255 255
0.0716374 -0.202328   1.62456 255 255 255
0.207256 -0.54295  1.23252 255 255 255
0.0819123  -0.33687   1.33202 255 255 255
-0.119829 -0.357152   1.46586 255 255 255
-0.537718 -0.480132   1.16794 255 255 255
 0.245595 -0.523034   1.20115 255 255 255
 0.234345 -0.569421   1.24681 255 255 255
-0.280001 -0.543621   1.15954 255 255 255
-0.0500683  -0.440545    1.40724 255 255 255
 0.225813 -0.571188   1.18771 255 255 255
-0.411749 -0.456953   1.28352 255 255 255
 0.109769 -0.547046   1.28787 255 255 255
-0.369046 -0.403294   1.33309 255 255 255
0.0132366 -0.552043    1.3263 255 255 255
  -0.1354 -0.512652   1.49262 255 255 255
0.0617781 -0.355723   1.42377 255 255 255
-0.106143 -0.304036   1.54063 255 255 255
-0.131096 -0.241337   1.53939 255 255 255
-0.214015 -0.193517   1.49267 255 255 255
-0.232456 -0.316664   1.35119 255 255 255
0.0309114  -0.43356   1.42833 255 255 255
0.00262187  -0.522792    1.32188 255 255 255
-0.199883 -0.328993   1.46773 255 255 255
-0.0943547  -0.347007    1.53321 255 255 255
0.0913801 -0.566329   1.27439 255 255 255
 0.236327 -0.481661   1.32564 255 255 255
-0.551159 -0.460408   1.16288 255 255 255
 -0.64077 -0.477759   1.10921 255 255 255
-0.241004 -0.388636   1.38048 255 255 255
 -0.62967 -0.488116   1.06748 255 255 255
 0.146214 -0.518778   1.29442 255 255 255
-0.359141 -0.316182   1.35964 255 255 255
-0.276043 -0.478393   1.32775 255 255 255
-0.649867 -0.416638    1.1917 255 255 255
-0.668665 -0.463934   1.08816 255 255 255
0.0783882 -0.428631   1.39305 255 255 255
-0.377566 -0.260932   1.35411 255 255 255
0.0255964  -0.54432   1.31419 255 255 255
 0.112548 -0.443513   1.41963 255 255 255
 0.136788 -0.333296   1.45865 255 255 255
0.0188493 -0.423522   1.43074 255 255 255
0.0968009 -0.426688   1.36137 255 255 255
-0.556768 -0.507713   1.15053 255 255 255
-0.101404 -0.273214   1.54489 255 255 255
-0.563906 -0.462186   1.14119 255 255 255
0.0654254 -0.583815   1.26218 255 255 255
0.252252 -0.41788  1.44168 255 255 255
-0.0513229  -0.368316    1.54488 255 255 255
-0.524337 -0.546728   1.19908 255 255 255
 0.190788 -0.375313    1.3953 255 255 255
 0.246434 -0.504878   1.24638 255 255 255
-0.372184 -0.253466   1.36008 255 255 255
-0.190586 -0.596304   1.21266 255 255 255
 0.275512 -0.376916   1.20377 255 255 255
-0.611845 -0.442319   1.21275 255 255 255
-0.290046 -0.483795   1.31757 255 255 255
-0.455807 -0.467646   1.17434 255 255 255
-0.247282 -0.329424   1.38095 255 255 255
 0.251377 -0.397485   1.22734 255 255 255
-0.0572226  -0.267879    1.57829 255 255 255
-0.262519 -0.310647   1.72405 255 255 255
 0.162507 -0.573201   1.31193 255 255 255
0.172551 -0.56879  1.22874 255 255 255
-0.430173 -0.402852   1.28542 255 255 255
 -0.15391 -0.321617   1.48057 255 255 255
-0.358548 -0.262865   1.38386 255 255 255
 0.145373 -0.456014   1.36767 255 255 255
0.0279876 -0.395967   1.46319 255 255 255
-0.0115994  -0.335342    1.57529 255 255 255
-0.142224 -0.315674   1.51527 255 255 255
 0.235134 -0.431145   1.31719 255 255 255
-0.459171 -0.328307   1.81233 255 255 255
-0.047504 -0.265102   1.50558 255 255 255
-0.00169507   -0.419407     1.47154 255 255 255
0.0190171 -0.452253   1.41211 255 255 255
 0.199937 -0.527447   1.25028 255 255 255
-0.287571 -0.318368   1.75083 255 255 255
0.0530665 -0.300413   1.61517 255 255 255
-0.724183 -0.486063   1.13409 255 255 255
0.0469137 -0.132187   1.64946 255 255 255
-0.0442597  -0.183442    1.60996 255 255 255
-0.120827  -0.23413   1.63574 255 255 255
0.0373866 -0.199418    1.6075 255 255 255
 0.346424 -0.277349   1.72171 255 255 255
-0.172363 -0.125601   1.52626 255 255 255
-0.0706477 -0.0502094    1.59212 255 255 255
 0.409768 -0.264123   1.82994 255 255 255
 0.259753 -0.346209   1.75068 255 255 255
-0.161349 -0.222037   1.62618 255 255 255
-0.0625807  -0.053644      1.606 255 255 255
0.124134 -0.10392  1.63459 255 255 255
  -0.13051 -0.0453795    1.56515 255 255 255
 -0.112075 -0.0999676    1.58641 255 255 255
-0.197871 -0.108966   1.60053 255 255 255
-0.255194 -0.351619   1.72821 255 255 255
-0.0494346 -0.0988555    1.61226 255 255 255
-0.0872856  -0.110699    1.58999 255 255 255
-0.0560248  -0.269758    1.62871 255 255 255
 0.389187 -0.264856   1.70877 255 255 255
 0.0741686 -0.0833625    1.66306 255 255 255
-0.0200116  -0.271818    1.58608 255 255 255
-0.0798301  -0.270109     1.6408 255 255 255
 -0.21325 -0.289299   1.47096 255 255 255
 0.0569466 -0.0914299    1.58098 255 255 255
 -0.117577 -0.0495618    1.57013 255 255 255
-0.0656703 -0.0366124    1.58444 255 255 255
 0.0810472 -0.0904746    1.66733 255 255 255
-0.0461997   -0.12848    1.60351 255 255 255
-0.0240139 -0.0865849    1.61052 255 255 255
-0.390415 -0.280458   1.74282 255 255 255
0.0389678 -0.223881   1.61812 255 255 255
0.262879 -0.29752   1.7398 255 255 255
-0.440913 -0.334668   1.80612 255 255 255
-0.218811 -0.109611   1.60512 255 255 255
0.0581128 -0.150069   1.61671 255 255 255
-0.215881 -0.210478   1.63424 255 255 255
 0.255548 -0.258823   1.72153 255 255 255
-0.179028 -0.218946    1.6475 255 255 255
0.0939221 -0.128678   1.61298 255 255 255
-0.131616 -0.109268    1.5915 255 255 255
-0.138154 -0.218479   1.54013 255 255 255
-0.177035 -0.275222   1.67353 255 255 255
-0.194191 -0.177248   1.50828 255 255 255
-0.0216134  -0.255066     1.5991 255 255 255
-0.234679 -0.183596   1.62102 255 255 255
  0.23005 -0.279268   1.67159 255 255 255
-0.372582 -0.330474    1.7571 255 255 255
0.0523035 -0.260815   1.53852 255 255 255
  0.33867 -0.174704   1.77613 255 255 255
 0.407568 -0.272972   1.81783 255 255 255
0.0636277 -0.263662   1.65221 255 255 255
 -0.133414 -0.0927769    1.56224 255 255 255
-0.0944477  -0.273778    1.53316 255 255 255
 0.121349 -0.112584   1.66658 255 255 255
-0.0490637   -0.13912    1.59944 255 255 255
-0.0143107    -0.2114    1.60696 255 255 255
-0.0826689  -0.314747     1.6547 255 255 255
 -0.155857 -0.0324919     1.5844 255 255 255
  -0.15155 -0.0772748    1.58653 255 255 255
 -0.196317 -0.0424825    1.53691 255 255 255
-0.0833185 -0.0700077    1.58697 255 255 255
 0.268634 -0.321758   1.69097 255 255 255
 0.235874 -0.237688   1.70551 255 255 255
 0.420728 -0.288385    1.8428 255 255 255
-0.0191647  -0.094963    1.55416 255 255 255
 0.129924 -0.111765   1.64426 255 255 255
 0.296618 -0.305071   1.75942 255 255 255
-0.0258305  -0.278216    1.53041 255 255 255
-0.109619 -0.198974   1.61883 255 255 255
 0.326618 -0.335166    1.7924 255 255 255
-0.0211883  -0.310837    1.66181 255 255 255
 0.421058 -0.262788    1.8347 255 255 255
0.0539859 -0.187136   1.61827 255 255 255
 0.391735 -0.338838   1.83207 255 255 255
-0.0983058 -0.0923083    1.58548 255 255 255
-0.0723442 -0.0794638    1.59088 255 255 255
 0.069896 -0.197208   1.62646 255 255 255
0.0790508 -0.118599   1.61725 255 255 255
-0.135253  -0.10025    1.5894 255 255 255
-0.153689 -0.154875   1.60329 255 255 255
-0.0862045  -0.116089    1.58336 255 255 255
 0.236285 -0.295004   1.70906 255 255 255
 -0.119626 -0.0699189    1.57958 255 255 255
-0.217684 -0.233479   1.64195 255 255 255
-0.046268 -0.259057   1.59184 255 255 255
 0.253786 -0.217126   1.70846 255 255 255
 0.272599 -0.366701   1.76438 255 255 255
 -0.141056 -0.0670991    1.59145 255 255 255
 0.107497 -0.118781   1.67366 255 255 255
 0.395704 -0.247682   1.81327 255 255 255
-0.796501 0.0557637   1.43334 255 255 255
-0.165668  0.194956   1.49309 255 255 255
 -0.588658 -0.0234484    1.11768 255 255 255
0.0797053 -0.144139   1.65661 255 255 255
-0.49903 0.128899  1.34537 255 255 255
 0.0512962 -0.0979576    1.65575 255 255 255
-0.0123349  -0.198334    1.59858 255 255 255
 -0.578524 -0.0651428    1.16896 255 255 255
-0.102011 -0.331755   1.53343 255 255 255
 0.0288252 -0.0799173    1.65487 255 255 255
-0.390366  0.160773   1.40219 255 255 255
0.0661517   -0.1716    1.6145 255 255 255
-0.283861  0.217251   1.45176 255 255 255
-0.0148073  0.0114101     1.6426 255 255 255
-0.462037  0.162076   1.35968 255 255 255
0.0730278 -0.223884   1.58375 255 255 255
-0.0431075  -0.181329     1.6655 255 255 255
 -1.04563 0.0665886   1.62241 255 255 255
-0.0448325 -0.0172513    1.58978 255 255 255
  0.120216 -0.0535826    1.68747 255 255 255
 0.0489808 -0.0906867    1.61212 255 255 255
-0.494316 0.0701634   1.30179 255 255 255
  0.14036 -0.040522   1.69262 255 255 255
-0.732516  0.133584   1.40508 255 255 255
-0.356453  0.167851   1.42126 255 255 255
  0.131384 -0.0717811    1.64773 255 255 255
 0.127313 -0.180193   1.66484 255 255 255
0.00448191  0.0271893    1.56046 255 255 255
-0.0824394  -0.011821    1.58859 255 255 255
-0.0532069  0.0257528    1.59685 255 255 255
-0.194071  0.180868      1.47 255 255 255
-0.360108  0.185019   1.42622 255 255 255
0.0304267 -0.127086     1.573 255 255 255
-0.41074 0.165152   1.3892 255 255 255
-0.396631  0.175317   1.39548 255 255 255
-0.446339  0.114691   1.34686 255 255 255
    0.023613 -0.000834699      1.65875 255 255 255
-0.462509  0.185794   1.35128 255 255 255
-0.267326 -0.345303   1.36586 255 255 255
0.0955316 -0.026516   1.61002 255 255 255
-0.432791  0.140562   1.36334 255 255 255
0.0126856 0.0135361    1.5622 255 255 255
-0.0701215  -0.336172    1.54261 255 255 255
-0.0247898  -0.364476    1.55055 255 255 255
-0.472282  0.151467   1.31431 255 255 255
 -0.611837 -0.0602509    1.13824 255 255 255
-0.439414  0.136971   1.36025 255 255 255
-0.0172937  0.0449066    1.55501 255 255 255
0.0602143 -0.302081   1.61675 255 255 255
 -0.0649418 -0.00387186     1.59594 255 255 255
 0.078099 -0.247424   1.55815 255 255 255
   0.103143 -0.00790818     1.66657 255 255 255
 0.024952 -0.228262   1.62051 255 255 255
-0.298676  0.128598   1.46458 255 255 255
-0.483328  0.059762   1.32083 255 255 255
0.0931467 0.0329109    1.6615 255 255 255
-0.45165 0.180172  1.36005 255 255 255
-0.399739  0.142373   1.40009 255 255 255
-0.731641  0.122476   1.38232 255 255 255
-0.298324  0.219864   1.44103 255 255 255
-0.138216 -0.189955   1.54557 255 255 255
-0.0340261  0.0288666     1.6102 255 255 255
-0.0549605 -0.0371338    1.58648 255 255 255
-0.210016  0.238746    1.4921 255 255 255
0.0697389 -0.141623   1.65736 255 255 255
-0.547257 0.0377663   1.23994 255 255 255
-0.0252223  -0.338978    1.56483 255 255 255
-0.430117  0.106329   1.36987 255 255 255
-0.00736438   0.0536056     1.64242 255 255 255
   -1.17576 -0.00167219     1.73872 255 255 255
-0.0689239 -0.0440635     1.7259 255 255 255
-0.0799693  -0.122427    1.59901 255 255 255
0.0711262 0.0233036   1.65312 255 255 255
  0.130174 -0.0343206    1.68743 255 255 255
-0.0257846   -0.21858    1.60108 255 255 255
 -0.523319 -0.0588049    1.21283 255 255 255
-0.414972  0.140401   1.39407 255 255 255
-0.118327  -0.34306   1.51898 255 255 255
 0.0593467 -0.0668914    1.60444 255 255 255
-0.409332  0.145326   1.39566 255 255 255
-0.410136  0.156354    1.3915 255 255 255
-1.05287 0.061911   1.6788 255 255 255
-0.400185  0.122888   1.40659 255 255 255
-0.0833401  -0.117055    1.59368 255 255 255
0.00659404   -0.36987    1.47128 255 255 255
-0.0341069  -0.193164    1.65245 255 255 255
-0.454993  0.114502   1.33967 255 255 255
-0.0100159  -0.227222    1.60727 255 255 255
-0.0648152  -0.148174    1.59402 255 255 255
-0.265842 -0.392662   1.40443 255 255 255
-0.0438145  0.0259289    1.60555 255 255 255
0.0449783 0.0168846   1.57691 255 255 255
   0.078906 -0.00677228     1.67798 255 255 255
 -0.562856 -0.0704146    1.20309 255 255 255
 0.0853424 -0.0304388    1.61046 255 255 255
-0.152886 -0.182608   1.53147 255 255 255
  -0.628976 -0.00839939     1.12764 255 255 255
-0.379006  0.167155   1.40888 255 255 255
-0.0299324   -0.31997    1.56916 255 255 255
0.00899589  -0.149182    1.66898 255 255 255
-0.444607  0.146385   1.34859 255 255 255
-0.0649159 0.00713944    1.59226 255 255 255
 -0.23755 -0.364713   1.36767 255 255 255
-0.489598  0.148564   1.29594 255 255 255
 -0.850782 -0.0361085    1.57582 255 255 255
  -0.0744547 -0.000975272      1.59119 255 255 255
-0.427604  0.187294   1.37249 255 255 255
-0.245022 -0.343267    1.4395 255 255 255
0.0377769  -0.29733    1.6573 255 255 255
 0.116003 -0.187712   1.65983 255 255 255
-0.183943  0.248441    1.5077 255 255 255
0.0747273 -0.190303   1.65108 255 255 255
0.0857666 -0.181414   1.62746 255 255 255
-0.0613048 -0.0304743    1.59819 255 255 255
-0.0798005  -0.237516    1.58938 255 255 255
-0.532573  0.128838   1.24374 255 255 255
-0.344385 -0.352887   1.35363 255 255 255
-0.282192 -0.296309   1.42173 255 255 255
 0.120122 -0.191644   1.65771 255 255 255
-0.377155  0.220797   1.41493 255 255 255
 0.0365403 -0.0912875    1.68766 255 255 255
-0.0373499  -0.370276    1.54579 255 255 255
0.0785612 -0.263773   1.55018 255 255 255
0.0428392  0.029687   1.64167 255 255 255
-0.396216  0.134099   1.40489 255 255 255
0.0846189 -0.412468   1.40987 255 255 255
-0.277291  -0.25016   1.45712 255 255 255
-0.393781  0.130497   1.43272 255 255 255
-0.0803143 -0.0821496    1.60102 255 255 255
-0.274949  -0.32788    1.4246 255 255 255
-0.0307585 -0.0112409    1.54226 255 255 255
-0.0739473 -0.0663223     1.5989 255 255 255
-0.415461  0.149637   1.39141 255 255 255
-0.350611  0.186555   1.42015 255 255 255
-0.0575652  -0.200063    1.59155 255 255 255
-0.0970682  -0.335603    1.53056 255 255 255
-0.516258 -0.294808   1.12806 255 255 255
-0.678375 -0.386306   1.21522 255 255 255
0.0371474 -0.409051   1.43462 255 255 255
 -0.22936 -0.472311   1.41322 255 255 255
 0.231288 -0.559732   1.20316 255 255 255
0.239829 -0.54197  1.19525 255 255 255
-0.105722 -0.336446   1.68814 255 255 255
 0.240577 -0.533883   1.20365 255 255 255
-0.630541 -0.468174   1.17708 255 255 255
-0.403678 -0.256969   1.33084 255 255 255
 0.233967 -0.454183   1.31104 255 255 255
-0.127495 -0.587272   1.24502 255 255 255
  0.11017 -0.385571   1.61087 255 255 255
-0.145053 -0.285166   1.65428 255 255 255
-0.536581 -0.325631   1.25046 255 255 255
   0.2031 -0.471298   1.29787 255 255 255
-0.414971 -0.331504   1.31266 255 255 255
-0.494721 -0.494146   1.21444 255 255 255
-0.638636 -0.475192   1.05997 255 255 255
 0.220619 -0.416105   1.29654 255 255 255
-0.104951 -0.575306    1.2748 255 255 255
-0.566518 -0.514157   1.13612 255 255 255
 0.139724 -0.525723   1.29846 255 255 255
-0.425646 -0.537722   1.14009 255 255 255
0.231702 -0.60162  1.16535 255 255 255
-0.388886 -0.460298   1.30274 255 255 255
-0.555244 -0.532679   1.18548 255 255 255
 0.132354 -0.259369   1.48376 255 255 255
-0.638377 -0.393287   1.20522 255 255 255
-0.0123848  -0.214653    1.59023 255 255 255
 0.10826 -0.40875   1.3956 255 255 255
-0.512284 -0.509039   1.18663 255 255 255
 0.243605 -0.559489   1.19225 255 255 255
  0.12499 -0.594627   1.22921 255 255 255
 0.104265 -0.240105   1.53635 255 255 255
 0.017008 -0.386239   1.45728 255 255 255
-0.536493 -0.458286   1.17141 255 255 255
0.0964909 -0.371857   1.42176 255 255 255
 0.180111 -0.329712   1.66173 255 255 255
-0.575617 -0.524768   1.16974 255 255 255
 0.130785 -0.557186   1.26943 255 255 255
 0.177364 -0.589938   1.22446 255 255 255
0.0350683 -0.450082   1.36628 255 255 255
-0.000506143    -0.567771      1.29387 255 255 255
-0.339739 -0.262002   1.38654 255 255 255
-0.114359 -0.341072     1.682 255 255 255
-0.266068 -0.231707   1.44873 255 255 255
 0.144578 -0.473477   1.36094 255 255 255
 -0.19357 -0.241688   1.49963 255 255 255
 0.136266 -0.249309     1.658 255 255 255
-0.0126053  0.0560324    1.61743 255 255 255
 0.183994 -0.166642   1.68223 255 255 255
 -0.114157 -0.0790482    1.56127 255 255 255
-0.314081 -0.170558    1.4846 255 255 255
-0.336214 -0.106964     1.471 255 255 255
 0.151974 0.0288995   1.68516 255 255 255
-0.237677 -0.168138   1.52027 255 255 255
-0.0398736 -0.0489463    1.60605 255 255 255
-0.187031 -0.116139    1.5445 255 255 255
 -0.161858 -0.0583095    1.55472 255 255 255
 -0.280747 -0.0763764    1.49951 255 255 255
-0.248318 0.0407157   1.50797 255 255 255
-0.399106 -0.119363   1.44029 255 255 255
-0.0923914  -0.267315    1.55963 255 255 255
-0.43599 0.148023   1.3799 255 255 255
-0.0706542 -0.0178657    1.59341 255 255 255
-0.507464   0.14484   1.26956 255 255 255
 -0.265625 -0.0159286    1.50171 255 255 255
 0.193041 -0.116239   1.69223 255 255 255
-0.489526 0.0165733    1.3699 255 255 255
-0.249688  0.103317   1.50047 255 255 255
0.0396405 0.0515989   1.63718 255 255 255
-0.301212  -0.12128   1.48993 255 255 255
-0.276634 -0.178726   1.50091 255 255 255
 0.191083 -0.238354   1.67529 255 255 255
-0.430179 -0.158037   1.42664 255 255 255
-0.266759 -0.215811   1.50748 255 255 255
-0.517206  0.107697   1.26735 255 255 255
 -0.129589 -0.0229738     1.5671 255 255 255
-0.357336 0.0421998   1.44744 255 255 255
-0.100859 -0.036635   1.58371 255 255 255
-0.258661 0.0755045   1.49244 255 255 255
 0.0322402 -0.0339275    1.63647 255 255 255
-0.00944656   -0.164477     1.60722 255 255 255
-0.261402 -0.448616   1.40412 255 255 255
-0.215881  0.137962   1.50832 255 255 255
-0.200722  0.105735   1.52134 255 255 255
-0.157202  0.124308   1.54117 255 255 255
-0.352288  0.137752   1.43797 255 255 255
-0.483687 -0.160081   1.40272 255 255 255
 -0.24909 -0.045515   1.51317 255 255 255
-0.0478621  -0.371291    1.53851 255 255 255
-0.194738 -0.129061   1.60526 255 255 255
-0.0894774  0.0991789    1.57825 255 255 255
 0.362611 -0.191555   1.72673 255 255 255
  -0.34417 -0.0840697    1.46937 255 255 255
-0.439874   -0.1119   1.40933 255 255 255
0.0648754 -0.124087   1.65854 255 255 255
-0.0148073  0.0114101     1.6426 255 255 255
  0.199118 -0.0468057    1.70194 255 255 255
 -0.156476 -0.0114455    1.55958 255 255 255
 -0.395016 -0.0618797    1.43461 255 255 255
 0.152314 -0.313598   1.65274 255 255 255
  0.143742 -0.0513636    1.63257 255 255 255
 -0.491978 -0.0306328    1.37913 255 255 255
-0.0684569  0.0945756    1.58824 255 255 255
-0.092301 0.0239093   1.58006 255 255 255
-0.182489 0.0799811    1.5407 255 255 255
 0.223188 0.0112619   1.71827 255 255 255
-0.101361 0.0730693   1.57568 255 255 255
-0.168941 0.0426749   1.54067 255 255 255
-0.289965 0.0645349   1.47848 255 255 255
 0.028447 -0.256751   1.61854 255 255 255
 0.106286 -0.276652    1.6454 255 255 255
 -0.38292 -0.205552   1.45544 255 255 255
-0.308454 0.0992651   1.46567 255 255 255
 -0.322971 0.00522894    1.47321 255 255 255
-0.251678 -0.188798   1.51454 255 255 255
 -0.261414 -0.0886716     1.5044 255 255 255
-0.434135 0.0502049   1.40195 255 255 255
 0.0191713 -0.0577171    1.63015 255 255 255
 0.288305 -0.026459    1.7368 255 255 255
-0.545614 -0.472363   1.16692 255 255 255
-0.136984 -0.179131   1.55721 255 255 255
-0.410199 0.0191396   1.43317 255 255 255
  0.246542 -0.0412749    1.71826 255 255 255
 -0.572656 -0.0543101    1.19624 255 255 255
-0.111368  0.121174   1.56428 255 255 255
0.178853 -0.26298  1.67073 255 255 255
 0.168275 0.0498046   1.69103 255 255 255
-0.453891 0.0969797   1.34164 255 255 255
  0.333009 -0.0305685    1.75572 255 255 255
 0.337263 -0.158865   1.74193 255 255 255
-0.18354 0.154632  1.52555 255 255 255
  -0.49443 -0.0802177    1.38676 255 255 255
 -0.374025 -0.0601613    1.44556 255 255 255
  0.123292 0.00148478    1.68727 255 255 255
-0.242156 0.0691788    1.5105 255 255 255
-0.466271 0.0925628   1.37279 255 255 255
-0.424563 -0.183908   1.42963 255 255 255
-0.340469  0.115605   1.44396 255 255 255
 -0.22522 0.0615387   1.51661 255 255 255
-0.133526 -0.119955   1.55343 255 255 255
 -0.450459 -0.0603947    1.40648 255 255 255
-0.445897  0.169345   1.36722 255 255 255
 -0.12077 0.0206252    1.5721 255 255 255
0.152264 -0.33289  1.65072 255 255 255
-0.208755  0.064687    1.5233 255 255 255
-0.484643 0.0708991   1.37763 255 255 255
 -0.435331 -0.0622754    1.41209 255 255 255
-0.411998 0.0730006   1.41201 255 255 255
-0.491478  -0.45381   1.22146 255 255 255
-0.267884  0.142372   1.48007 255 255 255
-0.0850576   0.082284    1.58252 255 255 255
 0.169627 -0.240765    1.6705 255 255 255
 0.176042 0.0117988   1.68971 255 255 255
 0.235714 -0.122239   1.70848 255 255 255
-0.298388  0.089714   1.47392 255 255 255
-0.442533  0.165656   1.34489 255 255 255
0.0029594 0.0750363   1.62054 255 255 255
-0.384284 0.0711192   1.42725 255 255 255
-0.0783611  -0.035997    1.59073 255 255 255
-0.280852 0.0817343   1.48667 255 255 255
