ply
format ascii 1.0
element vertex 1115
property float x
property float y
property float z
property uchar red
property uchar green
property uchar blue
end_header
-0.665053 -0.122357   1.20453 255 255 255
 -0.532672 0.00736519   0.967623 255 255 255
0.0525804 -0.322763   1.59463 255 255 255
 0.149193 -0.162199   1.73381 255 255 255
-0.550364  0.109462    1.2958 255 255 255
-0.734908 -0.154987   1.16222 255 255 255
-0.188449 -0.422839   1.52988 255 255 255
 0.219223 -0.556619   1.13418 255 255 255
-0.349084 -0.294657   1.47507 255 255 255
 -0.275378 -0.0169966   0.963495 255 255 255
-0.531202 0.0494092   1.33933 255 255 255
-0.568951 -0.426386   1.16544 255 255 255
-0.080344 -0.117508   1.65964 255 255 255
-0.0614616  -0.204402    1.65938 255 255 255
0.0408368 -0.188067   1.70909 255 255 255
-0.197174 -0.242301   1.56846 255 255 255
 -0.28066 -0.325532   1.49526 255 255 255
-0.0733452   -0.25308    1.62226 255 255 255
-0.417822 -0.368399   1.41217 255 255 255
-0.392916 -0.321979   1.43638 255 255 255
-0.419148 -0.400088   1.17038 255 255 255
-0.668815  -0.11207   1.18316 255 255 255
 0.236789 -0.544135   1.15323 255 255 255
-0.142598 -0.117446   1.68203 255 255 255
0.0846964  -0.14091   1.69857 255 255 255
-0.210291 -0.297262   1.35879 255 255 255
 0.077734 -0.316376   1.65637 255 255 255
-0.723058 -0.175978   1.14423 255 255 255
-0.134666 -0.235369   1.59561 255 255 255
  -0.733757 -0.00246622     1.27421 255 255 255
 -0.100068 -0.0562435    1.64076 255 255 255
-0.519615 0.0701834   1.33775 255 255 255
0.242845 -0.56589  1.16287 255 255 255
-0.555231 -0.413476   1.28855 255 255 255
-0.204358 0.0740683  0.848684 255 255 255
 0.270215 -0.173256    1.7222 255 255 255
 -0.317221 0.00124095    1.06322 255 255 255
-0.546941  0.103208   1.31023 255 255 255
 -0.634705 -0.0476925    1.23124 255 255 255
 -0.47995 -0.385792   1.18584 255 255 255
 -0.144436 -0.0808464    1.68843 255 255 255
-0.013975 -0.391502   1.60783 255 255 255
 -0.58262 -0.414852   1.10232 255 255 255
-0.49731 -0.39503  1.17045 255 255 255
0.0423193 -0.365924   1.63541 255 255 255
-0.585997 0.0950528   1.25628 255 255 255
0.0178188 -0.113084   1.68818 255 255 255
-0.682926  0.151299   1.28354 255 255 255
-0.201931 -0.280432   1.37439 255 255 255
 0.089348 -0.239605   1.69001 255 255 255
-0.0412209  -0.137063    1.66389 255 255 255
-0.0456211  -0.153692    1.65635 255 255 255
-0.384514 -0.451086   1.40383 255 255 255
-0.647744 0.0480429   1.34704 255 255 255
-0.129198 -0.346056   1.56713 255 255 255
0.0569582 -0.142855   1.71534 255 255 255
-0.444002 -0.369013   1.37622 255 255 255
-0.184773 -0.231715   1.59359 255 255 255
 0.138314 -0.327111   1.76338 255 255 255
-0.516949 0.0109791   1.34884 255 255 255
-0.713652 0.0351231    1.2829 255 255 255
-0.708381 0.0800911   1.36778 255 255 255
-0.479517 -0.308641   1.19009 255 255 255
 -0.633282 -0.0980219    1.08685 255 255 255
-0.600965 0.0153731   1.25634 255 255 255
 -0.566124 -0.0272476    1.30433 255 255 255
-0.00263876   -0.160151     1.67623 255 255 255
-0.181452 -0.238879   1.72362 255 255 255
-0.0568482  -0.178897    1.70497 255 255 255
-0.147452 -0.140274   1.61011 255 255 255
-0.330474 -0.448714   1.45083 255 255 255
 -0.622245 -0.0251887    1.23986 255 255 255
 0.111919 -0.212784   1.69756 255 255 255
 -0.53278 -0.133989  0.862888 255 255 255
-0.535294  0.108651   1.31971 255 255 255
 0.135718 -0.396785   1.65927 255 255 255
 -0.608272 -0.0253376      1.261 255 255 255
-0.580504 -0.102068   1.01708 255 255 255
  -0.630376 -0.00175045     1.27036 255 255 255
-0.250817 -0.374437   1.85966 255 255 255
0.0216574 -0.133462   1.70121 255 255 255
-0.669624  -0.18086    1.1663 255 255 255
-0.151681 -0.424309   1.54604 255 255 255
 -0.53111 -0.135633    0.8362 255 255 255
-0.648159  0.179438   1.17178 255 255 255
 -0.664229 -0.0741365     1.1733 255 255 255
 0.0178062 -0.0785582    1.63993 255 255 255
0.0385325 -0.273199   1.59392 255 255 255
-0.123041 -0.128024   1.68913 255 255 255
0.0900957 -0.166423   1.71429 255 255 255
-0.601176 0.0780875   1.37083 255 255 255
-0.659578 -0.304849   1.03699 255 255 255
-0.603313  0.102854    1.2175 255 255 255
-0.235386 -0.322181   1.29275 255 255 255
  -0.71262 -0.0711129    1.23753 255 255 255
-0.325244 -0.402794   1.06179 255 255 255
-0.0535064  -0.387124    1.58704 255 255 255
0.0672875 -0.276703   1.65938 255 255 255
 -0.637567 -0.0916917    1.06551 255 255 255
 -0.561096 -0.0125537    1.30225 255 255 255
 0.331899 -0.274588   1.75349 255 255 255
-0.487187  -0.22691  0.922082 255 255 255
 -0.101269 -0.0859279    1.64208 255 255 255
  -0.70044 -0.0418482    1.28651 255 255 255
-0.0840697  -0.206773    1.73889 255 255 255
-0.141173  -0.28338   1.57129 255 255 255
-0.049885 -0.262266   1.65151 255 255 255
 -0.686468 -0.0181024    1.31386 255 255 255
-0.457986 -0.436766    1.3759 255 255 255
 -0.650166 -0.0641757     1.1784 255 255 255
-0.533063 0.0630062   1.32627 255 255 255
 -0.60174 0.0725609   1.24153 255 255 255
-0.0346568  -0.264002    1.77484 255 255 255
 0.351695 -0.301598   1.71377 255 255 255
 -0.630936 -0.0215733    1.22808 255 255 255
 0.104211 -0.115268   1.71747 255 255 255
-0.475076 -0.387969   1.19492 255 255 255
 -0.729345 0.00976371     1.2886 255 255 255
-0.533944 -0.128805  0.899528 255 255 255
-0.239686 0.0120973   0.95459 255 255 255
-0.0900127  -0.324979     1.5893 255 255 255
 -0.15318 -0.103815   1.70673 255 255 255
-0.148844 -0.131224   1.70657 255 255 255
-0.431583 -0.385532   1.40084 255 255 255
-0.262664 -0.316043   1.51508 255 255 255
0.0305964 -0.206284   1.68691 255 255 255
 0.268619 -0.275799     1.739 255 255 255
0.0340018 -0.210818   1.64777 255 255 255
-0.0920385  -0.195304    1.62291 255 255 255
 -0.40383 -0.302215   1.43045 255 255 255
 -0.566264 -0.0230739    1.37706 255 255 255
-0.253985  -0.28955   1.20086 255 255 255
-0.203173 -0.204369     1.569 255 255 255
-0.123929 -0.176761   1.61732 255 255 255
-0.141634 -0.167901   1.61204 255 255 255
-0.180707 -0.173593   1.70283 255 255 255
0.0795484 -0.223223   1.69091 255 255 255
-0.160184 -0.263073   1.57464 255 255 255
0.00500203  -0.351966    1.62785 255 255 255
-0.0970917  -0.369564    1.81191 255 255 255
-0.503531  0.107106   1.35697 255 255 255
-0.550178 0.0052662   1.38999 255 255 255
-0.216186 -0.344749   1.25047 255 255 255
-0.106671 -0.199564    1.5695 255 255 255
 -0.658383 -0.0619556    1.06098 255 255 255
-0.637458  0.170893   1.16678 255 255 255
-0.259969 -0.280823   1.19771 255 255 255
-0.680897 0.0240493   1.33879 255 255 255
0.0530175 -0.104543    1.7093 255 255 255
-0.0253138  -0.142763    1.66386 255 255 255
-0.522028 -0.250925  0.714217 255 255 255
-0.693535 -0.206843   1.16138 255 255 255
-0.716455 -0.244723   1.09818 255 255 255
-0.661155  0.110221   1.26457 255 255 255
  -0.740334 -0.00781057     1.27638 255 255 255
-0.591406 0.0496294   1.26037 255 255 255
0.0493595 -0.257247    1.6775 255 255 255
-0.050513 -0.442027   1.55567 255 255 255
   -0.6152 -0.0286624    1.25175 255 255 255
0.0840902 -0.269142   1.72898 255 255 255
-0.316789 -0.498957    1.1648 255 255 255
-0.707695 -0.187564   1.11356 255 255 255
0.00648211  -0.132061    1.68153 255 255 255
 0.209374 -0.359068   1.67829 255 255 255
-0.0450218  -0.178805     1.6601 255 255 255
-0.190216  -0.15863   1.71897 255 255 255
-0.573295 0.0854116   1.27619 255 255 255
 -0.621699 -0.0465693    1.35668 255 255 255
0.0893446 -0.150177   1.72783 255 255 255
-0.168916 -0.313942   1.54596 255 255 255
0.208497 -0.13601  1.74663 255 255 255
 -0.655352 -0.0962242    1.18846 255 255 255
0.0109371 -0.286456   1.64675 255 255 255
-0.134632 -0.140252   1.61599 255 255 255
-0.549785  0.038816   1.31705 255 255 255
 -0.584404 -0.0202034    1.27417 255 255 255
-0.593537  0.049884   1.37925 255 255 255
-0.722163  -0.22174   1.08383 255 255 255
-0.501384 0.0133384   1.37023 255 255 255
-0.623495 0.0567545   1.18675 255 255 255
0.0992044 -0.108247   1.72266 255 255 255
 -0.598018 -0.0481923    1.28064 255 255 255
-0.213941 -0.131966    1.6975 255 255 255
-0.538797 0.0917703   1.32429 255 255 255
-0.338609 -0.486527   1.14891 255 255 255
 0.237369 -0.585795     1.163 255 255 255
0.0258767 -0.287483   1.65538 255 255 255
-0.170141 -0.296201   1.37485 255 255 255
-0.178823 -0.160602    1.7009 255 255 255
-0.670026 0.0463434   1.37125 255 255 255
 -0.703229 -0.0210829    1.30455 255 255 255
 0.092984 -0.269765   1.68468 255 255 255
-0.558652 0.0442938   0.97864 255 255 255
-0.0681886  -0.396599    1.57292 255 255 255
 -0.636234 -0.0259776    1.20794 255 255 255
  -0.5309 -0.450135   1.31679 255 255 255
 -0.04177 -0.386544   1.55048 255 255 255
-0.213768 -0.511054   1.11116 255 255 255
-0.372701 -0.322471   1.75495 255 255 255
-0.306088 -0.363821   1.47882 255 255 255
  -0.490415 -0.00374731     1.37418 255 255 255
-0.449389 -0.328189   1.40157 255 255 255
-0.622221 0.0661766   1.41291 255 255 255
 0.316833 -0.259917   1.75476 255 255 255
0.0729314 -0.276063   1.78479 255 255 255
-0.667646 0.0691931   1.40375 255 255 255
 -0.620815 -0.0264837    1.32266 255 255 255
-0.532233   0.10023   1.31128 255 255 255
  -0.498909 -0.00390062     1.36772 255 255 255
0.0382516 -0.350053   1.61163 255 255 255
-0.0371924  -0.144424    1.69541 255 255 255
-0.00250501  -0.0945192     1.69126 255 255 255
  -0.71838 -0.0627482    1.28191 255 255 255
-0.493117 0.0650524   1.37757 255 255 255
-0.587765 0.0819281   1.24883 255 255 255
-0.647821 0.0637341   1.17956 255 255 255
 -0.693551 0.00126219    1.23949 255 255 255
-0.717876 -0.246957   1.07202 255 255 255
-0.727365 -0.199801   1.12007 255 255 255
  0.25327 -0.595629   1.18344 255 255 255
-0.536625 -0.427066   1.14039 255 255 255
 -0.631405 -0.0957273     1.0392 255 255 255
-0.717635  -0.15644   1.17923 255 255 255
 -0.663713 0.00384029    1.16727 255 255 255
-0.602978 0.0897849    1.2225 255 255 255
 -0.695969 -0.0755972    1.28996 255 255 255
 -0.762103 -0.0131118      1.268 255 255 255
-0.0790855 -0.0641553     1.6554 255 255 255
-0.472763 0.0591658   1.47608 255 255 255
0.0145394 -0.202025    1.6745 255 255 255
 -0.65171 0.0595225   1.42589 255 255 255
0.0990645 -0.252714   1.59981 255 255 255
 -0.41798 -0.372022   1.19031 255 255 255
-0.509989 0.0666884   1.35949 255 255 255
-0.548003 -0.125836  0.861745 255 255 255
-0.518526 0.0562181   1.50556 255 255 255
-0.740217 -0.106309    1.2449 255 255 255
0.0307922 -0.108702   1.69716 255 255 255
 0.347555 -0.316114   1.75679 255 255 255
-0.532265 0.0889226   1.33048 255 255 255
-0.122301 -0.177376   1.47407 255 255 255
 -0.52682 -0.138262  0.841266 255 255 255
-0.631253 0.0580697   1.35473 255 255 255
0.0105247 -0.119203   1.71113 255 255 255
-0.624682 0.0301786   1.18344 255 255 255
-0.0999935 -0.0718478    1.64397 255 255 255
-0.143687 -0.259786    1.5767 255 255 255
 -0.180897 -0.0998026    1.69061 255 255 255
 0.114013 -0.177223   1.70088 255 255 255
 0.360609 -0.274553   1.87193 255 255 255
-0.540569 0.0910764   1.30494 255 255 255
 -0.579214 -0.0347562    1.29025 255 255 255
-0.396262  -0.33039   1.42896 255 255 255
  0.10805 -0.544847   1.06779 255 255 255
-0.129892 -0.166595   1.61416 255 255 255
-0.651371 -0.111065   1.19165 255 255 255
-0.204487 -0.115659   1.70594 255 255 255
-0.105797 -0.231306   1.58071 255 255 255
 -0.54783 -0.118565  0.953676 255 255 255
-0.298149 -0.299029   1.48275 255 255 255
 -0.569376 0.00122659    1.29037 255 255 255
-0.691701 -0.121866   1.24591 255 255 255
-0.359282 -0.247642   1.44978 255 255 255
 0.319443 -0.270472   1.83693 255 255 255
 0.246983 -0.613075   1.18129 255 255 255
-0.150582 -0.193622   1.70863 255 255 255
-0.668045 -0.015775   1.31393 255 255 255
 0.312735 -0.333059   1.74468 255 255 255
  -0.778799 -0.00930083     1.30109 255 255 255
-0.0365569  -0.364133    1.59735 255 255 255
-0.503076 -0.442663   1.34221 255 255 255
0.0218342 -0.361417   1.62245 255 255 255
-0.556407 -0.037617   1.30828 255 255 255
-0.00976059   -0.179044     1.70879 255 255 255
-0.611498 0.0517254   1.21624 255 255 255
-0.329558  -0.28888   1.48266 255 255 255
0.0566689 -0.390558   1.62974 255 255 255
-0.622159   0.14484   1.16475 255 255 255
-0.875788  0.194553   1.57284 255 255 255
0.00474143  -0.201547     1.6747 255 255 255
-0.604097  0.123166   1.36106 255 255 255
 -0.706273 -0.0332137    1.28237 255 255 255
-0.191078 -0.325984   1.53951 255 255 255
 0.177703 -0.554739    1.0919 255 255 255
0.0268133 -0.272127   1.66119 255 255 255
 -0.713717 -0.0133726    1.27696 255 255 255
  0.10963 -0.279356   1.76299 255 255 255
-0.310637 -0.295016   1.49157 255 255 255
 -0.616356 -0.0112421    1.23107 255 255 255
-0.273021 -0.246267   1.51087 255 255 255
  -0.642923 -0.00110288     1.19903 255 255 255
-0.517207 0.0876761   1.54853 255 255 255
 0.127219 -0.174869   1.70688 255 255 255
-0.0849027  -0.306762     1.5581 255 255 255
 -0.659403 -0.0307857    1.17535 255 255 255
 -0.752202 -0.0144432    1.26685 255 255 255
0.0499626 -0.301491   1.66086 255 255 255
 -0.670794 -0.0854901    1.18429 255 255 255
 0.281233 -0.155638   1.74988 255 255 255
 -0.45544 -0.284662   1.19191 255 255 255
-0.724456 -0.202255   1.10582 255 255 255
 0.411937 -0.205646   1.76246 255 255 255
0.0205108 -0.203882   1.65129 255 255 255
-0.556243 0.0349443   1.31155 255 255 255
-0.717953 -0.247024   1.08489 255 255 255
 0.373282 -0.264031   1.73395 255 255 255
-0.0312262  -0.101288    1.60272 255 255 255
-0.734131 0.0577269   1.25856 255 255 255
0.0777496 -0.303124   1.75218 255 255 255
-0.499622 0.0626366   1.35525 255 255 255
-0.038692 -0.233541    1.6451 255 255 255
 -0.51207 0.0903985   1.47606 255 255 255
-0.0396957  -0.455208    1.56933 255 255 255
-0.557563 -0.438583   1.12782 255 255 255
-0.745908 -0.138036   1.21222 255 255 255
0.00345079  -0.274372    1.65326 255 255 255
-0.164164 -0.173643   1.58527 255 255 255
 0.174971 -0.391842    1.6601 255 255 255
-0.448764 -0.406669   1.16885 255 255 255
-0.0494893  -0.196821    1.64922 255 255 255
 -0.37473 -0.283482   1.43733 255 255 255
0.00515107  -0.148181    1.68812 255 255 255
0.0910113 -0.285107   1.67805 255 255 255
 0.055128 -0.209064   1.68801 255 255 255
-0.727146 -0.261148   1.07315 255 255 255
0.0923575 -0.290929   1.68079 255 255 255
-0.282347 -0.353731   1.48005 255 255 255
-0.493594 0.0788689   1.48636 255 255 255
0.0753415 -0.303022   1.66594 255 255 255
 0.318842 -0.318447    1.8694 255 255 255
0.308425 -0.25725  1.75735 255 255 255
0.0137563 -0.304401    1.6458 255 255 255
   -0.5864 -0.0444492    1.34762 255 255 255
-0.659109 0.0675674   1.34843 255 255 255
-0.138722 -0.157255    1.7014 255 255 255
-0.582287 0.0215214   1.25897 255 255 255
-0.00850732   -0.394778     1.60132 255 255 255
-0.634118 0.0859812   1.41675 255 255 255
  -0.6649 0.0482749   1.34363 255 255 255
-0.155822  -0.39411   1.44854 255 255 255
0.39955 -0.2016 1.78347 255 255 255
-0.112894 -0.312594   1.47341 255 255 255
-0.163963 -0.416707   1.54125 255 255 255
0.216863 -0.59442  1.13937 255 255 255
-0.0485937  -0.145209    1.66673 255 255 255
-0.617862  0.134453    1.1804 255 255 255
-0.207847 -0.292145   1.30427 255 255 255
0.0024828 -0.394434    1.6131 255 255 255
-0.0177945  -0.332379     1.6226 255 255 255
-0.555193 0.0731415   1.29959 255 255 255
-0.103138 -0.178236   1.52173 255 255 255
-0.407367 -0.342287    1.4234 255 255 255
-0.172661 -0.416513   1.50899 255 255 255
  0.11708 -0.255409   1.69619 255 255 255
-0.230387 -0.274309    1.2631 255 255 255
-0.695276 -0.163482    1.1813 255 255 255
 0.133863 -0.279351    1.7051 255 255 255
0.0701291  -0.21116   1.69516 255 255 255
0.0403974 -0.105644   1.70533 255 255 255
-0.467646 -0.350022   1.18773 255 255 255
 -0.709878 0.00314248    1.28328 255 255 255
  -0.545557 -0.00442903     1.46547 255 255 255
-0.0256304  -0.160806    1.66801 255 255 255
-0.114256 -0.051496   1.68737 255 255 255
 0.114313 -0.302878   1.70607 255 255 255
 0.0197816 -0.0798378    1.63309 255 255 255
 -0.619337 -0.0416985    1.28634 255 255 255
 -0.476155 -0.0433496   0.865975 255 255 255
0.223272 -0.59238  1.14438 255 255 255
 -0.608279 -0.0895506     1.0863 255 255 255
-0.074675 -0.200638   1.57104 255 255 255
 0.314777 -0.398691   1.90283 255 255 255
 -0.645439 -0.0889324    1.20631 255 255 255
 -0.493254 -0.0284021   0.878786 255 255 255
0.0788097 -0.326384   1.79842 255 255 255
-0.227234 -0.262219   1.28718 255 255 255
 -0.616441 -0.0531028    1.23993 255 255 255
0.0726482 -0.179544   1.70194 255 255 255
-0.210691 -0.319306   1.33954 255 255 255
 0.128864 -0.161844   1.72577 255 255 255
-0.212541 -0.226299   1.32477 255 255 255
-0.540894 0.0589705   1.40516 255 255 255
-0.085548 -0.290638   1.60557 255 255 255
 -0.115409 -0.0957441    1.63984 255 255 255
   0.3604 -0.282644   1.72451 255 255 255
-0.0682237  -0.334596    1.60522 255 255 255
-0.165474 -0.240572   1.73412 255 255 255
  -0.637812 -0.00539908     1.19474 255 255 255
-0.611249 0.0545566   1.44838 255 255 255
-0.645871 -0.017667    1.1979 255 255 255
 -0.574254 -0.0338579     1.3304 255 255 255
-0.350516 -0.310486   1.46739 255 255 255
 -0.673794 0.00696727    1.29978 255 255 255
0.0958469 -0.224672   1.71641 255 255 255
0.0402909 -0.213638   1.65982 255 255 255
-0.564521 0.0186833   1.10112 255 255 255
-0.431265 -0.343699   1.77663 255 255 255
 -0.503449 -0.0162044   0.874014 255 255 255
-0.0222839  -0.139776    1.67443 255 255 255
-0.229419 -0.278699   1.25903 255 255 255
 -0.551285 -0.0172767    1.32199 255 255 255
-0.030873 -0.341602   1.61388 255 255 255
-0.571601 0.0625732   1.50058 255 255 255
-0.0447736 -0.0741601    1.67102 255 255 255
 -0.671487 -0.0502489    1.10207 255 255 255
-0.0510005 -0.0935592    1.66951 255 255 255
  -0.575843 -0.00652532     1.29208 255 255 255
 -0.622778 -0.0740053    1.15913 255 255 255
-0.643126 0.0352903   1.34271 255 255 255
 -0.60742 0.0102906    1.2281 255 255 255
 -0.637311 -0.0414858     1.2202 255 255 255
 -0.60379 0.0519281   1.41905 255 255 255
 -0.758673 -0.0925961    1.24741 255 255 255
-0.209073 -0.209929   1.59188 255 255 255
-0.692046 0.0479783   1.29185 255 255 255
0.0604791 -0.192222   1.69562 255 255 255
  -0.517139 -0.00651089    0.923167 255 255 255
 -0.755469 0.00109215    1.26307 255 255 255
-0.283432 -0.340503   1.49873 255 255 255
-0.628671 0.0860442   1.15698 255 255 255
 -0.39193 -0.460244   1.39263 255 255 255
 0.122708 -0.144159   1.72347 255 255 255
0.0267094 -0.200541   1.66445 255 255 255
-0.0201962  -0.230835    1.65443 255 255 255
-0.624142   0.01524   1.22479 255 255 255
-0.680349  0.123488   1.30066 255 255 255
 0.185477 -0.132364    1.7405 255 255 255
 0.106765 -0.176725   1.71225 255 255 255
 0.292001 -0.305991   1.74345 255 255 255
-0.438146 -0.262857   1.15781 255 255 255
-0.347272 -0.351019    1.4699 255 255 255
 -0.60896 0.0396448   1.21881 255 255 255
-0.233765 -0.353211   1.52999 255 255 255
-0.147481 -0.353759   1.39758 255 255 255
-0.0173195  -0.201396    1.63073 255 255 255
-0.0739971 -0.0492751    1.65824 255 255 255
-0.488369 -0.412805   1.34145 255 255 255
0.0942498 -0.343315   1.77718 255 255 255
 -0.603654 -0.0254457    1.25816 255 255 255
 0.039343 -0.289614   1.65926 255 255 255
-0.0483119    -0.1676      1.626 255 255 255
-0.610368    0.1034   1.22156 255 255 255
-0.702492 -0.178014   1.15792 255 255 255
-0.205136 -0.322162   1.54803 255 255 255
 0.127177 -0.226821   1.72078 255 255 255
0.0246122 -0.231207   1.67244 255 255 255
  0.26585 -0.164601   1.75495 255 255 255
-0.685009  0.104454   1.35137 255 255 255
 0.209924 -0.156374   1.74272 255 255 255
 0.185504 -0.367938   1.67379 255 255 255
-0.128229 -0.239324   1.59476 255 255 255
-0.554094 0.0665931   1.40828 255 255 255
 -0.626204 -0.0223084    1.22529 255 255 255
-0.643215 -0.108814   1.20045 255 255 255
-0.701164 0.0145502   1.24247 255 255 255
 -0.29221 -0.335568   1.75515 255 255 255
-0.641463 0.0990112   1.46287 255 255 255
-0.403289 -0.404071   1.18352 255 255 255
 -0.693096 -0.0133143    1.20085 255 255 255
-0.173812 -0.166961   1.61039 255 255 255
 0.379574 -0.258222   1.76614 255 255 255
 -0.54708 0.0503497   1.31527 255 255 255
-0.581572 0.0497925   1.25443 255 255 255
-0.658981 0.0509521   1.27322 255 255 255
  -0.512859 -0.00484507     1.35389 255 255 255
-0.130533  -0.24034     1.455 255 255 255
-0.401914 -0.359457   1.40682 255 255 255
-0.255661 -0.395054    1.5026 255 255 255
-0.111935 -0.201043   1.53654 255 255 255
 -0.668878 -0.0468769    1.12311 255 255 255
-0.085913 -0.203201   1.62119 255 255 255
-0.641609  -0.49719    1.1774 255 255 255
 -0.523398 -0.0169246    1.34813 255 255 255
 -0.27084 -0.304525   1.51548 255 255 255
-0.440131 -0.333601   1.40143 255 255 255
-0.00782324   -0.211872     1.61394 255 255 255
-0.0855416 -0.0798263    1.64533 255 255 255
0.0666293 -0.152207   1.69864 255 255 255
-0.0245183  -0.269528    1.75934 255 255 255
 -0.534301 0.00238062    1.33626 255 255 255
-0.502922  0.116761   1.32439 255 255 255
-0.649763 0.0336486   1.19041 255 255 255
 -0.671892 -0.0605491    1.12326 255 255 255
0.0805191 -0.251819   1.68454 255 255 255
-0.669818 -0.526606   1.14389 255 255 255
 -0.583058 -0.0116773    1.36299 255 255 255
-0.715802 -0.300803   1.07181 255 255 255
 0.338156 -0.294872   1.85615 255 255 255
 0.262621 -0.136558   1.75001 255 255 255
-0.651116  -0.51557   1.16199 255 255 255
-0.140851 -0.155609   1.60513 255 255 255
-0.167704 -0.104452   1.70823 255 255 255
 0.396403 -0.177438   1.79027 255 255 255
-0.260097 -0.249606   1.52354 255 255 255
-0.554101     0.109   1.28282 255 255 255
-0.192684 -0.194238    1.5778 255 255 255
0.0465845 -0.191247   1.69165 255 255 255
 0.129797 -0.250578   1.69394 255 255 255
-0.711824  -0.14919   1.20673 255 255 255
-0.693875  0.119718    1.3331 255 255 255
-0.450595 -0.274913   1.18959 255 255 255
 0.246983 -0.613075   1.18129 255 255 255
 -0.40895 -0.349467   1.42155 255 255 255
 0.269475 -0.143453   1.75892 255 255 255
-0.686645  0.128775   1.27786 255 255 255
 0.126345 -0.552449   1.06808 255 255 255
0.0247594 -0.379376   1.62159 255 255 255
-0.0635824 -0.0550215    1.66182 255 255 255
 0.254819 -0.129602   1.75647 255 255 255
-0.351153 -0.273759   1.45291 255 255 255
-0.703991 0.0538951   1.25909 255 255 255
-0.0373194 -0.0608206    1.67495 255 255 255
-0.00532843   -0.191795     1.65821 255 255 255
-0.00243219   -0.333622     1.62854 255 255 255
 0.134224 -0.269945   1.70145 255 255 255
 0.329672 -0.291256   1.77518 255 255 255
-0.618937   0.10443   1.33546 255 255 255
 -0.624292 -0.0765744    1.22221 255 255 255
-0.0372475  -0.113782    1.69693 255 255 255
-0.685567 -0.188716   1.16676 255 255 255
-0.618355 -0.071194   1.23328 255 255 255
0.367591 -0.24898  1.78223 255 255 255
-0.600765  0.013551   1.37661 255 255 255
 -0.652932 -0.0182064    1.20181 255 255 255
 -0.673775 -0.0357174    1.10163 255 255 255
 0.266397 -0.146194   1.71892 255 255 255
-0.11446 -0.06814  1.68983 255 255 255
 -0.613859 -0.0638032     1.2493 255 255 255
-0.711622 -0.166176    1.1659 255 255 255
-0.157172 -0.301187   1.61307 255 255 255
 -0.594892 -0.0566308    1.28263 255 255 255
 -0.652548 -0.0608812    1.22347 255 255 255
-0.622104  0.112531   1.31496 255 255 255
-0.699926 0.0770002   1.99377 255 255 255
-0.401344  -0.28863    1.4171 255 255 255
-0.191425 -0.287669   1.33461 255 255 255
   0.3692 -0.318324   1.76042 255 255 255
-0.425698 -0.303781   1.41878 255 255 255
-0.456555 -0.410185   1.38213 255 255 255
-0.513745 0.0554779   1.35665 255 255 255
  0.14616 -0.148153   1.73178 255 255 255
-0.751186  0.113938   1.42175 255 255 255
-0.0778086  -0.215435    1.62765 255 255 255
-0.013245 -0.103071   1.67642 255 255 255
0.0963683 -0.231939   1.69942 255 255 255
-0.393892 -0.350644   1.89615 255 255 255
-0.0346926 -0.0640741    1.62783 255 255 255
-0.600207 0.0969249    1.3105 255 255 255
-0.0332199  -0.311268    1.62646 255 255 255
-0.00793092   -0.311968     1.63574 255 255 255
 0.289378 -0.288233    1.7487 255 255 255
-0.615474 0.0243572    1.3651 255 255 255
-0.503076 -0.442663   1.34221 255 255 255
-0.645031 0.0984568   1.47566 255 255 255
-0.399861 -0.302757    1.4124 255 255 255
 -0.506151 -0.0299194    1.34883 255 255 255
 -0.183274 -0.0971879    1.60948 255 255 255
 0.101948 -0.281456   1.62252 255 255 255
 0.112014 -0.297626   1.70831 255 255 255
0.00990131  -0.231854    1.65007 255 255 255
-0.151831 -0.202656   1.71472 255 255 255
-0.226312 -0.263679   1.77666 255 255 255
0.0385913  -0.19716   1.67399 255 255 255
-0.164724 -0.156814   1.69909 255 255 255
  -0.639786 -0.00506233     1.30931 255 255 255
-0.542525 0.0566467   1.32389 255 255 255
 -0.57414 0.0490033   1.46535 255 255 255
 0.114216 -0.208954   1.71199 255 255 255
-0.483762 -0.294766   1.19673 255 255 255
-0.0723338  -0.317374    1.60529 255 255 255
-0.0928853  -0.230905    1.50998 255 255 255
-0.196027  -0.20348   1.56144 255 255 255
0.0624377 -0.514382   1.67756 255 255 255
 0.110172 -0.546645   1.76558 255 255 255
-0.396227 -0.288454   1.43907 255 255 255
0.0493225 -0.492675   1.65278 255 255 255
 -0.37695 -0.276092   1.43367 255 255 255
-0.210691 -0.319306   1.33954 255 255 255
-0.0198573  -0.278465    1.64509 255 255 255
-0.238757  -0.33812   1.83063 255 255 255
-0.124692 -0.335893   1.53475 255 255 255
 -0.36883 -0.286934   1.45625 255 255 255
0.0301275 -0.350821   1.63888 255 255 255
-0.414034 -0.323668   1.74784 255 255 255
0.0990213 -0.307042   1.67553 255 255 255
0.0889953 -0.128222   1.71417 255 255 255
-0.0154341  -0.194406    1.69074 255 255 255
-0.0809847  -0.227566    1.62879 255 255 255
0.0766537 -0.206685   1.70103 255 255 255
0.404515 -0.27089  1.75844 255 255 255
-0.166599 -0.134863   1.61298 255 255 255
-0.0439584 -0.0466047    1.66612 255 255 255
 0.449008 -0.252743   1.81866 255 255 255
-0.137928 -0.240052   1.74321 255 255 255
-0.0354999 -0.0509256      1.681 255 255 255
 -0.112251 -0.0433871    1.64174 255 255 255
 -0.18328 -0.113939   1.70651 255 255 255
 -0.22634 -0.363892   1.76969 255 255 255
-0.0621751   -0.11477    1.70109 255 255 255
 0.429025 -0.268795   1.77738 255 255 255
 0.113651 -0.071208    1.6695 255 255 255
0.0195041 -0.281419   1.65182 255 255 255
-0.0441001  -0.302444    1.81162 255 255 255
-0.251371 -0.377269   1.80528 255 255 255
 0.0937911 -0.0891426    1.64293 255 255 255
-0.0942084 -0.0465227    1.64215 255 255 255
  0.127794 -0.0828795    1.72411 255 255 255
0.00479858 -0.0827959    1.68855 255 255 255
 0.079237 -0.234983   1.72429 255 255 255
-0.407506 -0.332908   1.74624 255 255 255
0.0971681 -0.152111   1.68413 255 255 255
-0.157854 -0.232325   1.74765 255 255 255
 0.134354 -0.127908   1.68383 255 255 255
 -0.10919 -0.229462   1.60789 255 255 255
-0.173425 -0.184986   1.57637 255 255 255
0.0161635 -0.262837   1.66589 255 255 255
 0.273445 -0.286427   1.74232 255 255 255
-0.339674 -0.331173    1.7429 255 255 255
0.0910192 -0.284708   1.67774 255 255 255
 0.397561 -0.171889   1.85997 255 255 255
 -0.115409 -0.0957441    1.63984 255 255 255
 0.163702 -0.111071    1.7322 255 255 255
-0.0173472  -0.143652    1.67276 255 255 255
0.0232786 -0.218035   1.67611 255 255 255
-0.0502597  -0.314026     1.6502 255 255 255
 -0.14107 -0.027347   1.68255 255 255 255
-0.379315 -0.344793   1.75455 255 255 255
 -0.181547 -0.0402993    1.61017 255 255 255
-0.0599146 -0.0687528    1.66439 255 255 255
 0.320392 -0.323826   1.74781 255 255 255
 0.0129398 -0.0954873    1.62772 255 255 255
 0.173933 -0.109847   1.72511 255 255 255
0.00892011  -0.293624    1.61663 255 255 255
 0.361111 -0.322161   1.75968 255 255 255
 -0.49366 -0.321118   1.77703 255 255 255
0.0949687 -0.193294    1.7061 255 255 255
-0.0465585 -0.0810111    1.66723 255 255 255
 0.112409 -0.203848   1.71765 255 255 255
 0.020266 -0.325739   1.67187 255 255 255
-0.134113 -0.162014   1.70529 255 255 255
-0.0599646  -0.119706    1.65905 255 255 255
 0.282405 -0.294667    1.7447 255 255 255
-0.0990003 -0.0700143    1.68058 255 255 255
 0.424229 -0.262881   1.88965 255 255 255
-0.0128764  -0.270121    1.66531 255 255 255
 -0.123902 -0.0655026    1.69497 255 255 255
 0.153147 -0.113879   1.73309 255 255 255
-0.147684  0.208274   1.52839 255 255 255
 -0.642024 -0.0411896    1.20233 255 255 255
 0.122708 -0.144159   1.72347 255 255 255
-0.48583 0.134561  1.39379 255 255 255
 0.0975967 -0.0914923    1.71302 255 255 255
0.0217413 -0.205696   1.67149 255 255 255
 -0.589892 -0.0776373    1.23381 255 255 255
-0.0391956  0.0726829    1.61889 255 255 255
-0.066184 -0.343188   1.59672 255 255 255
  0.069044 -0.0753301    1.71009 255 255 255
-0.380638  0.169626   1.45456 255 255 255
 0.107542 -0.176611   1.69977 255 255 255
-0.271091  0.229873   1.50074 255 255 255
0.0217064 0.0191178   1.70733 255 255 255
-0.44716 0.170224  1.40712 255 255 255
-0.00330792   -0.174415     1.67404 255 255 255
-0.0191763  -0.011484    1.61213 255 255 255
  0.165434 -0.0461616    1.74732 255 255 255
 0.0830588 -0.0909964     1.7233 255 255 255
-0.503058 0.0681055    1.3652 255 255 255
  0.183037 -0.0338295    1.75684 255 255 255
-0.611326   0.13136   1.19558 255 255 255
-0.345105  0.178319   1.47398 255 255 255
  0.172111 -0.0661385    1.70322 255 255 255
 0.171065 -0.180813   1.73124 255 255 255
0.0338142  0.036549   1.59788 255 255 255
-0.201897  0.229135   1.52056 255 255 255
-0.0589343 -0.0052072    1.66346 255 255 255
-0.0277706  0.0346586    1.66895 255 255 255
-0.178448  0.196143   1.53036 255 255 255
-0.479132  0.110719   1.38935 255 255 255
-0.347047  0.194184   1.46577 255 255 255
0.0662245  -0.12811   1.64267 255 255 255
-0.399001  0.174135   1.43957 255 255 255
-0.384388  0.184495   1.44567 255 255 255
-0.44687 0.118196  1.40538 255 255 255
 0.0625725 0.00671182    1.72283 255 255 255
-0.0742402  -0.313716     1.5443 255 255 255
-0.448452  0.193806   1.39865 255 255 255
 0.131619 -0.021667   1.69994 255 255 255
-0.52079 0.173767  1.40969 255 255 255
-0.433413  0.143747   1.42314 255 255 255
0.0428108 0.0223014    1.6018 255 255 255
-0.0344898  -0.350399    1.60884 255 255 255
-0.478325  0.155076   1.37547 255 255 255
-0.0204875  -0.274666     1.6371 255 255 255
-0.438656  0.141436   1.41854 255 255 255
0.0105536  0.054808   1.59354 255 255 255
0.0895287 -0.469619   1.68162 255 255 255
 0.109096 -0.308591   1.67279 255 255 255
  -0.0405465 -0.000697845      1.67137 255 255 255
0.0684615 -0.117356    1.6987 255 255 255
 0.119744 -0.266483   1.68838 255 255 255
   0.139707 -0.00129323     1.73521 255 255 255
0.0645886 -0.235309   1.69019 255 255 255
-0.288484  0.140044   1.52345 255 255 255
-0.0734064  -0.186274     1.5689 255 255 255
-0.489646 0.0569753   1.38352 255 255 255
 0.130963 0.0433061   1.72513 255 255 255
-0.48733 0.178285   1.3373 255 255 255
-0.482165  0.131819   1.44763 255 255 255
-0.437159  0.188248   1.40738 255 255 255
-0.724427 0.0934258   1.31413 255 255 255
-0.389942  0.150366   1.45215 255 255 255
-0.169444  0.201852   1.54112 255 255 255
-0.632112  0.125071    1.1954 255 255 255
-0.28575  0.23197  1.48775 255 255 255
-0.107511 -0.198061   1.61099 255 255 255
-0.00681973   0.0381636     1.68217 255 255 255
 -0.499075 -0.0039281    1.36819 255 255 255
  -0.63138 -0.0957185    1.03915 255 255 255
-0.0287806 -0.0328237    1.62049 255 255 255
-0.194194  0.252741   1.53391 255 255 255
-0.709232  0.072445   1.41162 255 255 255
 0.111639 -0.141637   1.72399 255 255 255
-0.562289 0.0309303   1.30659 255 255 255
 -0.612563 -0.0933989     1.0757 255 255 255
0.0149166 -0.349158   1.62074 255 255 255
-0.427588  0.110515   1.42712 255 255 255
 -0.650565 -0.0694089    1.19165 255 255 255
-0.503468  0.118142    1.3538 255 255 255
0.0287656 0.0638061   1.70503 255 255 255
-0.0297677 -0.0346068    1.74655 255 255 255
-0.579488  0.104527   1.40964 255 255 255
-0.0461064  -0.125172    1.66721 255 255 255
 0.107568 0.0329217   1.71869 255 255 255
  0.170123 -0.0263215    1.75489 255 255 255
 -0.566811 -0.0762248    1.29885 255 255 255
-0.403232  0.148436   1.44486 255 255 255
-0.0856308  -0.361929    1.58495 255 255 255
 0.0937498 -0.0616438    1.64268 255 255 255
-0.399828   0.15318   1.44767 255 255 255
-0.641185 -0.135543    1.1602 255 255 255
-0.397752  0.164777   1.44157 255 255 255
-0.387801  0.131722   1.45743 255 255 255
-0.0500234  -0.119628    1.66173 255 255 255
-0.63989 0.189549  1.21513 255 255 255
 0.040273 -0.411649   1.61816 255 255 255
 -0.534933 -0.0113244    1.37764 255 255 255
  -0.617996 -0.00629354      1.2363 255 255 255
-0.463972   0.11654   1.40535 255 255 255
  -0.647497 -0.00816027     1.18778 255 255 255
-0.0179093  -0.390855    1.56976 255 255 255
0.0286893 -0.234295   1.67573 255 255 255
-0.587018  0.107967   1.52955 255 255 255
-0.0314053  -0.149945    1.66355 255 255 255
-0.243766 -0.413865   1.46839 255 255 255
-0.0177133  0.0356388    1.66617 255 255 255
 0.076589 0.0264128   1.61203 255 255 255
  0.120946 0.00125479    1.73962 255 255 255
 -0.580982 -0.0849885    1.27306 255 255 255
-0.493397 0.0501549   1.53298 255 255 255
 0.123212 -0.021664   1.67768 255 255 255
-0.527925 0.0523268   1.32186 255 255 255
 -0.651365 -0.0215112    1.18473 255 255 255
-0.369063  0.176549   1.46161 255 255 255
0.00842148  -0.332038    1.63543 255 255 255
-0.448544  0.151672   1.40979 255 255 255
-0.0403368  0.0144315    1.66583 255 255 255
-0.501569  0.151605   1.36048 255 255 255
-0.0520633   0.005899     1.6669 255 255 255
-0.414766  0.195628   1.42106 255 255 255
 -0.661153 -0.0421341    1.18014 255 255 255
 -0.608279 -0.0895506     1.0863 255 255 255
 -0.21875 -0.360578   1.50014 255 255 255
-0.628407  0.128917   1.53505 255 255 255
-0.601956 0.0284129   1.23403 255 255 255
 0.159059 -0.189426   1.72688 255 255 255
-0.663314  -0.16286   1.17055 255 255 255
 -0.641111 -0.0299905    1.26552 255 255 255
-0.167192  0.263062   1.54867 255 255 255
0.0075062 -0.213714   1.65039 255 255 255
 0.117613 -0.193304   1.71751 255 255 255
   -0.5003 -0.0318831   0.943366 255 255 255
 -0.666738 -0.0451973    1.15005 255 255 255
  -0.683863 -0.00218634     1.25612 255 255 255
-0.0351595 -0.0252844    1.67055 255 255 255
-0.547257  0.128882   1.30814 255 255 255
-0.501325  0.169775   1.40703 255 255 255
 -0.666785 -0.0640528    1.11459 255 255 255
-0.328798 -0.374339   1.41624 255 255 255
-0.261079 -0.313759    1.4818 255 255 255
-0.0638274  -0.203016    1.58475 255 255 255
 0.163115 -0.193397   1.72463 255 255 255
0.0825909 -0.170542   1.71219 255 255 255
-0.364801  0.230267   1.45381 255 255 255
-0.152606 -0.203334    1.4416 255 255 255
-0.453523  0.114389   1.46089 255 255 255
   -0.6082 -0.0590753    1.24732 255 255 255
 0.0771275 -0.0851201    1.73504 255 255 255
0.000172177   -0.384522     1.61133 255 255 255
  0.12038 -0.288404   1.69772 255 255 255
0.0769168 0.0395469   1.70895 255 255 255
-0.386194  0.141918   1.45718 255 255 255
 -0.670074 -0.0211103     1.1955 255 255 255
 -0.658998 -0.0297721    1.23327 255 255 255
-0.379657  0.137102   1.46982 255 255 255
 -0.622527 -0.0739973    1.22936 255 255 255
-0.0470249  -0.082326    1.66864 255 255 255
-0.248811 -0.345689   1.48217 255 255 255
-0.596238 0.0585062   1.45711 255 255 255
 -0.496434 -0.0361613   0.947615 255 255 255
-0.146208 -0.263859   1.43327 255 255 255
-0.00374379 -0.00437576     1.59152 255 255 255
-0.0431327 -0.0650128    1.66837 255 255 255
-0.404635  0.158466   1.44271 255 255 255
-0.410257  0.193436   1.43935 255 255 255
-0.340111  0.197266   1.47313 255 255 255
-0.687038  0.015627   1.30207 255 255 255
-0.0233644  -0.205999    1.66189 255 255 255
-0.228263 -0.231542   1.29406 255 255 255
-0.547622 0.0436038   1.46408 255 255 255
-0.0655972  -0.354618    1.59977 255 255 255
-0.500131  -0.29974   1.10086 255 255 255
0.0686631 -0.452899   1.61283 255 255 255
-0.43801 -0.37057  1.40166 255 255 255
-0.669818 -0.526606   1.14389 255 255 255
-0.491476 -0.380483   1.16665 255 255 255
-0.394759 -0.500261   1.38706 255 255 255
0.0500609 -0.423243   1.61357 255 255 255
 0.226618 -0.340165   1.72781 255 255 255
 0.234428 -0.332553   1.71245 255 255 255
-0.348751 -0.305852   1.52518 255 255 255
-0.253127 -0.248173    1.5167 255 255 255
-0.197053 -0.270886   1.59668 255 255 255
0.181164 -0.25404  1.72314 255 255 255
 0.015997 0.0674426   1.68704 255 255 255
 0.230301 -0.166267   1.74437 255 255 255
 -0.090084 -0.0775363    1.63332 255 255 255
-0.297355 -0.176201   1.54714 255 255 255
-0.322212 -0.108728   1.53156 255 255 255
0.193624 0.039504  1.74503 255 255 255
-0.219753 -0.174978   1.58984 255 255 255
-0.0106179 -0.0447463    1.68026 255 255 255
-0.168996  -0.11983   1.61846 255 255 255
 -0.144156 -0.0572922    1.62981 255 255 255
 -0.267981 -0.0767015    1.56612 255 255 255
 -0.23759 0.0488209   1.57557 255 255 255
-0.383432 -0.121111    1.4952 255 255 255
-0.0585508  -0.279313    1.62762 255 255 255
-0.42326 0.155576  1.42941 255 255 255
-0.0501403 -0.0156548    1.67399 255 255 255
-0.518208  0.146389   1.33216 255 255 255
 -0.254384 -0.0119632    1.56898 255 255 255
 0.239204 -0.112943   1.75342 255 255 255
-0.475157 0.0196816   1.41937 255 255 255
-0.239113  0.115105   1.56505 255 255 255
0.0729021 0.0629107   1.70348 255 255 255
 0.193775 0.0815122   1.74285 255 255 255
-0.0477066   0.140054    1.65344 255 255 255
-0.286775 -0.124338   1.55416 255 255 255
-0.400692 -0.267726   1.49782 255 255 255
-0.259227 -0.185527   1.56689 255 255 255
  0.23855 -0.240674   1.73683 255 255 255
-0.412738 -0.161276   1.48001 255 255 255
-0.247187 -0.224724    1.5739 255 255 255
-0.435579  -0.24442   1.47559 255 255 255
-0.529815  0.106764    1.3317 255 255 255
 -0.104824 -0.0168633    1.63463 255 255 255
-0.346606 0.0485632   1.50456 255 255 255
-0.0780143   -0.03328    1.66219 255 255 255
-0.248377 0.0855098   1.55699 255 255 255
 0.0667142 -0.0288551    1.70696 255 255 255
0.0226155 -0.170694   1.68285 255 255 255
-0.266724 -0.249384   1.56238 255 255 255
-0.203928   0.15208   1.57238 255 255 255
-0.188158  0.118623    1.5882 255 255 255
-0.141975  0.138938   1.60843 255 255 255
-0.341601  0.147875   1.49307 255 255 255
-0.466417 -0.163389    1.4551 255 255 255
 -0.236659 -0.0436778    1.58263 255 255 255
-0.0110021  -0.385983    1.60398 255 255 255
-0.173496  -0.12911   1.61422 255 255 255
-0.068723  0.113103   1.64788 255 255 255
 -0.331046 -0.0844773    1.52968 255 255 255
-0.423487 -0.113034   1.46104 255 255 255
-0.716012  0.120482    1.4344 255 255 255
 0.106835 -0.122721   1.72451 255 255 255
0.0217064 0.0191178   1.70733 255 255 255
  0.244684 -0.0398432    1.76146 255 255 255
  -0.139619 -0.00641855     1.63458 255 255 255
 -0.381085 -0.0608841      1.489 255 255 255
 0.198872 -0.319625   1.71577 255 255 255
  0.183411 -0.0432313    1.68662 255 255 255
  -0.47696 -0.0290214    1.42912 255 255 255
-0.045698  0.108341   1.65758 255 255 255
-0.0247375   0.172712    1.65494 255 255 255
-0.0718122  0.0326787    1.65435 255 255 255
-0.168752 0.0917229   1.61073 255 255 255
-0.254113 -0.280273   1.56765 255 255 255
-0.360734 -0.239973   1.51343 255 255 255
 0.268965 0.0216752   1.77545 255 255 255
-0.0812471  0.0851896    1.64692 255 255 255
-0.153903 0.0518865   1.61159 255 255 255
-0.279994 0.0733108   1.54076 255 255 255
0.0711185 -0.262406   1.68209 255 255 255
  0.14988 -0.283514   1.71237 255 255 255
-0.364217 -0.211547   1.51232 255 255 255
-0.298426  0.109311   1.52513 255 255 255
-0.312556 0.0101538   1.53496 255 255 255
-0.233183 -0.196628   1.58278 255 255 255
 -0.247747 -0.0899438    1.57213 255 255 255
-0.421265 0.0553804   1.45334 255 255 255
 0.0530149 -0.0546191    1.70203 255 255 255
  0.336979 -0.0171372    1.79172 255 255 255
-0.113168 -0.187213   1.63185 255 255 255
 -0.39809 0.0237274   1.48773 255 255 255
  0.294044 -0.0332472    1.77517 255 255 255
 -0.601475 -0.0681698    1.27209 255 255 255
-0.0926583   0.136204    1.63233 255 255 255
 0.226028 -0.266676   1.73346 255 255 255
 0.210231 0.0616425   1.74972 255 255 255
-0.457789 0.0985187   1.40261 255 255 255
  0.382561 -0.0207199    1.80621 255 255 255
 0.388745 -0.153412   1.79434 255 255 255
-0.170022  0.170216   1.59053 255 255 255
 -0.478628 -0.0803788    1.43741 255 255 255
 -0.360884 -0.0591075    1.50208 255 255 255
  0.164441 0.00984251    1.75054 255 255 255
 -0.23143 0.0792372   1.57771 255 255 255
-0.452789 0.0981587   1.42193 255 255 255
-0.40647 -0.18834  1.48381 255 255 255
-0.329984  0.125329   1.50005 255 255 255
0.00998625   0.105536    1.68199 255 255 255
-0.213723 0.0713644   1.58474 255 255 255
-0.164739  0.186112   1.58605 255 255 255
  -0.43511 -0.0594632    1.45742 255 255 255
-0.43301 0.177895  1.41607 255 255 255
-0.0968394  0.0296396    1.63935 255 255 255
 0.199148 -0.339353   1.71339 255 255 255
-0.196521 0.0749623   1.59219 255 255 255
-0.471192 0.0757318   1.42758 255 255 255
 -0.420386 -0.0613615    1.46391 255 255 255
 -0.39989 0.0794025   1.46434 255 255 255
-0.340432 -0.252057   1.52622 255 255 255
 -0.4355 0.128475  1.42589 255 255 255
-0.257489  0.155273   1.54095 255 255 255
-0.0636061  0.0951552    1.65304 255 255 255
0.216095 -0.24401  1.73388 255 255 255
 0.219167 0.0215933   1.74867 255 255 255
 0.283839 -0.118167   1.76789 255 255 255
-0.288365  0.099614   1.53464 255 255 255
-0.50724 -0.20277  1.43829 255 255 255
-0.532272  0.162314   1.31461 255 255 255
-0.449146  0.171971   1.40781 255 255 255
0.0325922 0.0877847   1.68781 255 255 255
-0.372902 0.0780964   1.48131 255 255 255
-0.0540258  -0.032434    1.66632 255 255 255
-0.270775 0.0916915   1.54952 255 255 255
 -0.35058 -0.126776   1.51536 255 255 255
 0.0222931 0.00398111    1.69584 255 255 255
-0.358286 -0.153265   1.51091 255 255 255
 -0.49232 0.0518945   1.37971 255 255 255
0.0245226   0.10296    1.6855 255 255 255
-0.210878 0.0541667   1.59714 255 255 255
-0.165608 0.0601492   1.60973 255 255 255
-0.213019  0.113044   1.57926 255 255 255
0.0540237 -0.033977   1.70245 255 255 255
  0.2584 -0.21284  1.74826 255 255 255
  -0.47732 -0.0626214    1.44077 255 255 255
   0.313325 -0.00965108     1.78331 255 255 255
-0.0216786   0.123051    1.66598 255 255 255
-0.333848 0.0326686   1.51816 255 255 255
 -0.461368 -0.0351382    1.43977 255 255 255
-0.412613  0.145779   1.43507 255 255 255
 0.351149 -0.145708   1.79325 255 255 255
-0.224186  0.130785    1.5664 255 255 255
 0.180315 -0.212201   1.72878 255 255 255
-0.187964 0.0596001   1.59935 255 255 255
 0.103365 0.0488258   1.60284 255 255 255
0.0937329  0.006581   1.71704 255 255 255
-0.223831 0.0958864   1.57527 255 255 255
  0.236719 -0.0541333    1.70484 255 255 255
-0.106683  0.148476   1.62336 255 255 255
0.125862 -0.30105  1.70244 255 255 255
 -0.280208 0.00311326    1.55374 255 255 255
-0.0100914  0.0199683    1.68588 255 255 255
-0.305035   -0.2217   1.54096 255 255 255
-0.281509 0.0469547    1.5479 255 255 255
 -0.486367 -0.0934353    1.43245 255 255 255
 0.260271 -0.240966    1.7448 255 255 255
-0.345295  0.121626   1.49052 255 255 255
  0.300696 -0.0488658    1.77737 255 255 255
 0.387556 -0.147059    1.7998 255 255 255
 0.0435384 -0.0801872    1.69795 255 255 255
-0.0719541  -0.140022     1.6587 255 255 255
 -0.419234 -0.0308834    1.46629 255 255 255
-0.433135 0.0426171   1.44845 255 255 255
 0.163697 -0.274284   1.71717 255 255 255
  0.141456 -0.0192587    1.72903 255 255 255
 -0.312582 -0.0666806    1.53782 255 255 255
-0.0958544  0.0901602    1.64059 255 255 255
  -0.223806 -0.00045586     1.58878 255 255 255
   0.148096 0.000245984     1.74603 255 255 255
0.0806783  0.138343   1.70247 255 255 255
0.321211 0.061554  1.78431 255 255 255
-0.110803 0.0371476   1.63556 255 255 255
-0.489204  0.161154   1.36584 255 255 255
-0.150162 0.0139732   1.62354 255 255 255
-0.156885 0.0710581   1.61403 255 255 255
-0.400538  0.045916   1.46981 255 255 255
 0.429025 -0.268795   1.77738 255 255 255
   0.2367 -0.284276   1.73252 255 255 255
-0.374585 0.0934543   1.47665 255 255 255
-0.458042  0.131487    1.4121 255 255 255
-0.134237  0.028434   1.62651 255 255 255
-0.116757 0.0833003   1.63218 255 255 255
  0.24546 -0.219376   1.74357 255 255 255
 0.252791 0.0159004   1.76439 255 255 255
 0.166935 -0.262836   1.71834 255 255 255
 0.393792 -0.131044    1.8048 255 255 255
-0.250087 0.0627627   1.56637 255 255 255
0.0550658 -0.181937    1.6935 255 255 255
 0.166192 -0.326298   1.71275 255 255 255
  0.37154 0.0250693   1.80011 255 255 255
-0.424235  0.120155   1.46891 255 255 255
 0.415628 -0.314455    1.7657 255 255 255
-0.412317 0.0977045   1.45156 255 255 255
-0.0961594  0.0170317    1.64596 255 255 255
  -0.4894 -0.146245   1.43609 255 255 255
-0.0881359  -0.103351    1.65124 255 255 255
-0.373925 0.0222707   1.49177 255 255 255
 0.305999 -0.246417   1.75647 255 255 255
0.110463 0.101026  1.72131 255 255 255
  0.210169 -0.0219545    1.74886 255 255 255
-0.0865837  0.0407206    1.64577 255 255 255
 0.155788 0.0367368   1.73591 255 255 255
-0.126615  0.179736   1.60464 255 255 255
 0.148302 0.0749514   1.72923 255 255 255
-0.0356603 -0.0853486    1.67074 255 255 255
 0.257849 -0.252821   1.74117 255 255 255
-0.506212  -0.18587   1.43728 255 255 255
 0.220123 -0.169074   1.74098 255 255 255
-0.0678804   0.175346    1.63935 255 255 255
-0.360066  0.083659   1.48897 255 255 255
-0.441402  0.091805   1.43212 255 255 255
-0.130715 0.0689779   1.62454 255 255 255
-0.048306   0.15868   1.64698 255 255 255
-0.357371 -0.018572   1.50651 255 255 255
-0.152407   0.12112   1.60783 255 255 255
  0.222337 -0.0141217    1.75481 255 255 255
-0.236207 -0.110695   1.58493 255 255 255
 0.309177 0.0104512   1.78197 255 255 255
-0.365116  0.118955   1.47845 255 255 255
 0.413252 -0.325933   1.73765 255 255 255
  0.368692 -0.0213695    1.80023 255 255 255
-0.0821411   0.106886    1.64201 255 255 255
-0.0240082  0.0962987    1.66852 255 255 255
 0.108224 -0.132325   1.73242 255 255 255
  0.373529 0.00547676    1.80131 255 255 255
 0.398691 -0.141537   1.80576 255 255 255
 -0.571604 -0.0949067    1.25137 255 255 255
    0.142584 -3.25318e-05      1.73097 255 255 255
  0.15036 0.0947539   1.72852 255 255 255
-0.301046  0.182687   1.50313 255 255 255
-0.0834112  0.0531466     1.6494 255 255 255
 -0.490709 -0.0638099    1.42822 255 255 255
  0.111531 -0.0800648    1.73516 255 255 255
-0.242921 -0.168139   1.57758 255 255 255
 -0.519057 -0.0477033    1.41214 255 255 255
-0.0358362   0.125256    1.65881 255 255 255
-0.644827 0.0602117   1.17796 255 255 255
-0.313544  0.169759   1.49944 255 255 255
-0.472017 -0.123344   1.44621 255 255 255
0.112018 0.110289  1.71837 255 255 255
-0.452064  0.118406   1.40936 255 255 255
-0.152127  0.142074   1.60053 255 255 255
-0.554012 0.0932218   1.30263 255 255 255
 0.312108 0.0213575    1.7851 255 255 255
-0.201126  0.189707   1.56544 255 255 255
-0.133558    0.1609   1.60948 255 255 255
-0.180022  0.189787   1.57365 255 255 255
-0.401964  0.133655   1.44932 255 255 255
-0.0902827   0.176054    1.62646 255 255 255
 0.0785195 0.00537954    1.71516 255 255 255
 0.0828267 0.00763151    1.70808 255 255 255
 0.120172 -0.250504    1.7083 255 255 255
-0.498525  0.158094   1.35816 255 255 255
 0.353999 -0.324073   1.75875 255 255 255
 -0.623063 -0.0928646    1.24819 255 255 255
-0.344123 0.0195713    1.5107 255 255 255
  0.171588 -0.0743556    1.65589 255 255 255
 0.459889 -0.347653   1.84474 255 255 255
-0.22924  0.16074  1.55523 255 255 255
-0.379254 -0.320892   1.51233 255 255 255
0.0627146   0.11755   1.70071 255 255 255
  0.350317 -0.0554726    1.79015 255 255 255
0.0587926 0.0156738   1.70377 255 255 255
  -0.322962 -0.00406429     1.52774 255 255 255
 0.0249106 -0.0186789    1.69375 255 255 255
-0.471801  0.172921   1.39252 255 255 255
 0.378096 -0.142215   1.79052 255 255 255
0.169127 0.018727  1.73788 255 255 255
0.0373034 -0.342857   1.63504 255 255 255
 -0.58841 -0.110487   1.23712 255 255 255
 -0.406028 -0.0553928    1.47773 255 255 255
 0.188019 0.0571871   1.74275 255 255 255
   0.252001 -0.00450492     1.76414 255 255 255
-0.08781 0.167011  1.62585 255 255 255
0.0714748 -0.330651   1.63567 255 255 255
0.153963 -0.13527   1.7343 255 255 255
-0.0845879  0.0674624    1.64675 255 255 255
 0.150879 -0.221478   1.72003 255 255 255
-0.571853 0.0166196    1.2803 255 255 255
-0.294874  0.151345   1.48806 255 255 255
 -0.0865802 -0.00573634     1.64152 255 255 255
0.0710831 0.0800295   1.71161 255 255 255
  0.201896 -0.0917952    1.75265 255 255 255
