ply
format ascii 1.0
element vertex 813
property float x
property float y
property float z
property uchar red
property uchar green
property uchar blue
end_header
0 0 0 0 255 0
0.928629 0.214747 0.302543 0 255 0
 -0.25758 -0.298024   1.57573 255 255 255
-0.222405 -0.302945   1.59692 255 255 255
-0.0638478  -0.359842     1.6635 255 255 255
-0.179968 -0.331843   1.60699 255 255 255
-0.456634 -0.307435   1.44961 255 255 255
-0.179801 -0.275912   1.61823 255 255 255
-0.345701 -0.315961   1.52251 255 255 255
 -0.16097 -0.359751   1.62093 255 255 255
-0.129577 -0.295928   1.64336 255 255 255
-0.409813 -0.331615   1.48608 255 255 255
-0.0981665  -0.362838    1.65143 255 255 255
 -0.23094 -0.262038   1.59407 255 255 255
-0.500551 -0.306601   1.42516 255 255 255
-0.0688945  -0.326957    1.65924 255 255 255
-0.206039 -0.273016   1.60295 255 255 255
-0.260617 -0.357897    1.5744 255 255 255
-0.486185 -0.320024   1.43659 255 255 255
-0.505449 -0.322701   1.42352 255 255 255
-0.382998 -0.328593   1.49751 255 255 255
   -0.418 -0.333372   1.48189 255 255 255
-0.220617 -0.262403   1.59811 255 255 255
-0.386541 -0.319267   1.49781 255 255 255
-0.170923 -0.295659   1.62288 255 255 255
-0.123189 -0.177623   1.65047 255 255 255
-0.0358117  -0.160024    1.69002 255 255 255
0.000646383   -0.263897     1.68618 255 255 255
 0.339503 -0.314548   1.76423 255 255 255
 0.150259 -0.172442   1.74601 255 255 255
-0.102539 -0.121411   1.66163 255 255 255
-0.0870137  -0.214936     1.6687 255 255 255
-0.251581  -0.26249   1.57932 255 255 255
-0.116313 -0.277093    1.6452 255 255 255
 -0.16785 -0.114684   1.62993 255 255 255
-0.187358 -0.254504   1.61768 255 255 255
 -0.124904 -0.0524498    1.64561 255 255 255
 -0.171502 -0.0703814    1.62966 255 255 255
0.00228966  -0.116421    1.70549 255 255 255
-0.0653545  -0.140048    1.67677 255 255 255
-0.0738959  -0.162108    1.67214 255 255 255
-0.219241 -0.240006   1.58768 255 255 255
-0.207197  -0.23233   1.60199 255 255 255
-0.0813346  -0.181645    1.66882 255 255 255
-0.187419 -0.147821   1.62039 255 255 255
 0.102232 -0.234458   1.72929 255 255 255
-0.264406 -0.330464   1.56501 255 255 255
0.00834275  -0.137597    1.71458 255 255 255
-0.148046 -0.126704   1.64163 255 255 255
0.0799335 -0.177265   1.73471 255 255 255
0.0433521 -0.309324    1.6983 255 255 255
 0.336615 -0.300813   1.76594 255 255 255
 -0.128898 -0.0863805    1.64953 255 255 255
-0.114563 -0.201059    1.6508 255 255 255
-0.0625726  -0.261947    1.66898 255 255 255
 0.338253 -0.341579   1.76381 255 255 255
 0.103543 -0.120692   1.73791 255 255 255
 -0.179885 -0.0939225     1.6283 255 255 255
-0.173862 -0.126809   1.62942 255 255 255
 0.272389 -0.300995   1.75105 255 255 255
 0.014845 -0.236242   1.69572 255 255 255
-0.134335 -0.211206   1.64384 255 255 255
-0.182014 -0.179367   1.62293 255 255 255
-0.206842 -0.168786   1.60851 255 255 255
0.0652353 -0.244656   1.71518 255 255 255
-0.223071 -0.288901   1.60015 255 255 255
-0.153719 -0.227736   1.63307 255 255 255
0.0452753 -0.106296   1.72058 255 255 255
-0.0504526   -0.14975    1.68041 255 255 255
0.0278263 -0.283087   1.70038 255 255 255
-0.216785 -0.147008   1.60373 255 255 255
0.0853685 -0.158268   1.73155 255 255 255
-0.243001 -0.351497   1.57645 255 255 255
  0.21092 -0.145256   1.76546 255 255 255
-0.0247911    -0.3198    1.67774 255 255 255
0.0980048  -0.10829   1.73176 255 255 255
0.0732573 -0.299971   1.71312 255 255 255
 0.323375 -0.282229   1.76419 255 255 255
0.0501476 -0.282163   1.70755 255 255 255
-0.0198364 -0.0943147      1.699 255 255 255
-0.53573 0.092955  1.34591 255 255 255
  -0.10224 -0.0574248    1.66275 255 255 255
-0.00747513   -0.218151     1.69443 255 255 255
0.0201798  -0.11196    1.7096 255 255 255
 0.353148 -0.343281   1.76536 255 255 255
-0.188142 -0.219715   1.62021 255 255 255
-0.206456 -0.286771   1.60497 255 255 255
 -0.205378 -0.0935138    1.61217 255 255 255
-0.170555 -0.178268   1.62726 255 255 255
-0.500551 -0.306601   1.42516 255 255 255
 -0.23042 -0.102798   1.59632 255 255 255
-0.382998 -0.328593   1.49751 255 255 255
 0.316008 -0.362324   1.75507 255 255 255
-0.406587 -0.311976   1.48689 255 255 255
-0.0161412  -0.216081    1.68919 255 255 255
-0.00246622   -0.302259     1.68857 255 255 255
-0.386541 -0.319267   1.49781 255 255 255
-0.202472 -0.146245   1.61424 255 255 255
-0.504893  0.125483   1.36476 255 255 255
-0.147629 -0.357741   1.62736 255 255 255
 0.283653 -0.171401   1.77279 255 255 255
0.0580798 -0.317292   1.70347 255 255 255
-0.516377  0.118237   1.35747 255 255 255
-0.0287082  -0.303784    1.67933 255 255 255
-0.469916 -0.308488   1.44627 255 255 255
0.0680656 -0.318062   1.70925 255 255 255
0.0716057 -0.324099   1.70934 255 255 255
0.0458099 -0.340809   1.70244 255 255 255
-0.172288 -0.215572   1.62456 255 255 255
 0.314404 -0.279873   1.76557 255 255 255
-0.0226018   -0.34207    1.67754 255 255 255
-0.0646377  -0.375778    1.65837 255 255 255
0.0561466 -0.228598   1.71336 255 255 255
-0.0479021  -0.167637    1.68034 255 255 255
 0.278882 -0.390467   1.74731 255 255 255
0.0615674 -0.192477   1.71849 255 255 255
-0.136004 -0.322648   1.63254 255 255 255
 -0.142279 -0.0914989    1.64391 255 255 255
-0.190687  -0.23505    1.6059 255 255 255
 -0.16017 -0.170102   1.62979 255 255 255
-0.245532 -0.215117   1.58613 255 255 255
 0.116477 -0.152947   1.74432 255 255 255
0.00489069  -0.218507    1.68291 255 255 255
-0.0470518  -0.248955    1.67019 255 255 255
 0.189436 -0.139515   1.75308 255 255 255
 0.100888 -0.191379   1.73484 255 255 255
 0.295485 -0.333385   1.75486 255 255 255
-0.0958967 -0.0452015    1.66566 255 255 255
0.0100431 -0.321916   1.68811 255 255 255
-0.273597 -0.354806   1.56732 255 255 255
 0.272346 -0.177354    1.7688 255 255 255
 0.212159 -0.169605    1.7608 255 255 255
-0.180601 -0.262198   1.61698 255 255 255
-0.206842 -0.168786   1.60851 255 255 255
-0.344044 -0.330759   1.52685 255 255 255
-0.0516743  -0.271383    1.66842 255 255 255
0.0610533  -0.27707   1.71066 255 255 255
 0.269014 -0.147335    1.7636 255 255 255
 0.409222 -0.191348   1.79335 255 255 255
-0.242278 -0.207816   1.58695 255 255 255
0.0310205 -0.204978   1.70923 255 255 255
 0.276742 -0.153861   1.77223 255 255 255
-0.0852506 -0.0477006    1.67057 255 255 255
 0.261144 -0.139775   1.77119 255 255 255
-0.441634 -0.298038   1.46306 255 255 255
 -0.056928 -0.0553841    1.68376 255 255 255
 0.375045 -0.270463   1.77963 255 255 255
-0.192213  -0.31888   1.61146 255 255 255
-0.289319  0.141368   1.54063 255 255 255
-0.504875 -0.315787   1.42694 255 255 255
 0.375678 -0.345494   1.76846 255 255 255
-0.031544 -0.102732   1.68834 255 255 255
0.0834118 -0.252573   1.71988 255 255 255
 0.293373 -0.313975   1.76098 255 255 255
 -0.126425 -0.0465153    1.66152 255 255 255
 -0.215093 -0.0910407    1.60741 255 255 255
-0.0559621  -0.307197    1.67099 255 255 255
 -0.45176 -0.309053   1.45794 255 255 255
0.0750252 -0.345535     1.709 255 255 255
0.0858092 -0.134151   1.72327 255 255 255
-0.0376308  -0.206135    1.70819 255 255 255
-0.121849 -0.249772   1.65018 255 255 255
 0.409607 -0.297883   1.77607 255 255 255
-0.198083 -0.133286   1.61155 255 255 255
-0.0655836 -0.0388483    1.67826 255 255 255
-0.138157 -0.105942   1.64894 255 255 255
-0.0512341 -0.0409495    1.68826 255 255 255
 -0.13732 -0.033356   1.64594 255 255 255
 0.440877 -0.292145   1.78674 255 255 255
  0.115375 -0.0759873    1.73934 255 255 255
-0.0127264  -0.312582    1.68016 255 255 255
-0.270588 -0.343944   1.56888 255 255 255
 -0.122775 -0.0382887    1.65288 255 255 255
  0.123662 -0.0840975    1.74336 255 255 255
-0.00788926  -0.0837824     1.69769 255 255 255
-0.156527 -0.250098   1.62893 255 255 255
-0.229739   -0.1991   1.59579 255 255 255
 0.276634 -0.312159   1.75534 255 255 255
0.0680656 -0.318062   1.70925 255 255 255
 -0.142279 -0.0914989    1.64391 255 255 255
 0.162531 -0.116376   1.75156 255 255 255
-0.0380295  -0.148471    1.68555 255 255 255
0.00249705  -0.235401    1.69413 255 255 255
-0.077016 -0.337938   1.65823 255 255 255
 -0.211348 -0.0281852    1.60796 255 255 255
-0.0816855 -0.0631429    1.67365 255 255 255
 0.324519 -0.352218   1.75723 255 255 255
0.00209101  -0.100246    1.69802 255 255 255
 0.176708 -0.118306   1.75695 255 255 255
 0.36711 -0.34986   1.7679 255 255 255
-0.0666205 -0.0752015    1.67646 255 255 255
-0.00013889   -0.353771     1.68491 255 255 255
-0.0834839  -0.119461    1.66825 255 255 255
 0.285783 -0.321115    1.7572 255 255 255
-0.0985902 -0.0355772    1.66327 255 255 255
-0.0350937    -0.2902    1.67639 255 255 255
 0.153321 -0.117565   1.74956 255 255 255
 0.116477 -0.152947   1.74432 255 255 255
-0.507487  0.168429   1.35162 255 255 255
 0.0902652 -0.0929593    1.73139 255 255 255
0.00489069  -0.218507    1.68291 255 255 255
-0.0539675  0.0961887    1.67339 255 255 255
 0.0658736 -0.0714396     1.7294 255 255 255
-0.405408   0.20529    1.4248 255 255 255
-0.0606311   0.132973    1.66431 255 255 255
0.0183684  0.036838   1.71005 255 255 255
-0.471666  0.205005   1.37048 255 255 255
 -0.0339297 0.000280928     1.68778 255 255 255
  0.171006 -0.0411175     1.7573 255 255 255
 0.0804617 -0.0930094    1.73337 255 255 255
  0.192919 -0.0245608    1.76097 255 255 255
-0.371722  0.214942   1.44957 255 255 255
 0.169797 -0.194876   1.74952 255 255 255
-0.0789443 0.00691423    1.67253 255 255 255
-0.0435801  0.0510665    1.67862 255 255 255
-0.512254  0.141941   1.35448 255 255 255
 0.132847 0.0272564   1.74619 255 255 255
-0.423916  0.210144   1.40803 255 255 255
-0.409817  0.221611   1.41621 255 255 255
  0.09216 0.0492183   1.73321 255 255 255
-0.484583  0.150168   1.37669 255 255 255
0.0626592 0.0222141   1.72732 255 255 255
-0.469867  0.229907   1.36078 255 255 255
  0.140083 -0.0132635    1.74707 255 255 255
-0.527806  0.204024   1.31887 255 255 255
-0.459287  0.178259   1.38829 255 255 255
0.0405388 0.0373802   1.71752 255 255 255
-0.510337  0.188801   1.34137 255 255 255
-0.471295  0.174232   1.38857 255 255 255
-0.343635  0.124887       1.5 255 255 255
0.0844429 -0.347493   1.70862 255 255 255
-0.0580578  0.0165065    1.68055 255 255 255
  0.141716 0.00808846     1.7487 255 255 255
0.0484347 -0.256187   1.70874 255 255 255
-0.316675  0.172844   1.50715 255 255 255
-0.533639 0.0843446   1.35298 255 255 255
 0.130083 0.0565093   1.74086 255 255 255
-0.529193  0.214412   1.31362 255 255 255
-0.497149  0.162407   1.36245 255 255 255
-0.460514  0.224495   1.37148 255 255 255
-0.416856  0.185047   1.42255 255 255 255
-0.154354 -0.212648   1.63321 255 255 255
-0.0209993  0.0544118    1.69441 255 255 255
-0.0463975   -0.02481    1.68542 255 255 255
-0.462086  0.142162   1.39827 255 255 255
0.0269953 0.0848495   1.70715 255 255 255
-0.0202737   0.110198     1.6874 255 255 255
0.0946206 0.0242304   1.73232 255 255 255
 0.104121 0.0456503    1.7351 255 255 255
  0.179084 -0.0175349    1.75983 255 255 255
-0.0122466  -0.244056    1.68844 255 255 255
-0.430079  0.183245   1.41392 255 255 255
-0.425296  0.187733   1.41618 255 255 255
-0.424052  0.200599   1.41093 255 255 255
-0.417341  0.164549   1.42991 255 255 255
-0.0751352  -0.119005    1.67467 255 255 255
-0.449157  0.234166   1.37603 255 255 255
-0.49357 0.148585  1.36869 255 255 255
0.00264908  -0.257072    1.70201 255 255 255
-0.046794 0.0617239   1.68338 255 255 255
-0.0327818  0.0518296    1.68983 255 255 255
0.0799909  0.041507   1.72939 255 255 255
0.124773  0.01374  1.74725 255 255 255
0.0308087  0.046867   1.71546 255 255 255
-0.39385 0.212931  1.43338 255 255 255
-0.472887  0.184107   1.37291 255 255 255
-0.0577569   0.028945    1.67478 255 255 255
-0.533359  0.185494   1.32453 255 255 255
-0.0710487  0.0197233     1.6763 255 255 255
 0.235543 0.0559556   1.76725 255 255 255
-0.437666  0.233062   1.38717 255 255 255
-0.525997 0.0973721    1.3539 255 255 255
 0.156816 -0.204205   1.74499 255 255 255
-0.0538328 -0.0156487    1.68436 255 255 255
-0.441544  0.210548   1.39275 255 255 255
 0.161309 -0.208199   1.74194 255 255 255
-0.37761 0.103856  1.48042 255 255 255
0.0706449 0.0538067   1.72473 255 255 255
-0.414017  0.175881   1.42849 255 255 255
-0.32551 0.170891  1.50338 255 255 255
-0.308216  0.173614   1.51315 255 255 255
-0.42977 0.193316  1.41056 255 255 255
-0.364819  0.235083   1.44816 255 255 255
 0.224543 -0.372261    1.7435 255 255 255
-0.390247 -0.311633   1.49966 255 255 255
-0.234275 -0.283239   1.59168 255 255 255
0.178326 -0.27679   1.7413 255 255 255
0.00486502  0.0863217    1.69937 255 255 255
 0.234055 -0.178879   1.76085 255 255 255
 -0.123528 -0.0752057    1.64843 255 255 255
-0.337178 -0.174203   1.53207 255 255 255
 -0.360994 -0.0991766    1.51416 255 255 255
 0.262384 0.0996838   1.77027 255 255 255
 0.198471 0.0504088    1.7586 255 255 255
 -0.25617 -0.176035   1.58387 255 255 255
  -0.02733 -0.0377179    1.69276 255 255 255
 -0.20082 -0.116632   1.61843 255 255 255
  -0.17223 -0.0479614    1.63183 255 255 255
 -0.304141 -0.0659296    1.55578 255 255 255
-0.267837 0.0716131   1.56749 255 255 255
-0.422782 -0.109929   1.46931 255 255 255
-0.449145  0.190726   1.39592 255 255 255
  -0.0653806 -0.000517189      1.67861 255 255 255
 -0.287477 0.00506481    1.55939 255 255 255
 0.244888 -0.119709   1.76901 255 255 255
 -0.50414 0.0460171   1.37879 255 255 255
-0.26694 0.144644  1.55568 255 255 255
0.0670479 0.0798171   1.71756 255 255 255
0.170547  0.16003  1.73965 255 255 255
 0.199572 0.0964948    1.7534 255 255 255
-0.0616824   0.167915    1.65892 255 255 255
-0.325018 -0.117713   1.54117 255 255 255
-0.440884 -0.266434   1.46571 255 255 255
-0.297619 -0.186155   1.55583 255 255 255
 0.240956 -0.261894   1.75237 255 255 255
 0.368857 0.0813681   1.79235 255 255 255
-0.451505 -0.151743   1.44839 255 255 255
-0.286222 -0.229818   1.56421 255 255 255
-0.473285 -0.238341   1.43775 255 255 255
  -0.136572 -0.00577832     1.64834 255 255 255
-0.380616 0.0741066   1.48403 255 255 255
 -0.101321 -0.0221427    1.66861 255 255 255
-0.277047  0.112158   1.54568 255 255 255
 0.0576742 -0.0220286      1.724 255 255 255
0.00795217  -0.178536    1.69446 255 255 255
-0.306982 -0.255831   1.54975 255 255 255
-0.227798  0.184379   1.56411 255 255 255
-0.212583   0.14739   1.58257 255 255 255
-0.162727  0.168762   1.60632 255 255 255
-0.371057   0.18223   1.47162 255 255 255
-0.501555 -0.150555   1.41454 255 255 255
 -0.270054 -0.0304391    1.57539 255 255 255
-0.205607  -0.12683   1.61304 255 255 255
-0.0852806   0.138746    1.65277 255 255 255
 -0.369789 -0.0723781    1.51217 255 255 255
-0.517197 -0.275263   1.41359 255 255 255
 -0.459713 -0.0989583    1.42687 255 255 255
  0.252188 -0.0384515    1.77498 255 255 255
 -0.166038 0.00824229    1.63753 255 255 255
 -0.418639 -0.0442525    1.46355 255 255 255
  0.19563 -0.349471   1.73139 255 255 255
   0.19635 -0.0449698    1.76634 255 255 255
  -0.508136 -0.00609087     1.38859 255 255 255
-0.0606311   0.132973    1.66431 255 255 255
-0.0354464   0.203069    1.65948 255 255 255
-0.0913884  0.0499492    1.66111 255 255 255
-0.193746  0.117469   1.60938 255 255 255
-0.294145 -0.290418    1.5555 255 255 255
-0.401948 -0.239849   1.48811 255 255 255
 0.279192 0.0284197   1.78408 255 255 255
-0.0998731   0.108255    1.65203 255 255 255
-0.178466 0.0731801   1.60999 255 255 255
-0.310799 0.0996135   1.52687 255 255 255
0.0510358 -0.288893   1.70706 255 255 255
 0.143349 -0.309375    1.7303 255 255 255
-0.405508 -0.209018   1.48782 255 255 255
-0.32863 0.139574    1.509 255 255 255
-0.347617 0.0309333   1.51949 255 255 255
-0.270909 -0.199507   1.57517 255 255 255
 -0.28276 -0.081049   1.56273 255 255 255
-0.453557 0.0831443   1.42221 255 255 255
0.0419964 -0.050522   1.71878 255 255 255
  0.350491 -0.0152287    1.79331 255 255 255
-0.141912 -0.193392   1.63446 255 255 255
-0.434499 0.0482327     1.463 255 255 255
  0.305092 -0.0321623    1.78267 255 255 255
-0.110095  0.164695   1.63435 255 255 255
 0.226621 -0.290816   1.74979 255 255 255
 0.216975 0.0743282   1.76031 255 255 255
0.280337 0.108409   1.7721 255 255 255
  0.398134 -0.0201266    1.80475 255 255 255
  0.40181 -0.165121   1.79755 255 255 255
-0.19137 0.203552  1.58521 255 255 255
 -0.511346 -0.0610565    1.39635 255 255 255
 -0.398364 -0.0433488     1.4793 255 255 255
-0.260451  0.104998   1.57028 255 255 255
-0.48029 0.129838  1.38511 255 255 255
-0.445345 -0.181367   1.45193 255 255 255
-0.359996  0.157612   1.47969 255 255 255
-0.000527593     0.128515      1.69288 255 255 255
-0.241739 0.0959619   1.57844 255 255 255
-0.184813  0.220774   1.57987 255 255 255
 -0.470922 -0.0403376    1.42403 255 255 255
-0.456282  0.213279    1.3802 255 255 255
-0.126149 0.0465023   1.65338 255 255 255
 0.195218 -0.371218   1.72854 255 255 255
 -0.22324 0.0995111   1.58711 255 255 255
-0.500094  0.106127   1.39012 255 255 255
 -0.456508 -0.0432993    1.43216 255 255 255
-0.432009  0.108831   1.43625 255 255 255
-0.382094 -0.254427   1.50387 255 255 255
-0.463431  0.161273   1.39156 255 255 255
 -0.2838 0.188751  1.52744 255 255 255
-0.0805098   0.118852    1.65921 255 255 255
 0.216575 -0.265654   1.75105 255 255 255
 0.225983 0.0301795   1.76025 255 255 255
 0.292607 -0.125893   1.77958 255 255 255
-0.318857  0.128837   1.52018 255 255 255
-0.537567 -0.188359   1.38877 255 255 255
0.0237302  0.108344   1.69959 255 255 255
-0.405529  0.106993   1.45679 255 255 255
-0.0742992 -0.0228472     1.6759 255 255 255
-0.301154  0.119774   1.53759 255 255 255
-0.329326  0.167621   1.50309 255 255 255
-0.390243 -0.117745   1.49408 255 255 255
0.00967613  0.0156733    1.71099 255 255 255
-0.398659 -0.145932    1.4883 255 255 255
0.0153796  0.125329   1.69651 255 255 255
-0.240145  0.076952   1.59323 255 255 255
-0.191021 0.0825602   1.60794 255 255 255
-0.239377  0.141768   1.57213 255 255 255
 0.0436341 -0.0274138     1.7189 255 255 255
0.263013 -0.23104  1.76321 255 255 255
-0.344818  0.139249   1.49709 255 255 255
 -0.510541 -0.0421864    1.40113 255 255 255
   0.325815 -0.00664026      1.7872 255 255 255
-0.0341684     0.1486    1.67386 255 255 255
-0.368543 0.0562238   1.49985 255 255 255
 -0.494502 -0.0131069    1.40218 255 255 255
-0.439164   0.18053   1.40264 255 255 255
 0.367868 -0.153643   1.78583 255 255 255
-0.250237  0.161549   1.55727 255 255 255
 0.178457 -0.230014   1.74776 255 255 255
 -0.2148 0.082397  1.59552 255 255 255
0.168044 0.149011  1.74126 255 255 255
 0.113319 0.0680376   1.73249 255 255 255
 0.088136 0.0166897   1.73474 255 255 255
-0.251371  0.123097   1.56731 255 255 255
 0.348516 0.0852754   1.78736 255 255 255
  0.254825 -0.0576902    1.77453 255 255 255
-0.124598  0.178459   1.62366 255 255 255
 0.116484 -0.328808   1.71994 255 255 255
-0.314165 0.0224037   1.54166 255 255 255
-0.345588 -0.223588   1.52348 255 255 255
-0.313833 0.0706644   1.53508 255 255 255
 -0.518183 -0.0743648    1.38941 255 255 255
 0.264187 -0.262088   1.75922 255 255 255
-0.375616  0.153802   1.46838 255 255 255
  0.311886 -0.0494167    1.78461 255 255 255
 0.403146 -0.154749   1.79539 255 255 255
 0.0309925 -0.0788257    1.71425 255 255 255
-0.0966792  -0.142387    1.66707 255 255 255
 -0.455162 -0.0103498    1.43584 255 255 255
-0.465531 0.0696955   1.41581 255 255 255
0.158694 -0.29924  1.73532 255 255 255
  0.140083 -0.0132635    1.74707 255 255 255
 -0.350111 -0.0533671    1.52226 255 255 255
-0.115404  0.114063   1.64442 255 255 255
-0.255152 0.0169468   1.58287 255 255 255
0.077776  0.16255   1.7129 255 255 255
 0.335165 0.0703713    1.7822 255 255 255
-0.511995 -0.299173   1.42159 255 255 255
-0.132965  0.055812   1.63833 255 255 255
-0.434183  0.204077   1.40187 255 255 255
-0.519487  0.194811   1.33023 255 255 255
-0.176263 0.0311347   1.62422 255 255 255
-0.181414 0.0943819   1.61304 255 255 255
 -0.43438 0.0726165   1.44223 255 255 255
 0.440877 -0.292145   1.78674 255 255 255
 0.237542 -0.310195   1.74775 255 255 255
-0.406408  0.123844   1.45159 255 255 255
-0.482879  0.165344   1.37403 255 255 255
 -0.15856 0.0468014   1.62784 255 255 255
-0.138091  0.106964    1.6345 255 255 255
 0.248972 -0.238202   1.75921 255 255 255
 0.261946 0.0227183   1.77421 255 255 255
  0.16255 -0.286509   1.73656 255 255 255
 0.411198 -0.138439   1.79744 255 255 255
-0.280367 0.0871784   1.55667 255 255 255
0.0414916 -0.193306   1.70965 255 255 255
 0.159807 -0.357194   1.73008 255 255 255
  0.38735 0.0296778   1.79608 255 255 255
-0.450568   0.15436   1.40483 255 255 255
 0.424913 -0.341968   1.77589 255 255 255
-0.442881   0.12889   1.42126 255 255 255
-0.118142 0.0332187   1.65101 255 255 255
-0.521371 -0.130079   1.39108 255 255 255
-0.113066 -0.100835   1.65773 255 255 255
-0.409302 0.0460567   1.46827 255 255 255
  0.31245 -0.267567   1.76718 255 255 255
0.108987 0.120774  1.73513 255 255 255
   0.21524 -0.0178742    1.76406 255 255 255
-0.107768 0.0598648   1.65124 255 255 255
 0.157024 0.0485027   1.75196 255 255 255
-0.144379  0.213029    1.6014 255 255 255
 0.149867 0.0908629   1.74283 255 255 255
-0.0556637  -0.082314    1.68148 255 255 255
-0.495792 0.0456014   1.39414 255 255 255
 0.261239 -0.275278   1.75547 255 255 255
-0.536813 -0.170774   1.38864 255 255 255
 0.222942 -0.182079   1.75819 255 255 255
-0.0821058   0.207053    1.64197 255 255 255
-0.392522  0.112848   1.46608 255 255 255
-0.470495   0.12311   1.39746 255 255 255
-0.153425 0.0915173   1.62555 255 255 255
-0.0614269   0.188315    1.65087 255 255 255
 -0.394356 0.00108192    1.48556 255 255 255
-0.174639  0.149404   1.60566 255 255 255
   0.228554 -0.00945892     1.76905 255 255 255
-0.271894 -0.104446   1.57809 255 255 255
0.321772 0.015375  1.78508 255 255 255
-0.395641  0.151223   1.45403 255 255 255
  0.383589 -0.0204022    1.79901 255 255 255
-0.0999062   0.132195    1.64593 255 255 255
 0.286343 0.0829956   1.77428 255 255 255
-0.0376352   0.119183    1.67734 255 255 255
   0.38913 0.00833496     1.7985 255 255 255
0.416253 -0.14902  1.79812 255 255 255
  0.141716 0.00808846     1.7487 255 255 255
 0.15265 0.112601  1.74046 255 255 255
-0.327068  0.219203   1.48365 255 255 255
-0.103289 0.0728755   1.65509 255 255 255
  -0.52169 -0.0426017    1.38524 255 255 255
-0.280444  -0.16752    1.5692 255 255 255
 -0.546124 -0.0240654     1.3645 255 255 255
-0.0493091   0.151362    1.66536 255 255 255
-0.340702  0.205469   1.47932 255 255 255
 0.141232 -0.362363   1.72206 255 255 255
-0.107849  0.219552   1.62346 255 255 255
-0.506305 -0.107137   1.40568 255 255 255
0.111043  0.13084  1.73112 255 255 255
-0.484583  0.150168   1.37669 255 255 255
-0.17325 0.172397    1.597 255 255 255
 0.324976 0.0272501   1.78728 255 255 255
-0.223112  0.225349   1.55596 255 255 255
-0.152904  0.192652   1.60738 255 255 255
-0.200564  0.225005   1.56537 255 255 255
-0.430695  0.167653   1.41958 255 255 255
-0.105941  0.208289   1.62688 255 255 255
 0.071262 0.0157126    1.7332 255 255 255
0.0764726 0.0183002   1.72397 255 255 255
  0.11147 -0.272228     1.727 255 255 255
-0.531947  0.192616   1.32386 255 255 255
 0.359534 -0.351968   1.76754 255 255 255
-0.379343  0.042265   1.49093 255 255 255
  0.186421 -0.0818189    1.76135 255 255 255
 0.446238 -0.361013   1.77583 255 255 255
-0.254019  0.194359   1.54424 255 255 255
-0.419659 -0.324873    1.4813 255 255 255
0.057393 0.140352  1.71276 255 255 255
  0.363824 -0.0571224    1.79169 255 255 255
0.0501308 0.0277793   1.71962 255 255 255
-0.358779 0.0157886   1.51098 255 255 255
  0.0120574 -0.00962535     1.70875 255 255 255
-0.491951  0.208599   1.35182 255 255 255
 0.391011 -0.152624   1.79303 255 255 255
 0.171283 0.0282093   1.75385 255 255 255
 0.327929 0.0863625    1.7841 255 255 255
 -0.443444 -0.0373389     1.4495 255 255 255
 0.192758 0.0700262   1.75559 255 255 255
  0.260732 0.00040016    1.77515 255 255 255
-0.103453  0.198316   1.62624 255 255 255
-0.104027 0.0887408   1.65187 255 255 255
 0.145952 -0.240107   1.73933 255 255 255
-0.341533  0.186704   1.48603 255 255 255
 -0.114818 0.00690614    1.65433 255 255 255
0.0651692 0.0988124   1.72685 255 255 255
  0.209035 -0.0918026    1.76241 255 255 255
0.294922 -0.26942  1.76255 255 255 255
  0.11621 -0.240995   1.73004 255 255 255
-0.332475 0.0534472   1.52786 255 255 255
-0.346312  0.165579   1.48648 255 255 255
-0.0984936  -0.168735    1.66374 255 255 255
  0.113457 -0.0218548    1.74187 255 255 255
-0.496447 -0.111976   1.41095 255 255 255
 0.230448 -0.246622   1.75481 255 255 255
 -0.249307 -0.0953357    1.58513 255 255 255
 -0.10646 0.0474562   1.65347 255 255 255
 -0.094372 0.00456004    1.66585 255 255 255
-0.383081  0.108964   1.47417 255 255 255
 0.115949 -0.054357   1.74088 255 255 255
 0.314638 0.0237841   1.78254 255 255 255
0.0610533  -0.27707   1.71066 255 255 255
   0.39261 -0.0358358    1.79901 255 255 255
-0.403374  0.187791   1.43409 255 255 255
 0.281512 -0.217338   1.76643 255 255 255
-0.311417  0.112084   1.51919 255 255 255
  -0.3457 -0.177614   1.52896 255 255 255
-0.197325  0.159622   1.58873 255 255 255
 0.121064 0.0618457    1.7381 255 255 255
-0.224384  0.024125   1.60099 255 255 255
-0.104381 -0.152666   1.65917 255 255 255
-0.281097 0.0388609   1.56528 255 255 255
 -0.12426 0.0733955   1.64805 255 255 255
-0.485524  0.138322   1.38113 255 255 255
 0.405497 -0.369416   1.77283 255 255 255
-0.0601299  0.0767194    1.67771 255 255 255
-0.247151 -0.146681   1.58751 255 255 255
  -0.1339 -0.133711   1.64321 255 255 255
  -0.54688 -0.0363574    1.36171 255 255 255
  -0.15721 -0.0922957    1.63995 255 255 255
-0.0851904 -0.0388941    1.67341 255 255 255
0.194724 0.162416   1.7447 255 255 255
-0.163689  0.173733   1.60496 255 255 255
-0.0856703   0.216304    1.63542 255 255 255
-0.413891  0.133697   1.44118 255 255 255
-0.379728 0.0536136   1.48789 255 255 255
-0.394502  0.168196   1.44842 255 255 255
-0.448836  0.131708   1.41659 255 255 255
-0.103084 0.0181662   1.65519 255 255 255
-0.0810935   0.095246     1.6619 255 255 255
  0.31813 0.0841274   1.78056 255 255 255
0.0640648 0.0578143   1.72218 255 255 255
 0.369137 0.0712994   1.78615 255 255 255
-0.361197 0.0269297   1.51004 255 255 255
  0.311831 -0.0121964    1.78364 255 255 255
-0.0649241   0.118992    1.66521 255 255 255
-0.460125  0.126789   1.40522 255 255 255
 0.0724932 -0.0511073    1.72943 255 255 255
 0.289407 -0.106843   1.77873 255 255 255
 -0.543349 -0.0684774    1.37376 255 255 255
-0.147745  0.119557   1.62858 255 255 255
-0.515742 -0.287639   1.41639 255 255 255
-0.362985  0.228713   1.45217 255 255 255
 0.398587 0.0171128   1.79862 255 255 255
 -0.28302 -0.233614     1.563 255 255 255
-0.0201769   0.169253    1.67677 255 255 255
 0.146981 -0.374103     1.722 255 255 255
-0.247116  0.111163   1.57425 255 255 255
-0.00826566     0.11398     1.68903 255 255 255
 0.146946 -0.115034   1.74892 255 255 255
-0.357262 0.0674979   1.50639 255 255 255
0.195341 0.129087  1.74791 255 255 255
-0.119174 -0.317588   1.64291 255 255 255
-0.266471  0.128053   1.55534 255 255 255
-0.0334877 0.00856584    1.69025 255 255 255
-0.244325 -0.104407   1.59029 255 255 255
-0.341114  0.236815   1.46507 255 255 255
-0.549006 -0.243626   1.39386 255 255 255
-0.281026 0.0963043   1.55479 255 255 255
   0.350283 0.000960138     1.79251 255 255 255
 0.133674 -0.278967    1.7308 255 255 255
-0.376242  0.133104   1.47599 255 255 255
-0.546855 -0.232676   1.38485 255 255 255
-0.0131324  -0.288503     1.6842 255 255 255
-0.336141 0.0915488    1.5133 255 255 255
0.0779985 -0.020776   1.73181 255 255 255
-0.33956 0.227364  1.47121 255 255 255
 -0.23042 -0.102798   1.59632 255 255 255
-0.505552   0.11388   1.36711 255 255 255
  0.315303 -0.0898204    1.78188 255 255 255
-0.476803  0.220057   1.35982 255 255 255
  0.380858 0.00820947    1.79623 255 255 255
-0.090881  0.122191   1.65512 255 255 255
-0.465699 0.0298464   1.42222 255 255 255
-0.416856  0.185047   1.42255 255 255 255
-0.426371  0.153516   1.42584 255 255 255
-0.214678 -0.163266   1.59806 255 255 255
  0.122862 -0.0627625    1.74403 255 255 255
 0.166646 -0.315221   1.73492 255 255 255
 0.187929 0.0104334   1.76037 255 255 255
-0.201814  0.083022   1.60689 255 255 255
0.0923373 -0.332544    1.7092 255 255 255
-0.214059 -0.223078   1.60116 255 255 255
-0.0123772   0.105714     1.6892 255 255 255
 0.378319 -0.366416   1.76499 255 255 255
 0.362859 0.0763282   1.79251 255 255 255
-0.471163  0.215671   1.36416 255 255 255
-0.101799  0.194035    1.6309 255 255 255
 0.411105 -0.112402   1.79988 255 255 255
-0.458647  0.159448   1.39726 255 255 255
-0.146435 0.0732128   1.63426 255 255 255
-0.284415 -0.209143   1.56678 255 255 255
-0.0688189   0.144692    1.65916 255 255 255
 0.0138886 0.00720358    1.70959 255 255 255
-0.335804  0.235424   1.46974 255 255 255
  0.382585 -0.0958011    1.79752 255 255 255
-0.196607 0.0920266   1.60181 255 255 255
-0.320323 -0.342912   1.54064 255 255 255
-0.290038  0.118152   1.54118 255 255 255
 0.203125 -0.226963   1.75004 255 255 255
 0.398515 -0.340448   1.77203 255 255 255
-0.343797  0.195644   1.48024 255 255 255
0.0404674 0.0508785   1.71695 255 255 255
-0.393533  0.200926   1.43639 255 255 255
 -0.222941 -0.0731565    1.60269 255 255 255
-0.290564 -0.353306   1.56573 255 255 255
0.00144703   0.170019    1.68682 255 255 255
-0.227328  0.157053   1.57718 255 255 255
-0.406775 0.0562846   1.46547 255 255 255
  0.401924 -0.0118311    1.80019 255 255 255
-0.417399 0.0403457   1.45903 255 255 255
0.0503831 0.0828831   1.71576 255 255 255
-0.386783 -0.336146    1.4972 255 255 255
 -0.488163 -0.0320041    1.40943 255 255 255
 -0.302407 0.00290865    1.55404 255 255 255
 -0.548026 -0.0591135    1.36411 255 255 255
0.262752 0.128304  1.76608 255 255 255
 -0.29293 0.0946247   1.54734 255 255 255
-0.165514 0.0318855   1.62905 255 255 255
0.195938 0.109353  1.75166 255 255 255
-0.150005  -0.16148   1.64091 255 255 255
-0.381508 0.0873278   1.48205 255 255 255
-0.211453  0.222201   1.56325 255 255 255
-0.382327  0.135044   1.46798 255 255 255
  0.376302 -0.0763697    1.79551 255 255 255
-0.0954507   0.130899    1.65308 255 255 255
 0.0443713 -0.0531129     1.7239 255 255 255
-0.372267  0.148062   1.47676 255 255 255
-0.385276   0.16521   1.45968 255 255 255
-0.125807 -0.122178   1.65339 255 255 255
 0.0795318 -0.0349969     1.7327 255 255 255
-0.0712104 -0.0551441    1.67547 255 255 255
0.440274 -0.34941  1.77612 255 255 255
-0.130895  0.198919    1.6175 255 255 255
 0.172341 -0.176925   1.74966 255 255 255
-0.411643  0.144434   1.44159 255 255 255
  0.317688 -0.0170558    1.78404 255 255 255
 0.393362 0.0225331   1.79967 255 255 255
-0.553901 -0.160981   1.37315 255 255 255
-0.00391033   0.0847074       1.695 255 255 255
-0.138224  0.121587   1.63185 255 255 255
-0.355176 -0.265062   1.52014 255 255 255
0.172722 -0.32552  1.73604 255 255 255
-0.385787  0.034852   1.48954 255 255 255
-0.443917  0.021797    1.4422 255 255 255
-0.543347 -0.286759   1.40082 255 255 255
 0.248541 -0.336501   1.74913 255 255 255
-0.400128  -0.10752   1.48742 255 255 255
-0.400353  0.196916    1.4338 255 255 255
-0.494235  0.120664   1.37704 255 255 255
-0.192896  0.145211   1.59633 255 255 255
0.0406708 0.0593118    1.7176 255 255 255
-0.27641 0.125686  1.55069 255 255 255
-0.487907  0.127993    1.3816 255 255 255
-0.189691 0.0918042   1.60949 255 255 255
-0.379311  0.129959   1.47268 255 255 255
-0.440085  0.156266    1.4141 255 255 255
-0.536692  0.178075   1.32206 255 255 255
-0.316732 0.0499055   1.53711 255 255 255
 0.340971 -0.283174   1.76723 255 255 255
-0.516642   0.21046   1.32574 255 255 255
-0.0825941   0.158693       1.65 255 255 255
-0.453749  0.227642   1.37729 255 255 255
  0.23513 -0.136412   1.76776 255 255 255
-0.202689 0.0744743   1.60623 255 255 255
0.188731 0.113159  1.75127 255 255 255
 0.108317 -0.359529   1.71694 255 255 255
-0.124151  0.218318    1.6104 255 255 255
  0.409151 -0.0874908     1.7993 255 255 255
-0.0324804  -0.129061    1.69281 255 255 255
0.0417337   0.15561   1.70251 255 255 255
0.00263196   -0.09376    1.70452 255 255 255
-0.463878  0.169152   1.38875 255 255 255
-0.0400603   0.138178    1.67227 255 255 255
 -0.324702 -0.0646946    1.53995 255 255 255
-0.36995 0.164037  1.47121 255 255 255
0.0670009  0.169661   1.70712 255 255 255
0.00810979   0.165063    1.68452 255 255 255
 0.198348 -0.322449   1.74044 255 255 255
-0.406587 -0.311976   1.48689 255 255 255
-0.540368 -0.151591   1.38184 255 255 255
 0.280937 -0.255089   1.76076 255 255 255
0.0403239   -0.2334   1.70792 255 255 255
-0.370742  0.155614   1.47329 255 255 255
-0.364267  0.145325   1.48021 255 255 255
-0.455948  0.141149    1.4045 255 255 255
-0.24923 -0.17968  1.58569 255 255 255
 -0.164424 -0.0168163    1.63379 255 255 255
-0.44104 0.171149  1.40689 255 255 255
-0.234005 -0.212159   1.59311 255 255 255
-0.0738155  0.0901695    1.66305 255 255 255
-0.402771  0.177289   1.43783 255 255 255
-0.0817093   0.179952    1.64324 255 255 255
-0.256749  -0.17897   1.58438 255 255 255
  0.397066 -0.0794167    1.79702 255 255 255
 -0.49236 -0.301995   1.42952 255 255 255
-0.314936  0.213692   1.49614 255 255 255
   0.0909831 -0.000974835      1.73649 255 255 255
-0.0448847 -0.0466745     1.6881 255 255 255
-0.415475  0.155373   1.43557 255 255 255
-0.389469  0.217996   1.43393 255 255 255
-0.452198  0.166873   1.39869 255 255 255
-0.167142 -0.212278   1.62777 255 255 255
-0.386354  0.157367   1.45916 255 255 255
-0.43638 0.127741  1.42507 255 255 255
-0.210035  0.212061   1.56912 255 255 255
-0.485347  0.210947   1.35652 255 255 255
-0.420537   0.17798   1.42335 255 255 255
-0.442598  0.116859    1.4237 255 255 255
-0.367351  0.189363   1.46488 255 255 255
 0.287007 -0.379674   1.74758 255 255 255
-0.336961 -0.224351   1.53368 255 255 255
-0.406727  0.171709   1.43717 255 255 255
-0.0613622   0.154079     1.6572 255 255 255
 -0.28669 -0.273245   1.56159 255 255 255
 0.121059 -0.119925   1.74102 255 255 255
-0.479004 0.0170607   1.41225 255 255 255
-0.447296 0.0152741   1.44061 255 255 255
-0.122265 -0.108068   1.65638 255 255 255
-0.0224348  -0.261748    1.68591 255 255 255
 0.110175 0.0239157   1.73685 255 255 255
 -0.200496 -0.0151857    1.61802 255 255 255
-0.0714744   -0.34264    1.65931 255 255 255
-0.321193  0.238584    1.4808 255 255 255
-0.305168 -0.206875   1.55495 255 255 255
 0.199297 -0.384638   1.73436 255 255 255
 -0.531951 -0.0332335    1.37063 255 255 255
-0.499809  0.142658   1.36386 255 255 255
 0.193817 -0.164461   1.77188 255 255 255
 0.416926 -0.181334   1.79476 255 255 255
 0.280296 -0.282759   1.76058 255 255 255
  0.385724 -0.0702995    1.79622 255 255 255
 0.282733 -0.265622   1.76143 255 255 255
  0.326408 -0.0936756    1.78159 255 255 255
  0.124321 -0.0969743    1.74541 255 255 255
 0.282271 -0.111335    1.7786 255 255 255
0.0799335 -0.177265   1.73471 255 255 255
 0.223648 -0.038369    1.7694 255 255 255
-0.386035  0.200097   1.44548 255 255 255
  0.241041 -0.0128035    1.77018 255 255 255
-0.402771  0.177289   1.43783 255 255 255
-0.185696 -0.164581   1.62066 255 255 255
