ply
format ascii 1.0
element vertex 1166
property float x
property float y
property float z
property uchar red
property uchar green
property uchar blue
end_header
1.219405 -0.817537 -0.416624 53 65 41
1.590607 -0.180576 -0.190042 53 50 35
1.613902 -1.249074 -0.314196 239 240 232
2.556861 -3.015835 0.321392 25 26 12
1.484993 -0.469597 -0.167450 55 38 44
1.418477 0.372495 -0.224756 71 58 41
1.749814 0.397095 -0.224537 37 34 19
1.990082 0.568999 -0.159687 164 147 121
2.152487 -1.367220 -0.087657 228 218 209
2.818137 -1.591639 0.181385 209 200 191
1.512075 0.113933 -0.169529 161 139 115
1.806164 0.470933 -0.219347 181 177 174
1.880165 0.650112 -0.199125 71 63 52
1.636822 -0.091239 -0.191222 173 159 146
2.318093 -0.767316 -0.273368 72 86 50
1.804913 0.516656 -0.218666 211 201 191
2.440496 -0.923104 -0.101269 206 200 200
2.883633 -1.442819 0.197028 82 101 55
1.598728 -0.455766 -0.176592 238 239 244
1.089177 -0.392767 -0.203981 179 175 166
1.918572 -1.905535 0.024603 76 73 84
2.614326 -0.964791 -0.001431 170 173 178
2.835479 -1.875851 0.188084 89 75 46
1.558726 -1.048119 -0.338273 108 114 126
1.654060 0.054277 -0.186302 164 145 130
1.584775 -0.006978 -0.208487 73 65 42
1.417416 0.164700 -0.217068 22 17 23
1.849515 0.202186 -0.152192 196 187 178
1.460774 0.167769 -0.158568 190 168 147
2.563575 -0.407978 0.011220 255 254 255
1.786348 0.363597 -0.219530 61 65 50
2.033799 0.438236 -0.133875 171 158 141
2.674775 -1.530533 0.164214 214 206 203
1.901635 0.121362 -0.153749 199 188 170
1.358560 -0.491672 -0.424600 5 10 3
1.298778 -0.219667 -0.194865 221 211 202
1.475595 0.348348 -0.225354 206 196 184
2.110669 0.398357 -0.070271 43 34 35
1.636606 0.365783 -0.234640 72 59 42
2.844224 -0.229464 -0.062675 231 241 243
0.716478 -0.494282 -0.254425 113 119 81
2.666730 -1.726422 0.141289 113 131 71
2.455704 0.088371 -0.197639 16 19 8
1.870660 0.279432 -0.176872 129 116 99
1.840409 0.374055 -0.193774 202 199 192
2.867945 -0.240653 -0.035994 190 195 199
1.396460 -1.073950 -0.252359 135 140 144
2.131158 -0.337255 -0.063609 53 44 45
3.014175 -1.536520 0.255037 21 28 10
2.121545 -2.049461 0.072293 158 154 145
1.829425 0.606117 -0.214775 82 65 57
1.531080 -0.082171 -0.217672 211 196 177
1.587210 0.077115 -0.202335 88 75 59
2.908881 -2.446837 0.319085 168 156 142
1.256126 -0.778617 -0.420252 64 81 37
1.886684 0.328218 -0.190933 96 80 64
2.002335 -1.318439 -0.218740 93 87 87
1.831209 -0.090817 -0.173186 200 188 162
1.532821 -0.259463 -0.268396 22 35 9
1.781953 0.050741 -0.153384 203 190 174
2.043782 0.194354 -0.129216 183 165 141
1.830091 0.395062 -0.202708 60 61 53
1.810587 0.303430 -0.199854 177 174 169
2.597490 -1.546426 0.145545 96 113 61
3.602097 -0.825994 0.041255 204 207 216
2.381697 -0.045902 0.000205 173 170 165
1.867972 0.309002 -0.186113 202 194 191
1.952564 -0.672243 -0.116722 157 156 135
2.062444 -2.085997 0.050126 13 14 8
1.496447 0.216068 -0.187322 84 74 65
2.640668 -0.453425 0.006694 43 42 56
3.316471 -1.291688 0.313172 80 99 43
2.890683 -0.259260 -0.037085 232 239 245
2.901725 -0.242041 -0.052625 226 236 238
1.892472 0.200264 -0.137442 81 73 54
2.521146 -2.589417 0.245112 174 158 143
3.154448 -1.366145 0.269543 85 117 52
3.109469 -1.455882 0.242500 87 110 66
1.758239 -0.791252 -0.141021 29 26 35
1.942868 -1.596389 -0.121506 64 59 55
1.660180 0.223022 -0.192583 47 38 31
3.334501 -1.368775 0.088168 120 122 82
2.338703 -1.663472 0.022587 65 76 46
0.986089 -0.435016 -0.180964 168 166 171
1.617719 -0.495013 -0.139762 124 139 74
1.817261 -1.336631 -0.280674 17 31 5
2.086803 0.372135 -0.065355 158 142 127
2.083197 -2.506420 0.153010 172 175 182
2.112040 0.306901 -0.026507 147 127 94
3.256697 -0.720155 -0.033152 201 211 223
1.554941 0.139522 -0.179929 191 173 151
0.988687 -0.148653 -0.258625 50 51 46
3.088268 -1.567742 0.246369 211 199 187
2.131571 -1.372360 -0.102729 45 42 27
2.799364 -0.605463 -0.076083 220 220 220
1.908282 -0.056918 -0.141430 136 127 98
1.994434 -1.990464 0.033426 184 183 181
1.031481 -0.207412 -0.367079 13 18 12
2.430984 -2.638496 0.220586 16 19 12
1.771950 -0.732774 -0.142894 41 38 47
1.607908 -0.000868 -0.191563 77 68 51
2.555101 -0.315818 0.008221 180 176 175
2.101801 0.335232 -0.056978 167 136 115
1.221038 -0.476706 -0.233281 230 230 238
2.315047 -0.070223 -0.017653 15 15 23
2.993182 -2.411859 0.340840 168 149 132
2.120767 -2.444150 0.138687 53 60 70
3.265321 -0.708958 0.019384 79 83 92
2.880786 -2.062416 0.257914 151 151 161
1.707104 -0.857283 -0.161694 15 15 13
3.064451 -1.503374 0.236986 141 144 91
3.608119 -1.424556 0.375070 76 65 47
3.288527 -0.765601 -0.041747 76 78 90
3.031519 -1.831533 0.166858 56 61 38
3.316879 -0.736098 -0.027382 204 208 219
3.145538 -1.471394 0.262263 81 103 56
2.090462 -0.988484 -0.337052 85 84 89
2.148175 -0.236533 -0.042059 108 101 93
2.128181 -0.334329 -0.092202 217 218 222
1.418393 0.164498 -0.245959 226 224 229
2.152514 0.079393 -0.030993 72 56 41
3.304748 -0.692996 -0.035568 77 81 93
1.526397 -0.112222 -0.225177 176 169 151
2.863775 -2.903576 0.384103 35 34 29
1.866391 0.007173 -0.155680 53 49 24
2.045018 -0.361780 -0.059239 187 186 184
1.633353 0.041259 -0.203166 186 170 145
2.210388 -0.144032 -0.056462 156 159 164
2.091708 0.417514 -0.107231 55 50 54
2.614830 -0.404911 0.032083 188 181 171
2.323024 -2.655047 0.200975 85 88 69
2.118072 -0.107407 -0.063968 23 21 9
2.226198 -1.018150 -0.231170 62 58 57
3.614116 -1.396626 0.372404 187 186 165
2.916250 -0.207983 -0.052012 234 238 241
2.034598 0.396174 -0.122662 57 51 29
2.222068 0.313408 0.000271 72 65 49
2.639128 -2.560627 0.250954 21 22 14
1.255194 -0.480732 -0.198519 204 209 213
1.936995 -0.074973 -0.143376 24 18 2
3.475512 -1.282561 0.347841 109 103 89
1.934516 -0.834616 -0.131579 164 160 151
3.301603 -0.710707 -0.042320 79 83 95
1.990608 0.446726 -0.137395 40 26 17
2.224430 -0.134915 -0.046779 189 186 195
1.222108 -0.512730 -0.207902 108 118 84
2.888714 -0.303298 -0.053449 237 241 240
2.438914 -0.934307 -0.028764 218 213 210
2.058713 0.263068 -0.116684 116 109 91
0.392554 -0.412158 -0.279792 62 64 59
1.657488 -1.820789 -0.028740 36 37 39
1.883710 0.300590 -0.179392 87 77 67
0.504038 -0.482622 -0.272742 249 249 255
2.210170 -0.163250 -0.041273 17 19 18
0.915456 -0.462825 -0.229557 193 193 193
2.434460 -2.605269 0.223942 190 181 172
1.926749 0.032994 -0.165887 82 82 46
3.182294 -1.409117 0.259024 156 150 102
1.677509 0.308043 -0.226198 33 29 20
2.227960 -1.398183 -0.074078 60 50 38
1.324738 -0.501489 -0.210277 23 26 15
2.521991 -0.318367 -0.002812 177 172 169
1.881978 0.219030 -0.141814 172 160 146
2.717163 -2.941399 0.364655 75 71 72
2.035118 -0.255048 -0.065961 50 31 25
0.692707 -0.508419 -0.264501 31 33 20
2.184715 0.345631 -0.018538 77 70 52
1.797871 0.275777 -0.188789 34 34 24
1.493985 0.317774 -0.225472 192 182 170
1.674303 0.295391 -0.202544 201 192 183
2.347735 -2.419631 0.179000 41 45 56
1.692544 -0.702020 -0.162818 18 26 11
1.230869 0.065288 -0.220506 210 207 200
1.514350 0.351375 -0.217453 85 72 53
1.682861 -1.207086 -0.212373 172 161 155
1.919043 0.337922 -0.172564 47 44 35
2.151581 -2.467300 0.157857 105 108 123
2.126380 -2.530475 0.147783 183 185 200
2.994959 -1.465658 0.209369 123 139 77
1.927830 -2.305090 0.086535 60 60 72
1.247987 -0.846505 -0.414014 237 246 245
2.030868 0.423016 -0.131633 61 56 37
2.079595 -0.958419 -0.326469 97 97 99
0.769800 -0.616381 -0.277190 108 116 77
1.823286 0.088030 -0.157037 94 82 66
2.632511 -0.555351 -0.254994 73 89 52
2.168546 -0.362834 -0.072977 50 57 23
2.940387 -2.652587 0.372474 42 47 15
2.771090 -0.499132 -0.074633 187 197 199
2.575101 -1.982634 0.166996 163 154 147
0.742751 -0.474525 -0.245109 34 32 35
1.689228 -1.854818 -0.013105 63 64 66
1.836632 -1.913233 0.015785 193 185 183
3.108976 -1.896463 0.259413 84 83 78
3.058839 -1.608889 0.187666 225 221 212
2.819327 -1.865991 0.206770 238 224 211
1.763002 -1.860770 -0.032039 236 240 251
2.409368 -0.008885 0.007413 67 79 95
2.671032 -2.527275 0.247392 235 235 243
3.616254 -0.893845 0.057728 222 225 232
2.597391 -0.445382 0.006553 185 202 222
1.847554 0.641396 -0.225254 79 73 59
2.259587 -0.770803 -0.049848 215 220 226
2.233756 -1.577906 0.080143 193 184 175
1.511521 0.144238 -0.171228 148 115 84
1.676961 -1.830762 -0.018920 235 239 240
3.464343 -1.268249 0.345923 234 224 222
1.744975 -0.747271 -0.144750 87 86 81
2.362282 -2.432856 0.212297 27 29 44
2.539105 -2.343340 0.223959 137 128 121
2.222832 -0.211454 -0.024185 165 164 160
3.331550 -0.660697 -0.026855 76 80 92
1.584816 -0.033048 -0.209625 208 189 172
3.324683 -0.773732 -0.031281 78 80 93
3.642274 -0.850809 0.049339 80 84 93
1.695767 -0.113126 -0.188466 81 70 52
1.594848 -1.022274 -0.250869 109 111 124
1.794152 0.123978 -0.154346 175 165 155
1.494178 -0.174540 -0.196761 45 42 27
1.983079 0.385850 -0.131002 68 61 45
2.171574 0.303868 -0.008197 62 52 42
3.585212 -0.859009 0.028784 73 77 89
1.693541 -0.725480 -0.158810 97 112 71
2.025643 0.477189 -0.138262 184 169 146
2.030925 0.480302 -0.144104 184 169 146
2.127387 0.045473 -0.113382 71 59 47
1.599231 0.130794 -0.176919 210 194 178
1.607712 0.134645 -0.184724 208 196 182
3.342227 -0.778435 -0.027078 80 82 95
1.975464 0.408959 -0.146690 34 21 4
2.282167 -1.361041 -0.082563 93 106 76
2.787263 -2.197023 0.270544 222 227 233
1.653237 0.052456 -0.179648 201 185 170
3.182798 -1.494611 0.354329 85 95 43
2.835690 -2.448394 0.285731 245 246 248
3.602464 -0.864822 0.035370 69 75 87
1.725996 -1.855154 -0.037401 241 242 244
1.703595 0.152317 -0.156372 36 25 19
2.194830 0.258547 -0.097727 133 123 113
2.551364 -2.065809 0.167211 66 70 45
1.547896 0.156444 -0.178140 210 189 170
1.981460 -0.825897 -0.342931 244 240 239
2.385893 -2.390953 0.199042 173 170 177
1.648771 -1.128414 -0.214157 187 187 197
1.726219 -1.825877 -0.021428 238 241 250
1.488544 -1.673056 -0.044006 190 185 165
3.343261 -0.602017 -0.017487 76 80 92
1.373495 -0.230934 -0.178456 63 57 45
1.762923 -1.836624 -0.012600 240 243 250
1.506961 0.382524 -0.193450 92 80 66
2.723293 -0.581344 -0.111149 254 255 255
2.929932 -2.210914 0.307488 140 134 134
1.299064 -0.923896 -0.322625 239 242 247
1.684199 -1.849541 -0.041864 164 186 147
2.020213 0.465733 -0.144909 88 71 51
1.342061 -0.259310 -0.312705 18 25 7
1.706847 -1.013275 -0.179187 48 45 40
3.450228 -0.870335 0.067784 87 89 102
2.202734 -0.101752 -0.043327 152 140 116
0.749428 -0.519124 -0.249682 18 28 1
1.921116 0.071166 -0.159565 184 164 153
2.005920 0.215791 -0.126340 178 168 156
2.369221 -2.235832 0.171301 243 246 255
1.710287 0.123585 -0.156916 78 62 49
2.042189 0.464149 -0.122183 199 183 160
2.829707 -1.848342 0.184449 238 224 211
2.881516 -2.432354 0.276499 238 241 246
1.899436 0.073105 -0.154337 205 182 166
2.163064 0.324836 -0.028174 60 48 36
3.308634 -0.767925 -0.038346 80 82 95
2.233074 0.226074 -0.095158 106 99 89
2.020272 0.143615 -0.134426 99 86 77
2.195416 0.367276 -0.034810 202 190 178
1.788835 0.081987 -0.150569 85 71 58
1.788268 0.081589 -0.150442 85 71 58
2.150114 -2.491395 0.139222 174 168 180
2.485889 -1.996985 0.093766 27 35 11
1.800052 -0.038216 -0.157181 161 146 125
2.094119 -0.983510 -0.314987 227 226 231
0.718483 -0.468839 -0.259165 23 28 32
3.308207 -1.980618 -0.007454 90 93 100
2.636057 -0.951597 0.000792 39 37 38
2.666594 -0.964593 0.046774 148 119 113
1.771877 0.009628 -0.154580 185 172 156
1.232911 -0.838009 -0.425773 237 243 243
2.499487 -1.991875 0.136373 45 42 27
2.891740 -1.636936 0.192006 134 118 119
3.787871 0.162811 0.131394 68 70 83
2.490802 -0.307310 0.003617 178 174 171
3.205815 -1.647517 0.443363 225 218 202
2.116785 -0.314489 -0.044119 115 108 98
1.905325 0.618629 -0.214128 191 177 164
2.021547 -2.019203 0.039539 161 157 156
3.638076 -0.872261 0.042292 66 72 86
3.291284 -0.930255 -0.126861 98 112 77
3.328269 -1.371610 0.323074 153 153 83
1.389616 -0.223405 -0.169836 180 171 156
2.053233 -1.075526 -0.322094 68 64 65
1.375492 0.386552 -0.201877 87 74 58
1.558798 0.118852 -0.190821 91 73 49
2.025044 0.120651 -0.153569 195 185 173
3.617827 -0.706679 -0.100266 71 73 88
1.103075 -0.448645 -0.194598 153 153 145
2.086160 -0.962629 -0.350207 229 229 231
2.107639 0.102564 -0.038407 114 100 87
2.028772 -0.334890 -0.056539 50 45 49
1.182895 -0.913913 -0.349488 107 111 122
2.766786 -2.926822 0.349244 235 236 238
2.734791 -0.643919 -0.089664 47 57 66
3.619461 -0.871779 0.043709 73 83 93
2.457320 -2.589205 0.226715 94 101 117
1.830105 -0.270134 -0.210209 128 141 115
1.125931 -0.482219 -0.245007 226 220 160
1.796733 -0.833155 -0.139482 84 96 108
2.774657 -0.582716 -0.083666 185 197 197
1.892622 -0.067064 -0.147906 51 40 22
1.603993 -0.462306 -0.154439 60 60 70
2.108634 0.140357 -0.023477 196 179 163
2.043898 0.345309 -0.116996 190 176 163
1.275563 -0.066381 -0.224060 36 27 18
2.168156 -0.257066 -0.039501 162 159 150
1.738950 0.170934 -0.153403 155 151 139
3.327937 -0.941945 0.203870 80 82 95
1.602320 -0.893713 -0.413810 107 111 123
3.321107 -0.715495 -0.040241 77 81 93
3.278753 -0.697527 -0.035073 206 215 220
1.749965 -0.808927 -0.151620 79 83 94
2.157801 -0.270488 -0.044810 120 115 112
2.469157 -2.625096 0.193772 55 68 42
3.249095 -1.397014 0.279819 148 144 97
1.900754 0.598925 -0.188704 197 186 168
2.825336 -1.729271 0.180438 226 223 214
2.217692 -1.055523 -0.214228 221 218 211
2.745362 -2.480431 0.282355 35 25 33
1.689860 0.201854 -0.182225 94 81 73
2.076486 -0.687385 -0.214482 94 100 88
0.628147 -0.462103 -0.260692 223 234 230
3.551221 -0.898246 0.078748 206 209 214
2.035812 -0.368559 -0.069388 42 41 47
1.858840 0.130143 -0.151303 183 166 150
1.331309 -0.465072 -0.208146 227 231 240
1.922825 0.046793 -0.170861 181 169 145
1.898204 0.230302 -0.143250 81 70 64
2.717999 -0.566019 -0.106431 228 229 231
0.694661 -0.497687 -0.299673 101 102 88
2.056743 0.359076 -0.111887 174 154 130
2.875408 -0.205697 -0.055047 233 237 240
1.407726 0.402489 -0.187270 138 120 98
1.566547 -1.791608 -0.040621 243 243 253
3.471251 -1.285623 0.326044 232 225 217
2.498907 -1.991947 0.110488 82 94 56
2.003269 0.201816 -0.136461 173 163 154
1.615997 -0.467768 -0.146372 236 233 240
2.313546 0.268815 -0.118796 211 207 206
2.166975 0.329210 -0.017627 211 201 191
1.229446 -0.822419 -0.444367 229 238 235
1.450696 -1.736638 -0.049290 190 177 168
2.280454 -2.352813 0.174533 154 148 148
1.711961 0.437377 -0.224003 82 74 61
3.656178 -1.484692 0.381458 21 23 12
2.161656 -0.193015 -0.051507 34 29 26
2.179199 0.352496 -0.043194 186 175 157
1.886015 0.473645 -0.197533 178 173 167
1.681701 0.285084 -0.219264 80 71 56
1.631985 -0.036774 -0.196321 74 73 45
2.058417 0.399377 -0.118419 57 50 42
3.331862 -1.302628 0.316146 129 138 81
3.410397 -1.301160 0.320309 153 135 125
2.361627 -1.515301 0.102678 198 199 181
2.760051 -0.492650 -0.088869 218 221 228
1.573876 0.226469 -0.195925 194 183 177
0.994160 -0.505115 -0.225433 29 29 31
3.338679 -0.718814 -0.034689 75 79 91
2.420122 -0.927876 -0.093637 217 219 218
3.109820 -1.434239 0.243350 226 229 210
1.520064 -0.849021 -0.359749 54 58 43
3.202259 -1.428971 0.244034 153 149 104
3.335589 -0.640171 -0.024491 74 78 90
2.613553 -0.271009 0.019816 96 96 94
1.965119 0.385648 -0.175675 212 200 188
2.700952 -2.980438 0.286834 112 119 101
2.015880 0.185564 -0.137511 112 100 88
1.995969 -0.154846 -0.126705 66 76 42
1.773492 0.367855 -0.222639 64 69 47
2.033211 0.212429 -0.124749 197 175 162
1.789491 -0.847980 -0.146834 13 15 30
1.256892 0.032375 -0.232530 208 203 197
2.255983 -1.583082 0.079571 102 105 62
1.139870 -0.481783 -0.238237 30 24 12
1.988926 -0.007898 -0.155464 45 43 28
1.900792 -0.129348 -0.113386 21 26 0
2.117579 0.299004 -0.021208 185 164 137
1.468175 -0.515163 -0.141288 103 97 63
2.159648 0.382970 -0.043312 176 174 162
0.354817 -0.656689 -0.380728 37 31 33
1.475823 0.061842 -0.201947 84 88 100
2.311337 -2.385581 0.171702 226 234 236
2.508769 -2.009516 0.104100 8 15 0
2.082105 0.270760 -0.061033 56 43 34
2.350029 -1.674186 0.093072 108 123 94
1.150300 -0.514694 -0.195758 91 96 64
1.450127 -0.127256 -0.219749 70 80 90
1.857797 0.090054 -0.169189 194 184 174
2.835721 -0.501635 -0.079358 190 194 195
1.837671 0.330100 -0.191643 67 56 50
1.954524 -1.604704 -0.142386 194 193 188
1.651519 0.185875 -0.176317 68 55 39
1.677243 -1.886447 -0.038338 17 24 6
3.339090 -0.630225 0.059077 197 200 209
1.951839 0.344050 -0.182729 208 211 202
0.891267 -1.328897 -0.012125 103 107 118
0.981403 -0.507569 -0.243183 251 252 255
1.969080 0.351283 -0.175455 211 202 193
1.716774 0.051507 -0.167316 128 115 99
1.831115 0.341684 -0.196031 165 158 148
0.497255 -0.428782 -0.266859 181 182 184
1.704349 0.013728 -0.174824 110 108 93
1.760953 0.545355 -0.218419 168 152 139
1.783875 -0.014029 -0.152895 164 150 137
1.923598 0.581102 -0.148454 43 33 24
2.430775 -1.828165 0.011288 87 90 79
2.733576 -1.914239 0.183773 89 76 60
0.614603 -0.456289 -0.266965 16 25 32
1.685578 -1.007557 -0.221485 122 121 129
2.447961 -0.912028 -0.028486 21 13 24
2.847500 -2.476751 0.294205 17 21 20
2.808001 -0.222594 -0.081553 85 86 90
1.845374 0.628008 -0.222286 192 182 172
3.169719 -1.371109 0.255371 134 149 92
2.833954 -0.505894 -0.070820 190 194 193
1.900368 0.129039 -0.149995 201 189 173
1.865990 -1.269911 -0.284188 119 112 106
1.893831 0.624809 -0.212515 81 67 54
2.192200 0.099026 -0.002413 181 161 137
1.770582 0.446731 -0.215414 70 68 56
2.673111 -3.004131 0.346682 20 20 20
0.979899 -0.401797 -0.199652 171 174 165
3.338482 -0.587978 0.073120 190 200 201
2.715716 -0.279927 0.018657 68 58 57
2.789694 -0.517738 -0.080243 184 194 196
3.100767 -1.492349 0.248514 201 216 197
1.832122 0.333620 -0.205415 32 32 30
2.515910 -0.232056 -0.005606 43 35 33
2.249406 -2.624748 0.185379 86 44 56
2.923081 -1.370949 0.198302 212 212 210
1.841989 0.466708 -0.195430 67 56 34
1.672661 0.057888 -0.177302 81 72 63
3.501415 -0.924808 0.045582 246 246 244
1.299539 -0.028768 -0.248474 104 91 85
2.887423 -0.329263 -0.056492 231 237 235
2.349416 0.208172 0.013432 182 171 143
1.675451 -0.760519 -0.183098 13 26 6
1.860669 0.177953 -0.141139 83 75 62
2.245466 0.206731 -0.089843 160 153 143
2.331741 -2.243919 0.192501 50 59 56
2.575584 -0.415686 0.011495 244 242 247
2.225056 -0.509182 -0.062020 9 11 0
1.587602 0.008871 -0.186579 131 124 105
2.067413 0.408729 -0.117668 166 164 152
1.943861 0.374829 -0.167559 119 103 80
1.151105 -0.724324 -0.221428 102 98 87
2.096564 -2.429808 0.139682 221 225 237
1.913841 0.327146 -0.178161 208 200 189
2.706749 -0.950408 0.022856 150 115 113
1.989195 0.002356 -0.145128 183 169 156
2.126156 -0.283325 -0.381301 165 163 148
1.662337 -0.100853 -0.191769 94 87 71
2.347157 -0.502081 -0.367732 32 40 19
1.298469 -0.392859 -0.165578 56 55 53
1.993151 -1.614452 -0.053212 53 60 70
2.161887 0.309176 -0.014505 224 211 203
1.762335 0.498129 -0.202961 74 61 52
1.653535 -1.144455 -0.207229 28 11 19
1.155187 -0.689185 -0.227602 116 119 102
1.805371 -1.508001 -0.141811 66 58 47
2.632026 -2.980693 0.318174 231 237 249
2.138559 0.104790 -0.025037 192 171 150
2.186648 -1.378360 -0.093395 46 36 24
2.729183 -0.512517 -0.103335 214 212 215
1.534352 0.431827 -0.212089 87 78 69
2.224642 0.208139 -0.096781 105 98 88
2.162804 0.267538 0.015024 89 78 72
2.070391 0.169759 -0.083308 172 149 131
1.595399 -0.120138 -0.201996 117 103 90
0.701231 -0.626150 -0.274912 18 22 8
3.167620 -1.328174 0.253272 139 149 86
1.679879 -0.942105 -0.277301 64 52 56
1.869945 0.222322 -0.145004 38 31 15
2.138074 -0.322327 -0.049419 161 150 146
2.157765 0.288583 -0.001697 219 199 188
1.976078 0.580874 -0.156419 60 42 20
2.051109 -0.039361 -0.070310 143 136 118
1.767490 0.251372 -0.199792 48 46 34
1.664968 0.093983 -0.160313 84 72 56
3.000270 -0.434871 -0.071426 74 77 84
1.050860 -0.173513 -0.250712 32 29 20
2.589710 -0.296339 0.017637 171 170 168
1.525144 -0.139252 -0.210697 164 154 142
3.057349 -0.454044 -0.041427 184 188 197
1.528362 -1.099553 -0.331449 105 111 123
3.267325 -1.328997 0.291890 90 104 55
1.975217 -0.827099 -0.106964 139 135 126
1.464081 0.331934 -0.225293 119 106 89
1.391285 0.426799 -0.215283 87 71 55
3.175524 -1.300269 0.260839 154 151 100
2.491658 -2.631413 0.202471 24 33 12
1.541003 0.226182 -0.185944 49 35 22
3.151498 -1.316123 0.265762 157 159 110
0.734902 -0.177122 -0.256499 201 198 181
1.879523 0.140819 -0.143445 215 207 194
3.049848 -0.445962 -0.038999 234 237 242
2.777527 -0.328111 -0.076350 57 62 68
2.085021 0.280607 -0.037262 185 166 149
2.080555 -0.994698 -0.354238 237 242 246
2.070207 0.323294 -0.106456 166 145 126
1.579085 -0.873962 -0.363806 226 232 222
1.419976 0.215553 -0.177241 90 77 60
1.736206 0.346749 -0.214843 134 131 116
1.277469 0.024064 -0.249029 98 81 97
0.532045 -0.461721 -0.257800 243 244 249
2.094738 0.475581 -0.139452 190 166 140
2.139905 -2.062266 0.045886 72 77 57
1.793706 0.555785 -0.220550 88 73 50
1.569702 0.137070 -0.183259 184 169 150
1.029208 -0.220989 -0.447913 31 37 27
1.950596 0.389245 -0.171671 110 92 78
1.440372 0.144338 -0.192262 213 208 202
2.758446 -0.473514 -0.109478 85 84 89
1.348534 0.319412 -0.209489 84 71 63
1.845574 0.254286 -0.159760 85 69 54
1.286777 -0.076850 -0.245803 197 170 153
2.038658 0.136313 -0.136338 102 92 82
3.163689 -1.320834 0.268958 107 117 57
1.568046 -1.812293 -0.058764 205 209 220
2.089287 0.388896 -0.082127 39 32 24
2.045893 0.358535 -0.116620 84 72 56
1.968524 0.341607 -0.155090 22 10 0
3.333443 -0.593126 -0.011099 204 207 216
1.879537 -0.118688 -0.151805 121 113 102
1.733797 -0.827574 -0.149089 6 9 14
2.598178 -0.152797 0.007282 97 105 84
2.162857 -0.245457 -0.038055 170 163 155
2.710613 -1.905717 0.197121 163 158 152
1.623067 -0.048055 -0.197875 172 167 147
2.796283 -0.938710 0.042270 164 151 142
1.213380 -0.865915 -0.262817 51 55 56
1.264546 -0.102061 -0.250336 75 72 79
2.279101 -1.833381 0.001891 9 23 0
1.683384 -0.722653 -0.181421 4 17 0
2.364059 -1.530170 0.098143 73 75 61
2.328119 -2.045664 -0.010858 98 113 82
3.097972 -1.410354 0.264921 143 138 98
2.785339 -1.404480 0.158287 151 146 142
3.345442 -1.999910 0.000370 113 116 125
2.349587 0.009094 -0.128036 100 107 74
1.589509 -1.062191 -0.259255 111 113 125
2.865239 -0.697924 -0.077036 198 203 209
1.892637 0.016731 -0.167284 162 155 139
0.409791 -0.456036 -0.291769 68 76 63
1.487982 0.454971 -0.191353 159 153 139
1.623224 0.171089 -0.169748 95 81 70
2.226974 -0.129467 -0.048361 215 210 217
1.494352 -0.011762 -0.197703 68 52 39
2.143133 0.026000 -0.092299 166 146 122
2.499470 -2.980230 0.300029 34 35 39
2.112852 0.050898 -0.133864 104 109 79
1.754412 -1.299846 -0.277208 24 39 0
1.861126 -1.995372 0.016444 181 180 176
1.724670 0.348558 -0.217596 54 51 36
1.857465 0.294516 -0.198546 49 42 32
1.252238 -0.857548 -0.246547 37 40 47
0.750030 -0.324069 -0.370625 62 74 52
1.810770 -0.084518 -0.164130 95 80 61
1.669170 0.078716 -0.181186 94 81 65
1.531014 -0.094609 -0.201583 30 20 11
1.488616 -0.134364 -0.209109 101 88 79
1.953378 0.500740 -0.178798 9 15 5
2.592659 -2.996714 0.316099 176 182 182
2.263795 0.282320 0.010371 180 149 121
1.987456 -0.819340 -0.327892 106 108 107
1.808063 0.115671 -0.153603 88 76 64
2.786668 -0.312615 -0.081361 221 225 224
2.632547 -0.353561 0.008316 24 8 18
2.483290 -1.743560 0.118517 192 203 197
2.036439 -1.472826 -0.109287 191 188 179
0.605359 -0.328641 -0.359073 26 35 18
2.095250 0.127567 -0.148203 100 83 67
1.992192 -1.038011 -0.383608 222 220 221
1.487460 0.098286 -0.198980 84 86 98
2.802328 -0.688638 -0.082497 188 196 198
2.880065 -2.431024 0.298475 244 237 244
1.178857 -0.139568 -0.249285 200 185 164
1.612485 0.116077 -0.180400 66 58 45
1.788091 0.140016 -0.157743 48 40 27
2.841660 -0.724689 -0.070749 145 148 153
2.777909 -0.139845 -0.192034 93 107 72
3.217272 -1.398337 0.283410 81 95 42
3.221889 -1.840506 0.273932 92 100 76
2.270661 0.210860 -0.086920 138 130 119
2.015212 0.429373 -0.134039 86 70 55
2.352158 -0.491223 -0.363088 100 108 85
2.093923 0.483312 -0.155999 90 80 53
2.277183 -2.038862 0.092305 71 74 57
3.697512 -0.889887 0.086599 171 180 189
2.240390 -0.147932 -0.028379 31 27 28
2.643781 -0.498830 0.029299 31 18 10
1.956340 0.508470 -0.194136 195 195 185
2.978695 -0.533307 -0.075614 30 35 41
2.757310 -2.916179 0.357663 69 69 81
2.913838 -1.392699 0.197844 122 113 80
2.796117 -1.882181 0.182740 100 83 65
2.798367 -2.905508 0.367340 55 61 75
2.809077 -1.763791 0.198727 77 79 76
3.001866 -1.784552 0.227878 237 232 226
1.033378 -0.351707 -0.366200 173 171 174
1.860715 0.313043 -0.199666 122 117 114
1.803002 -0.011570 -0.156066 101 88 72
2.169794 0.218645 -0.097899 132 120 106
2.268778 0.158431 -0.100037 208 198 196
1.902844 0.580397 -0.152475 228 214 203
1.246729 -0.041160 -0.234955 139 127 127
2.089378 -0.968130 -0.319419 104 103 108
2.598902 -0.287611 0.018488 51 50 48
1.756029 0.436512 -0.218211 83 76 66
2.664405 -2.094310 0.179211 199 193 203
1.798906 -0.054040 -0.159594 53 41 25
1.777076 -0.074808 -0.135784 40 28 14
2.500048 -3.063318 0.321965 164 158 146
2.134980 -1.883143 -0.087075 160 155 152
2.028043 0.298496 -0.117932 100 84 68
1.674952 -0.079997 -0.188894 129 117 103
2.055370 -0.082373 -0.081635 58 48 23
1.807039 0.097016 -0.153599 172 160 146
2.203394 0.242162 -0.128286 114 106 93
1.871096 -0.055779 -0.156981 44 44 8
1.911332 0.228945 -0.138231 174 162 148
0.298627 -0.680151 -0.392588 38 50 62
2.665653 -0.944128 0.018615 148 114 112
2.107993 0.286036 -0.020307 69 43 28
2.567770 -2.023835 0.160681 152 125 104
1.807161 0.079176 -0.156443 183 167 154
1.954953 -1.026962 -0.375127 43 40 49
2.907415 -0.819969 -0.002182 189 180 175
2.780422 -2.515317 0.242094 19 27 4
2.156716 -0.175419 -0.039538 187 181 181
2.651884 -0.434440 0.010248 239 243 252
2.399187 -2.425566 0.192058 42 39 46
2.471862 -1.767301 0.117997 196 214 200
2.721531 -2.225210 0.223973 217 211 211
2.056677 -0.133784 -0.075627 24 28 11
1.954146 0.139604 -0.141667 85 73 57
2.918212 -2.398559 0.299271 83 83 83
1.930557 -0.831743 -0.122758 121 112 105
2.732901 -2.940459 0.360554 59 57 62
2.366607 -2.647343 0.164467 19 23 8
0.631236 -0.484519 -0.301914 127 110 94
2.582972 -2.973474 0.330969 197 195 200
2.346165 -0.097208 -0.020382 181 180 178
2.584787 -2.987859 0.323855 64 65 69
3.777192 -1.193943 0.443830 223 223 211
3.310499 -1.462329 0.199341 99 100 68
1.649316 -1.124301 -0.414391 110 114 126
2.010805 0.517384 -0.148860 71 59 43
1.950513 -1.022258 -0.392685 207 207 209
1.064107 -0.932658 -0.362588 106 113 123
1.635028 -0.463520 -0.145347 39 32 39
1.770926 0.217225 -0.173274 34 34 26
1.872733 0.568896 -0.195211 94 86 73
1.560314 -1.035604 -0.336357 113 119 131
3.234954 -0.650061 -0.046818 221 224 229
1.505374 0.059015 -0.258169 74 83 90
1.821096 0.472938 -0.201346 53 49 38
2.767039 -0.632351 -0.085696 191 196 200
3.155581 -1.517216 0.274011 135 145 93
1.160154 -0.143577 -0.249629 70 57 40
2.672465 0.057207 0.050835 21 26 30
2.523634 -0.257567 -0.007880 131 137 149
1.837013 0.275332 -0.186596 22 14 3
1.534641 -1.059174 -0.334172 98 102 114
2.164433 -0.119895 -0.041876 158 153 115
1.554127 -1.131768 -0.302615 115 125 134
3.293916 -1.974404 -0.017590 228 226 229
2.461399 0.025280 0.020451 17 16 14
2.077061 0.326359 -0.074179 176 143 124
2.756948 -2.901075 0.361159 248 245 252
1.254032 0.048703 -0.237122 216 210 210
1.257887 0.044293 -0.224188 49 45 42
2.280706 -0.676639 -0.069838 182 178 179
1.189829 -0.152344 -0.226138 218 192 167
2.960907 -2.403016 0.302757 34 40 40
1.994355 0.337624 -0.129442 218 201 185
0.246307 -0.709469 -0.414675 177 182 185
1.959640 0.400942 -0.162192 30 18 2
1.157915 -0.159069 -0.234154 81 72 55
1.520494 0.219561 -0.184176 121 109 95
2.672065 -0.435026 -0.250458 11 23 0
2.921658 -1.478735 0.205418 61 69 30
1.532339 0.444901 -0.183229 203 194 185
2.834785 -0.584502 -0.088911 231 231 231
2.113538 -0.740546 -0.084415 243 247 246
2.683728 -2.966815 0.342667 53 48 55
0.724534 -0.525086 -0.266226 95 103 79
0.745006 -0.640566 -0.241579 24 26 4
1.888836 0.079392 -0.164293 204 191 182
1.159334 -1.036052 -0.520035 99 111 123
2.136666 -2.436509 0.140380 64 70 82
1.597360 -0.258456 -0.257460 20 30 3
1.259807 -0.223684 -0.199717 103 94 87
2.017981 -0.059752 -0.112596 136 127 112
1.661470 -1.840680 -0.067118 13 17 16
1.997919 -1.034421 -0.372808 79 77 78
1.826017 0.063843 -0.153601 92 85 67
1.516458 0.088348 -0.183869 151 135 122
1.850825 0.266892 -0.170925 62 47 28
2.042200 -0.325988 -0.077149 41 40 36
2.321418 -2.307058 0.182455 191 186 193
2.488270 -2.589748 0.222134 13 16 31
2.000879 0.249193 -0.137883 186 176 166
2.207942 0.301802 0.003112 207 181 166
2.535533 -0.829076 -0.009365 247 251 254
2.620208 -2.977745 0.330155 46 48 71
2.049460 0.128662 -0.139672 195 187 174
2.126764 0.058371 -0.100868 182 160 136
1.462969 0.323854 -0.222466 206 190 175
2.698498 -0.560422 -0.213806 13 25 3
2.156763 0.412573 -0.045322 32 35 28
3.003158 -1.224974 0.109705 16 29 9
1.920331 -1.862766 0.025465 250 249 255
1.629180 0.132540 -0.185756 70 64 50
2.223711 -0.478634 -0.061842 94 90 61
1.206103 0.011938 -0.356120 15 21 7
1.524464 0.454293 -0.185826 82 72 62
2.693105 -1.886945 0.148785 170 162 159
2.106471 0.033879 -0.150361 90 98 59
0.206737 -0.706956 -0.408628 176 177 179
2.130556 0.451930 -0.110500 49 41 28
2.098700 -2.458445 0.133396 186 189 206
2.106968 0.040566 -0.163158 13 16 0
2.062915 0.115510 -0.132399 78 64 51
1.224119 0.020183 -0.275110 185 211 224
1.121226 -0.195840 -0.225963 74 69 50
1.961027 0.269709 -0.144980 169 159 147
2.649683 -2.045084 0.175492 92 87 81
2.058849 0.345481 -0.113370 174 155 140
1.365273 -0.509796 -0.429110 72 77 73
1.818565 -1.488958 -0.143844 225 220 214
2.169200 0.072163 -0.007910 102 89 73
2.762508 -2.993545 0.386371 152 138 129
1.974840 0.507705 -0.179699 190 186 174
1.744397 0.043995 -0.155772 189 173 160
2.897132 -0.880978 0.001471 189 182 174
3.036165 -0.273921 -0.067669 37 41 50
1.511116 0.035948 -0.204832 98 95 88
2.566742 -1.853995 0.149314 50 45 51
1.733930 -0.103851 -0.188115 94 82 56
1.766512 -0.765741 -0.398382 71 86 47
2.497256 -2.962493 0.307426 194 194 196
1.882880 -0.086370 -0.141007 179 166 150
3.333453 -1.381262 0.313758 47 45 30
1.549909 -1.134130 -0.314744 227 236 243
1.989126 -1.057784 -0.363232 233 229 230
1.986222 0.438516 -0.155884 26 20 8
2.937806 -0.824910 -0.026623 189 186 179
2.054673 0.194842 -0.094547 158 146 132
1.697867 0.022429 -0.174897 165 156 141
2.010840 0.401694 -0.135467 68 53 34
1.493075 0.333553 -0.205945 91 81 69
2.055774 -0.243990 -0.051327 76 64 52
1.695931 -0.972393 -0.189709 71 81 56
2.844241 -2.905463 0.376617 33 38 41
2.333662 -2.046923 0.006257 28 41 15
1.986229 0.253355 -0.128954 91 76 69
2.208566 -0.862665 -0.286187 100 99 104
2.038536 0.305417 -0.118020 210 197 181
2.149222 0.097224 -0.026525 140 118 95
2.084759 -0.977626 -0.324028 228 227 233
1.688424 -0.740892 -0.158480 10 16 4
1.793677 0.529038 -0.199646 57 48 31
2.357353 -2.635612 0.170498 80 83 66
1.454540 -0.088082 -0.252609 231 236 242
1.848584 0.497937 -0.197848 161 153 140
1.941813 -1.869411 0.017534 28 21 29
2.359567 -2.367996 0.177015 250 246 255
1.706186 -1.855153 -0.088135 87 95 58
2.083909 0.328319 -0.057093 66 34 9
1.759278 -0.103485 -0.189107 72 60 46
2.342914 -1.713677 -0.003695 82 103 62
2.028702 0.203106 -0.130234 124 108 93
1.970167 0.366050 -0.148935 194 181 173
2.117917 0.121778 -0.042158 235 223 207
3.013026 -2.292415 0.313974 86 63 45
2.134623 -1.379567 -0.091159 40 33 23
2.080831 -0.938111 -0.344536 206 204 207
2.122453 0.005243 -0.098306 32 17 14
2.304295 -1.806614 0.018326 72 81 54
1.597397 -1.072722 -0.240247 111 115 124
2.110023 -2.432419 0.148229 18 22 34
1.625300 -1.802531 -0.035451 34 37 46
2.948805 -2.842185 0.409281 59 51 62
2.094154 0.120824 -0.113385 80 64 49
1.901272 0.541688 -0.194132 49 46 37
2.338466 -1.699719 -0.002227 34 46 24
2.753284 -1.905430 0.191251 80 66 55
1.097567 -0.214892 -0.362253 98 104 94
3.621442 -0.899439 0.050658 26 35 32
2.264363 0.194513 -0.081268 137 127 125
3.645974 -1.280646 0.397061 79 74 68
2.095120 -2.445758 0.135019 61 64 81
2.178931 0.273674 0.014797 153 134 117
1.957564 -1.727711 0.033754 160 155 152
1.384145 0.180450 -0.200134 54 57 38
1.882760 0.149670 -0.140775 84 74 62
0.650188 -0.611110 -0.251457 119 125 97
3.529397 -1.227233 0.360312 236 236 226
1.241196 -0.470801 -0.209845 19 14 21
2.801854 -0.710015 -0.089092 49 53 56
1.492111 0.523016 -0.170990 147 135 113
2.683217 -0.850737 0.015838 26 23 32
-0.547308 0.750168 -0.131197 11 13 10
-1.603481 0.494516 -0.029931 229 223 211
-1.256813 0.976399 -0.004353 30 37 21
-0.340417 0.619525 -0.107286 206 190 177
-1.469274 0.529348 -0.053996 236 238 225
-0.858558 -0.478662 -0.277384 174 184 185
-1.814768 1.248368 0.009551 163 159 150
-1.946038 0.550631 0.009087 228 219 204
-1.342914 -0.931762 -0.149571 183 180 173
-1.689448 0.657392 -0.014765 49 62 71
-1.791175 0.111142 -0.047877 221 209 187
-1.694239 0.294603 -0.043627 166 26 73
-0.442298 0.958080 -0.084560 236 238 227
-0.752715 0.758773 -0.114714 15 20 13
-1.796168 1.469965 0.042133 127 113 86
-1.767258 0.767406 0.010699 53 57 58
-1.013656 1.187602 -0.014344 215 210 191
-2.047618 -0.046119 -0.048877 219 199 172
-1.575749 1.012098 -0.002276 15 17 12
-0.849878 0.674601 -0.082787 185 173 161
-2.065094 0.294672 -0.006897 44 48 25
-1.063271 1.184177 -0.003180 121 99 75
-0.516484 0.775460 -0.137855 13 20 12
-0.202227 -0.759277 -0.252321 9 14 18
-0.899201 1.042155 -0.032694 226 223 206
-1.951798 1.660942 0.148152 106 106 72
-1.647954 1.008808 -0.001499 28 29 24
-1.854358 1.354812 0.031039 50 64 31
-0.826669 0.743502 -0.067648 184 180 169
-1.928418 0.021756 -0.029135 58 48 46
-0.295944 0.818568 -0.099291 225 195 169
-0.889422 0.167479 -0.307827 62 79 37
-0.701943 0.874985 -0.091816 206 173 142
-1.682408 0.924585 -0.002472 36 36 36
-1.734126 1.552916 0.093247 91 83 47
-1.432753 1.382084 -0.024014 91 112 69
-0.668338 0.980376 -0.088174 122 117 113
-1.798516 1.371572 0.025279 32 46 11
-0.782403 1.135621 -0.063470 236 237 229
-1.159094 0.837054 -0.027831 212 206 190
-1.962088 -0.099158 -0.037351 220 206 180
-1.934140 -0.909629 -0.046288 178 178 176
-0.244877 0.793633 -0.124718 153 139 136
-0.252944 0.834094 -0.090027 210 180 156
-0.129677 0.681366 -0.116561 32 31 26
-1.714538 0.766554 0.012991 47 45 48
-0.209060 0.662096 -0.135505 238 242 243
-1.728055 1.653819 0.117696 203 175 135
-2.283902 -0.462476 -0.022447 186 170 154
-1.816989 0.711732 0.010139 13 20 30
-0.753203 1.283044 -0.050692 212 196 173
-1.734286 0.743553 0.008527 223 215 202
-1.429299 1.036955 -0.011054 130 117 101
-0.711301 1.309605 -0.052922 212 188 162
-0.333126 -0.689612 -0.358681 250 255 255
-0.053048 0.859936 -0.102923 182 144 108
-2.121440 -0.158106 -0.038589 13 13 5
-0.682724 1.530227 -0.027425 172 162 137
-1.057528 1.108203 -0.009588 227 215 189
-0.244905 0.393920 -0.174733 244 240 237
-1.850770 0.716847 0.005361 222 219 204
-0.418846 0.861616 -0.092316 195 156 123
-1.696190 0.865729 -0.007092 75 84 63
-0.063408 0.264857 -0.220059 231 232 226
-1.616860 0.611633 -0.027026 212 200 176
-1.476184 1.614161 0.074200 152 131 104
-0.922544 -0.728863 -0.312926 173 187 188
-1.163739 1.152694 -0.002992 214 197 169
-0.234148 0.580880 -0.113767 225 213 199
-2.034579 0.535703 0.024256 64 57 64
-0.333882 -0.742130 -0.336202 56 63 79
-1.712651 0.921169 -0.009258 167 154 137
-0.635456 0.623480 -0.100845 199 177 154
-0.812753 -0.967520 -0.165331 151 144 134
-2.007705 0.568377 0.025137 55 54 49
-1.604192 0.929975 -0.007409 218 194 170
-1.705921 0.206866 -0.039089 234 224 212
-0.987216 1.139317 -0.018032 209 191 169
-1.652164 0.971637 -0.001603 78 68 59
-0.799613 1.105443 -0.033340 234 235 230
-0.309435 0.965298 -0.084627 60 67 75
-0.464110 0.381025 -0.112136 55 58 63
-0.200925 0.375923 -0.144698 213 210 205
-0.727954 -0.088525 -0.128481 138 139 131
-0.098454 -0.078299 -0.312073 39 48 17
-1.619277 0.973002 -0.012309 221 208 189
-2.189096 0.287581 0.022006 75 88 97
-0.468908 -0.194888 -0.139087 194 189 185
-0.088605 0.344650 -0.199195 229 230 225
-0.660158 1.533216 -0.034771 69 58 52
-0.414485 0.680505 -0.096823 33 26 16
-1.956306 0.439896 -0.015544 248 253 247
-1.050540 1.019105 -0.025618 74 59 30
-2.099209 0.922266 0.069372 51 49 50
-0.200829 0.309906 -0.146862 43 43 35
-1.597542 0.967635 -0.007625 70 64 52
-1.603812 0.369272 -0.058083 240 250 251
-2.422647 -0.924770 -0.010619 150 157 149
-0.529104 0.715216 -0.124277 14 20 8
-0.143925 0.900931 -0.097439 218 196 172
-1.795423 1.677761 0.119909 211 195 179
-0.055192 0.344829 -0.197412 181 177 166
-2.151845 -0.618936 -0.038722 203 186 156
-0.115846 0.673359 -0.109447 221 214 204
-0.200561 0.326506 -0.141490 184 183 178
-1.840719 0.384147 -0.013571 75 76 78
-0.213123 0.677422 -0.138391 7 14 6
-1.695655 1.664475 0.115458 192 164 125
-0.411762 0.941238 -0.083132 219 216 211
-0.156280 0.825336 -0.101126 184 153 125
-0.437078 -0.172610 -0.136738 176 176 168
-2.162581 0.467880 0.014308 250 251 255
-2.177515 0.112836 0.002350 222 207 184
-0.078588 0.527601 -0.115613 204 197 181
-0.360596 0.833306 -0.099678 209 174 136
-1.911459 1.687818 0.136084 100 90 65
-1.930756 1.679755 0.136216 207 191 168
-0.110401 0.736987 -0.108644 175 165 155
-0.311613 0.817209 -0.096406 206 182 146
-0.029789 0.736292 -0.109471 255 235 224
-1.763331 0.459488 -0.022019 213 238 245
-1.988607 0.588648 0.020692 240 246 246
-1.128957 -0.972559 -0.154317 194 183 163
-1.808302 1.694182 0.122168 85 72 53
-1.654497 1.407690 0.030581 10 18 5
-0.982546 1.107166 -0.012450 228 216 192
-1.696345 0.230184 -0.041749 120 110 83
-0.720911 1.217030 -0.014646 32 26 26
-1.459492 1.007263 0.007440 48 46 34
-2.068325 0.008233 -0.059403 216 201 182
-1.100483 1.199204 0.004426 237 228 211
-1.568473 1.422372 0.053596 18 14 11
-1.238552 -0.986705 -0.151723 206 200 186
-0.660083 0.601156 -0.116292 243 247 255
-1.954652 1.701615 0.139521 62 61 31
-0.366218 0.844538 -0.098821 178 142 110
-1.920823 1.286747 0.084945 17 20 25
-2.058095 0.246036 -0.015138 239 243 244
-0.757540 -0.516667 -0.280801 175 185 187
-0.428735 0.390809 -0.119268 97 89 86
-0.307408 -0.709855 -0.323391 142 151 158
-0.524631 0.289938 -0.119256 58 59 64
-0.716671 1.228727 -0.003700 193 179 166
-0.037102 0.333288 -0.199989 182 173 166
-2.134288 0.570024 0.605446 69 56 47
-2.201353 0.880469 0.085868 223 223 213
-1.605114 0.951148 -0.002673 227 217 205
-0.484608 0.869777 -0.096583 210 181 151
-0.332078 0.911376 -0.083163 203 183 156
-2.192733 0.444993 0.015877 42 59 67
-0.136397 -0.361117 -0.160406 201 199 200
-2.217481 -0.549794 -0.072876 107 122 57
-2.384827 -0.942132 -0.007375 34 45 29
-1.653581 1.698028 0.106596 215 206 191
-0.056174 0.332063 -0.200529 237 232 229
-1.088626 -0.720511 -0.308315 103 110 126
-1.628703 0.997782 0.001121 44 39 35
-1.988348 -0.071263 -0.043831 240 241 245
-1.007556 -0.354170 -0.386455 17 29 5
-1.726035 0.894465 -0.005017 132 134 113
-2.184012 0.434911 0.018661 211 225 234
-2.426455 -0.918237 0.005775 76 90 64
-1.900818 0.664848 0.006810 43 56 65
-0.972895 1.164454 -0.023329 40 30 28
-1.961688 1.688503 0.142238 212 196 181
-1.727234 1.685830 0.112026 213 206 187
-1.001920 -0.357366 -0.373891 60 69 50
-1.671997 1.710093 0.109216 85 84 53
-0.216015 0.346745 -0.141799 22 22 32
-0.832414 1.231795 -0.009287 13 16 23
-0.439608 -0.168636 -0.382706 52 65 45
-0.227379 0.631621 -0.113654 26 28 27
-0.504661 0.533017 -0.114710 23 31 20
-1.681033 0.908662 -0.001179 48 46 34
-1.027794 1.143376 -0.015028 222 202 178
-1.916605 0.036613 -0.028548 81 64 54
-2.049030 0.829298 0.048723 60 65 61
-2.093344 0.059999 -0.006348 227 221 207
-1.447342 0.499201 -0.050527 111 102 97
-0.368610 0.502482 -0.120748 216 207 192
-2.254493 0.180970 0.006948 194 208 209
-2.054102 0.839768 0.044446 230 244 247
-2.166638 -0.099884 -0.015648 176 170 156
-1.462413 0.994105 0.004817 205 189 173
-1.749970 0.885761 0.001179 226 229 208
-1.837350 1.533755 0.108031 154 134 97
-1.763592 1.651434 0.121396 153 134 101
-1.934014 1.723466 0.135996 51 61 24
-2.015777 -0.044180 -0.049008 246 251 255
-0.122651 0.746725 -0.117825 126 115 109
-0.843923 0.106602 -0.306097 11 21 12
-1.917084 1.656866 0.141675 123 112 82
-1.899572 1.772852 0.118788 41 37 26
-1.758233 0.745164 0.010227 47 45 46
-1.831270 1.668304 0.123740 208 199 184
-0.710283 1.250424 -0.046386 65 65 65
-1.752413 1.672360 0.120844 27 21 7
-1.705739 1.395785 0.021052 36 45 28
-2.036931 0.604388 0.017260 75 94 100
-2.249413 0.427783 0.019377 105 42 63
-1.704563 1.565423 0.091656 191 173 135
-2.073967 0.833618 0.034886 245 253 255
-1.894581 0.732516 0.012057 241 248 254
-1.270355 0.516176 -0.074767 45 38 28
-1.078518 0.799297 -0.037594 185 177 154
0.718109 0.112854 -0.160751 233 235 232
0.039646 -1.527757 -0.338988 79 85 97
0.670915 -0.163867 -0.177651 168 152 136
0.911459 0.415984 -0.173139 69 65 53
0.063901 -1.474912 -0.337451 85 89 100
0.823004 0.568624 -0.177800 156 134 121
0.995177 -1.143116 -0.392646 194 198 210
0.708354 0.441174 -0.161573 61 57 48
0.558074 0.534003 -0.168524 31 27 15
0.785822 0.519624 -0.172547 198 187 181
0.328724 0.530828 -0.157076 143 120 102
0.352098 0.535610 -0.159383 37 33 22
0.511981 0.441549 -0.130900 21 24 17
0.444973 0.495054 -0.158773 55 47 28
0.720598 0.500275 -0.176552 15 14 12
0.330903 0.421676 -0.141749 228 214 201
0.335128 0.381636 -0.143943 163 155 142
0.357646 0.463600 -0.139247 193 173 138
0.836987 0.428896 -0.165788 56 55 37
1.011470 0.384840 -0.189651 17 27 3
1.480215 0.391782 -0.176575 89 77 63
0.602094 0.402706 -0.147649 64 59 39
-0.019316 -1.437638 -0.317172 195 197 196
0.783859 0.562007 -0.185225 205 195 186
0.601798 0.447685 -0.153220 47 44 25
0.196314 -1.235546 -0.341140 243 242 248
0.457149 0.438447 -0.141959 189 168 149
0.548429 0.468559 -0.158324 147 138 121
0.398418 0.526132 -0.161217 28 32 17
-0.064557 -1.444289 -0.321717 206 210 213
0.052363 -1.484679 -0.342898 62 65 74
0.134702 -0.737878 -0.314406 174 184 185
0.843910 0.326702 -0.156194 104 94 69
0.769312 0.439662 -0.170064 55 58 41
0.687352 0.538578 -0.179243 193 188 185
0.055028 -1.515150 -0.337896 70 74 83
0.931707 -0.402065 -0.178155 61 62 56
0.499187 0.508912 -0.170073 56 49 33
0.499011 0.508774 -0.169206 56 49 33
0.499162 0.449265 -0.158940 90 88 67
0.982590 -0.397475 -0.136304 183 183 175
0.611991 0.425514 -0.140753 88 85 54
0.369575 0.493183 -0.148376 127 115 89
0.954326 0.304851 -0.158555 153 171 149
1.021574 -0.884995 -0.209826 181 180 176
1.017571 0.273488 -0.158338 59 50 43
0.903383 0.355201 -0.170474 29 23 11
1.354493 0.315904 -0.179957 141 119 105
1.375997 0.445963 -0.167494 130 115 86
0.880514 -0.443198 -0.173226 184 185 180
1.147015 -0.395480 -0.199704 181 181 173
0.504147 0.462147 -0.156211 44 37 19
0.476722 0.489905 -0.159210 125 122 113
1.326822 0.512622 -0.165753 78 66 54
0.134896 -0.757291 -0.322666 177 181 184
0.119264 -0.759110 -0.317782 182 187 190
1.394976 0.336784 -0.180250 201 190 184
1.475802 0.299825 -0.176550 83 73 61
0.634341 0.408699 -0.142120 1 1 0
1.352121 0.495505 -0.167020 71 57 44
0.749168 0.482416 -0.176071 192 189 174
0.590959 0.515477 -0.170473 27 17 5
0.819700 0.521559 -0.182298 188 178 166
0.153775 -0.760979 -0.317791 184 185 189
0.645326 0.481744 -0.171408 207 198 183
1.987626 -2.239626 0.065970 43 53 65
0.893278 -0.458386 -0.176383 147 148 143
0.817888 0.488939 -0.181001 133 126 116
1.018791 0.364569 -0.178122 61 54 38
0.612865 0.468907 -0.165282 198 194 182
0.219447 -0.768625 -0.320273 179 189 190
0.774396 0.345334 -0.154284 186 172 163
0.299070 0.471425 -0.135444 218 190 166
0.917652 0.336260 -0.162007 194 181 165
2.035974 -2.266659 0.067754 223 225 237
0.208209 -0.731582 -0.330781 230 235 238
0.983345 0.328195 -0.166012 78 62 47
0.608323 0.505999 -0.169695 167 152 129
0.533278 -0.399413 -0.178636 38 39 44
0.149430 -0.727773 -0.311621 228 238 239
1.016021 0.309596 -0.164840 86 66 42
0.741852 -0.415499 -0.181421 166 165 161
1.482878 0.333614 -0.173952 91 81 69
1.741616 -1.231283 -0.238735 211 207 196
0.755657 0.416547 -0.169528 83 69 56
0.145145 -0.774418 -0.322889 179 183 186
0.244812 -0.763014 -0.319881 233 241 243
1.002490 -1.037042 -0.283103 176 155 154
0.894515 -0.444897 -0.174603 131 130 128
1.241106 0.280472 -0.162077 155 137 117
0.862202 0.498048 -0.185775 207 193 180
0.204871 -0.724723 -0.323931 174 179 183
1.538485 0.433225 -0.169157 212 210 198
0.966581 -0.431033 -0.170433 71 72 67
2.416294 0.539698 0.042021 196 189 179
2.914580 -0.310289 0.020658 180 191 195
3.020082 0.282734 0.128002 61 77 41
3.243639 -0.393202 0.111711 75 86 70
2.421393 -0.815448 0.146181 44 54 29
2.656930 -0.129608 -0.017278 3 9 7
3.521935 -0.057266 0.281564 82 112 40
2.347201 0.898526 -0.071688 43 43 35
3.745410 -0.279716 0.394318 26 33 15
1.847089 -0.734955 0.113190 65 68 75
4.144783 -1.183736 0.409416 203 203 193
3.618030 -1.379506 0.584446 221 218 213
2.888397 -0.088864 -0.055272 233 237 236
2.370440 -0.162412 -0.012910 185 184 182
2.621283 0.620311 0.077915 196 190 178
1.938838 -0.208378 -0.152046 7 9 6
3.185898 -0.466054 -0.115699 22 28 16
2.830974 0.476028 0.089838 172 165 157
1.971920 0.086313 -0.144169 206 196 184
3.903511 -0.042520 0.210199 237 243 241
3.555576 0.526090 0.124201 182 194 194
4.120301 -0.604260 0.562237 226 222 213
2.178428 0.073835 -0.034484 198 183 160
2.710978 0.466733 0.068228 63 80 38
4.110126 -0.491600 0.624960 61 79 37
1.367930 -0.513813 -0.141804 182 178 169
3.357412 -0.671207 0.280359 83 87 73
2.141555 0.504252 -0.033662 42 35 29
2.787212 -0.475814 -0.062411 233 237 236
3.440528 -0.045812 0.239663 25 14 12
1.268612 -0.278426 -0.237117 82 88 74
4.192533 0.167187 0.271448 234 245 241
3.042371 0.102162 0.206633 11 15 18
4.017939 -0.033962 0.198287 228 229 223
4.201360 -0.711916 0.567930 77 94 50
4.135349 -0.961273 0.556607 223 219 208
3.089277 -1.804773 0.214706 47 65 27
1.368066 -0.126418 -0.237781 234 240 238
3.672614 -0.935815 0.479666 76 85 64
3.177315 0.223822 0.121428 184 198 199
1.600457 -0.122652 -0.222398 184 172 150
2.104535 -0.519948 -0.044644 41 44 37
2.267907 0.741408 -0.026582 16 13 6
2.851388 0.061053 -0.019424 49 43 45
2.522896 -0.004392 0.013243 158 154 145
3.369719 -0.039932 0.162515 214 218 217
4.149858 0.046802 0.221191 234 242 244
3.249910 0.723576 0.086647 14 15 19
1.861171 -0.465906 -0.011865 163 153 144
