ply
format ascii 1.0
element vertex 1179
property float x
property float y
property float z
property uchar red
property uchar green
property uchar blue
end_header
2.084257 -1.761111 1.215310 127 115 101
2.265080 -0.752024 0.318640 49 65 52
1.768555 -1.408047 0.262957 88 81 55
1.840380 -1.135354 -0.009200 212 213 208
1.730505 -1.807562 0.930975 60 69 48
1.914974 -1.498339 0.479433 80 75 46
2.210955 -0.849897 0.398971 52 61 42
1.931347 -0.975486 0.177819 176 176 176
2.372591 -1.209464 0.611859 41 52 20
1.735833 -1.781542 0.876322 71 77 65
1.907383 -1.901429 1.313984 139 127 111
1.937694 -0.875843 0.177917 181 182 176
1.735646 -1.859258 0.982901 63 67 53
1.967598 -0.973546 0.205655 185 180 174
2.175393 -0.794364 0.335193 145 125 116
1.597593 -1.697146 0.583528 213 184 150
2.264382 -1.192925 0.493104 50 68 28
1.667821 -1.713453 0.662667 174 162 138
2.243226 -1.511032 0.923739 221 203 181
2.056900 -1.739235 1.157123 55 61 51
1.887400 -1.746106 0.972879 129 113 87
1.975107 -1.329902 0.254930 206 192 166
1.938704 -0.680274 0.170018 234 231 216
1.773448 -1.708300 0.774550 162 158 146
2.152789 -0.865439 0.323822 31 43 29
2.373456 -1.089911 0.473385 56 67 35
1.753737 -1.738722 0.836379 54 61 45
1.913160 -1.826134 1.165241 49 57 36
2.061736 -0.771290 0.242003 225 216 187
2.303019 -0.547898 0.580060 40 40 40
2.406675 -1.169748 0.610350 27 33 19
1.854096 -1.843777 1.164728 73 76 59
2.149618 -0.772007 0.303386 230 228 216
1.674567 -1.739457 0.733857 56 60 45
2.150946 -1.652583 0.736738 75 84 67
2.145742 -0.779332 0.310545 76 79 70
2.252934 -1.241866 0.539403 171 153 139
1.571176 -1.840149 0.845231 59 66 58
2.354089 -0.713766 0.331054 41 49 25
1.965766 -1.750598 1.061359 51 55 40
2.370744 -1.232968 0.657332 57 66 45
1.712931 -1.544899 0.424931 79 84 52
1.653594 -1.885372 0.972627 62 68 56
1.598989 -1.573028 0.392896 200 197 180
1.982039 -1.388746 0.374433 84 85 53
1.806836 -1.835601 1.060099 56 58 47
1.981328 -0.837389 0.212612 9 20 6
2.346285 -1.203113 0.581188 65 76 60
2.202455 -1.564359 0.958773 64 75 59
2.025678 -1.868545 1.373255 32 41 24
1.982188 -1.536646 0.527158 110 111 93
2.015362 -1.648536 0.928799 135 118 98
1.847458 -1.900895 1.239686 63 68 48
1.759718 -1.554035 0.519407 85 99 66
2.175055 -1.632000 1.060239 121 112 95
1.534313 -1.815044 0.684251 49 65 38
1.661240 -1.606298 0.554961 63 80 38
1.803143 -1.821751 0.936829 41 41 31
1.953335 -1.719121 0.993086 58 65 49
1.944242 -0.742600 0.215228 70 91 48
1.662971 -1.800902 0.847041 52 54 41
2.162972 -0.724073 0.294899 229 230 232
1.873331 -0.772813 0.063017 209 205 196
2.024755 -0.812972 0.197488 35 47 25
1.979884 -0.862447 0.182000 89 108 52
2.235716 -0.751106 0.304909 94 104 114
2.008574 -1.875638 1.375620 154 120 95
2.156819 -0.838494 0.322451 57 66 39
1.555986 -1.706510 0.566957 214 181 146
1.800200 -1.907011 1.194026 144 127 107
2.043660 -0.769635 0.171462 78 94 110
2.052473 -1.349610 0.357068 72 74 50
2.150549 -1.663164 0.777373 146 131 112
1.564412 -1.746681 0.656322 60 63 42
2.000085 -0.973699 0.193658 57 70 50
1.716716 -1.878241 1.044721 94 83 63
2.186032 -0.914171 0.337685 68 77 58
2.028211 -1.655280 0.952345 64 67 50
2.100887 -1.416355 0.600692 200 180 155
2.328208 -0.730459 0.338815 40 42 31
1.894525 -1.796077 1.086940 62 66 52
2.040396 -0.951246 0.226570 67 85 43
2.202197 -1.668306 0.786917 68 70 57
1.970117 -1.880460 1.344695 137 128 111
1.806184 -1.046604 0.021517 140 7 50
2.016359 -1.892869 1.414545 174 153 132
1.974286 -0.811938 0.191120 22 30 15
2.327170 -0.770847 0.348876 172 158 145
2.336744 -1.304261 0.685783 88 90 79
1.655503 -1.821072 0.878625 92 81 59
2.012669 -1.765141 1.155006 26 25 20
2.078589 -0.852564 0.260755 209 210 196
1.621913 -1.530177 0.349352 173 151 128
1.988106 -1.382592 0.337260 205 193 171
1.720164 -1.865374 1.005470 122 107 84
1.934500 -1.924232 1.365308 76 65 47
2.075320 -1.792879 1.268239 136 114 91
2.003339 -1.744443 1.091301 93 98 78
1.965893 -1.768102 1.128374 80 78 63
1.941038 -1.798741 1.133992 135 120 97
1.834841 -0.864860 0.054657 198 197 193
1.764453 -1.776578 0.902802 143 123 98
2.136613 -0.866695 0.316096 185 141 130
1.912332 -1.880967 1.265113 143 134 119
1.950818 -1.831913 1.213076 77 72 53
2.206539 -0.729284 0.363471 67 81 94
2.106839 -1.715891 1.149477 61 65 51
2.196212 -0.722586 0.289326 143 150 160
1.554356 -1.812080 0.758540 151 144 116
2.175216 -0.726241 0.339038 25 30 26
1.891908 -1.810998 1.108182 55 62 46
1.921869 -1.422627 0.356222 73 84 42
2.187457 -1.529055 0.862754 220 208 186
2.295908 -1.388797 0.778700 118 103 82
1.704024 -1.406474 0.163010 76 92 47
1.582591 -1.782151 0.701910 155 129 104
1.813185 -1.466416 0.366015 193 174 157
2.241367 -1.354263 0.663754 67 75 51
1.881471 -1.104013 0.095702 13 15 14
2.033534 -1.125620 0.234600 56 76 39
2.327880 -1.662265 0.793392 130 120 110
2.308528 -1.675281 0.809475 64 67 56
1.991775 -1.275423 0.104852 226 230 233
1.587139 -1.575753 0.410267 197 189 168
2.185436 -1.350909 0.594521 87 86 65
2.095446 -1.658529 0.700761 62 70 49
2.170229 -0.813166 0.331758 50 59 28
1.820194 -1.295644 -0.002541 217 226 223
1.903575 -1.734486 0.976996 86 93 75
1.698800 -1.772626 0.839549 125 113 89
1.911339 -1.915058 1.302721 72 70 55
2.440584 -1.103610 0.545196 112 116 89
2.217027 -1.565737 0.965920 165 161 150
1.849907 -1.655428 0.729367 64 69 49
1.780435 -1.874504 1.117846 101 94 75
1.955513 -0.794101 0.227434 200 202 181
1.998797 -1.895224 1.394106 73 70 55
1.917232 -1.053631 0.104188 244 247 252
1.872398 -1.430110 0.313661 89 88 57
1.977123 -0.907883 0.189232 14 22 1
1.687642 -1.803937 0.862899 92 81 63
2.119038 -0.995867 0.271588 151 147 109
2.053126 -0.993513 0.225447 193 192 187
1.959274 -1.950194 1.436089 61 65 51
2.017852 -1.528636 0.527601 107 105 90
2.074471 -1.777610 1.251417 58 63 40
1.700931 -1.871142 1.022537 104 89 66
2.081675 -1.729176 1.159686 66 73 55
2.189280 -0.718656 0.338284 56 60 71
1.962787 -1.923284 1.393401 39 36 21
1.854450 -1.814255 1.069241 121 110 88
2.048310 -1.770157 1.209903 151 135 120
1.854060 -1.169181 -0.031058 205 217 215
2.197671 -1.432010 0.736119 156 139 121
2.061544 -1.463172 0.652454 70 76 48
1.882998 -1.926957 1.320974 130 118 104
2.020357 -1.497110 0.522656 58 55 38
2.124831 -0.712635 0.228955 57 67 76
1.907493 -1.425315 0.340828 87 97 60
1.943418 -1.916132 1.381612 156 140 115
2.313753 -1.024392 0.376184 53 59 33
2.003275 -1.784128 1.182838 145 134 112
1.953318 -1.390183 0.314302 197 185 163
2.213370 -0.831632 0.373738 139 138 134
1.755719 -1.527872 0.463528 202 183 169
2.077618 -0.872298 0.275206 100 122 58
2.179140 -0.785857 0.340665 117 112 93
2.000259 -0.809256 0.242861 16 17 19
2.412263 -1.178841 0.629804 158 141 123
1.710868 -1.772794 0.852442 94 86 67
2.365587 -0.716702 0.329111 77 95 57
2.053411 -1.808593 1.274853 94 95 77
2.227992 -0.908402 0.369340 72 77 54
2.327330 -1.327952 0.723919 85 86 70
1.720588 -1.379337 0.138430 234 217 197
2.271562 -1.681631 0.817950 75 69 57
2.209423 -1.645362 0.759514 146 131 102
1.871556 -1.514190 0.485012 90 79 49
2.430447 -1.141420 0.591138 97 102 80
1.784461 -1.001745 0.031301 23 34 38
2.246428 -0.706411 0.383952 74 78 89
1.595465 -1.832477 0.845957 69 68 40
2.145887 -1.444973 0.703620 192 163 131
2.191750 -1.695069 0.818861 53 49 37
2.171271 -1.074679 0.414203 221 203 179
2.076424 -1.185492 0.246844 173 174 169
1.680370 -1.858110 0.976012 105 93 69
1.970807 -1.128682 0.087318 208 217 214
2.235858 -0.859680 0.358017 235 231 220
2.193887 -1.377973 0.650946 75 85 58
1.752159 -1.370023 0.135519 141 124 98
2.325384 -1.093895 0.457770 168 160 141
2.172582 -1.612589 1.017457 206 199 183
2.243094 -0.839462 0.350716 81 80 60
2.235174 -1.164242 0.428428 43 54 24
1.665074 -1.749224 0.773494 149 139 114
2.401541 -1.107400 0.536764 103 96 77
1.994717 -0.831786 0.203793 203 191 175
1.898743 -0.970039 0.130773 11 15 27
1.870321 -0.935837 0.072712 28 29 23
2.055610 -1.716250 1.108423 101 92 77
1.834757 -1.428887 0.337594 196 193 176
1.928254 -1.386991 0.339676 188 175 158
1.948652 -1.511684 0.504430 90 82 59
1.931825 -1.940283 1.376258 153 137 112
2.205011 -1.697508 0.816979 169 158 136
1.552801 -1.863460 0.849148 102 92 65
2.065994 -1.025084 0.282799 21 17 14
2.312145 -0.640623 0.582846 95 89 63
1.633096 -1.436825 0.288259 212 192 181
1.860118 -1.576783 0.554965 217 201 185
2.032165 -1.786285 1.225311 124 111 92
1.858454 -1.093498 0.088256 140 133 91
2.235620 -0.816769 0.472364 109 108 77
2.075167 -0.920219 0.250765 181 149 136
2.062818 -1.440676 0.496685 81 72 43
2.321928 -0.749798 0.609902 77 80 61
1.723088 -1.875868 0.924865 114 105 88
1.820624 -1.404476 0.277898 205 193 167
2.036401 -0.768282 0.088408 33 36 45
2.200781 -1.527041 0.846152 220 205 182
1.831424 -0.906068 0.017799 110 110 118
1.766514 -1.762711 0.894800 110 98 72
1.595977 -1.607943 0.570063 65 78 50
2.074490 -0.968981 0.278123 201 200 198
2.221760 -1.642843 0.760198 60 65 43
1.634583 -1.578567 0.502114 51 48 39
2.016280 -0.771709 0.192474 26 37 31
2.330595 -0.749463 0.348171 174 165 150
2.007752 -0.963545 0.216856 113 118 114
1.734379 -1.596912 0.583285 218 199 184
1.887995 -0.972082 0.123551 7 18 20
2.169172 -0.854688 0.337639 43 57 60
2.022373 -1.770271 1.173743 172 160 146
1.884214 -1.500343 0.482416 81 79 54
1.794951 -1.699928 0.766920 121 114 96
1.912241 -0.958180 0.145409 13 11 12
1.916992 -1.416376 0.338835 215 206 189
1.977273 -1.637075 0.616031 97 94 85
2.187137 -1.374621 0.624422 195 184 162
1.936909 -1.516317 0.541451 196 174 150
2.137652 -0.827385 0.293843 54 70 33
1.833297 -0.866752 -0.013599 213 214 209
1.891587 -1.428032 0.310805 100 101 69
1.874638 -1.557491 0.570362 195 167 145
2.394541 -1.149277 0.577603 140 136 111
1.981401 -1.442251 0.459156 98 91 63
1.974737 -0.956476 0.195544 5 6 1
1.894630 -0.881221 0.012190 55 59 62
2.188468 -0.940970 0.405805 80 68 54
2.171410 -0.781779 0.338164 47 56 25
1.998982 -1.211698 0.066856 220 225 228
2.094759 -1.046879 0.314416 82 76 52
2.048836 -0.746860 0.279073 20 20 12
2.194157 -1.271426 0.440571 99 93 59
2.049855 -1.596895 0.853458 177 164 148
1.723479 -1.504207 0.411039 187 180 162
1.996274 -1.772541 1.147384 57 49 36
1.858343 -1.374542 0.356816 202 204 190
1.676380 -1.729549 0.722264 118 115 98
2.165882 -1.624276 0.711955 65 69 42
1.952879 -1.351823 0.259004 235 202 171
2.142954 -0.830720 0.310062 19 17 5
2.124217 -1.345680 0.455115 206 199 183
1.780496 -1.416845 0.278150 184 173 151
1.737934 -1.478566 0.351181 204 198 184
1.720463 -1.803946 0.873595 132 123 106
1.748275 -1.783277 0.884922 132 115 87
1.941013 -1.721510 0.989007 137 122 99
2.165484 -0.918161 0.332656 168 155 149
2.081410 -1.741420 1.174425 135 123 109
1.672590 -1.807126 0.869980 66 63 44
2.334526 -0.744378 0.343601 19 15 4
1.517561 -1.814210 0.669197 132 127 97
2.322243 -0.570088 0.598406 61 59 34
2.139572 -1.062623 0.376563 229 194 166
1.572482 -1.779112 0.659235 45 58 32
1.723297 -1.475849 0.353576 209 203 191
2.064078 -1.691893 0.764223 46 46 34
1.961956 -1.939862 1.416338 173 143 119
1.832989 -1.461445 0.412518 153 144 113
1.954458 -0.814968 0.194858 76 84 45
2.067882 -0.756726 0.189057 99 107 118
2.096496 -1.049255 0.329762 191 152 147
2.339674 -1.094507 0.463780 177 171 157
2.339029 -1.057773 0.421894 150 152 138
1.807744 -1.754643 0.916100 178 165 149
1.973842 -1.305808 0.070285 225 237 237
1.599992 -1.836513 0.876424 163 155 136
2.374253 -1.141434 0.532515 7 12 5
1.873016 -1.323615 0.185645 229 213 188
1.989954 -1.636631 0.664697 181 171 159
2.391016 -1.108571 0.528036 75 73 48
1.928561 -1.490284 0.483760 81 75 59
2.113659 -0.994915 0.322013 195 166 152
1.926423 -1.820401 1.184251 132 118 92
1.896752 -1.922313 1.324332 150 136 123
2.093644 -1.406518 0.597181 76 69 53
2.266995 -1.660749 0.780872 130 118 102
2.039909 -0.934882 0.237925 194 187 159
2.036353 -1.749075 1.148016 149 137 111
2.128306 -1.100207 0.250005 185 166 160
2.117328 -1.698869 1.129291 171 155 139
2.339087 -0.789403 0.367713 142 140 125
2.067444 -1.454427 0.639446 199 174 152
2.393105 -1.065052 0.478486 83 89 61
1.926156 -1.683953 0.701380 170 143 116
1.858474 -1.399169 0.268728 85 86 55
2.053968 -0.820196 0.240048 20 23 12
2.237986 -1.667314 0.787987 47 49 35
2.081365 -1.361323 0.431922 60 60 34
1.923976 -1.505760 0.579360 87 76 56
1.847258 -1.654520 0.627167 138 131 121
2.051029 -1.076982 0.293291 156 158 155
1.974075 -1.858097 1.312599 143 116 95
2.237541 -1.246803 0.535497 75 67 44
1.863655 -1.675651 0.686485 74 78 61
2.101922 -0.783430 0.264940 241 236 233
1.898023 -1.323089 0.202696 222 205 177
2.263997 -1.099793 0.539040 81 99 61
1.908753 -1.447871 0.433637 89 100 58
1.924206 -1.918584 1.349767 127 121 105
1.995014 -1.124378 0.105702 210 216 214
1.985650 -1.493404 0.629782 196 184 160
2.141884 -1.651490 1.076662 116 109 93
2.440052 -1.111734 0.563512 39 45 17
1.640805 -1.689935 0.598343 87 81 59
2.189394 -1.670741 0.792011 160 140 116
2.000434 -0.890600 0.236595 201 207 171
1.954052 -1.525297 0.635294 69 61 50
2.086058 -1.619590 0.679802 49 40 25
2.017056 -0.847275 0.207932 78 88 51
1.632878 -1.554457 0.370525 44 49 17
1.835222 -1.371302 0.198633 229 217 195
1.621677 -1.596548 0.414643 89 98 81
2.019160 -1.821990 1.288499 135 120 101
2.185817 -1.153226 0.388243 143 119 93
1.955505 -0.982916 0.152175 231 231 239
2.110864 -1.477201 0.771264 201 157 128
1.523182 -1.771161 0.654431 42 46 32
2.017894 -0.767524 0.139580 180 187 193
2.322516 -1.263376 0.635274 72 70 55
2.200270 -1.659921 0.765285 139 127 101
1.917074 -1.925106 1.353394 92 86 72
2.086551 -1.358096 0.372953 94 92 67
1.976345 -1.672065 0.927215 137 119 97
1.810733 -1.684747 0.684239 189 182 164
1.982043 -1.924478 1.436798 103 87 64
1.754853 -1.564817 0.508779 200 196 171
2.094774 -1.617532 0.940954 101 86 65
1.695384 -1.741651 0.784289 120 109 87
1.966567 -1.625604 0.629117 137 128 119
2.370697 -1.063347 0.460093 131 120 98
2.132662 -1.701237 0.788913 120 122 101
1.861489 -1.299497 0.191361 239 218 197
1.637772 -1.873892 0.951242 110 95 74
1.970880 -1.051612 0.171733 194 150 147
2.215389 -0.902611 0.379673 157 146 124
2.253719 -1.658748 0.782937 69 67 52
2.013852 -1.799693 1.233856 89 88 70
1.682967 -1.525462 0.438091 127 117 92
1.658699 -1.531525 0.433961 172 152 127
1.650603 -1.513117 0.405130 160 146 119
1.682635 -1.467773 0.298804 93 81 57
2.125232 -0.835384 0.309180 18 15 10
2.261125 -0.851866 0.366163 189 177 151
2.097494 -1.354848 0.388253 89 87 62
1.974679 -1.792513 1.166246 74 81 65
1.866343 -1.517183 0.564715 88 78 53
1.940177 -1.315461 0.225649 236 227 212
2.099778 -0.825624 0.285199 11 16 9
2.389240 -1.166500 0.596671 94 85 68
1.787282 -1.754220 0.863772 61 68 50
1.931779 -1.433102 0.408150 95 99 66
1.697674 -1.760241 0.798246 74 68 46
1.830136 -1.767998 0.950510 107 94 75
2.194808 -1.686338 0.801846 170 155 132
2.152036 -1.569774 0.941722 76 69 51
2.110729 -1.375120 0.490838 89 88 60
1.973696 -1.731599 1.054420 137 130 112
2.247689 -1.672837 0.815437 168 158 148
1.988126 -1.285736 0.110545 225 235 236
1.892442 -1.484807 0.509028 222 208 195
1.991619 -1.864246 1.318986 73 68 49
1.930524 -1.321477 0.225091 124 107 87
1.847555 -1.675853 0.742782 168 147 126
1.882450 -1.227685 0.189290 235 224 206
1.833701 -1.804988 0.973667 126 110 94
2.000609 -1.654165 0.919580 166 149 121
2.202451 -1.344986 0.602517 47 54 20
1.879620 -1.457438 0.407236 114 115 75
1.628705 -1.769270 0.764659 143 127 101
2.336826 -0.690342 0.336219 86 76 49
1.824845 -1.879571 1.192414 124 121 106
1.946232 -1.857679 1.281048 172 162 153
2.414594 -1.056642 0.477612 161 156 137
1.666445 -1.732734 0.726725 129 121 98
1.699721 -1.273575 0.129165 162 165 112
1.684604 -1.486681 0.393740 79 65 39
1.866330 -1.416434 0.266622 63 59 32
1.687860 -1.450571 0.271389 197 181 166
1.688321 -1.453911 0.248789 184 171 154
2.170026 -0.909902 0.335620 154 151 160
2.055097 -1.816072 1.325689 57 51 39
2.240716 -0.923825 0.465742 49 63 27
1.904541 -1.110517 0.162293 221 218 209
2.189444 -1.571308 0.964080 156 143 124
2.273885 -0.793080 0.430371 176 154 130
1.665002 -1.853544 0.970195 101 89 63
2.000636 -1.362250 0.298416 100 91 58
2.169013 -1.439521 0.705143 95 91 64
2.226158 -1.144372 0.391898 94 89 57
1.983318 -1.777348 1.145141 176 167 150
2.127746 -1.565237 0.850965 73 72 54
2.153936 -1.172541 0.287974 85 86 54
2.150101 -1.330568 0.448449 79 75 48
1.864316 -0.637194 0.195204 7 12 6
1.802942 -1.578924 0.562364 81 79 58
1.579070 -1.739088 0.607699 160 162 141
1.719019 -1.574290 0.521462 60 58 45
2.177317 -0.903750 0.341861 236 238 237
1.713087 -1.432388 0.253388 76 75 47
2.058713 -1.461290 0.523533 192 171 142
1.908206 -1.141777 0.125812 229 222 214
2.396412 -1.055525 0.454430 140 141 127
2.032139 -0.788230 0.183440 85 100 61
2.135310 -1.202718 0.327587 219 198 169
2.071777 -1.614708 0.648810 176 164 148
2.037829 -1.062958 0.269210 90 81 52
1.506213 -1.826269 0.665602 25 28 11
2.086682 -0.745199 0.252044 215 212 205
2.078298 -1.102612 0.204353 87 91 102
1.831621 -0.903451 0.064844 112 119 125
2.136386 -0.773482 0.293890 88 85 80
1.934058 -1.911278 1.348596 65 58 39
2.075954 -1.361006 0.370493 91 96 73
2.300177 -1.401028 0.796946 182 177 171
2.212718 -0.865281 0.383102 76 61 58
1.925716 -1.792013 1.103674 100 88 66
1.613188 -1.831266 0.869644 113 99 72
2.174001 -1.678784 0.793476 134 125 108
1.648686 -1.493795 0.387082 216 209 191
1.797683 -1.446892 0.336508 82 75 56
1.948763 -1.733096 1.018507 159 151 138
1.773282 -1.823502 0.983984 103 92 72
1.983437 -1.934093 1.429273 151 120 100
1.968865 -1.459678 0.434588 134 119 90
1.559950 -1.731933 0.565990 61 62 46
2.050151 -0.777450 0.196956 80 92 68
1.871772 -1.471052 0.457993 217 212 192
1.947807 -1.712498 0.981775 136 120 104
1.965363 -0.903398 0.138191 74 79 39
1.841426 -1.869555 1.136266 172 163 146
1.976834 -1.352026 0.281200 169 146 112
1.997559 -0.822300 0.153671 0 9 0
2.080750 -1.326800 0.329325 85 78 62
2.048823 -1.483232 0.512794 211 195 169
1.983827 -1.629657 0.620185 102 103 89
2.310715 -0.617827 0.566389 98 102 67
2.069038 -1.213539 0.253571 163 164 158
1.902746 -1.502508 0.480864 159 145 119
1.840521 -1.769845 0.971669 101 89 67
2.353017 -1.210241 0.601979 99 107 84
1.575068 -1.855138 0.868499 104 87 61
1.957504 -1.887219 1.331478 76 69 51
1.987493 -1.246152 0.039084 222 232 233
1.906877 -1.798966 1.101199 133 121 95
1.916532 -1.653835 0.838667 167 149 129
1.857796 -1.896002 1.249041 149 137 123
1.961532 -1.368910 0.285213 229 213 188
2.007775 -1.693514 1.036708 112 97 74
2.074586 -1.090815 0.304290 163 162 158
2.374423 -0.711985 0.318095 62 70 47
1.868021 -1.931021 1.111874 80 78 63
1.761133 -1.317592 0.165986 227 200 171
1.575999 -1.832843 0.797447 147 151 134
2.091670 -1.439956 0.628239 219 200 183
1.696503 -1.491108 0.364504 160 144 118
1.970183 -1.424297 0.466449 199 191 178
1.975782 -0.863305 0.202491 124 132 85
2.347398 -0.753745 0.644437 53 56 37
2.063943 -1.343866 0.335053 86 80 64
2.261901 -1.102813 0.388868 87 75 53
1.885549 -1.865459 1.231064 94 89 70
2.088044 -1.236881 0.344141 76 81 58
1.828848 -1.911811 1.091409 157 148 131
1.518813 -1.807617 0.649153 54 67 47
2.077147 -1.759797 1.215458 192 186 172
1.613178 -1.843412 0.895871 114 99 76
1.615450 -1.842788 0.888830 122 108 81
2.105360 -1.749872 1.228089 26 28 14
1.660421 -1.767545 0.782067 84 83 63
2.313427 -1.380851 0.773843 109 90 73
1.817587 -1.875332 1.165826 82 73 58
1.652137 -1.842999 0.920431 98 87 67
2.283515 -1.013183 0.372820 171 173 162
1.788540 -1.760187 0.898042 99 84 63
2.008455 -1.421282 0.492013 214 207 191
1.929534 -1.837226 1.214214 88 82 66
1.844631 -1.878771 1.234159 78 77 57
2.152714 -0.774898 0.304216 226 223 218
1.972794 -1.030343 0.166644 195 186 187
1.586314 -1.611999 0.438420 106 119 101
2.101525 -1.410973 0.594899 192 181 149
2.450666 -0.738648 0.317338 68 76 55
1.792040 -1.378764 0.214491 69 68 38
1.991848 -1.305639 0.080893 221 232 234
2.056981 -1.809537 1.303350 100 98 85
1.757226 -1.835726 1.018192 94 84 59
2.401161 -1.214421 0.646776 40 54 18
1.864161 -1.656161 0.767744 172 164 145
1.858548 -1.513166 0.550234 212 195 177
1.884447 -1.857675 1.210960 131 132 114
1.949648 -1.274603 0.069265 245 249 252
1.892771 -1.880229 1.263382 135 126 111
1.976572 -1.279306 0.088687 190 201 197
1.666678 -1.390344 0.206724 65 61 34
1.706052 -1.826790 0.946525 95 83 61
2.354753 -1.267761 0.659208 47 56 27
1.793597 -1.307590 0.162712 237 220 204
1.748014 -1.587691 0.558145 168 146 125
1.973547 -1.926471 1.399001 141 126 103
1.884711 -1.490402 0.492144 217 208 191
1.800921 -1.890951 1.049619 104 107 90
2.001104 -1.830030 1.291311 60 51 36
1.809236 -1.400568 0.261333 167 161 139
1.874695 -1.855440 1.211402 94 91 72
1.866863 -1.814601 1.086675 91 79 57
1.834827 -1.482129 0.411067 207 196 176
1.907100 -1.429987 0.373496 162 148 121
1.900128 -1.906342 1.282205 144 137 127
1.708760 -1.496722 0.380074 132 112 88
2.415427 -1.055857 0.504058 130 113 97
2.073417 -1.353109 0.380910 200 193 174
1.922556 -1.489302 0.458549 206 189 173
1.691131 -1.851449 0.986841 98 88 63
1.980310 -1.385410 0.309732 217 208 191
1.953347 -1.921264 1.385051 140 133 107
1.675344 -1.844146 0.945377 99 87 65
1.938254 -1.863831 1.282762 105 98 82
1.782234 -1.424562 0.273887 111 103 80
1.767206 -1.502117 0.447375 205 190 169
1.950859 -0.905366 0.160864 163 163 153
2.241436 -0.869042 0.509194 59 59 35
1.707375 -1.388320 0.087788 192 181 161
1.950872 -1.185387 0.055541 240 242 239
1.996562 -0.844309 0.237201 225 231 203
1.818250 -1.768505 0.944536 104 90 64
2.129538 -1.340771 0.472834 203 200 181
2.063827 -1.400436 0.402293 241 234 216
2.059981 -1.390492 0.459033 241 234 216
1.856074 -0.651098 0.194563 60 66 56
1.765728 -1.718474 0.778984 119 104 73
1.919481 -1.513617 0.617106 85 75 50
1.749739 -1.326907 0.104072 214 196 174
1.996769 -0.807866 0.227816 61 69 58
1.580438 -1.832204 0.822607 168 170 156
2.088290 -0.821260 0.248818 56 67 35
1.851813 -0.869958 -0.015487 98 99 94
2.166465 -1.685876 0.792048 111 103 82
1.767476 -1.419079 0.295373 97 95 70
1.969039 -1.315157 0.094981 225 235 237
1.988161 -1.938333 1.453476 87 76 54
2.080880 -0.727770 0.243772 96 103 111
1.668881 -1.825967 0.895858 111 98 79
1.657644 -1.450492 0.228397 122 97 67
1.862241 -1.373732 0.231798 192 181 161
1.713493 -1.484910 0.395730 116 101 80
2.049626 -1.041859 0.296646 190 156 131
1.841874 -1.255618 -0.000143 130 134 137
1.807499 -1.098717 0.044539 201 170 167
2.162144 -0.819519 0.329875 161 159 134
2.037935 -1.359742 0.367161 201 196 177
2.345197 -0.825116 0.364415 48 52 25
2.330372 -1.669028 0.816404 55 48 40
1.910265 -1.420972 0.347610 92 91 63
2.190683 -0.916876 0.390448 78 73 43
1.731371 -1.656462 0.627522 197 175 152
1.525775 -1.837534 0.764476 199 191 180
1.996839 -0.800668 0.226605 3 11 0
2.149213 -1.291782 0.392381 102 92 65
1.843116 -1.639806 0.618700 226 205 176
1.805683 -1.525835 0.477199 109 90 73
2.315406 -0.550972 0.576078 190 161 155
1.707527 -1.548794 0.502943 181 147 122
2.408861 -0.735550 0.323493 71 81 56
1.981107 -0.857950 0.211375 78 91 47
1.666362 -1.811169 0.869086 157 157 133
2.048641 -1.070018 0.278613 212 182 174
2.054407 -0.944880 0.248814 238 249 251
1.747434 -1.835906 0.994575 94 89 59
1.996535 -1.480351 0.633229 124 110 81
1.802623 -1.474932 0.380438 203 185 163
2.025819 -0.780255 0.152486 21 33 45
2.335399 -1.141414 0.503390 66 80 47
2.037634 -1.589400 0.818336 178 166 152
1.963442 -1.769409 1.103498 67 59 46
1.598768 -1.872009 0.932450 108 93 70
2.274810 -1.650937 0.786934 81 77 66
1.749894 -1.469837 0.346161 188 179 150
1.690086 -1.813013 0.860682 101 93 74
2.090913 -1.347239 0.398128 205 199 175
2.434868 -1.057127 0.501019 161 142 125
1.744819 -1.452990 0.340406 97 101 66
1.887643 -1.474738 0.487791 206 188 164
1.914220 -1.443018 0.420487 222 214 195
1.917301 -1.459511 0.416047 121 106 77
2.209441 -1.174213 0.390035 191 172 140
2.064517 -1.337191 0.316058 91 85 59
1.893244 -1.419990 0.314718 214 209 187
2.280764 -1.248281 0.582332 141 138 121
1.983713 -1.749981 1.084055 119 109 84
1.891057 -1.634152 0.662476 212 193 176
1.969258 -1.704381 0.989304 104 91 74
1.870533 -1.231147 0.009408 23 27 28
1.745703 -1.465008 0.344588 112 102 75
1.836308 -1.819832 1.050975 136 126 99
2.380496 -1.246845 0.672375 66 68 47
1.956133 -1.793662 1.151491 81 70 52
1.924746 -0.952331 0.160001 24 26 25
1.881458 -1.176608 0.180256 230 231 213
2.201978 -1.457998 0.788617 209 187 176
2.208331 -1.008859 0.456133 198 171 144
1.915542 -1.045669 0.114075 243 245 255
1.705530 -1.802511 0.890913 119 108 86
1.807323 -1.347146 0.180892 93 74 42
2.201567 -0.783156 0.377516 39 24 17
1.518858 -1.784704 0.654977 12 20 7
2.014827 -1.527650 0.546666 101 98 83
1.888262 -1.131803 0.019033 209 204 185
2.085430 -1.458307 0.532986 59 50 21
1.843868 -1.508418 0.456686 94 86 65
1.985636 -1.040704 0.184325 65 46 42
2.388104 -1.183959 0.602282 163 150 133
2.225018 -1.275883 0.547885 80 75 55
2.041166 -0.920611 0.237072 96 123 68
1.720905 -1.545614 0.483464 115 93 69
1.758552 -1.487099 0.407476 201 183 161
2.101895 -0.922441 0.280771 60 67 83
2.182699 -1.667749 0.775971 87 78 63
1.811602 -1.928539 1.242320 156 140 124
1.929580 -1.763283 1.056067 178 168 156
1.874674 -1.790792 1.039515 16 17 11
2.007372 -1.368757 0.293395 207 206 176
1.667996 -1.781074 0.812777 108 93 70
2.121924 -1.377556 0.569487 193 175 151
2.041183 -0.959280 0.236294 170 171 165
1.991176 -1.310845 0.279165 166 132 105
1.990596 -1.337820 0.329283 221 185 153
2.459986 -1.068486 0.524698 170 167 152
2.046737 -1.788767 1.247770 88 95 77
1.727915 -1.516135 0.447025 181 159 135
1.955938 -1.503257 0.623289 86 79 53
2.011990 -0.833890 0.176696 5 12 5
1.997807 -1.159336 0.112109 192 198 196
1.784202 -1.355986 0.165738 96 90 56
2.000225 -1.251737 0.109629 210 222 222
2.114569 -1.240149 0.350191 135 120 97
2.230907 -1.670699 0.794622 134 121 105
1.593186 -1.868300 0.919210 89 78 60
2.225687 -1.273145 0.540770 73 68 48
2.110078 -0.902975 0.297158 181 162 164
2.411767 -1.068238 0.494509 165 153 139
1.735566 -1.687625 0.649477 152 140 126
2.227055 -0.876221 0.330891 64 71 53
2.166050 -1.675782 0.784465 100 93 75
2.299656 -1.069359 0.399524 70 86 49
1.919389 -1.536523 0.623213 115 102 85
2.266505 -1.676728 0.810873 146 129 111
1.956641 -1.800837 1.162789 141 133 122
1.835734 -1.001869 0.061552 35 42 52
1.737934 -1.682586 0.659139 108 98 86
2.170715 -1.098946 0.403647 211 185 158
2.146999 -1.120664 0.305079 215 191 163
2.033998 -1.345324 0.315740 107 103 68
2.108712 -0.877453 0.303994 91 98 65
1.782650 -1.715663 0.807586 61 64 45
1.753231 -1.431826 0.311179 75 68 42
1.617554 -1.816759 0.846161 85 69 43
1.623389 -1.595522 0.499963 82 90 69
2.341719 -0.632970 0.643848 159 156 139
1.846986 -1.703747 0.833947 59 52 33
1.799066 -1.838887 1.066322 49 53 39
2.202533 -1.118501 0.344476 206 179 150
1.775981 -1.548662 0.488206 110 98 72
1.772920 -1.093195 0.045211 112 115 98
1.774990 -1.530638 0.487572 66 58 45
1.916599 -0.964713 0.038547 62 73 57
1.973701 -1.608727 0.780239 147 143 131
2.333019 -1.203749 0.585927 149 142 126
2.115452 -1.080411 0.339923 76 76 66
2.071418 -1.435580 0.491909 184 170 143
1.846328 -1.477464 0.432187 201 193 172
2.155135 -1.284990 0.382924 73 62 32
2.399986 -1.161262 0.589201 134 131 116
1.598957 -1.764852 0.665656 53 63 39
2.238238 -0.846847 0.438675 193 178 157
2.044665 -0.800888 0.203275 1 15 0
1.881665 -0.978449 0.094029 12 13 17
1.652318 -1.512673 0.439258 96 90 64
1.686279 -1.902028 1.054164 97 84 68
1.959551 -1.635319 0.627565 74 76 65
2.065635 -1.425505 0.457339 214 205 190
1.791233 -0.988123 0.032062 184 178 180
1.885116 -1.845004 1.173407 53 54 36
1.842997 -1.374220 0.219951 93 97 64
2.003781 -1.409411 0.382737 104 99 69
1.871088 -1.562777 0.558953 208 171 144
2.272375 -0.891340 0.502129 89 77 61
2.017410 -1.788637 1.213772 67 58 43
2.056853 -1.301035 0.311673 227 198 168
1.974402 -1.889742 1.357493 38 31 23
1.927385 -1.019310 0.132077 143 137 137
2.146367 -1.037517 0.373473 83 78 49
2.255901 -1.696053 0.815708 72 69 50
2.122858 -0.715354 0.242973 23 37 48
1.745015 -1.815603 0.899490 103 95 74
1.936886 -1.445930 0.392379 185 178 160
1.605536 -1.843029 0.881085 48 47 27
2.158267 -1.707299 0.807494 133 128 109
2.234162 -1.129477 0.427952 85 81 54
1.872065 -1.788822 0.842573 148 136 124
1.811807 -1.868242 1.126837 61 63 50
1.738830 -1.772844 0.858285 132 123 106
2.273423 -1.291871 0.627655 97 89 76
1.852434 -1.664369 0.632069 92 89 72
1.733642 -1.911488 1.142111 61 62 46
2.131176 -0.842214 0.288675 12 10 0
2.352632 -0.818207 0.367435 136 136 126
2.324033 -0.754107 0.348736 110 98 76
1.785877 -1.502183 0.439048 222 210 194
2.216180 -1.694970 0.822212 35 26 11
1.912194 -1.942983 1.383567 79 75 63
2.065733 -1.624307 0.677802 175 156 139
2.072635 -0.795603 0.225965 79 82 53
2.258057 -1.307809 0.639866 88 80 61
1.640105 -1.544781 0.422663 121 100 73
2.162087 -1.326279 0.480908 215 209 183
1.975719 -1.232124 0.094806 181 189 192
1.982406 -1.249017 0.040678 181 189 192
1.866249 -1.382440 0.226643 217 205 189
1.750237 -1.538499 0.497829 105 90 67
2.225145 -1.434170 0.764625 58 54 43
2.362779 -1.207772 0.609924 71 74 57
2.187120 -1.556026 0.934709 177 173 161
1.591031 -1.514767 0.434303 173 147 124
2.098820 -1.034678 0.315662 67 61 37
1.913755 -1.806585 1.128769 111 99 77
2.196512 -1.669474 0.778072 56 50 34
1.596953 -1.594923 0.507017 118 125 107
1.647129 -1.471664 0.300389 69 85 48
2.094857 -0.831205 0.274920 71 72 66
2.092992 -0.824585 0.292082 71 72 66
1.857415 -0.918054 -0.016543 125 126 121
1.881242 -1.454867 0.427867 92 92 58
1.818136 -1.930607 1.096217 91 81 69
2.093646 -0.750029 0.223727 158 158 156
2.324069 -0.703246 0.488876 194 180 169
2.043988 -1.658621 0.719764 176 168 149
1.998582 -1.915630 1.437480 105 87 65
1.970370 -1.334156 0.048867 225 231 231
2.079607 -1.001440 0.238580 163 135 134
2.298578 -1.047970 0.379052 146 136 126
1.787039 -1.472036 0.379888 202 190 168
2.007090 -1.400444 0.365884 103 99 74
2.110555 -0.852479 0.304825 80 82 61
1.962529 -1.520809 0.504881 91 80 62
1.970380 -1.318640 0.248222 226 208 186
2.290385 -1.200239 0.539102 191 188 179
1.843172 -1.486007 0.438362 194 176 154
2.163928 -1.546261 0.879524 205 195 183
2.128621 -1.165578 0.298363 165 168 157
2.082171 -0.815963 0.233596 54 64 30
2.073944 -1.586815 0.675246 216 203 187
2.433607 -1.073890 0.516500 38 42 17
2.129474 -1.135889 0.274020 157 159 146
2.071535 -1.383389 0.405593 91 87 62
1.827378 -1.499764 0.473310 225 213 197
2.174332 -1.322422 0.518007 193 184 151
2.302357 -0.815699 0.544359 61 72 38
1.775073 -1.669781 0.655018 109 97 83
2.127569 -1.348203 0.466270 88 87 59
2.352530 -1.143717 0.529481 91 94 75
2.026368 -1.441345 0.574078 195 173 149
1.992949 -1.904646 1.403768 157 140 122
2.259669 -1.112338 0.391469 213 209 184
1.739590 -1.536203 0.516244 189 174 151
2.280655 -1.022941 0.540647 54 60 32
2.047601 -1.844204 1.360958 131 118 101
1.949277 -1.460233 0.528110 123 109 82
2.091008 -0.930008 0.276485 44 50 46
2.037495 -1.609447 0.868223 109 98 80
1.997401 -1.922555 1.421146 142 120 99
2.379612 -1.242722 0.662090 163 166 145
2.001900 -0.696575 0.155188 111 122 79
2.406652 -0.729168 0.323790 17 27 3
2.426156 -1.073537 0.497742 148 143 124
1.935376 -0.860167 0.187209 19 23 9
1.983051 -0.857153 0.220975 75 89 53
1.928183 -1.541839 0.538334 187 181 167
1.924586 -1.467082 0.419617 137 121 96
2.222414 -1.130784 0.358389 208 183 153
2.013259 -1.474578 0.507795 77 69 48
1.669003 -1.589185 0.472971 124 126 112
2.178581 -1.317426 0.519171 181 170 140
2.072289 -0.857299 0.231679 48 64 27
1.918816 -1.857664 1.247917 150 141 126
1.711358 -1.735655 0.762830 188 181 162
1.879686 -0.785473 0.120258 230 234 235
2.069838 -0.765191 0.241724 78 73 67
2.129357 -1.150669 0.287314 181 181 169
1.935140 -1.422060 0.314915 194 189 167
1.879362 -1.380754 0.247291 75 70 48
1.969365 -0.877525 0.131347 63 79 50
1.766626 -1.098707 0.047991 113 115 93
1.731184 -1.398298 0.254877 80 74 52
1.669025 -1.430339 0.288416 169 151 129
1.678252 -1.439479 0.250918 169 151 129
2.044649 -0.950832 0.243540 244 250 250
2.022714 -1.431631 0.514826 210 204 188
2.427306 -1.134023 0.579587 82 92 57
2.086618 -1.024631 0.314407 98 87 69
1.716890 -1.501591 0.431355 210 196 185
1.986847 -1.433862 0.408411 196 195 167
1.751642 -1.431731 0.285331 100 90 63
2.013120 -1.404707 0.394637 189 188 160
2.122763 -1.136129 0.349316 180 161 157
2.037909 -1.459851 0.489432 210 199 177
2.028022 -1.462295 0.484088 217 209 190
2.092108 -1.750231 1.216997 47 44 27
1.852037 -1.527122 0.558770 174 167 141
2.066229 -1.414809 0.583829 89 77 55
1.972872 -1.528070 0.648547 200 174 147
1.786180 -1.351651 0.165388 182 179 144
2.073757 -1.338819 0.338122 74 70 43
1.811293 -1.404811 0.287315 92 84 61
2.103201 -1.741910 1.209602 81 75 59
2.442156 -1.068431 0.508677 41 37 34
1.875585 -1.924228 1.324553 149 140 125
2.040966 -1.519737 0.569197 221 193 172
1.857213 -1.680538 0.765004 152 138 112
1.948865 -1.529642 0.516661 99 87 63
2.071667 -1.620696 0.680798 167 149 129
2.301029 -1.355421 0.737138 89 81 70
2.060505 -1.614477 0.639383 157 145 133
1.898434 -1.258681 0.180662 227 231 230
2.208842 -1.018357 0.465743 213 190 156
1.625163 -1.803063 0.824502 77 71 45
2.066818 -0.897250 0.273649 104 125 60
2.018301 -1.373537 0.331906 225 215 190
1.616798 -1.525455 0.456958 155 145 133
1.823676 -1.192218 -0.023627 192 192 192
2.208993 -1.677925 0.796340 109 98 80
2.147169 -0.782918 0.294158 116 110 110
2.017140 -1.361265 0.297656 92 79 60
1.684383 -1.701882 0.647383 160 149 129
2.045021 -1.586957 0.819326 150 138 122
2.096932 -0.966678 0.287371 51 65 74
2.381399 -1.079421 0.489571 63 66 45
1.736768 -1.417463 0.239066 75 66 49
2.024419 -1.352872 0.298668 224 210 181
2.023925 -1.351681 0.307037 224 210 181
2.240363 -1.387779 0.714881 83 76 58
1.659321 -1.822249 0.882607 97 85 69
1.915311 -1.040678 0.113948 53 51 62
2.137137 -0.813112 0.288872 64 85 29
2.007452 -1.223297 0.114752 230 239 248
1.516601 -1.847300 0.769709 63 65 44
1.911930 -1.693073 0.706884 64 69 49
1.967547 -0.959623 0.194798 177 173 174
2.358976 -0.569662 0.652312 18 27 6
2.291186 -1.658801 0.787674 135 130 110
1.837078 -1.657747 0.721023 135 138 119
2.223347 -1.694850 0.812509 142 130 108
2.155631 -0.664575 0.280023 87 93 109
2.179171 -0.961414 0.371767 167 154 135
2.434135 -1.098055 0.532927 84 95 61
1.937690 -1.679725 0.714195 179 162 132
1.899957 -1.223277 0.174451 227 229 226
2.242076 -1.686438 0.811761 27 21 9
2.343850 -1.311849 0.729261 92 83 74
2.086642 -0.786397 0.236095 71 71 63
2.103530 -0.821122 0.238596 75 89 53
1.679476 -1.462825 0.278056 179 158 141
1.827091 -1.384947 0.254052 96 91 71
1.979856 -1.739783 1.065863 85 74 56
2.326606 -1.675413 0.822147 125 126 112
1.734745 -1.379203 0.135503 211 198 181
1.897899 -1.276537 0.182848 233 235 234
1.676549 -1.574992 0.473420 176 155 138
2.140070 -1.298339 0.375487 91 86 54
1.816865 -1.660168 0.632988 92 78 67
2.069345 -1.408553 0.465197 194 177 149
1.550942 -1.796197 0.709176 29 33 10
2.030706 -1.392657 0.459269 205 200 178
2.023468 -1.725113 1.074896 105 88 72
2.095908 -1.390472 0.444335 212 203 186
1.890004 -1.463274 0.452617 127 113 86
2.068176 -1.399416 0.433698 102 95 79
2.122926 -0.883206 0.292879 84 77 59
1.910912 -1.457535 0.417099 171 165 129
1.842305 -1.218270 -0.011483 223 233 234
2.020383 -1.643088 0.682261 152 151 133
1.786766 -1.420581 0.286418 208 200 177
1.853821 -1.517675 0.475156 176 156 131
1.649994 -1.581246 0.449576 170 158 136
1.725176 -1.430863 0.265564 115 118 87
1.889757 -1.439002 0.355981 101 95 63
2.002938 -1.767310 1.151283 130 124 102
1.890006 -1.557119 0.541497 193 168 138
1.850300 -1.431909 0.337003 198 195 176
2.248148 -1.358243 0.683873 101 106 84
2.065995 -1.036697 0.223547 111 113 64
1.840440 -1.670493 0.708571 177 165 151
2.037512 -1.693142 0.748666 166 163 146
1.738014 -1.424077 0.305896 96 97 57
1.883043 -1.418136 0.306410 93 86 67
2.228914 -1.082056 0.367173 188 171 143
1.623859 -1.502101 0.410157 140 128 102
1.739835 -1.428069 0.256418 138 137 106
2.074359 -1.808918 1.312521 65 64 43
2.013967 -1.645233 0.692960 77 74 57
1.870675 -1.858688 1.179710 93 87 71
1.660565 -1.866719 0.979147 98 87 59
1.686126 -1.435529 0.261353 97 77 52
1.732183 -1.825645 0.968799 103 89 63
1.638749 -1.840530 0.896490 112 102 66
1.832848 -1.446909 0.353607 198 178 154
2.002033 -1.683892 0.742010 81 69 47
2.429647 -1.069399 0.499112 87 81 67
1.744997 -1.681541 0.656463 117 104 88
1.607979 -1.565884 0.507296 196 188 175
2.113532 -1.481848 0.794019 173 134 105
2.226923 -1.306543 0.599650 189 168 139
1.827291 -1.638628 0.601876 201 183 169
1.740189 -1.587959 0.536403 181 165 139
1.860370 -1.713498 0.824741 103 93 66
1.898855 -1.310786 0.188232 222 205 189
2.250812 -1.693304 0.818596 140 137 122
2.318497 -1.336324 0.727427 85 87 76
2.187056 -0.809386 0.338822 68 67 39
1.957810 -1.746057 1.074018 130 122 103
1.953441 -1.851375 1.264454 144 135 120
2.006475 -1.374642 0.340207 212 202 175
2.087771 -1.746848 1.214820 166 160 138
2.334179 -1.320061 0.719825 78 77 59
1.764037 -1.530141 0.474704 84 76 57
1.983784 -1.390060 0.311781 89 81 60
1.953419 -1.441710 0.415420 108 106 85
1.738297 -1.906730 1.139563 101 95 79
1.618294 -1.812294 0.837798 141 125 100
2.079561 -1.340070 0.350209 152 147 117
2.174776 -0.768501 0.344807 4 11 0
2.187345 -1.536566 0.886189 126 110 97
2.416139 -1.152606 0.582203 106 119 91
1.957482 -1.665904 0.709209 52 47 27
2.059650 -0.874250 0.273814 81 103 41
2.275182 -1.340474 0.687449 105 99 85
2.106288 -1.692824 1.101877 99 83 67
1.914255 -1.513955 0.584354 215 209 187
2.326022 -0.778793 0.600838 196 198 184
2.113439 -1.329541 0.395685 70 77 33
2.207283 -0.883353 0.416605 83 80 47
1.948842 -1.678023 0.889746 88 77 57
1.976627 -0.858303 0.178526 80 96 57
2.405770 -1.067938 0.488393 87 81 65
1.588950 -1.789938 0.762422 28 25 8
1.747391 -1.490940 0.403963 134 112 88
2.372639 -1.039627 0.438675 68 62 50
1.723754 -1.541760 0.478256 97 73 49
2.027760 -1.376775 0.342108 214 210 185
1.705922 -1.390223 0.197217 185 184 163
1.719135 -1.403520 0.140238 185 184 163
2.223843 -1.069779 0.358693 183 163 138
2.044902 -1.704451 0.779730 59 59 33
2.380780 -1.200949 0.612737 94 106 82
1.888535 -1.248433 0.191897 244 237 229
2.039034 -0.801407 0.175875 102 116 80
2.366807 -0.669209 0.689597 52 54 33
1.870341 -1.640780 0.702242 100 96 85
1.864062 -1.312117 0.170016 174 162 136
2.354692 -1.248857 0.653608 102 90 76
1.887964 -1.434186 0.344066 117 111 85
1.989489 -0.832802 0.221156 181 190 159
1.920825 -1.477600 0.526828 214 197 181
2.002093 -0.808649 0.256690 21 21 23
1.654174 -1.539460 0.454359 195 168 139
2.080925 -0.754519 0.234407 57 56 51
2.076181 -0.742616 0.266606 111 107 104
1.674192 -1.889000 1.034583 149 137 115
2.141519 -1.696127 1.151555 167 158 141
2.028896 -1.805561 1.263289 61 54 36
1.899793 -1.395498 0.230246 203 191 165
2.018182 -1.684326 0.755851 179 169 159
2.100543 -1.723579 1.168353 158 156 141
1.752422 -1.361380 0.171698 139 118 91
1.768573 -1.488783 0.404595 203 182 161
1.858913 -1.436832 0.354606 107 93 67
1.940226 -1.791087 1.117969 101 93 70
1.986774 -0.870416 0.202442 18 27 6
1.881519 -1.379885 0.231193 221 208 189
1.976008 -0.834873 0.166621 189 187 172
1.873618 -1.260651 0.185033 132 133 89
2.103189 -1.720120 0.826305 160 148 132
1.647071 -1.748789 0.759619 69 69 45
1.997935 -1.387324 0.345465 92 83 54
2.147042 -0.866368 0.315843 65 56 41
2.042510 -1.623756 0.646528 198 187 169
1.824182 -1.512626 0.471805 64 61 30
2.023077 -1.378529 0.326365 97 93 66
2.307347 -1.294917 0.670935 154 144 132
1.962775 -1.427058 0.380466 174 159 126
1.786216 -1.488520 0.419566 207 182 160
2.078062 -0.823295 0.279977 14 16 13
1.930019 -1.757533 1.051634 97 85 61
1.757190 -1.413142 0.270337 82 75 57
1.702531 -1.391442 0.190889 183 182 161
1.915223 -1.658529 0.647739 91 83 70
1.980100 -1.686127 0.744147 135 110 88
1.682222 -1.478197 0.277100 112 100 74
2.136201 -1.310119 0.408122 135 134 90
1.802623 -1.406430 0.304902 81 77 50
2.196349 -1.293934 0.530089 102 103 63
1.974509 -1.938125 1.435154 112 95 69
1.919772 -1.672213 0.706096 161 144 124
2.085084 -1.059032 0.321884 40 39 37
2.278573 -0.820364 0.479882 222 224 203
2.043588 -0.757615 0.267512 44 50 22
2.409684 -1.103846 0.545750 39 43 18
1.839762 -1.520571 0.476509 169 157 131
1.873545 -1.470448 0.410761 178 156 132
2.133322 -1.227955 0.345089 183 164 150
2.169752 -1.705023 0.815478 167 157 145
1.880745 -1.390366 0.256235 225 214 194
2.326655 -0.655301 0.619163 172 163 146
1.921462 -1.492126 0.476869 82 74 55
1.901779 -1.013700 0.121638 167 166 162
1.983662 -1.617163 0.622397 209 197 185
2.084434 -1.012730 0.270318 98 99 55
2.006749 -1.482706 0.508558 118 103 74
1.749441 -1.523962 0.467165 102 95 77
2.330129 -1.266272 0.649397 157 154 135
1.924195 -1.069021 0.131340 79 84 44
1.788203 -1.404296 0.263381 86 79 61
1.917461 -1.488104 0.451890 104 88 65
2.035948 -1.382720 0.370806 76 76 42
1.682215 -1.474087 0.360047 78 73 54
1.948136 -0.955413 0.072647 196 202 192
1.727508 -1.556196 0.502780 160 140 116
1.906547 -0.787362 0.136634 233 228 222
1.830107 -1.482624 0.399288 221 214 195
2.195315 -1.111988 0.322405 166 140 113
2.372268 -1.257311 0.670676 53 56 37
2.051020 -0.951994 0.231390 79 99 98
2.093132 -1.691227 0.783098 110 94 71
1.804865 -1.548234 0.529045 113 113 89
1.848987 -1.510506 0.473868 89 82 54
2.156589 -0.974981 0.358124 96 87 58
2.157067 -0.978512 0.353355 96 87 58
1.834274 -1.630640 0.646549 168 151 131
2.282476 -1.675470 0.815473 56 49 31
2.064123 -0.795395 0.240681 78 92 43
1.980742 -1.313724 0.272147 253 226 199
1.896808 -1.542945 0.516228 195 183 169
1.898646 -1.419015 0.334731 214 212 187
1.903289 -1.425009 0.301931 214 212 187
1.843986 -1.683050 0.762814 30 34 17
2.050961 -0.940474 0.272067 215 214 220
1.755040 -1.684945 0.657969 104 87 71
2.195411 -1.536119 0.896190 187 173 164
2.154537 -1.661324 0.766891 150 144 122
1.915540 -1.543444 0.517352 114 109 90
1.654878 -1.419021 0.298266 79 73 49
1.738238 -1.398294 0.161171 187 178 161
2.042677 -0.892772 0.249692 96 111 52
1.953307 -1.366851 0.261904 238 212 185
2.169107 -0.987918 0.354921 187 177 152
1.925188 -1.447761 0.382547 95 84 66
2.206201 -1.647503 0.745830 152 140 114
2.112106 -1.368611 0.422989 83 79 41
1.928492 -1.401336 0.291371 80 72 51
1.977858 -1.544184 0.543371 201 174 153
2.078745 -0.857074 0.271640 90 102 64
2.074308 -1.445394 0.496460 211 204 188
1.716769 -1.236560 0.112659 133 142 89
1.983054 -1.307839 0.077812 217 228 230
1.979908 -1.300801 0.103207 217 228 230
1.847627 -1.580184 0.525064 210 186 162
1.702750 -1.884417 1.040411 103 91 69
2.079032 -1.436647 0.496239 125 109 86
2.085940 -1.460594 0.551369 186 172 143
2.405552 -1.055400 0.477226 63 60 41
2.089289 -1.374508 0.409798 169 166 135
2.267589 -1.342788 0.674691 91 90 70
2.135497 -0.978742 0.298181 99 105 45
2.148616 -1.017245 0.351708 200 182 158
2.122533 -0.828849 0.294905 9 21 7
2.000073 -1.496860 0.520339 86 75 57
2.155947 -0.795338 0.312833 87 98 58
1.876942 -1.399368 0.262784 219 209 182
2.007291 -1.416083 0.412646 90 82 63
1.670949 -1.501699 0.435432 124 109 78
2.151365 -1.116614 0.381896 228 204 180
2.026344 -1.518339 0.552146 99 98 78
1.713029 -1.390067 0.132684 156 147 118
2.045668 -1.075468 0.279191 33 32 30
2.034681 -1.510398 0.747364 215 197 173
2.125616 -1.453983 0.706194 168 160 147
2.097869 -1.370720 0.470327 206 201 182
1.859304 -1.912816 1.265319 71 64 48
1.973128 -1.637641 0.652443 98 94 83
1.944716 -1.406267 0.310603 78 74 47
1.956698 -1.931394 1.406480 130 119 101
1.992020 -1.190212 0.093416 251 247 244
2.318418 -1.375539 0.768833 185 176 161
2.173130 -1.187642 0.358528 229 207 183
1.845395 -1.431917 0.304873 86 80 64
2.041801 -0.950742 0.192361 86 93 62
1.934959 -1.466703 0.439608 204 189 168
1.880606 -1.474270 0.408488 148 136 114
2.050866 -1.455403 0.490295 210 201 184
1.925980 -1.453460 0.389366 106 99 73
1.767535 -1.387798 0.209685 105 93 79
1.921447 -1.433690 0.349771 158 159 125
2.065190 -1.324450 0.328044 116 99 69
2.096629 -1.042113 0.309284 119 120 89
2.150871 -1.022332 0.387638 161 136 106
2.176349 -1.134380 0.339586 218 191 162
1.862826 -1.669096 0.657320 83 85 63
1.942201 -1.638203 0.622582 164 157 147
1.827476 -1.521880 0.470496 189 172 146
2.084281 -1.408974 0.458895 195 178 148
1.873845 -1.242815 0.175139 137 145 98
2.305845 -0.940183 0.562449 182 172 162
1.868823 -1.517612 0.482371 117 99 75
1.851911 -1.569563 0.570759 182 151 122
1.836068 -0.885312 0.043797 132 125 119
1.762796 -1.683342 0.670987 121 103 83
1.669357 -1.427716 0.188614 211 204 185
1.787454 -1.461509 0.374129 168 150 136
1.780325 -1.530044 0.479491 233 214 199
2.165420 -0.776602 0.309504 203 207 190
1.873644 -1.431852 0.349207 100 96 69
2.090018 -0.826752 0.298108 20 20 8
1.975345 -0.858409 0.224144 58 65 31
1.897425 -1.698621 0.883212 113 105 86
2.052962 -1.465551 0.521644 138 117 88
2.076262 -1.415212 0.583848 97 80 54
2.044620 -1.047154 0.256254 128 147 83
1.995542 -1.521145 0.535813 207 195 173
2.035137 -0.918647 0.240185 3 26 0
2.091670 -1.023986 0.237704 100 101 59
2.123185 -1.609693 0.679339 198 180 166
1.608866 -1.494539 0.405939 165 155 130
1.988313 -1.386752 0.304686 214 202 180
1.500828 -1.831235 0.663646 48 56 33
2.179148 -1.192117 0.365733 201 181 154
2.285772 -1.692727 0.856715 119 100 85
2.256798 -0.829079 0.508434 192 195 178
1.985949 -1.508368 0.517886 69 68 48
1.603854 -1.504697 0.415772 80 68 42
1.664218 -1.394012 0.203000 221 219 206
1.663626 -1.665368 0.647722 203 183 159
2.066112 -1.460119 0.521685 135 119 94
2.053270 -1.514862 0.555517 105 93 79
1.966627 -1.480302 0.463972 202 190 174
2.302227 -1.138516 0.654250 58 67 40
1.629118 -1.520297 0.435161 73 62 42
2.113125 -1.559906 0.841734 117 105 89
1.962512 -1.463650 0.456443 103 93 66
2.188683 -1.218375 0.378942 185 170 139
2.168232 -1.681116 0.783220 174 167 149
2.304070 -1.396131 0.802350 88 80 67
2.070803 -0.885020 0.276599 22 37 0
1.990255 -1.464378 0.477485 214 188 161
2.134771 -1.074906 0.333691 207 182 152
2.181815 -0.918459 0.424449 123 106 80
2.137277 -1.044017 0.376487 42 24 10
1.906176 -1.738618 0.914173 69 66 47
