ply
format ascii 1.0
element vertex 1178
property float x
property float y
property float z
property uchar red
property uchar green
property uchar blue
end_header
 0.787506 -0.924512   1.25578 255 255 255
-0.00191922   -0.403574     1.34842 255 255 255
  1.2693 -1.22517   1.4723 255 255 255
 1.23187 -1.29204   1.4427 255 255 255
  1.00059 -0.563143   1.38304 255 255 255
  0.487577 -0.0714934    1.27367 255 255 255
0.264585 -0.29214  1.21385 255 255 255
   1.127 -1.02753  1.44252 255 255 255
 0.901883 -0.997385   1.37975 255 255 255
0.860231 -0.68044   1.2077 255 255 255
 0.789624 -0.956127   1.23827 255 255 255
 0.276505 -0.264944   1.21465 255 255 255
 0.211063 -0.291013   1.21558 255 255 255
 0.657975 -0.917173   1.26845 255 255 255
0.777065 -1.35903  1.46743 255 255 255
 0.984507 -0.801004    1.4003 255 255 255
 0.227269 -0.255068   1.21568 255 255 255
 0.25102 -0.20074  1.21682 255 255 255
0.656887 -1.17464  1.32187 255 255 255
0.931403 -1.09409   1.3217 255 255 255
   1.3537 -0.744345   1.40943 255 255 255
 0.275156 -0.436107   1.26976 255 255 255
0.938154  -0.9354  1.39943 255 255 255
 0.242713 -0.218515    1.2172 255 255 255
 0.727575 -0.912329   1.24859 255 255 255
 0.268498 -0.282986   1.21414 255 255 255
0.746475 -1.14973  1.31147 255 255 255
  1.17077 -0.446046   1.38039 255 255 255
 -0.13851 -0.391732   1.36081 255 255 255
0.576562 -0.80611  1.18983 255 255 255
 0.851622 -0.617638   1.20245 255 255 255
 1.15154 -1.26392  1.45511 255 255 255
 0.247334 -0.209838   1.21599 255 255 255
 0.671127 -0.261255   1.35682 255 255 255
0.747988 -1.38627  1.45097 255 255 255
 1.10545 -1.34037  1.46842 255 255 255
 0.699826 -0.904483   1.25328 255 255 255
0.971063 -1.40638  1.45986 255 255 255
0.239391 -0.22816  1.21544 255 255 255
 0.550233 -0.109159   1.30596 255 255 255
 0.717901 -0.977057   1.25051 255 255 255
 0.84122 -1.41433  1.45511 255 255 255
0.945355  -1.3726  1.45428 255 255 255
  0.666851 -0.0438802    1.33532 255 255 255
 0.433712 -0.588263    1.3421 255 255 255
 1.54413 -1.23363  1.48469 255 255 255
  1.1429 -1.34255  1.47893 255 255 255
 0.348895 -0.406673   1.20622 255 255 255
 0.342859 -0.218086   1.21377 255 255 255
 0.356135 -0.213028   1.21202 255 255 255
  0.70891 -0.973237   1.25091 255 255 255
 0.324194 -0.286048   1.20923 255 255 255
 0.409931 -0.431645   1.36301 255 255 255
 0.548131 -0.272829   1.33999 255 255 255
 0.990965 -0.674424    1.3793 255 255 255
 0.775742 -0.986928   1.26115 255 255 255
 0.434431 0.0377091   1.24023 255 255 255
0.624083 -1.07775  1.32266 255 255 255
 0.524184 -0.121675   1.30416 255 255 255
  1.13842 -0.509044   1.38647 255 255 255
 1.36633 -1.07529  1.44435 255 255 255
  0.72392 -0.854806   1.24207 255 255 255
0.717936 -1.41522  1.45112 255 255 255
 1.07802 -1.08531  1.43023 255 255 255
 0.284929 -0.376473   1.20687 255 255 255
 1.62376 -1.04283  1.48349 255 255 255
0.0679128 -0.307217   1.30396 255 255 255
 0.275162 -0.372323   1.21043 255 255 255
0.689137 -1.16365  1.32217 255 255 255
 0.515259 -0.279424   1.33748 255 255 255
 1.08061 -1.14019  1.43882 255 255 255
 0.999864 -0.539039   1.37445 255 255 255
0.803439 -1.17912  1.30331 255 255 255
 1.05147 -1.06677  1.43286 255 255 255
 0.811531 -0.925431   1.26822 255 255 255
 0.824374 -0.709485   1.20916 255 255 255
  1.1234 -1.13175   1.4391 255 255 255
0.489489 -1.05804  1.38557 255 255 255
  0.31073 -0.214485   1.21466 255 255 255
0.791299 -1.45755  1.44951 255 255 255
 0.315022 -0.205587   1.21405 255 255 255
 0.306213 -0.626657   1.33795 255 255 255
 1.34008 -1.29588  1.47896 255 255 255
 1.41749 -1.21651  1.47873 255 255 255
  1.44056 -0.813449   1.44369 255 255 255
 0.977862 -0.335045   1.36119 255 255 255
 0.785177 -0.365929   1.36071 255 255 255
 1.14648 -0.75304  1.40972 255 255 255
 1.03544 -1.14939  1.44248 255 255 255
 0.851742 -0.700412    1.1971 255 255 255
   0.520883 -0.00644115     1.30491 255 255 255
 0.605043 -0.105855   1.33026 255 255 255
 0.179505 -0.474414   1.35472 255 255 255
 0.722597 -0.845514   1.24335 255 255 255
  1.70677 -0.963779   1.50232 255 255 255
 0.402993 -0.631484   1.36298 255 255 255
 0.283204 -0.354151    1.2108 255 255 255
 0.257732 -0.774284   1.38716 255 255 255
 1.09478 -1.13408  1.43696 255 255 255
 0.768158 -0.891112   1.24887 255 255 255
 0.57609 -0.26204  1.33114 255 255 255
  1.04367 -0.373441   1.36557 255 255 255
 1.17055 -1.15869  1.44011 255 255 255
  0.65543 -0.887813   1.26348 255 255 255
0.717511 -0.64389  1.19142 255 255 255
 0.278963 -0.363296   1.21104 255 255 255
 0.258551 -0.809234   1.38847 255 255 255
  1.61185 -0.837637   1.43686 255 255 255
0.811263 -1.33518  1.45713 255 255 255
 0.405528 -0.475998   1.35519 255 255 255
 1.24463 -1.36113   1.4714 255 255 255
  1.2985 -1.35709  1.46976 255 255 255
0.155982  -0.6917  1.33225 255 255 255
 1.24694 -1.39414  1.47045 255 255 255
 1.05925 -1.36688  1.46098 255 255 255
 1.06027 -1.36865  1.46433 255 255 255
 0.692734 -0.670692   1.21013 255 255 255
 0.786755 -0.917364   1.25599 255 255 255
 0.287316 -0.345088   1.21114 255 255 255
0.765553 -1.40726  1.45173 255 255 255
 1.12117 -1.36135  1.46759 255 255 255
 0.291567 -0.336363   1.21032 255 255 255
 0.599412 -0.782504   1.20084 255 255 255
  0.241559 -0.0354216    1.33593 255 255 255
 0.237321 -0.302086   1.21511 255 255 255
 0.963118 -0.309128   1.35847 255 255 255
 1.09849 -1.40025  1.46419 255 255 255
 0.620128 -0.890654   1.25597 255 255 255
0.821517 -1.38336  1.45434 255 255 255
 0.491917 -0.525988   1.36057 255 255 255
0.245755 -0.69534  1.33968 255 255 255
 0.971613 -0.697607   1.38491 255 255 255
0.779154 -1.14388  1.31774 255 255 255
 0.299274 -0.242226   1.21318 255 255 255
 1.11928 -1.33754  1.46667 255 255 255
0.742653 -1.19925  1.31718 255 255 255
 0.558329 -0.228848   1.33876 255 255 255
 1.07538 -0.49263  1.39541 255 255 255
1.14496 -1.1208 1.43955 255 255 255
  0.544566 -0.0222901    1.30259 255 255 255
 0.420267 -0.304365   1.36029 255 255 255
 1.19416 -1.12036  1.43616 255 255 255
   0.2388 -0.742744   1.35442 255 255 255
0.851854 -1.15789  1.31861 255 255 255
 0.372305 -0.357424    1.3096 255 255 255
 1.40522 -1.22966   1.4811 255 255 255
  0.99627 -0.929794   1.39385 255 255 255
0.866025 -1.14726  1.31471 255 255 255
 0.975992 -0.476461   1.37964 255 255 255
0.748368 -1.12007  1.32149 255 255 255
 0.982236 -0.957402   1.39685 255 255 255
 0.663517 -0.908952   1.26204 255 255 255
  1.49007 -0.918201   1.45149 255 255 255
0.0448911 -0.645948   1.34171 255 255 255
 0.693454 -0.147683   1.36288 255 255 255
 1.18388 -1.36076  1.47003 255 255 255
 1.33254 -1.17093  1.44305 255 255 255
  1.04896 -0.797082   1.40684 255 255 255
 1.20051 -1.20253   1.4373 255 255 255
 0.285973 -0.930759   1.38386 255 255 255
  0.47679 -0.570305   1.33685 255 255 255
-0.0143078  -0.456252     1.3579 255 255 255
 0.374494 -0.873218   1.39901 255 255 255
-0.0313594  -0.359564    1.35537 255 255 255
 0.508579 -0.451579   1.35532 255 255 255
 1.60565 -1.03929  1.51363 255 255 255
 1.53913 -1.29168  1.47856 255 255 255
 1.32534 -1.32695  1.49029 255 255 255
 0.864206 -0.379574   1.35559 255 255 255
  1.39508 -0.668201   1.42338 255 255 255
  1.33891 -0.810398   1.41771 255 255 255
  1.47267 -0.589752   1.42844 255 255 255
  1.02529 -0.288076   1.36104 255 255 255
  1.0881 -1.20779  1.45128 255 255 255
  0.56662 -0.420761   1.36038 255 255 255
 0.591927 -0.630703   1.21667 255 255 255
  1.30759 -0.635278   1.34266 255 255 255
  1.02949 -0.221507   1.35523 255 255 255
 1.61708 -1.20177   1.4881 255 255 255
 1.52882 -1.37384  1.48895 255 255 255
 0.9496 -1.0537  1.4227 255 255 255
1.75427 -0.9347 1.50898 255 255 255
  0.96278 -0.879509   1.40603 255 255 255
1.52023 -1.2437 1.48354 255 255 255
  1.09496 -0.760371   1.38743 255 255 255
  1.57728 -0.858959   1.44106 255 255 255
0.883428 -0.60767  1.37324 255 255 255
  0.910708 -0.0689687    1.36633 255 255 255
  1.05022 -0.369515   1.36704 255 255 255
  0.775451 -0.0681477    1.36368 255 255 255
 0.939662 -0.989471   1.41466 255 255 255
  1.40301 -0.583091   1.42228 255 255 255
  1.08171 -0.168713   1.35828 255 255 255
 0.768418 -0.832828   1.25687 255 255 255
 0.820109 -0.505705   1.35254 255 255 255
 0.656736 -0.685768    1.2095 255 255 255
 1.43654 -1.48218  1.44579 255 255 255
 1.58971 -1.38576  1.47197 255 255 255
 1.46599 -1.35114  1.48249 255 255 255
  1.14637 -0.658401   1.39719 255 255 255
 0.837419 -0.295521   1.35874 255 255 255
 1.65801 -1.22454  1.46826 255 255 255
  1.48394 -0.626346   1.42364 255 255 255
 1.77689 -1.21002  1.49827 255 255 255
0.877101 -0.77891  1.39787 255 255 255
 1.69314 -1.35738  1.49364 255 255 255
 1.47422 -1.49691  1.44634 255 255 255
 0.649617 -0.791309    1.2233 255 255 255
  1.09938 -0.269163   1.36414 255 255 255
 1.46836 -1.22524  1.48759 255 255 255
 1.69442 -1.27528   1.4955 255 255 255
  1.50276 -0.939076   1.44153 255 255 255
   1.3958 -0.763523   1.37412 255 255 255
 1.61993 -1.35741  1.48124 255 255 255
  1.38817 -0.792869   1.41731 255 255 255
 0.376142 -0.434036    1.3583 255 255 255
  1.19034 -0.309684   1.39436 255 255 255
  1.97143 -0.924115   1.50038 255 255 255
  1.01127 -0.430065   1.38605 255 255 255
 1.36301 -0.65352  1.42909 255 255 255
  1.53256 -0.463669   1.42153 255 255 255
1.35998 -1.0917 1.43113 255 255 255
  1.49132 -0.833045   1.44771 255 255 255
 0.868329 -0.578185   1.36642 255 255 255
  1.58862 -0.746852   1.45783 255 255 255
  1.6758 -1.07539  1.48417 255 255 255
  0.835948 -0.0331976    1.36753 255 255 255
0.776974 -0.60764   1.1837 255 255 255
  1.41308 -0.825912   1.44615 255 255 255
 0.87358 -1.03547  1.39468 255 255 255
 1.27724 -1.52012  1.43593 255 255 255
 1.47151 -1.21714  1.47458 255 255 255
 1.38294 -1.21496  1.47047 255 255 255
 0.92343 -1.00932    1.396 255 255 255
  1.58991 -0.907037   1.45066 255 255 255
   1.4983 -0.548543   1.43158 255 255 255
 1.36262 -1.55832  1.44474 255 255 255
  0.927537 -0.0360044    1.36344 255 255 255
1.42964 -1.5962 1.43094 255 255 255
 0.509898 -0.633951   1.22212 255 255 255
 1.32393 -1.45565  1.40582 255 255 255
 0.622111 -0.750583   1.20799 255 255 255
 0.956856 -0.917928   1.39658 255 255 255
 0.971028 -0.665241   1.37851 255 255 255
 1.64773 -1.13173  1.46468 255 255 255
  1.6403 -0.70023   1.4554 255 255 255
   1.7049 -0.745527   1.45822 255 255 255
 1.48959 -1.38687  1.44568 255 255 255
  1.84308 -0.984592    1.4574 255 255 255
 1.83618 -1.20758  1.50777 255 255 255
  1.30113 -0.915542   1.44234 255 255 255
 1.69664 -1.11614  1.47802 255 255 255
0.818984 -0.78955  1.37651 255 255 255
  1.4312 -1.42185  1.40765 255 255 255
 1.19633 -1.00908  1.43299 255 255 255
  0.7967 -0.92184  1.26362 255 255 255
    1.565 -0.814773   1.46826 255 255 255
 1.67268 -1.19083  1.48386 255 255 255
0.834551 -1.05445  1.32472 255 255 255
  1.09416 -0.386237   1.38475 255 255 255
 1.68514 -1.32855  1.49283 255 255 255
  0.64225 -0.168537   1.35253 255 255 255
 1.12425 -1.12035  1.43782 255 255 255
 1.13939 -1.24075  1.46158 255 255 255
 0.347906 -0.451872   1.35371 255 255 255
 0.98402 -1.09086  1.43271 255 255 255
  0.62704 -0.851638   1.26872 255 255 255
 1.69206 -1.24171  1.49044 255 255 255
0.643061 -0.15244  1.34753 255 255 255
 1.3337 -1.0359 1.43201 255 255 255
 0.930592 -0.505076   1.35044 255 255 255
  1.15817 -0.711652   1.39137 255 255 255
 0.773215 -0.865228   1.25258 255 255 255
  1.53733 -0.968764   1.41773 255 255 255
 1.50916 -1.47471  1.43845 255 255 255
1.40095 -1.5244 1.45231 255 255 255
 1.56497 -1.22793  1.51402 255 255 255
 1.73396 -0.94335  1.50029 255 255 255
 1.54262 -1.40416  1.48109 255 255 255
 1.68533 -1.09449  1.47501 255 255 255
 1.71806 -1.05431  1.49334 255 255 255
   1.1924 -0.883943   1.41743 255 255 255
 1.67558 -1.16711  1.49661 255 255 255
  0.896662 -0.0689052    1.36708 255 255 255
 1.84436 -1.01493  1.48461 255 255 255
 1.04676 -0.26468  1.36195 255 255 255
1.11116 -1.4109 1.45261 255 255 255
1.73667 -1.0166 1.49659 255 255 255
 0.853892 -0.257504   1.35899 255 255 255
  1.04709 -0.595638   1.36115 255 255 255
  1.33032 -0.898228   1.44751 255 255 255
 1.15008 -1.21774  1.45726 255 255 255
 0.779474 -0.915886   1.26028 255 255 255
  1.06659 -0.342645   1.37423 255 255 255
  1.78763 -0.911831    1.5015 255 255 255
0.964493 -0.44343  1.35766 255 255 255
  1.2587 -1.39464  1.44761 255 255 255
 0.906009 -0.659569   1.35906 255 255 255
  1.25041 -0.651339   1.39384 255 255 255
1.70963 -1.0089  1.4823 255 255 255
 0.398998 -0.438346   1.35988 255 255 255
  1.90196 -0.905896   1.50465 255 255 255
 1.14402 -1.25447  1.44718 255 255 255
 0.466188 -0.552221   1.37538 255 255 255
  1.54617 -0.868733   1.43846 255 255 255
  1.5718 -1.23111  1.47055 255 255 255
  1.09143 -0.489776   1.38437 255 255 255
 1.38774 -1.56292   1.4536 255 255 255
 0.638804 -0.775534   1.20709 255 255 255
0.923344 -0.61269  1.36862 255 255 255
  1.49606 -0.992731   1.42389 255 255 255
  1.55304 -0.746767   1.45173 255 255 255
 1.63081 -0.72696  1.45652 255 255 255
  1.59629 -0.724101   1.45315 255 255 255
 0.899643 -0.544025   1.36305 255 255 255
 1.62149 -1.17129  1.48479 255 255 255
  1.95815 -0.848801   1.49705 255 255 255
  1.40035 -0.854211   1.44682 255 255 255
 0.688511 -0.607359   1.21135 255 255 255
 1.63515 -1.32718  1.46386 255 255 255
 1.1202 -1.4747 1.47166 255 255 255
  1.59543 -0.978881   1.44274 255 255 255
  0.58562 -0.301698    1.3557 255 255 255
  1.6523 -1.15782  1.49374 255 255 255
 1.52881 -1.41248  1.44137 255 255 255
  0.805067 -0.0885359    1.36462 255 255 255
 2.02575 -0.97169  1.50346 255 255 255
0.999679 -1.24436  1.43991 255 255 255
1.29136 -1.5775 1.45301 255 255 255
  1.32191 -0.916167   1.44536 255 255 255
 0.359001 -0.621992   1.35065 255 255 255
 1.42929 -1.07934  1.43126 255 255 255
 1.53597 -1.21021   1.4921 255 255 255
 1.78746 -1.00537  1.49891 255 255 255
 0.844125 -0.186936   1.36633 255 255 255
 1.30108 -1.46307  1.42148 255 255 255
 1.33343 -0.55629  1.39386 255 255 255
 1.76857 -1.18847  1.50259 255 255 255
 0.544493 -0.547244   1.34708 255 255 255
  0.68783 -0.810257   1.22206 255 255 255
 1.67128 -1.39887  1.49048 255 255 255
  1.03923 -0.246947   1.36578 255 255 255
  1.08495 -0.889068   1.40895 255 255 255
 1.17199 -1.13228  1.43691 255 255 255
 0.396552 -0.483451   1.35037 255 255 255
 1.49315 -1.26143  1.46643 255 255 255
  1.69221 -0.993374   1.48568 255 255 255
  1.07957 -0.792278    1.4249 255 255 255
  1.10715 -0.363272   1.38049 255 255 255
 0.262633 -0.562249   1.35602 255 255 255
 0.912808 -0.154528   1.36583 255 255 255
0.990433 -1.16276  1.44378 255 255 255
 0.851686 -0.767433   1.35799 255 255 255
   1.1173 -0.331518    1.3363 255 255 255
 0.719887 -0.730076   1.19925 255 255 255
  1.43552 -0.835433   1.44668 255 255 255
 1.44553 -1.05228  1.44271 255 255 255
 1.42296 -1.56347  1.44833 255 255 255
 1.37465 -1.49908  1.42663 255 255 255
 1.61953 -1.32522  1.47433 255 255 255
 0.590179 -0.382598   1.35916 255 255 255
1.30617  -1.079 1.40431 255 255 255
 1.26666 -1.58335  1.45463 255 255 255
0.850687 -0.69743    1.196 255 255 255
 0.683779 -0.655286   1.21221 255 255 255
0.501651 -0.55184   1.3587 255 255 255
  1.2364 -1.10602  1.41622 255 255 255
 1.65159 -1.04623  1.45796 255 255 255
1.74806 -1.2152 1.49894 255 255 255
  2.04091 -0.912792   1.50622 255 255 255
 0.853916 -0.684417   1.20575 255 255 255
  1.53357 -0.601898   1.42784 255 255 255
 0.722923 -0.371439   1.30713 255 255 255
 1.43307 -1.19015  1.47482 255 255 255
 0.515821 -0.426479   1.35907 255 255 255
  1.6546 -1.10398  1.49017 255 255 255
 0.707088 -0.735109   1.19725 255 255 255
  0.98741 -0.543172   1.37677 255 255 255
  1.12843 -0.949641    1.3652 255 255 255
  0.53331 -0.624966   1.23305 255 255 255
 0.662829 -0.756873   1.20565 255 255 255
 0.533737 -0.298999   1.34817 255 255 255
 0.667972 -0.768472   1.20144 255 255 255
  1.39864 -0.724093   1.41408 255 255 255
  1.42078 -0.585581   1.42043 255 255 255
1.45845 -1.4919 1.44352 255 255 255
 0.654629 -0.154246   1.35592 255 255 255
 1.47193 -1.11961  1.45831 255 255 255
 1.35671 -0.58635  1.41403 255 255 255
  1.03495 -0.432627   1.37843 255 255 255
  1.4017 -1.37758  1.47734 255 255 255
 1.73231 -1.14246  1.49714 255 255 255
  1.00077 -0.547681   1.37506 255 255 255
 0.688166 -0.250449   1.35537 255 255 255
  1.24544 -0.542699   1.38157 255 255 255
 1.20865 -1.00987  1.44593 255 255 255
  0.749736 -0.0907591    1.36328 255 255 255
 0.751231 -0.734627   1.19693 255 255 255
 0.742225 -0.707979   1.21142 255 255 255
 1.45914 -1.06939  1.44444 255 255 255
 0.894244 -0.614715   1.37601 255 255 255
 0.971775 -0.469173   1.37658 255 255 255
  1.62019 -0.843175   1.44573 255 255 255
 0.383862 -0.571213   1.34921 255 255 255
 1.74338 -0.96874  1.49728 255 255 255
 0.493009 -0.657761   1.23104 255 255 255
 0.987277 -0.280303   1.36436 255 255 255
  1.2866 -1.41746  1.42576 255 255 255
0.891409 -1.09248  1.33012 255 255 255
  1.05463 -0.579997   1.37047 255 255 255
  1.07228 -0.470704    1.3808 255 255 255
  1.06895 -0.596362   1.39571 255 255 255
 0.836662 -0.636946   1.20735 255 255 255
  0.822317 -0.0547742    1.36694 255 255 255
 1.14014 -1.18625  1.44983 255 255 255
 1.24855 -1.27961  1.44912 255 255 255
  1.34161 -0.747721   1.42213 255 255 255
   1.2583 -0.591958   1.37635 255 255 255
 1.27693 -1.13262  1.41194 255 255 255
  1.22467 -0.961085   1.42844 255 255 255
 1.56408 -1.44338  1.42128 255 255 255
  1.04833 -0.215395   1.35646 255 255 255
 0.655791 -0.166456   1.35857 255 255 255
 1.13969 -0.87811  1.41409 255 255 255
  1.6751 -1.40389  1.47887 255 255 255
 0.746421 -0.681513   1.20792 255 255 255
  1.49948 -0.643332   1.41236 255 255 255
1.41418 -1.1996 1.47115 255 255 255
  1.06967 -0.195668   1.36249 255 255 255
 0.874742 -0.913216   1.26553 255 255 255
 1.29022 -1.46689  1.41378 255 255 255
 1.63861 -1.16762  1.48583 255 255 255
 1.37862 -1.17444  1.47242 255 255 255
 0.931219 -0.591473   1.37155 255 255 255
 1.75321 -1.16105  1.49808 255 255 255
 1.41311 -1.40132  1.48095 255 255 255
 0.852192 -0.659665   1.20102 255 255 255
  1.40361 -0.605115   1.42413 255 255 255
1.02958 -1.2914 1.44049 255 255 255
 1.26026 -0.97391   1.4458 255 255 255
  1.42924 -0.969489   1.45262 255 255 255
 0.852623 -0.326519   1.35983 255 255 255
   0.5374 -0.328233   1.35722 255 255 255
 1.51835 -1.39012  1.45607 255 255 255
 1.49234 -1.45047  1.43673 255 255 255
 1.02781 -1.15856  1.44041 255 255 255
  1.4711 -1.44012  1.44192 255 255 255
 1.29361 -1.58577  1.43962 255 255 255
1.39324 -1.4824  1.4224 255 255 255
 1.35999 -1.57056  1.41796 255 255 255
 0.882271 -0.685118   1.37643 255 255 255
 1.31966 -1.41749  1.42426 255 255 255
 1.27197 -1.42296  1.43712 255 255 255
 1.32693 -1.40967   1.4786 255 255 255
   1.0528 -0.874625   1.40894 255 255 255
 0.837777 -0.688359   1.19736 255 255 255
 1.12053 -1.12913   1.4303 255 255 255
 1.32572 -1.57733  1.41886 255 255 255
  1.64578 -0.862268   1.45565 255 255 255
 1.97137 -1.08684  1.50573 255 255 255
0.958417 -1.24175  1.45326 255 255 255
  1.0354 -1.12442  1.42904 255 255 255
  0.897961 -0.0224991    1.36885 255 255 255
  1.46179 -0.539984   1.41659 255 255 255
 0.802463 -0.909954   1.26686 255 255 255
 1.30453 -1.26961  1.47674 255 255 255
 1.30445 -1.26918  1.47587 255 255 255
  0.60795 -0.514252   1.35937 255 255 255
 0.685567 -0.361632   1.35601 255 255 255
 0.75458 -0.65336  1.18898 255 255 255
  1.11196 -0.217621   1.35419 255 255 255
0.890632 -1.12259  1.32909 255 255 255
  1.13142 -0.492118   1.36758 255 255 255
  1.69513 -0.763523   1.45812 255 255 255
 1.69403 -1.15678    1.489 255 255 255
 1.58868 -1.17797  1.48553 255 255 255
 1.55239 -1.40648  1.41032 255 255 255
 0.963799 -0.518585   1.37572 255 255 255
    0.9714 -0.0269506    1.36892 255 255 255
0.990783 -1.29788  1.46332 255 255 255
 1.28151 -1.58882  1.44713 255 255 255
  1.5434 -1.07376  1.47129 255 255 255
0.955709 0.022696  1.36895 255 255 255
 0.679743 -0.687885   1.20414 255 255 255
  1.00774 -0.536274   1.37956 255 255 255
 1.12331 -1.03836  1.43906 255 255 255
  0.758757 -0.0704495    1.36225 255 255 255
 0.824154 -0.136456   1.36501 255 255 255
 1.15253 -1.28023  1.46548 255 255 255
 1.30587 -1.58407  1.44852 255 255 255
 1.44708 -1.20526  1.48489 255 255 255
  0.825639 -0.0833088    1.36808 255 255 255
 0.578093 -0.303776   1.34787 255 255 255
1.06904  -1.049 1.42488 255 255 255
 0.304784 -0.497831   1.35788 255 255 255
 1.85805 -1.06301  1.43813 255 255 255
  1.52109 -0.524509   1.42998 255 255 255
 1.31376 -1.62243   1.4169 255 255 255
   0.6078 -0.400479   1.35946 255 255 255
  1.60953 -0.850117    1.4487 255 255 255
  1.76275 -0.866925   1.49538 255 255 255
 0.757998 -0.337042   1.35884 255 255 255
 1.86564 -1.05517  1.43864 255 255 255
 1.58439 -1.37974  1.48728 255 255 255
 1.02445 -1.04829  1.41557 255 255 255
 0.850616 -0.956594   1.26457 255 255 255
 0.582632 -0.293784    1.3482 255 255 255
  1.30721 -0.382327   1.39874 255 255 255
 1.75197 -1.19324  1.49779 255 255 255
 1.33973 -1.32253  1.47509 255 255 255
 0.434265 -0.464315   1.35131 255 255 255
  1.46764 -0.968414    1.4419 255 255 255
 1.63165 -1.37961  1.49119 255 255 255
   1.1538 -0.835542   1.41476 255 255 255
 1.27196 -1.22929  1.48121 255 255 255
 0.747767 -0.717868   1.19851 255 255 255
  1.29127 -0.546032    1.3899 255 255 255
 0.598547 -0.458833   1.35691 255 255 255
  1.18945 -0.722602   1.40752 255 255 255
  1.09295 -0.786874   1.41412 255 255 255
 1.89089 -1.07857  1.46776 255 255 255
 1.31263 -1.56574  1.45552 255 255 255
 0.863078 -0.119404   1.36407 255 255 255
  1.16726 -0.384184   1.39663 255 255 255
  1.50912 -0.958185   1.42735 255 255 255
 1.55562 -1.42434  1.42165 255 255 255
  1.25894 -0.563171   1.38453 255 255 255
 0.868247 -0.894018   1.26501 255 255 255
 1.35961 -1.20789  1.44243 255 255 255
 0.741676 -0.959545   1.25289 255 255 255
 0.741169 -0.718176   1.19263 255 255 255
 1.41309 -1.01501  1.43933 255 255 255
 1.58254 -1.23427  1.46663 255 255 255
  1.81441 -0.804204   1.48401 255 255 255
  1.00873 -0.236899   1.36981 255 255 255
 0.680096 -0.256853   1.35687 255 255 255
 0.729735 -0.717851   1.20047 255 255 255
  1.40847 -0.414792   1.39517 255 255 255
  1.54778 -0.846494   1.41552 255 255 255
 1.48579 -1.24553  1.49114 255 255 255
  1.32595 -0.883119   1.43982 255 255 255
 1.70734 -1.32705  1.49901 255 255 255
  2.04008 -0.927889   1.50524 255 255 255
  0.80811 -0.435515   1.35599 255 255 255
0.937976 -1.24587  1.45728 255 255 255
    1.697 -0.978734   1.49588 255 255 255
 1.95001 -0.93495  1.50335 255 255 255
  1.04279 -0.444686   1.38073 255 255 255
   1.0709 -0.664701   1.39911 255 255 255
 1.09912 -1.04945  1.42931 255 255 255
   1.7839 -0.889962   1.50233 255 255 255
 1.11538 -0.87707  1.40567 255 255 255
 1.72327 -1.11962  1.49866 255 255 255
  1.19335 -0.592487   1.34113 255 255 255
 0.469758 -0.329097   1.35419 255 255 255
  1.45198 -0.692458   1.42292 255 255 255
 1.53665 -1.08489  1.45956 255 255 255
  1.96583 -0.909219   1.50319 255 255 255
   1.9566 -0.913074   1.50602 255 255 255
 1.73746 -0.98381  1.49891 255 255 255
 0.945343 -0.742626   1.40427 255 255 255
 0.945707 -0.742572   1.40145 255 255 255
 0.842085 -0.924397   1.26625 255 255 255
   0.7258 -0.702189   1.20667 255 255 255
  1.4222 -1.05662  1.43925 255 255 255
 0.699728 -0.880095   1.26701 255 255 255
  1.56008 -0.852961   1.40145 255 255 255
 0.628777 -0.143758    1.3422 255 255 255
 1.67648 -1.21741  1.49499 255 255 255
 1.28857 -1.33467  1.48543 255 255 255
  1.13204 -0.390528   1.38111 255 255 255
  1.18712 -0.341162    1.3882 255 255 255
 1.17197 -1.27173   1.4357 255 255 255
 0.765838 -0.662103   1.20849 255 255 255
  1.17974 -0.261651   1.36374 255 255 255
 0.860549 -0.656118   1.20482 255 255 255
 1.47567 -1.23247  1.48264 255 255 255
  1.19143 -0.369793   1.39683 255 255 255
 0.843673 -0.645212   1.20205 255 255 255
1.70915 -1.3151 1.49904 255 255 255
 1.71907 -1.34469  1.49879 255 255 255
 0.896387 -0.306708   1.36168 255 255 255
 1.48273 -1.38492  1.48039 255 255 255
0.968789 -1.23329  1.45291 255 255 255
 0.788898 -0.843921   1.26773 255 255 255
 1.27437 -1.18076  1.43944 255 255 255
 1.04887 -0.36596  1.35364 255 255 255
  1.46577 -0.549799   1.41852 255 255 255
0.698734 -0.76157  1.20698 255 255 255
  1.96023 -0.900786   1.50431 255 255 255
1.08642 -1.0964 1.43215 255 255 255
 0.670324 -0.662173   1.20491 255 255 255
   2.0378 -0.983462   1.50297 255 255 255
 1.83523 -1.27722  1.50785 255 255 255
 0.793671 -0.749829   1.20685 255 255 255
 1.21253 -1.29171  1.43436 255 255 255
  1.39247 -0.712976   1.41629 255 255 255
  1.39252 -0.712909   1.41615 255 255 255
  1.13815 -0.510034   1.38376 255 255 255
  1.32572 -0.553537   1.40449 255 255 255
  1.10246 -0.865778   1.40571 255 255 255
 0.630158 -0.829716    1.2613 255 255 255
1.19053 -1.2719 1.43661 255 255 255
  1.19881 -0.869264   1.41618 255 255 255
0.751879 -0.68109  1.21064 255 255 255
 1.58455 -1.02441  1.45577 255 255 255
0.782383 -0.83713  1.26929 255 255 255
 1.29193 -1.45596  1.42705 255 255 255
  1.4835 -1.37588  1.48337 255 255 255
 1.73228 -1.35913   1.5009 255 255 255
 0.909599 -0.228341    1.3595 255 255 255
 1.49666 -1.27643  1.46778 255 255 255
 1.00093 -0.45386  1.38984 255 255 255
  1.35646 -0.744602   1.41162 255 255 255
 1.06108 -1.25642  1.46022 255 255 255
  1.71795 -0.958832    1.5089 255 255 255
 1.43925 -1.35173  1.48569 255 255 255
  1.33749 -0.876964   1.43296 255 255 255
 0.887996 -0.753913   1.40651 255 255 255
 1.04799 -0.40037  1.36764 255 255 255
  1.39042 -0.896948   1.45048 255 255 255
  1.41354 -0.545327   1.42626 255 255 255
  0.62802 -0.210597   1.35536 255 255 255
  1.73116 -0.716189   1.45038 255 255 255
 0.698413 -0.810427   1.35609 255 255 255
 0.763358 -0.110086   1.36425 255 255 255
  1.00251 -0.178039    1.3622 255 255 255
  1.11325 -0.375906   1.39115 255 255 255
  1.05601 -0.782188   1.40073 255 255 255
0.871772 -1.09918  1.31802 255 255 255
 1.87231 -1.21321  1.50684 255 255 255
  1.01537 -0.533516   1.38672 255 255 255
 1.48563 -1.21057  1.48377 255 255 255
  2.04905 -0.990559   1.50328 255 255 255
 1.43576 -1.03542  1.43996 255 255 255
  1.76242 -0.922934   1.50203 255 255 255
 1.06586 -1.34465  1.47143 255 255 255
 1.49462 -1.34684  1.48648 255 255 255
  1.10681 -0.449312   1.37164 255 255 255
 0.720958 -0.358665   1.31069 255 255 255
0.969256 -0.81422  1.39358 255 255 255
0.750881 -0.74471  1.20441 255 255 255
  1.9472 -0.91964  1.50397 255 255 255
 1.18044 -1.10598  1.43184 255 255 255
 1.25442 -1.42391  1.45186 255 255 255
  1.6049 -1.33899  1.49086 255 255 255
  1.06263 -0.771978    1.4053 255 255 255
 1.02335 -0.84674  1.41157 255 255 255
1.43062 -0.5694 1.41866 255 255 255
0.646731 -0.76268  1.19945 255 255 255
 1.36725 -1.61402  1.42194 255 255 255
  1.05159 -0.277767   1.36051 255 255 255
 0.782565 -0.859963   1.26696 255 255 255
  1.34875 -0.818767   1.42494 255 255 255
 1.42288 -1.23767  1.48573 255 255 255
 0.936274 -0.716025    1.3831 255 255 255
0.974007 -1.02103  1.41422 255 255 255
 0.835428 -0.036371   1.36674 255 255 255
  1.48499 -0.684699   1.42277 255 255 255
 1.08243 -1.06937  1.42949 255 255 255
  1.12822 -0.620189   1.39134 255 255 255
 0.381426 -0.468463   1.35204 255 255 255
  1.04768 -0.570408   1.37218 255 255 255
 1.59241 -1.22366  1.49122 255 255 255
 0.837318 -0.942162    1.2548 255 255 255
  0.67641 -0.620877   1.19783 255 255 255
1.23206 -1.4374 1.42461 255 255 255
0.886268 -1.04114  1.33883 255 255 255
 1.00106 -1.32712  1.46288 255 255 255
 0.819311 -0.603299   1.20115 255 255 255
  1.41253 -0.629931    1.4271 255 255 255
0.876619 -0.87091  1.26271 255 255 255
 0.754292 -0.907409   1.24245 255 255 255
 1.36487 -1.07391  1.44042 255 255 255
0.997766 -1.08242  1.43529 255 255 255
  1.26709 -0.360321   1.38757 255 255 255
 1.12355 -1.33317   1.4597 255 255 255
 0.893842 -0.685591   1.37636 255 255 255
 1.31256 -1.23616  1.47454 255 255 255
  1.48143 -0.694395   1.42025 255 255 255
 0.854313 -0.160318   1.36201 255 255 255
0.950705 -0.80964  1.39884 255 255 255
  1.29135 -0.770663    1.4106 255 255 255
 0.977244 -0.859218   1.39474 255 255 255
  1.34394 -0.884756   1.44163 255 255 255
  1.01501 -0.840176    1.4114 255 255 255
  1.19186 -0.860853   1.41741 255 255 255
 0.883453 -0.615836   1.37613 255 255 255
  1.01534 -0.394987   1.37022 255 255 255
 0.768887 -0.939763   1.26224 255 255 255
 1.54952 -1.34256  1.48731 255 255 255
0.805256 -0.13809  1.36458 255 255 255
 0.934916 0.0283883   1.37029 255 255 255
 1.32794 -1.57368  1.45141 255 255 255
 1.73445 -1.35002  1.50222 255 255 255
 0.846339 -0.603007   1.20594 255 255 255
  1.02247 -0.246564   1.36433 255 255 255
  1.11946 -0.770497   1.40738 255 255 255
 0.988007 -0.177372   1.36156 255 255 255
 1.37003 -1.32217  1.47685 255 255 255
 1.17898 -1.33545  1.47033 255 255 255
 0.979975 -0.771914   1.39763 255 255 255
 1.03759 -0.61372  1.38748 255 255 255
 1.58514 -1.38154  1.45482 255 255 255
 0.782364 -0.656698   1.18243 255 255 255
0.415027 -0.47041  1.34885 255 255 255
 1.16823 -1.33356  1.46714 255 255 255
 0.724968 -0.885229   1.24198 255 255 255
  1.71208 -0.721203   1.46091 255 255 255
  1.39782 -0.979637    1.4471 255 255 255
  1.23755 -0.998062   1.44423 255 255 255
  1.56472 -0.772805   1.45654 255 255 255
1.24474 -1.3614 1.47158 255 255 255
  1.19018 -0.835104   1.40904 255 255 255
 0.779101 -0.791234   1.37222 255 255 255
  1.79688 -0.698618   1.46184 255 255 255
 0.890316 -0.657634   1.37322 255 255 255
1.18835 -1.3386 1.47781 255 255 255
 0.712703 -0.856062   1.24167 255 255 255
  1.64778 -0.760149   1.45666 255 255 255
 1.40091 -1.45157  1.41679 255 255 255
 1.12113 -1.36141  1.46764 255 255 255
 1.50884 -1.38996  1.48086 255 255 255
 0.662343 -0.375181   1.35565 255 255 255
 0.641384 -0.607602   1.20345 255 255 255
  1.03661 -0.352638   1.35538 255 255 255
  1.17209 -0.650644    1.3978 255 255 255
  1.2427 -1.58614  1.45721 255 255 255
 1.06017 -1.36849  1.46324 255 255 255
 0.734821 -0.853678   1.24302 255 255 255
 0.757107 -0.607723   1.18935 255 255 255
  1.39597 -0.786111   1.41895 255 255 255
 0.795135 -0.679547   1.19122 255 255 255
 0.736919 -0.893788     1.242 255 255 255
 1.41445 -1.53689  1.45474 255 255 255
 0.851515 -0.646936   1.20135 255 255 255
 1.07353 -1.19503   1.4436 255 255 255
 0.962931 -0.353834   1.35893 255 255 255
 1.33232 -1.64717  1.41295 255 255 255
 0.953959 -0.768114   1.40783 255 255 255
 0.873007 -0.692162   1.19548 255 255 255
1.57707 0.65291 1.31852 255 255 255
 1.67311 0.968866  1.38812 255 255 255
 1.89897 0.924956  1.42251 255 255 255
 1.54612 0.982214  1.27523 255 255 255
 1.95929 0.548064  1.32415 255 255 255
 2.00182 0.588991  1.43857 255 255 255
 2.10191 0.583862  1.43017 255 255 255
 1.95939 0.509451   1.4402 255 255 255
1.94578 0.70912 1.42568 255 255 255
 1.4716 1.08179 1.26857 255 255 255
 2.46278 0.368231  1.52203 255 255 255
2.04041 0.43173 1.42625 255 255 255
 1.65571 0.820416  1.40471 255 255 255
 1.66266 0.785918  1.40317 255 255 255
 1.62289 0.896047  1.39677 255 255 255
 1.95204 0.671003  1.43384 255 255 255
  1.6548 0.796759  1.40586 255 255 255
 1.75142 0.875636  1.39978 255 255 255
  1.7615 0.570312  1.36185 255 255 255
 1.80906 0.491417  1.42898 255 255 255
 1.59521 0.787042  1.40464 255 255 255
 2.33066 0.218911  1.49411 255 255 255
 2.32415 0.157817  1.48763 255 255 255
 2.43137 0.277497  1.50194 255 255 255
 1.66772 0.879727  1.40798 255 255 255
 2.13539 0.595477  1.43866 255 255 255
  1.7996 0.477904  1.42766 255 255 255
 1.61235 0.670233  1.33562 255 255 255
 1.32753 0.956635  1.29416 255 255 255
1.55175 0.33868 1.39666 255 255 255
 1.67355 0.126117  1.44732 255 255 255
 1.64529 0.798169  1.40194 255 255 255
 1.15108 0.795736  1.26555 255 255 255
1.38071 0.74132  1.2422 255 255 255
 1.43218 0.722081  1.25397 255 255 255
 1.25754 0.882769  1.30212 255 255 255
 1.58458 0.618935  1.24987 255 255 255
 1.51982 0.642594  1.24949 255 255 255
 1.75405 0.697955  1.39909 255 255 255
 1.89486 0.210011  1.42247 255 255 255
1.49026 1.09617  1.2711 255 255 255
1.31477 0.72694 1.24322 255 255 255
 1.19578 0.807173  1.29433 255 255 255
 1.92539 0.215991  1.41428 255 255 255
  2.1872 0.481747  1.44998 255 255 255
 1.25252 0.856273  1.29962 255 255 255
 1.20839 0.903233  1.31178 255 255 255
 1.16406 0.822738  1.27985 255 255 255
 1.65611 0.536101  1.39188 255 255 255
 1.10319 0.915971   1.3435 255 255 255
 1.08297 0.937748  1.33958 255 255 255
 1.24286 0.918307  1.30834 255 255 255
 1.76689 0.123068  1.41221 255 255 255
 1.34343 0.655042   1.2463 255 255 255
 1.76675 0.674941  1.39409 255 255 255
1.72255 0.92046 1.40415 255 255 255
 2.17895 0.571497  1.44948 255 255 255
 1.10296 0.811773  1.26878 255 255 255
 2.05283 0.672087  1.44878 255 255 255
  1.2429 0.771751   1.2689 255 255 255
 1.09545 0.954185  1.33863 255 255 255
 1.94423 0.659675  1.43835 255 255 255
 1.60572 0.323586  1.34156 255 255 255
 1.49699 0.264674  1.38475 255 255 255
 1.85708 0.531517  1.42618 255 255 255
  1.0976 0.791417  1.26215 255 255 255
 1.31233 0.739774  1.23968 255 255 255
 2.02217 0.546253  1.43197 255 255 255
1.60307 0.40933 1.39309 255 255 255
  1.9019 0.374002  1.42336 255 255 255
1.49024 1.11815 1.27434 255 255 255
 1.21629 0.829403  1.30618 255 255 255
 1.95224 0.233124  1.39561 255 255 255
 1.73405 0.900888  1.40786 255 255 255
1.75893 0.61413 1.38333 255 255 255
 1.46373 0.714867  1.26103 255 255 255
0.895633  1.07104  1.33324 255 255 255
 1.14173 0.764435  1.25367 255 255 255
 1.70807 0.131468   1.4166 255 255 255
 1.97482 0.250552  1.43302 255 255 255
 1.68277 0.254987  1.40607 255 255 255
1.69365 0.52043 1.39765 255 255 255
0.859051 0.996138  1.34235 255 255 255
1.14015 0.93198 1.32622 255 255 255
 1.07586 0.893059  1.34134 255 255 255
1.31349 1.01086 1.26632 255 255 255
 1.62421 0.941017  1.39653 255 255 255
1.90953 0.16827 1.41755 255 255 255
0.955337  0.73734  1.32208 255 255 255
 1.04664 0.972617  1.33485 255 255 255
1.17657 1.16635  1.2859 255 255 255
 1.30247 0.627844  1.24388 255 255 255
1.13166 1.25832 1.34327 255 255 255
0.93197 1.03524  1.3455 255 255 255
 1.05731 0.899686  1.33071 255 255 255
 1.55554 0.777359  1.39746 255 255 255
 1.67049 0.179981  1.41488 255 255 255
  1.0665 0.885686  1.33935 255 255 255
 1.68103 0.963604  1.38587 255 255 255
0.910242  1.01555  1.34798 255 255 255
 1.71989 0.611337  1.39865 255 255 255
 1.55112 0.534458  1.23809 255 255 255
1.48463 1.12702 1.27681 255 255 255
 1.61722 0.853385   1.4039 255 255 255
0.912401  1.04813  1.34713 255 255 255
 1.48242 0.273985  1.37283 255 255 255
 1.74434 0.119381  1.41468 255 255 255
 1.57529 0.589071  1.23988 255 255 255
1.08632 1.24745 1.35135 255 255 255
 1.98916 0.250604   1.4338 255 255 255
1.46934 1.09988 1.26508 255 255 255
 1.70627 0.843232   1.3901 255 255 255
 1.71643 0.544733  1.39247 255 255 255
 1.33402 0.703682  1.25374 255 255 255
 1.55552 0.544473  1.23701 255 255 255
 2.29265 0.453591  1.45834 255 255 255
 2.29951 0.476946  1.45633 255 255 255
 1.60184 0.112133  1.40842 255 255 255
 1.69013 0.471181  1.38763 255 255 255
 1.53273 0.580189  1.24496 255 255 255
1.18143 1.19613 1.28694 255 255 255
 1.67435 0.615446  1.38388 255 255 255
 1.38081 0.968861  1.38027 255 255 255
 1.32671 0.735664  1.25233 255 255 255
0.879772  1.10603   1.3477 255 255 255
  1.6846 0.837705  1.40687 255 255 255
 1.63373 0.705067  1.39927 255 255 255
0.922194  1.02806  1.34672 255 255 255
0.947186  1.15956  1.33834 255 255 255
 1.54688 0.679334  1.25731 255 255 255
 1.59429 0.316373  1.33856 255 255 255
 1.51549 0.677577  1.26028 255 255 255
 1.68618 0.611834   1.3861 255 255 255
 1.75576 0.125961   1.4147 255 255 255
0.900368  1.08321   1.3391 255 255 255
0.899419  1.01484  1.34669 255 255 255
  1.80902 0.0182082   1.42281 255 255 255
1.20821 1.16233 1.28474 255 255 255
   1.76548 -0.0217681    1.40724 255 255 255
 1.88524 0.240045  1.42814 255 255 255
  1.4864 0.627831  1.24824 255 255 255
 1.88565 0.345814  1.42853 255 255 255
  1.4494 0.249892  1.38346 255 255 255
 1.52253 0.559435  1.24475 255 255 255
0.864081 0.986835   1.3474 255 255 255
 1.52976 0.975613  1.26265 255 255 255
 1.58631 0.848807  1.40638 255 255 255
 1.06297 0.729562  1.26291 255 255 255
 2.33869 0.532346  1.46848 255 255 255
 1.63887 0.548248  1.38231 255 255 255
 1.51155 0.821454  1.25705 255 255 255
 1.28408 0.607983  1.22847 255 255 255
 1.86254 0.936848  1.40615 255 255 255
 1.14079 0.915596  1.33661 255 255 255
 1.89926 0.290071  1.42951 255 255 255
 1.58955 0.161779  1.41815 255 255 255
 1.57033 0.431457  1.37522 255 255 255
1.18308 1.07473 1.28455 255 255 255
 1.66451 0.561745  1.39535 255 255 255
 1.70192 0.123794  1.41278 255 255 255
 1.55031 0.755709  1.40207 255 255 255
 1.72402 0.705106  1.40211 255 255 255
 1.64864 0.758774  1.40374 255 255 255
  1.6164 0.744928  1.40054 255 255 255
 1.64668 0.795059  1.40748 255 255 255
 1.68515 0.869007   1.4061 255 255 255
 1.66408 0.817284   1.4062 255 255 255
-0.254352  0.208214    1.2492 255 255 255
0.0287283  0.207033   1.31396 255 255 255
-0.0157218   0.470346    1.32659 255 255 255
-0.367916  0.185557   1.23263 255 255 255
0.0923949  0.383178   1.31654 255 255 255
-0.673916 0.0368412   1.31254 255 255 255
-0.49916 0.433247  1.32479 255 255 255
0.0835727  0.277703    1.3189 255 255 255
-0.230244  0.314345   1.32283 255 255 255
-0.558244  0.163511   1.28382 255 255 255
0.0579003  0.432622   1.32374 255 255 255
0.238547 0.162916  1.24955 255 255 255
-0.126111  0.615653   1.33321 255 255 255
-0.117871  0.499201   1.31232 255 255 255
0.310297 0.103382  1.24438 255 255 255
-0.00939415    0.562603     1.32919 255 255 255
0.327096 0.191713   1.3125 255 255 255
-0.00193154    0.397581     1.32894 255 255 255
0.0317158  0.493139   1.32475 255 255 255
-0.122841  0.528152   1.33078 255 255 255
0.0660595  0.277383   1.31928 255 255 255
 0.371971 0.0854889   1.24561 255 255 255
-0.121736  0.642198   1.33838 255 255 255
0.0402017  0.287213   1.32207 255 255 255
-0.0429517   0.517858    1.33715 255 255 255
0.0254073  0.467063   1.33132 255 255 255
-0.0949861   0.530031    1.33019 255 255 255
0.0081693  0.559175   1.33404 255 255 255
 1.98732 0.667494  1.45005 255 255 255
  1.67625 -0.107859   1.41444 255 255 255
  1.32824 -0.343428   1.40296 255 255 255
  1.32637 -0.120372   1.36744 255 255 255
    1.0727 -0.0800822    1.35703 255 255 255
 0.689972 0.0633705   1.26575 255 255 255
0.820729  -0.1074  1.35796 255 255 255
  1.14855 -0.298964   1.36234 255 255 255
  1.00053 0.0851899   1.32687 255 255 255
    1.4961 -0.0981417    1.39875 255 255 255
  1.44749 -0.885464   1.44047 255 255 255
  1.39664 -0.668445   1.42437 255 255 255
0.820873 0.012177  1.31769 255 255 255
  1.60723 -0.776418   1.44368 255 255 255
  1.72163 -0.804278   1.46917 255 255 255
0.892754 0.237498   1.2402 255 255 255
0.723869 0.181826     1.25 255 255 255
  1.86149 -0.572497   1.50548 255 255 255
  1.61789 -0.612403    1.4397 255 255 255
0.621864 0.253754  1.22217 255 255 255
 0.959983 -0.489135   1.37041 255 255 255
  1.44915 -0.766232   1.42283 255 255 255
0.906308 0.351714  1.30393 255 255 255
 0.464063 0.0773365   1.23612 255 255 255
 0.740492 -0.151786   1.35985 255 255 255
0.832262 0.143743  1.31973 255 255 255
0.806851 0.375822  1.20906 255 255 255
0.808854 0.372907  1.20511 255 255 255
  1.03234 -0.131095    1.3435 255 255 255
 0.871864 0.0387702   1.32162 255 255 255
0.479028 0.118803  1.26684 255 255 255
  1.95422 -0.473185   1.45971 255 255 255
   0.484796 0.000827602     1.24454 255 255 255
  1.30655 0.0439451   1.37305 255 255 255
  1.03767 0.0332216   1.36767 255 255 255
  1.64229 -0.358555   1.34652 255 255 255
  0.726313 -0.0617854    1.30807 255 255 255
  1.60312 -0.191617   1.40009 255 255 255
  1.49898 -0.219549   1.39785 255 255 255
  1.65485 -0.555271   1.40553 255 255 255
1.02506 0.36543 1.28577 255 255 255
0.876254 0.341037  1.18176 255 255 255
   1.12646 -0.0610152    1.37041 255 255 255
  1.0552 0.098416  1.34593 255 255 255
  0.76447 0.0745208   1.25417 255 255 255
  1.78191 -0.616372   1.46531 255 255 255
 1.03892 0.251066  1.27973 255 255 255
 2.62375 -2.19958  4.48598 255 255 255
  1.32948 -0.149151   1.37208 255 255 255
   0.7541 -0.458385   1.35385 255 255 255
 1.09661 0.117382  1.36563 255 255 255
 0.949657 0.0370628   1.33501 255 255 255
  0.94294 0.0418579   1.35581 255 255 255
  0.527122 -0.0034368    1.29662 255 255 255
  1.92432 -0.533155   1.45781 255 255 255
    1.03588 -0.00779833     1.36458 255 255 255
  0.441242 -0.0871656    1.28283 255 255 255
  1.99948 -0.576748   1.51941 255 255 255
0.785817 0.194252  1.24201 255 255 255
  1.60665 -0.428092   1.41589 255 255 255
  1.61475 -0.292464   1.37527 255 255 255
0.756994 0.126699  1.23932 255 255 255
 0.868412 -0.255877   1.35968 255 255 255
  0.998363 -0.0275131    1.38183 255 255 255
  1.80979 -0.759852   1.46853 255 255 255
  1.74989 -0.699249   1.45157 255 255 255
 1.61111 -1.05842  1.48545 255 255 255
  1.47894 -0.525596   1.41161 255 255 255
 1.05147 0.131177  1.29536 255 255 255
 1.32594 -0.48314  1.38521 255 255 255
 0.972718 -0.079146   1.35327 255 255 255
 1.77467 -0.53552  1.46038 255 255 255
  1.55798 -0.490758   1.43002 255 255 255
 0.466915 -0.125414   1.29819 255 255 255
1.08019  0.2099 1.30704 255 255 255
  1.88836 -0.600511   1.45697 255 255 255
  0.959647 -0.0453983    1.36982 255 255 255
  1.45033 -0.649288   1.43102 255 255 255
 1.54797 -1.06781  1.45652 255 255 255
 1.38737 -1.10211  1.41946 255 255 255
0.911402 0.212571  1.24591 255 255 255
  0.592715 -0.0836019    1.26701 255 255 255
   1.60031 -0.0525437    1.42205 255 255 255
0.977681 0.151377  1.29874 255 255 255
 1.00072 0.298714  1.24056 255 255 255
   1.5371 -0.907037   1.44172 255 255 255
0.868961 0.188898   1.2606 255 255 255
 0.552478 -0.107276   1.26841 255 255 255
 1.49884 -1.09747  1.46226 255 255 255
 0.80111 0.147169   1.2497 255 255 255
  1.22583 -0.217415   1.34711 255 255 255
 0.75021 0.257637   1.2285 255 255 255
0.615373 0.370378  1.30562 255 255 255
  0.98674 -0.445589   1.38323 255 255 255
  1.37712 -0.208735   1.40257 255 255 255
  0.408151 0.00296889    1.23638 255 255 255
 0.795244 -0.519848   1.35318 255 255 255
 0.430635 0.0372225   1.23246 255 255 255
 0.431573 0.0372122   1.23016 255 255 255
  1.71601 -0.525217   1.43912 255 255 255
  0.491474 -0.0332976    1.29251 255 255 255
 0.515527 -0.151111   1.32363 255 255 255
  1.44525 -0.274294   1.39875 255 255 255
  1.52827 -0.496534   1.42744 255 255 255
  1.32679 -0.355788   1.40551 255 255 255
  1.93051 -0.799924   1.56926 255 255 255
  1.44564 -0.491148   1.40969 255 255 255
  1.52805 -0.495592   1.42418 255 255 255
0.849653 0.178842  1.29395 255 255 255
0.517877 0.153716  1.30817 255 255 255
   1.5554 -0.186939    1.4042 255 255 255
   1.5543 -0.185776   1.40117 255 255 255
  1.34179 -0.118097   1.36278 255 255 255
 1.42781 -0.40654  1.39923 255 255 255
  0.671797 -0.0176845    1.30078 255 255 255
 0.490412 0.0829228     1.233 255 255 255
 0.650241 0.0155793   1.29348 255 255 255
  1.03236 -0.176133   1.34049 255 255 255
 0.626432 -0.012149   1.26894 255 255 255
   1.38258 -0.0185251    1.34056 255 255 255
  0.448595 -0.0487724     1.2579 255 255 255
  1.62444 -0.596399   1.40642 255 255 255
  0.434544 -0.0746308    1.26217 255 255 255
  0.455149 -0.0675638     1.2669 255 255 255
  1.48122 -0.978752   1.42967 255 255 255
 1.06109 0.269412   1.3043 255 255 255
 1.14789 0.162717  1.36243 255 255 255
  0.931673 -0.0193159    1.34901 255 255 255
  1.35124 -0.863504   1.44039 255 255 255
0.591559 0.118815  1.30064 255 255 255
0.836921 0.296873  1.18153 255 255 255
 0.861365 0.0302425   1.36091 255 255 255
  1.50401 -0.190445   1.40759 255 255 255
0.469207 0.108554  1.25213 255 255 255
  0.585154 -0.0522458    1.27822 255 255 255
  1.23814 -0.186715   1.32188 255 255 255
   1.222 0.052213  1.37169 255 255 255
  1.51226 -0.384024   1.40849 255 255 255
  1.69519 -0.322855   1.40208 255 255 255
  1.55333 -0.953684   1.42775 255 255 255
 1.07544 0.335758   1.2498 255 255 255
 0.568406 0.0301405   1.31698 255 255 255
 0.987161 0.0189215   1.36516 255 255 255
0.996864 0.160993  1.27823 255 255 255
 0.838701 -0.228139   1.35943 255 255 255
  0.478521 -0.0303215    1.25853 255 255 255
  0.928211 -0.0379507    1.35948 255 255 255
 0.985175 0.0803999   1.31865 255 255 255
  1.10838 -0.761154   1.39504 255 255 255
  1.48553 -0.261196    1.3989 255 255 255
 1.12027 0.128343  1.30593 255 255 255
 0.402827 0.0165192   1.22622 255 255 255
 0.743504 -0.369896   1.31956 255 255 255
0.615777 0.105755  1.30801 255 255 255
  1.47097 -0.216251   1.40602 255 255 255
0.962518 0.116431  1.29451 255 255 255
   1.5406 -0.972966   1.42063 255 255 255
  1.56278 -0.936309   1.43814 255 255 255
  1.20879 -0.121058   1.36714 255 255 255
 0.575439 -0.172874   1.32602 255 255 255
 0.844803 0.0262363   1.29983 255 255 255
0.558108 0.089815  1.30769 255 255 255
 0.54492 0.110125  1.30985 255 255 255
0.806509 0.214985  1.24113 255 255 255
  1.65025 -0.972705   1.48068 255 255 255
  1.22207 -0.200293   1.33338 255 255 255
  1.61434 -0.149002   1.40928 255 255 255
  1.81383 -0.597735   1.46583 255 255 255
  1.49613 -0.996052    1.4259 255 255 255
  1.25048 -0.391466   1.39255 255 255 255
0.832708 0.368868  1.19254 255 255 255
  1.04671 -0.263971   1.36262 255 255 255
  1.13187 -0.229385    1.3238 255 255 255
0.877953 0.270625  1.20945 255 255 255
   1.0255 -0.613034   1.37914 255 255 255
1.06684 0.12475 1.32944 255 255 255
  1.38667 -0.734766   1.41252 255 255 255
  1.0068 0.193024   1.2616 255 255 255
0.495611 0.172853   1.3068 255 255 255
  1.29551 -0.815265   1.36764 255 255 255
   1.21237 -0.0915296     1.3647 255 255 255
0.567431  0.12592  1.30902 255 255 255
  1.84619 -0.629507   1.46423 255 255 255
   1.09182 -0.0318196    1.36812 255 255 255
   1.8083 -0.512476   1.45656 255 255 255
0.632907 0.127382  1.30265 255 255 255
  1.45353 -0.237417   1.40225 255 255 255
  1.38145 -0.492114    1.3853 255 255 255
  1.30211 -0.185429   1.33513 255 255 255
  1.75657 -0.752838   1.45545 255 255 255
  1.72099 -0.392502   1.43894 255 255 255
  1.57376 -0.947723   1.43211 255 255 255
  1.22655 -0.269529   1.39629 255 255 255
  1.33071 -0.376932   1.40176 255 255 255
   1.1434 -0.161036   1.36726 255 255 255
0.792188 0.504472   1.3178 255 255 255
 1.40258 -0.60122  1.42532 255 255 255
  1.25272 -0.145916   1.31549 255 255 255
     1.1172 -0.00246867     1.37163 255 255 255
  1.26201 -0.819125   1.37814 255 255 255
  0.509985 -0.0317659    1.30097 255 255 255
  1.10257 -0.131538   1.35297 255 255 255
 0.608562 0.0801756   1.30672 255 255 255
  0.719103 -0.0853042    1.31804 255 255 255
 0.912382 -0.154402   1.36661 255 255 255
 0.887472 0.0622109   1.29231 255 255 255
 0.886517 0.0641411   1.29608 255 255 255
   1.6188 -0.822136   1.45432 255 255 255
   1.36734 -0.0318463    1.35737 255 255 255
  1.12795 -0.603523   1.38723 255 255 255
  1.65137 -0.879833   1.45097 255 255 255
  1.74431 -0.876337   1.47892 255 255 255
0.600421 0.370665  1.32406 255 255 255
  1.30125 -0.488403   1.39586 255 255 255
  1.18876 -0.180723   1.35009 255 255 255
  1.06773 -0.575995   1.38365 255 255 255
 0.606994 0.0391761   1.29878 255 255 255
  1.64961 -0.417221   1.43337 255 255 255
  1.21997 -0.818905   1.41097 255 255 255
 1.50285 -0.27762  1.40241 255 255 255
  1.20075 -0.740367   1.43147 255 255 255
 1.48916 -0.15283  1.41812 255 255 255
  0.566266 -0.0384829    1.29219 255 255 255
  1.24678 -0.215101   1.34285 255 255 255
 0.842893 -0.185576   1.37926 255 255 255
 0.599086 0.0593632   1.30637 255 255 255
  1.50076 -0.147522   1.40445 255 255 255
 1.37136 -1.09855  1.44779 255 255 255
  1.34288 0.0111564   1.36835 255 255 255
1.01321 0.14793 1.29638 255 255 255
  1.76531 -0.684852   1.44957 255 255 255
  1.72744 -0.589901   1.45822 255 255 255
  0.539289 0.00844382    1.28988 255 255 255
  1.26451 -0.785107   1.41228 255 255 255
 0.909481 -0.529394   1.36034 255 255 255
    1.245 -0.674278   1.42118 255 255 255
0.519223 0.217782   1.2681 255 255 255
    1.33013 -0.00699498     1.37083 255 255 255
0.849987 0.278277  1.20571 255 255 255
0.592699  0.34299  1.31886 255 255 255
  1.23108 -0.543514   1.38406 255 255 255
 1.0114 0.21322 1.27425 255 255 255
