ply
format ascii 1.0
element vertex 1210
property float x
property float y
property float z
property uchar red
property uchar green
property uchar blue
end_header
 0.567975 -0.415542   1.35711 255 255 255
 0.771915 -0.137378   1.36058 255 255 255
 0.201796 -0.517031   1.35624 255 255 255
 0.937637 -0.694199   1.38496 255 255 255
 0.914342 -0.806678    1.4004 255 255 255
  1.2912 -1.05784  1.44438 255 255 255
 0.628506 -0.141742   1.33839 255 255 255
0.972325 -1.41652  1.45487 255 255 255
 0.927992 -0.818834    1.3978 255 255 255
 0.733104 -0.649294    1.1858 255 255 255
 0.440831 -0.472597   1.35512 255 255 255
 0.681022 -0.546742   1.35234 255 255 255
0.847724 -0.16544  1.36393 255 255 255
 0.67255 -1.09157  1.31815 255 255 255
 0.631408 -0.986362   1.25477 255 255 255
 0.686529 -0.267683    1.3554 255 255 255
 0.945183 -0.760895   1.39943 255 255 255
 0.505574 -0.331131   1.35788 255 255 255
0.809683 -1.38924  1.45213 255 255 255
0.970439 -1.37597  1.45697 255 255 255
  1.24647 -0.709413   1.41944 255 255 255
 1.17162 -1.13123  1.43291 255 255 255
0.622924 -0.90653  1.25624 255 255 255
 0.189375 -0.455532   1.35667 255 255 255
  1.06002 -0.650146   1.37645 255 255 255
  1.55013 -0.714462   1.44131 255 255 255
1.04169 -1.1524 1.43613 255 255 255
  1.01553 -0.754584   1.40668 255 255 255
 0.909057 -0.707839   1.37276 255 255 255
 0.947412 -0.455386   1.36607 255 255 255
 0.947485 -0.455608   1.36679 255 255 255
 1.16398 -1.10416  1.43248 255 255 255
0.912768 -1.39504  1.45229 255 255 255
1.07119 -1.0733 1.42469 255 255 255
 1.03067 -1.18516  1.44311 255 255 255
0.555758 -0.18547  1.33067 255 255 255
 0.345514 -0.635778   1.36246 255 255 255
 0.321542 -0.372955   1.22211 255 255 255
  1.42918 -0.968791   1.45159 255 255 255
 0.742931 -0.708121   1.20889 255 255 255
 1.24799 -1.06924  1.42893 255 255 255
 0.77623 -1.13101  1.32437 255 255 255
0.732239 -0.70157   1.2059 255 255 255
 0.326699 -0.356553   1.22348 255 255 255
 1.35657 -1.01651  1.44544 255 255 255
0.851204 -1.07315  1.32481 255 255 255
    0.326 -0.450767   1.35281 255 255 255
 1.13496 -1.16735   1.4426 255 255 255
 0.302143 -0.636588   1.35097 255 255 255
 0.654474 -0.153204   1.35839 255 255 255
  1.40407 -0.615538   1.42391 255 255 255
 0.325414 -0.737414   1.37042 255 255 255
 1.13214 -1.05266   1.4445 255 255 255
  1.0012 -1.04155  1.41497 255 255 255
  1.1642 -0.73164  1.40718 255 255 255
  1.07994 -0.502176   1.39131 255 255 255
 0.356133 -0.796633   1.39011 255 255 255
 0.199256 -0.577801   1.32715 255 255 255
  1.04706 -0.441714   1.37945 255 255 255
 1.00531 -0.58931  1.38143 255 255 255
 0.290443 -0.607991   1.35664 255 255 255
  0.10295 -0.518004   1.35599 255 255 255
  1.02408 -0.976657   1.40808 255 255 255
  1.09001 -0.337113   1.37575 255 255 255
 0.489152 -0.454972   1.35255 255 255 255
  1.07821 -0.875053   1.41028 255 255 255
 0.381552 -0.584192    1.3506 255 255 255
  0.43818 -0.564237   1.35133 255 255 255
 0.550543 -0.541739   1.35313 255 255 255
 1.31188 -1.04762  1.43906 255 255 255
 0.971873 -0.469073   1.37557 255 255 255
 0.535783 -0.159359    1.3326 255 255 255
 0.546688 -0.626614   1.23325 255 255 255
 0.826344 -0.297444   1.35647 255 255 255
0.637981 -1.08627   1.3232 255 255 255
 0.967418 -0.328523   1.36062 255 255 255
 1.02214 -1.20426   1.4543 255 255 255
 0.783235 -0.127597   1.36369 255 255 255
 0.803898 -0.107195   1.36415 255 255 255
 0.753545 -0.929567   1.25477 255 255 255
 0.117501 -0.589848   1.35222 255 255 255
 0.653825 -0.756763    1.1993 255 255 255
 0.785253 -0.909766   1.25411 255 255 255
 1.41789 -1.00491  1.43426 255 255 255
  0.849434 -0.0731024    1.36655 255 255 255
   1.0468 -0.785164    1.4025 255 255 255
 1.06562 -1.12256  1.43065 255 255 255
0.853112 -1.05465  1.32329 255 255 255
 0.486629 -0.190149    1.3318 255 255 255
0.697902 -0.96033  1.25116 255 255 255
 0.120553 -0.487552   1.35478 255 255 255
0.941351  -1.3946  1.44193 255 255 255
  0.71904 -0.293392   1.35861 255 255 255
 0.400062 -0.857516   1.40021 255 255 255
 1.09666 -1.11032  1.42723 255 255 255
 0.262273 -0.611274   1.35973 255 255 255
 0.518986 -0.270931   1.33833 255 255 255
  0.55571 -0.553371   1.34941 255 255 255
 1.10438 -0.87679   1.4023 255 255 255
 0.762538 -0.958093   1.25919 255 255 255
 0.519155 -0.158306   1.32854 255 255 255
 0.669925 -0.373911   1.35571 255 255 255
0.689253 -0.16068  1.35176 255 255 255
 0.276142 -0.470051   1.35849 255 255 255
 0.688975 -0.744041    1.1973 255 255 255
 0.797871 -0.118613   1.36616 255 255 255
  1.05929 -0.902684   1.41358 255 255 255
 1.19716 -1.09113  1.43448 255 255 255
 0.756022 -0.965441    1.2564 255 255 255
  1.07218 -0.886605   1.40242 255 255 255
 0.187039 -0.468075   1.35702 255 255 255
 1.01697 -1.17454  1.44296 255 255 255
0.753037 -1.14828  1.32014 255 255 255
  1.23377 -0.539709   1.38053 255 255 255
 1.09539 -1.28699  1.46795 255 255 255
 0.734791 -0.298419   1.35942 255 255 255
 1.20019 -0.86832  1.41788 255 255 255
 1.03746 -1.29187  1.46405 255 255 255
 0.980082 -0.645069   1.38064 255 255 255
  1.09274 -0.318767   1.36754 255 255 255
0.571583 -0.53022  1.35475 255 255 255
 0.309189 -0.701411   1.36235 255 255 255
 0.251617 -0.665644   1.36032 255 255 255
 1.07702 -1.11665  1.43351 255 255 255
0.0952789 -0.527901   1.35614 255 255 255
0.955262 -1.36604  1.45993 255 255 255
  0.84228 -0.500687    1.3544 255 255 255
  1.47717 -0.960784   1.43856 255 255 255
 0.922805 -0.407699   1.35747 255 255 255
 0.820139 -0.534782   1.34561 255 255 255
 0.834426 -0.532998   1.34627 255 255 255
0.405895 -0.41559  1.35828 255 255 255
 0.179203 -0.432585   1.35569 255 255 255
 0.654814 -0.721472   1.20235 255 255 255
 0.189188 -0.436351   1.35543 255 255 255
  0.54168 -0.532944   1.35429 255 255 255
  1.14231 -0.743509   1.40435 255 255 255
  1.29089 -0.671041    1.4164 255 255 255
 0.455195 -0.477983   1.35637 255 255 255
 0.720453 -0.282299   1.35906 255 255 255
 0.266931 -0.577378   1.35553 255 255 255
  1.07498 -0.480949   1.37936 255 255 255
  1.07543 -0.482172   1.38261 255 255 255
0.827417 -1.17268  1.29988 255 255 255
 0.257185 -0.595555   1.35488 255 255 255
 0.962193 -0.508754    1.3803 255 255 255
0.786285  -1.1373  1.32463 255 255 255
 0.888049 -0.452167   1.35642 255 255 255
 0.498348 -0.472225   1.35686 255 255 255
 0.407219 -0.484231    1.3564 255 255 255
 1.01151 -1.03186  1.41171 255 255 255
   1.4948 -0.865562    1.4528 255 255 255
0.693443 -1.17118  1.32098 255 255 255
  1.22942 -0.681725   1.42053 255 255 255
   1.0105 -0.327864   1.36148 255 255 255
0.671884 -1.11492  1.31803 255 255 255
 0.145987 -0.585018   1.35426 255 255 255
 0.414695 -0.557063   1.35227 255 255 255
 0.703674 -0.378346    1.3589 255 255 255
 0.506262 -0.288335   1.33904 255 255 255
 0.305189 -0.497806   1.35804 255 255 255
 0.529696 -0.264657    1.3347 255 255 255
 0.529739 -0.264478   1.33476 255 255 255
 0.496787 -0.556274   1.35417 255 255 255
 1.16198 -1.06187   1.4441 255 255 255
  1.38558 -0.709796   1.42014 255 255 255
 0.564588 -0.638973   1.23208 255 255 255
0.598725  -0.4585  1.35645 255 255 255
0.923916 -1.46884  1.44723 255 255 255
  0.49352 -0.546565   1.35296 255 255 255
 0.815658 -0.610073   1.20043 255 255 255
 0.556626 -0.633349   1.23369 255 255 255
 0.512464 -0.298728   1.35231 255 255 255
  1.12203 -0.504447   1.38065 255 255 255
  0.66063 -0.545055   1.35038 255 255 255
 0.631174 -0.533152   1.35548 255 255 255
 0.974575 -0.301449    1.3644 255 255 255
 0.316975 -0.569974   1.35499 255 255 255
1.16128 -1.2766 1.45128 255 255 255
 0.82102 -0.51541  1.35411 255 255 255
 1.16807 -1.11639  1.43468 255 255 255
  1.00467 -0.765583   1.41105 255 255 255
 0.527376 -0.130052   1.30502 255 255 255
  1.06704 -0.475464   1.37892 255 255 255
 0.115671 -0.444271   1.35445 255 255 255
0.831702   -1.384  1.45605 255 255 255
 1.14842 -1.14462  1.43509 255 255 255
   1.2992 -0.957844   1.44864 255 255 255
 0.208608 -0.563356   1.32837 255 255 255
 0.987464 -0.865418   1.39131 255 255 255
 0.877979 -0.446365   1.35612 255 255 255
 0.680703 -0.257084   1.35571 255 255 255
  1.02642 -0.913409   1.40851 255 255 255
  0.61696 -0.137764   1.33638 255 255 255
0.759681 -1.17224  1.32185 255 255 255
 1.05971 -0.40297  1.36728 255 255 255
 0.78874 -1.12486  1.32536 255 255 255
  0.88076 -0.605174   1.38037 255 255 255
 0.200449 -0.441788   1.35633 255 255 255
   0.66269 -0.0578591    1.33874 255 255 255
 0.359495 -0.491088   1.35719 255 255 255
 0.896753 -0.416089   1.35835 255 255 255
0.163519 -0.52248  1.35613 255 255 255
  1.01981 -0.332156   1.36177 255 255 255
  1.0799 -1.04506  1.42789 255 255 255
 0.407024 -0.426229   1.35761 255 255 255
  1.25501 -0.788416   1.41066 255 255 255
  1.19134 -0.732151   1.40862 255 255 255
  1.29903 -0.763709   1.41232 255 255 255
 0.864623 -0.934809   1.26056 255 255 255
  1.41311 -0.996715   1.43839 255 255 255
0.892417 -1.17139  1.31439 255 255 255
 0.931671 -0.901998   1.39894 255 255 255
0.455715 -0.46853  1.35733 255 255 255
 0.529808 -0.209948   1.33148 255 255 255
  0.838496 -0.0806917    1.36569 255 255 255
 0.191055 -0.447122   1.35588 255 255 255
  1.06237 -0.393933   1.36684 255 255 255
0.228708  -0.4758  1.35662 255 255 255
 1.12518 -1.10969  1.44065 255 255 255
  1.16306 -0.343771   1.38628 255 255 255
  1.06947 -0.404633   1.36762 255 255 255
  1.10684 -0.449227   1.37167 255 255 255
  1.20934 -0.722977   1.41727 255 255 255
 1.22803 -1.03401  1.44474 255 255 255
  1.00382 -0.815235   1.40873 255 255 255
  1.00316 -0.332906   1.35172 255 255 255
 0.733863 -0.660441   1.18545 255 255 255
0.773941 -0.90119  1.25163 255 255 255
 0.566898 -0.286582   1.34644 255 255 255
  1.52463 -0.884694   1.45911 255 255 255
 0.530676 -0.323434   1.35589 255 255 255
  1.00386 -0.651407   1.38823 255 255 255
 1.11574 -1.14849  1.43803 255 255 255
 0.731924 -0.638101   1.18682 255 255 255
  1.50015 -0.677319   1.42402 255 255 255
 1.13132 -1.13735  1.43816 255 255 255
 1.08538 -1.11374  1.42812 255 255 255
 0.338658 -0.439936   1.35675 255 255 255
0.617936 -0.50862  1.35439 255 255 255
  1.05894 -0.472743   1.38374 255 255 255
 0.670528 -0.191335   1.36047 255 255 255
 0.508904 -0.207021   1.33178 255 255 255
 1.06802 -1.13755  1.43752 255 255 255
 0.959064 -0.264792   1.36379 255 255 255
  1.27696 -0.779408   1.41187 255 255 255
 0.929331 -0.884658   1.39994 255 255 255
 0.110517 -0.583334   1.35101 255 255 255
  1.37334 -0.602521   1.41506 255 255 255
 0.660422 -0.994595    1.2564 255 255 255
0.800875 -1.12943  1.32802 255 255 255
 0.913365 -0.563404   1.36489 255 255 255
 1.02084 -1.08985   1.4279 255 255 255
 0.993718 -0.334618   1.35677 255 255 255
 1.37081 -1.06169  1.44682 255 255 255
0.714451 -1.16737  1.31879 255 255 255
 0.195718 -0.710287   1.34757 255 255 255
 0.738881 -0.654606   1.18545 255 255 255
0.905707 -1.40959    1.453 255 255 255
  1.59578 -0.786301   1.45604 255 255 255
  0.72512 -0.256038   1.35881 255 255 255
   1.2353 -0.807275   1.41042 255 255 255
0.706469 -1.15317  1.32528 255 255 255
  0.748839 -0.0807769    1.36289 255 255 255
 0.565918 -0.315109   1.34833 255 255 255
 0.678086 -0.903698   1.26073 255 255 255
 0.391812 -0.359099   1.35745 255 255 255
1.02854 -1.4094 1.46027 255 255 255
  1.09594 -0.631981   1.38332 255 255 255
1.15843  -1.146 1.43586 255 255 255
  1.19178 -0.860115   1.41804 255 255 255
0.914356 -1.12873  1.32662 255 255 255
  1.07991 -0.642394   1.38325 255 255 255
  1.30832 -0.953413   1.44611 255 255 255
 0.998011 -0.808122   1.40806 255 255 255
  0.525025 -0.0987498    1.27399 255 255 255
0.819221 -0.62607  1.19025 255 255 255
 0.811641 -0.925079   1.26709 255 255 255
 0.758903 -0.179696   1.36063 255 255 255
 0.213916 -0.497285   1.35711 255 255 255
 1.42553 -1.19951  1.47778 255 255 255
  1.0859 -1.04041  1.43355 255 255 255
  0.570442 -0.0884134    1.30175 255 255 255
 0.550172 -0.320708   1.35598 255 255 255
  1.27907 -0.786224   1.40615 255 255 255
 0.698284 -0.279258   1.35821 255 255 255
0.669918 -0.26825  1.35861 255 255 255
 0.723877 -0.182889   1.36079 255 255 255
 0.998241 -0.249034    1.3657 255 255 255
  1.08792 -0.306451   1.36595 255 255 255
0.973536 -1.35362  1.46329 255 255 255
  1.06537 -0.923988   1.41403 255 255 255
 0.471336 -0.197201   1.33247 255 255 255
 0.632155 -0.215514   1.35728 255 255 255
0.670046 -1.12685  1.31777 255 255 255
  0.819257 -0.0536409    1.36639 255 255 255
 0.714256 -0.488706   1.35599 255 255 255
0.986489 -1.37427  1.45955 255 255 255
1.80518  1.1042 1.43479 255 255 255
 2.05732 0.200164  1.52534 255 255 255
 1.88013 0.687461  1.42222 255 255 255
2.05977 1.10758 1.44088 255 255 255
 1.72847 0.662506  1.40512 255 255 255
 1.67855 0.855043  1.40403 255 255 255
 1.68023 0.856447  1.40077 255 255 255
 2.37989 0.473323  1.45321 255 255 255
2.25746 0.49772 1.42554 255 255 255
 2.26423 0.486159  1.44789 255 255 255
 2.11712 0.641603   1.4462 255 255 255
1.91557  1.0326 1.42456 255 255 255
 2.3168 0.60379  1.4788 255 255 255
1.42622 1.19371 1.29699 255 255 255
1.34219 1.05041 1.24983 255 255 255
 1.60169 0.553495  1.34431 255 255 255
   2.28052 -0.0792264     1.5155 255 255 255
   2.514 0.389779  1.54532 255 255 255
 1.87951 0.937563  1.40374 255 255 255
 1.85258 0.845558      1.4 255 255 255
2.55672  0.5296  1.5466 255 255 255
 2.60763 0.376088  1.53197 255 255 255
  1.8033 0.940522  1.39797 255 255 255
 1.5156 1.22443 1.28102 255 255 255
 1.59612 0.788798  1.38614 255 255 255
2.09988 1.04509 1.43448 255 255 255
 1.58864 0.928774  1.40605 255 255 255
 1.89528 0.720308  1.38997 255 255 255
 2.36297 0.296671  1.47451 255 255 255
 3.12621 0.601903  3.06187 255 255 255
 1.69653 0.388997   1.3837 255 255 255
 1.25779 0.882299  1.30314 255 255 255
 2.41398 0.301448  1.49413 255 255 255
1.73687 1.10094 1.26806 255 255 255
2.48498 0.23756 1.49174 255 255 255
1.72297 1.20802 1.28656 255 255 255
 2.16842 0.395865  1.45033 255 255 255
 2.37136 0.671116  1.46614 255 255 255
 1.74188 0.959105  1.41077 255 255 255
2.24039 0.74338 1.42247 255 255 255
1.71014 0.96034 1.39638 255 255 255
1.82371  0.8695 1.40017 255 255 255
 2.11697 0.599266  1.43872 255 255 255
1.40698 1.23087  1.3123 255 255 255
 1.26594 0.941602  1.27688 255 255 255
 2.55072 0.327005  1.51985 255 255 255
 2.51642 0.342554  1.52113 255 255 255
 2.17834 0.793539  1.44922 255 255 255
 2.19858 0.276097  1.44314 255 255 255
 2.33628 0.230272  1.49465 255 255 255
 1.72936 0.894449   1.4079 255 255 255
 2.58372 0.294256  1.51911 255 255 255
 1.58081 0.800306  1.39888 255 255 255
1.77486 1.08841 1.39794 255 255 255
1.69669 1.12046 1.27228 255 255 255
  2.4782 0.470493   1.5406 255 255 255
 1.58618 0.851043  1.39831 255 255 255
1.65355 1.24257 1.28948 255 255 255
 1.29111 0.963114  1.28862 255 255 255
1.29107 1.13841 1.28255 255 255 255
1.37671 1.19298 1.32481 255 255 255
1.37811 0.83269 1.23819 255 255 255
  1.6101 0.602562  1.37395 255 255 255
2.57459 0.45779 1.52612 255 255 255
 1.67877 0.720692   1.4035 255 255 255
 2.62004 0.286036  1.52339 255 255 255
 2.38596 0.261881  1.49452 255 255 255
 1.80677 0.253629  1.41416 255 255 255
1.46066 1.25093 1.32463 255 255 255
  1.8786 0.920161  1.41014 255 255 255
 1.85492 0.905328    1.409 255 255 255
1.46587 1.12714 1.27487 255 255 255
1.93075 0.64086 1.43086 255 255 255
 2.17617 0.572514  1.43934 255 255 255
 2.03206 0.888398  1.41595 255 255 255
  2.3769 0.205101  1.49323 255 255 255
 1.96811 0.895692  1.37264 255 255 255
 2.35218 0.839158  1.48078 255 255 255
 1.61807 0.995751  1.38322 255 255 255
 2.61697 0.544319  1.53226 255 255 255
 1.85994 0.524083  1.42371 255 255 255
1.66621 1.19453 1.28273 255 255 255
 1.80342 0.769973  1.40659 255 255 255
1.49691 1.02209 1.26034 255 255 255
2.66504 0.33963 1.50973 255 255 255
2.71091 0.43478 1.50579 255 255 255
2.68261 0.39458 1.52773 255 255 255
   1.275 0.855752  1.27138 255 255 255
 2.33199 0.197869  1.49155 255 255 255
 1.64322 0.955979  1.39945 255 255 255
 2.64891 0.314354  1.50412 255 255 255
 1.87302 0.541322  1.43217 255 255 255
 2.49205 0.163504   1.5159 255 255 255
 2.46197 0.215821    1.479 255 255 255
 1.81187 0.597342  1.40002 255 255 255
1.50987  1.1084 1.26978 255 255 255
1.59873 1.12304 1.27204 255 255 255
 2.05844 0.883952  1.44323 255 255 255
 1.87374 0.684308  1.39818 255 255 255
 1.98662 0.802227  1.44197 255 255 255
1.49825 1.06861 1.27683 255 255 255
   2.462 0.382826  1.53112 255 255 255
1.39406 1.04457 1.25477 255 255 255
 2.12936 0.225057  1.47081 255 255 255
 2.47175 0.405557  1.51267 255 255 255
 2.27181 0.589536  1.47212 255 255 255
1.40314 1.18809 1.27558 255 255 255
2.42263 0.78272 1.48302 255 255 255
1.32043 1.02977 1.24742 255 255 255
 2.43848 0.198464  1.48609 255 255 255
 2.51039 0.312713  1.50665 255 255 255
 2.65892 0.367132   1.5148 255 255 255
2.02149  1.1767 1.41212 255 255 255
 2.07563 0.738844  1.44081 255 255 255
1.31724  1.0571 1.25043 255 255 255
 2.06758 0.943466  1.44916 255 255 255
 1.71844 0.427808  1.39261 255 255 255
1.60529 1.01783 1.38663 255 255 255
  2.0905 0.520578  1.43679 255 255 255
1.87599 1.15209 1.42304 255 255 255
1.49627 1.04298  1.2626 255 255 255
   2.32888 -0.0540557    1.51566 255 255 255
1.33534 1.09494 1.25875 255 255 255
1.87295 0.85958 1.40705 255 255 255
 2.38463 0.561298  1.47586 255 255 255
 2.39126 0.236482  1.48432 255 255 255
 1.61019 0.652864  1.39394 255 255 255
1.99149 1.12673 1.42313 255 255 255
 2.51742 0.432314  1.53546 255 255 255
 1.53781 0.685578  1.25266 255 255 255
  1.9438 0.659639  1.43815 255 255 255
 2.13132 0.484707  1.42601 255 255 255
2.23932 0.54799 1.46647 255 255 255
   2.418 0.238636  1.50091 255 255 255
 2.06452 0.905272  1.45493 255 255 255
 1.81007 0.680172  1.39595 255 255 255
 2.41265 0.383364  1.50782 255 255 255
 2.23311 0.446756  1.46551 255 255 255
 1.78577 0.701335  1.39809 255 255 255
 1.68199 0.453881   1.3524 255 255 255
 2.60596 0.498046  1.53256 255 255 255
2.55578 0.45206 1.54228 255 255 255
 2.23073 0.466302  1.46755 255 255 255
 2.65994 0.403456  1.53221 255 255 255
1.97304 1.22988 1.42718 255 255 255
 1.66225 0.907391  1.40676 255 255 255
1.38574  1.0654 1.24669 255 255 255
 1.94335 0.251542  1.41841 255 255 255
  2.22505 -0.132602   1.49672 255 255 255
 2.38286 0.672402  1.47131 255 255 255
 1.77569 0.551384  1.36625 255 255 255
 2.19735 0.772783  1.44781 255 255 255
 2.45523 0.791901  1.48048 255 255 255
2.50439 0.54249 1.52926 255 255 255
 2.44162 0.305686  1.50176 255 255 255
 2.34039 0.544864  1.46763 255 255 255
 2.47606 0.251364  1.50976 255 255 255
 1.6251 1.18104 1.27752 255 255 255
  2.12126 0.0764853    1.4913 255 255 255
 2.14501 0.270015  1.46374 255 255 255
1.73618 1.01001 1.39356 255 255 255
 2.25568 0.674175  1.48282 255 255 255
 2.05229 0.589161  1.44208 255 255 255
 2.05166 0.672035  1.44822 255 255 255
 2.28284 0.645237  1.46332 255 255 255
2.62642 0.32625 1.52383 255 255 255
 1.66549 0.991704  1.37512 255 255 255
 2.54612 0.605658  1.53232 255 255 255
 2.42216 0.752406  1.47501 255 255 255
  1.8003 0.699097  1.39661 255 255 255
 1.82802 0.785921  1.40702 255 255 255
 2.67925 0.484193  1.53101 255 255 255
 1.60027 0.588452  1.36664 255 255 255
 1.61958 0.927168  1.39854 255 255 255
 1.62505 0.818751   1.4042 255 255 255
 1.96677 0.201052   1.4292 255 255 255
 2.53621 0.434824  1.52946 255 255 255
 2.69241 0.475136  1.52843 255 255 255
 1.95144 0.816389  1.42402 255 255 255
 1.74417 0.997131  1.41081 255 255 255
1.45866 1.08483 1.26982 255 255 255
 2.00162 0.818052  1.43075 255 255 255
 1.77031 0.680219   1.4044 255 255 255
 2.00368 0.743586  1.44384 255 255 255
 2.51052 0.241797  1.51118 255 255 255
 2.31045 0.723366   1.4715 255 255 255
2.03636 0.61028 1.43722 255 255 255
 1.70869 0.935968  1.40687 255 255 255
 1.60089 0.906184  1.39437 255 255 255
 1.76713 0.462496  1.39806 255 255 255
 2.05623 0.629793  1.44575 255 255 255
 1.70419 0.988124  1.38606 255 255 255
 1.86049 0.581823   1.4344 255 255 255
 2.38333 0.688946   1.4783 255 255 255
1.45361 1.07072 1.25195 255 255 255
 1.4167 1.23405 1.28981 255 255 255
  1.482 1.06563 1.26507 255 255 255
 2.28118 0.952636  1.45843 255 255 255
 2.03827 0.565899  1.43963 255 255 255
 1.79147 0.596773  1.38344 255 255 255
 1.77937 0.600324  1.37629 255 255 255
1.88457 0.97403 1.40274 255 255 255
1.75414 0.46386 1.36996 255 255 255
  2.16297 -0.173532   1.48644 255 255 255
  2.3644 0.086783  1.48644 255 255 255
 2.33493 0.769014  1.47765 255 255 255
 2.07442 0.602922  1.44307 255 255 255
   2.13191 -0.0775789    1.47087 255 255 255
1.87018 1.06128 1.40827 255 255 255
  1.5679 0.977173  1.28052 255 255 255
 1.57411 0.888236  1.39382 255 255 255
1.42618 1.24212 1.28005 255 255 255
1.86938 1.08097 1.38784 255 255 255
 2.01228 0.636027   1.4257 255 255 255
1.71629 0.92277 1.40877 255 255 255
1.64844 0.71585 1.39569 255 255 255
 1.37933 0.977971  1.37276 255 255 255
2.16521 1.02628 1.45555 255 255 255
 1.8195 1.06853 1.40728 255 255 255
 2.20237 0.276428  1.46225 255 255 255
 1.88566 0.664265  1.43176 255 255 255
 2.29743 0.715048  1.47995 255 255 255
  1.7311 0.606063  1.39228 255 255 255
1.65017 1.18286 1.28297 255 255 255
 2.58684 0.398955  1.53228 255 255 255
 2.11803 0.509467  1.43513 255 255 255
 1.87603 0.941526  1.40574 255 255 255
   2.10833 -0.0182056    1.47538 255 255 255
 1.73543 0.488042  1.37157 255 255 255
 2.50377 0.448748  1.53313 255 255 255
 2.36817 0.541874  1.45704 255 255 255
1.85957 1.06399 1.38563 255 255 255
 2.26793 0.571178  1.47376 255 255 255
 2.32234 0.495274  1.45943 255 255 255
 2.47586 0.308398  1.51373 255 255 255
 2.30271 0.500584  1.46251 255 255 255
  2.4735 0.508938  1.52734 255 255 255
   1.666 0.947858  1.40504 255 255 255
1.62772 1.32585 1.26049 255 255 255
 1.88369 0.696498  1.40971 255 255 255
 1.94701 0.488333  1.43534 255 255 255
 1.94585 0.489564  1.43243 255 255 255
   2.22065 -0.0537097    1.50203 255 255 255
 1.69822 0.379755  1.40251 255 255 255
 1.59312 0.631421  1.39689 255 255 255
 1.80799 0.526592    1.407 255 255 255
 1.77587 0.519104  1.38832 255 255 255
 1.81117 0.423044  1.43155 255 255 255
1.67306 1.01652 1.39012 255 255 255
 2.16352 0.308472  1.45833 255 255 255
 2.5967 0.52415  1.5158 255 255 255
 2.12055 0.453475  1.41532 255 255 255
  2.1158 0.553997  1.43854 255 255 255
 2.27831 0.408043  1.45119 255 255 255
 2.61054 0.337595   1.5321 255 255 255
 1.60158 0.890522  1.39255 255 255 255
 2.31376 0.738076  1.47098 255 255 255
 1.96256 0.752108  1.42472 255 255 255
 1.73445 0.311665  1.41629 255 255 255
  2.22437 0.0870058   1.50737 255 255 255
 1.82493 0.900426  1.40896 255 255 255
1.89408 1.13329 1.41291 255 255 255
 2.24235 0.689341  1.47271 255 255 255
 2.55699 0.421389   1.5286 255 255 255
 1.87113 0.953361   1.4038 255 255 255
   2.04265 -0.0327641    1.45656 255 255 255
1.87899 1.18706 1.42317 255 255 255
 1.82091 0.547407  1.40945 255 255 255
1.90042   0.661 1.43996 255 255 255
 1.90258 0.623835  1.42074 255 255 255
1.63386 1.00648 1.38767 255 255 255
 1.92472 0.840991  1.37576 255 255 255
 2.43524 0.803624  1.48308 255 255 255
1.56622 1.02368 1.25321 255 255 255
 1.78386 0.766648  1.40136 255 255 255
 2.35354 0.671435  1.48157 255 255 255
1.75592 0.90733 1.40017 255 255 255
   2.24759 -0.0662924    1.48381 255 255 255
 2.14325 0.333009  1.45521 255 255 255
2.22713 0.28415 1.44639 255 255 255
 2.42326 0.532734  1.49895 255 255 255
1.46587  1.2654 1.30023 255 255 255
 1.78618 0.676386   1.3964 255 255 255
 1.89826 0.602739  1.43022 255 255 255
 2.23401 0.718552  1.43151 255 255 255
 1.79347 0.283335  1.42085 255 255 255
 2.48689 0.356086  1.51771 255 255 255
 1.57284 0.743678  1.40113 255 255 255
2.03346 0.32307 1.41187 255 255 255
 2.49822 0.319055  1.51864 255 255 255
 2.45034 0.349204  1.51383 255 255 255
 2.08846 0.434836  1.42611 255 255 255
1.48746  1.2927 1.26384 255 255 255
1.86155 0.67707 1.36364 255 255 255
  1.9459 0.709192  1.42565 255 255 255
1.33257 1.08021 1.24926 255 255 255
 2.17031 0.707134  1.44061 255 255 255
 1.80867 0.812025  1.40665 255 255 255
 1.73152 0.380464  1.42107 255 255 255
 2.57003 0.481536  1.51818 255 255 255
 1.50034 0.834958  1.25145 255 255 255
1.62361 1.21408 1.28601 255 255 255
2.44865  0.3247 1.50622 255 255 255
1.78486 1.00266 1.36055 255 255 255
  2.6143 0.360931  1.52311 255 255 255
 1.6118 1.04036 1.37799 255 255 255
 1.8937 1.19174 1.42346 255 255 255
 2.52388 0.493084   1.5403 255 255 255
 1.92507 0.222784  1.42689 255 255 255
1.64579 1.11681 1.27254 255 255 255
2.05275 0.79957 1.44205 255 255 255
1.62907 1.20186 1.28138 255 255 255
 1.55168 0.789603   1.3905 255 255 255
1.43094 1.25771 1.26968 255 255 255
 2.55829 0.437199  1.51904 255 255 255
 1.78465 0.511209  1.38968 255 255 255
 1.85269 0.955643  1.40908 255 255 255
 2.39552 0.165093  1.49741 255 255 255
 1.69161 0.453313   1.3705 255 255 255
 2.24354 0.533156  1.46654 255 255 255
2.16892 0.29733 1.45753 255 255 255
 2.53913 0.392996  1.53404 255 255 255
 1.28295 0.954382  1.27314 255 255 255
    2.0484 -0.0242984    1.46034 255 255 255
 1.57025 0.783805   1.3985 255 255 255
   2.12488 -0.0215348     1.4817 255 255 255
 1.64751 0.988046  1.38416 255 255 255
 2.37642 0.164604  1.47179 255 255 255
 1.78836 0.472673  1.42966 255 255 255
 1.79086 0.266808  1.42654 255 255 255
 1.5902 1.14138 1.27477 255 255 255
1.47307 1.07988 1.26344 255 255 255
 1.57145 0.672654  1.36773 255 255 255
1.87083 1.16841 1.41792 255 255 255
 2.53982 0.551469  1.54175 255 255 255
  1.6943 0.865307   1.4044 255 255 255
 2.03141 0.685811  1.43782 255 255 255
 2.46465 0.328456  1.51041 255 255 255
 1.69234 0.803199  1.40656 255 255 255
1.69739  1.1917 1.28072 255 255 255
 1.70939 0.368573  1.39089 255 255 255
1.93859 0.78326 1.43223 255 255 255
  1.6419 0.934697  1.40079 255 255 255
 1.22778 0.881352  1.30598 255 255 255
1.72929 1.11293 1.26777 255 255 255
 2.55591 0.499456  1.53147 255 255 255
 2.64583 0.412784  1.53768 255 255 255
 1.92866 0.315768  1.42884 255 255 255
 2.49875 0.192526   1.5017 255 255 255
 2.21755 0.441476  1.46729 255 255 255
 1.95194 0.727691  1.43668 255 255 255
1.54968 0.67075 1.25601 255 255 255
1.70346 1.12474 1.26976 255 255 255
 1.70838 0.337178  1.42367 255 255 255
 1.74376 0.322364  1.41388 255 255 255
 2.47643 0.492374  1.53484 255 255 255
1.42492 1.25189 1.26971 255 255 255
 1.49088 0.806307   1.2472 255 255 255
  2.17202 -0.190115   1.49236 255 255 255
2.54225 0.59162 1.53565 255 255 255
 2.33245 0.580218  1.46724 255 255 255
1.61407 1.29913 1.26964 255 255 255
2.37126 0.27649  1.4996 255 255 255
 2.41575 0.359349  1.50036 255 255 255
 1.86664 0.914654  1.41158 255 255 255
1.64579 1.29338 1.28414 255 255 255
1.75549 1.29537 1.43442 255 255 255
1.55986 1.17562 1.27278 255 255 255
1.70648 1.17861 1.28819 255 255 255
 1.88904 0.316367  1.42917 255 255 255
1.67403 1.10376 1.27151 255 255 255
 2.09551 0.483141  1.43231 255 255 255
 2.52532 0.619121  1.54213 255 255 255
   2.15359 -0.0139674     1.4794 255 255 255
1.61077  1.1882 1.28057 255 255 255
 1.97148 0.825291  1.44231 255 255 255
 1.96506 0.851612   1.4247 255 255 255
 2.14941 0.356452  1.45386 255 255 255
 2.51554 0.257758  1.50968 255 255 255
 1.5098 1.17575 1.27226 255 255 255
 2.67056 0.393471  1.52868 255 255 255
   1.9578 0.0391835   1.46472 255 255 255
1.50609 1.19911  1.2722 255 255 255
1.56366 1.15262 1.27371 255 255 255
 1.93027 0.714563  1.43285 255 255 255
 2.64989 0.434846  1.51677 255 255 255
 2.09418 0.828293  1.44717 255 255 255
 2.09439 0.828925   1.4471 255 255 255
 2.57185 0.272038  1.51392 255 255 255
  2.2902 0.629118  1.47151 255 255 255
  2.1514 0.154595    1.498 255 255 255
 2.25215 0.361015  1.45362 255 255 255
 2.35463 0.605222  1.47793 255 255 255
 2.37477 0.708901  1.47364 255 255 255
  2.15392 0.0412001   1.49077 255 255 255
 2.61352 0.434044  1.54197 255 255 255
1.86994 1.13777 1.42044 255 255 255
1.55574  1.2576 1.27654 255 255 255
 1.72676 0.961364  1.41168 255 255 255
 2.47829 0.347438  1.52077 255 255 255
 1.78814 0.499984  1.38706 255 255 255
2.42566 0.13154 1.50054 255 255 255
 2.34536 0.299732  1.49572 255 255 255
 2.09977 0.548936  1.43804 255 255 255
1.87187 1.15789 1.41854 255 255 255
 2.04764 0.657266  1.44011 255 255 255
 2.54216 0.421981  1.52614 255 255 255
1.60479 1.15593 1.27486 255 255 255
2.13296  1.1372 1.44521 255 255 255
 1.61917 0.880429  1.39719 255 255 255
1.68052 1.17655 1.28192 255 255 255
1.86421 1.14543 1.41689 255 255 255
 2.06298 0.191532  1.48135 255 255 255
 2.41439 0.194228  1.48498 255 255 255
 2.19454 0.788152  1.45015 255 255 255
1.29553 0.97498 1.32932 255 255 255
1.60114 1.26572 1.26124 255 255 255
1.60222 1.16537 1.27826 255 255 255
 2.62509 0.343757  1.52562 255 255 255
  1.7704 0.748371  1.40241 255 255 255
 1.95303 0.671298  1.43716 255 255 255
 2.44074 0.521134  1.51234 255 255 255
1.63801 1.32135 1.26575 255 255 255
 1.44873 0.699415  1.25259 255 255 255
1.52724 1.01707 1.25482 255 255 255
 2.28825 0.425836  1.45522 255 255 255
  2.1322 0.452959   1.4104 255 255 255
2.25036 0.55791 1.46898 255 255 255
 1.79903 0.821072  1.41784 255 255 255
  2.18733 -0.131869   1.49683 255 255 255
  2.30193 0.0218821   1.51625 255 255 255
1.32149 1.00665 1.25464 255 255 255
 1.84393 0.960731  1.41188 255 255 255
 1.79553 0.577737  1.39186 255 255 255
1.31577 1.11708 1.27941 255 255 255
 1.86786 0.856631  1.40775 255 255 255
 2.59174 0.316499  1.51367 255 255 255
 2.67028 0.372587  1.51701 255 255 255
1.65136  1.3131 1.27908 255 255 255
 1.67497 0.911688  1.40885 255 255 255
 1.88773 0.608551  1.43437 255 255 255
 2.11918 0.072013  1.47424 255 255 255
 2.51954 0.380964   1.5178 255 255 255
 2.29739 0.191608   1.4924 255 255 255
1.68804   1.091 1.26796 255 255 255
 1.97595 0.890704  1.38782 255 255 255
 1.78887 0.792652  1.39444 255 255 255
1.83059 0.60209 1.40111 255 255 255
      2.3721 -0.000736044      1.51501 255 255 255
  2.4449 0.284639  1.50326 255 255 255
 1.61859 0.913224  1.39524 255 255 255
 1.23409 0.883964  1.30938 255 255 255
2.24364 0.46882  1.4708 255 255 255
1.46948 1.09816 1.26446 255 255 255
 2.35798 0.282535  1.49942 255 255 255
 1.74595 0.524595  1.37542 255 255 255
2.05846 0.61405 1.43693 255 255 255
 1.56518 0.656214  1.36754 255 255 255
 1.97154 0.255787   1.4277 255 255 255
 2.32264 0.499503  1.48496 255 255 255
 1.59862 0.755121  1.40152 255 255 255
 1.59484 0.843331  1.40555 255 255 255
1.89513 1.12375 1.41874 255 255 255
 1.95385 0.854874  1.39359 255 255 255
2.05737 0.71994 1.43268 255 255 255
 1.83493 0.659226  1.37736 255 255 255
 2.08499 0.969718  1.44716 255 255 255
 1.50638 0.677764  1.25308 255 255 255
 1.54157 0.665186   1.2583 255 255 255
 1.71218 0.815486   1.4002 255 255 255
 2.45509 0.268159  1.50655 255 255 255
1.61708 1.27272  1.2641 255 255 255
 2.44714 0.477844  1.52089 255 255 255
 1.60315 0.865475  1.39702 255 255 255
  1.7581 0.502655  1.37021 255 255 255
1.71547 1.05598 1.31023 255 255 255
 2.63408 0.350453   1.5115 255 255 255
1.79395 1.18539 1.35438 255 255 255
 1.72236 0.863179  1.39453 255 255 255
1.36507 1.02995 1.24705 255 255 255
 2.35811 0.587131  1.47771 255 255 255
 2.53499 0.638732  1.52095 255 255 255
1.69655 0.99512 1.38153 255 255 255
 2.47174 0.787916  1.48439 255 255 255
 1.63399 0.936769  1.39814 255 255 255
 1.48702 0.774929  1.25788 255 255 255
2.08007   0.329 1.38661 255 255 255
 2.32987 0.518691  1.45836 255 255 255
 2.22936 0.960547   1.4559 255 255 255
 1.71291 0.838483  1.39366 255 255 255
1.87545 1.05103 1.41844 255 255 255
  2.03081 0.0964492   1.48139 255 255 255
 1.49503 0.799424  1.26352 255 255 255
 2.58984 0.304112  1.51922 255 255 255
 2.36973 0.308111  1.49865 255 255 255
 1.83971 0.887988  1.40424 255 255 255
 2.22921 0.834037  1.45304 255 255 255
 1.88895 0.994532   1.4029 255 255 255
   2.23313 -0.0527099    1.50727 255 255 255
 1.56186 0.784961  1.39182 255 255 255
 1.6303 1.06607 1.27271 255 255 255
2.65202 0.33224 1.51666 255 255 255
 1.86641 0.942814  1.40081 255 255 255
 1.74328 0.713636  1.40048 255 255 255
1.61563  1.1592  1.2737 255 255 255
1.49076 1.03377 1.26909 255 255 255
 2.68898 0.434208   1.5272 255 255 255
 1.47106 0.794971   1.2552 255 255 255
 2.47097 0.267512   1.5086 255 255 255
1.92484 1.07161 1.41638 255 255 255
 2.57592 0.261063  1.51313 255 255 255
1.62514 1.28387 1.26436 255 255 255
1.46324 1.05548 1.25092 255 255 255
 1.68329 0.948783  1.39594 255 255 255
 1.98142 0.747105  1.43291 255 255 255
 2.55656 0.416323  1.51642 255 255 255
2.61018 0.39765 1.53085 255 255 255
 2.46553 0.355685  1.51546 255 255 255
 1.74859 0.331484  1.42043 255 255 255
1.86124 1.20802 1.42153 255 255 255
1.51142 0.82143 1.26027 255 255 255
1.39747  1.2117 1.33166 255 255 255
 2.00258 0.643527  1.43055 255 255 255
 1.59674 0.881677  1.39092 255 255 255
 1.86438 0.540501   1.4235 255 255 255
 1.63263 0.535957  1.38853 255 255 255
 2.49469 0.217328  1.50013 255 255 255
 1.77692 0.710231  1.40302 255 255 255
 2.50843 0.525602  1.53546 255 255 255
 2.37103 0.793849  1.48117 255 255 255
1.71013 1.06758 1.26669 255 255 255
 2.51613 0.395719  1.53053 255 255 255
1.74561 1.09349 1.26523 255 255 255
 1.90003 0.579845  1.41954 255 255 255
 2.41303 0.312309  1.50327 255 255 255
 1.58627 0.848335   1.4058 255 255 255
 1.77386 0.764551  1.39317 255 255 255
1.63389 1.21264 1.28342 255 255 255
1.86825 1.05431 1.41283 255 255 255
 2.57355 0.373657  1.53002 255 255 255
 2.07526 0.711836   1.4399 255 255 255
 2.43278 0.217178  1.50082 255 255 255
 1.7349 1.09764 1.26631 255 255 255
  1.954 1.02317 1.41823 255 255 255
 1.4801 1.16889  1.2719 255 255 255
 2.48355 0.547205  1.53732 255 255 255
 1.62489 0.950084  1.39965 255 255 255
 1.7262 1.18387 1.28137 255 255 255
 2.59368 0.340279  1.52894 255 255 255
2.62631 0.35486 1.51298 255 255 255
 2.51512 0.390035   1.5203 255 255 255
   2.0915 0.0722399   1.48713 255 255 255
1.94395 1.20676 1.42363 255 255 255
 1.85724 0.925556  1.41016 255 255 255
1.34575 1.11867 1.25261 255 255 255
1.66953 1.12591 1.27028 255 255 255
1.50532 1.30834 1.26863 255 255 255
1.47573 1.15862 1.27161 255 255 255
 2.40894 0.193078  1.49534 255 255 255
 2.00003 0.321606  1.42975 255 255 255
 1.50231 0.846647  1.24074 255 255 255
1.51179 1.16835 1.27291 255 255 255
 1.58532 0.699124   1.3741 255 255 255
1.48234 1.14283 1.26814 255 255 255
  1.553 1.11206 1.27091 255 255 255
  2.17439 0.0169025   1.49422 255 255 255
1.76065 0.52314 1.38137 255 255 255
 2.54449 0.204681  1.52498 255 255 255
  1.9183 0.598152  1.43615 255 255 255
 1.93815 0.713704  1.42636 255 255 255
  2.5476 0.183545  1.52698 255 255 255
  1.496  1.2887 1.26409 255 255 255
 2.22342 0.249108  1.46061 255 255 255
   2.19627 -0.0270024    1.50335 255 255 255
  1.93963 0.0982429   1.45148 255 255 255
1.49092 1.16371 1.26933 255 255 255
1.65341 1.20204  1.2843 255 255 255
  1.9199 0.302189  1.42794 255 255 255
2.1123 1.0936 1.4458 255 255 255
2.34132 0.57715 1.46474 255 255 255
 2.44195 0.245441  1.50759 255 255 255
1.71371 1.10665 1.27191 255 255 255
1.26331 1.21225 1.37371 255 255 255
 2.47755 0.566538  1.52646 255 255 255
 2.23782 0.518825   1.4679 255 255 255
  1.7221 0.384165  1.42584 255 255 255
 2.48401 0.318862  1.51416 255 255 255
 1.6286 1.30349 1.26754 255 255 255
 1.6279  1.3024 1.26571 255 255 255
 1.98937 0.162167  1.44259 255 255 255
 2.62603 0.275636  1.52381 255 255 255
 2.62383 0.556602  1.53668 255 255 255
 2.55765 0.392225   1.5197 255 255 255
1.64416 1.14662 1.27395 255 255 255
 2.01833 0.817184  1.41226 255 255 255
 2.03374 0.368038  1.43086 255 255 255
 2.09521 0.839167  1.44841 255 255 255
 2.67714 0.380915  1.51837 255 255 255
 1.84025 0.937799  1.40923 255 255 255
 2.64741 0.549647  1.53242 255 255 255
 2.02856 0.161807  1.47804 255 255 255
 2.48478 0.457802  1.51975 255 255 255
1.57091 1.31818 1.24939 255 255 255
 1.68156 0.926971  1.40856 255 255 255
 2.60575 0.556765  1.53501 255 255 255
 1.96419 0.943257  1.33522 255 255 255
2.07074 0.90968 1.45022 255 255 255
 1.70987 0.468628  1.38271 255 255 255
 1.58796 0.647843  1.39296 255 255 255
1.85113 1.21418 1.42761 255 255 255
1.60439 1.30075 1.25481 255 255 255
 1.99223 0.313029  1.42865 255 255 255
 2.32225 0.481961   1.4689 255 255 255
 2.30724 0.133969  1.49001 255 255 255
 2.37068 0.762279   1.4817 255 255 255
 1.76544 0.985446  1.38541 255 255 255
 2.05732 0.333348  1.43312 255 255 255
 2.35483 0.647836  1.47343 255 255 255
1.50264 1.24702 1.27889 255 255 255
 1.55727 0.904394  1.38837 255 255 255
 2.41263 0.185184  1.48434 255 255 255
 2.53886 0.480823  1.53134 255 255 255
 2.46729 0.304566  1.50774 255 255 255
 2.68894 0.352361  1.52443 255 255 255
2.50016 0.41019 1.52947 255 255 255
1.82011 0.82737 1.40896 255 255 255
2.02721 1.21291 1.42373 255 255 255
1.40773 1.06843 1.24486 255 255 255
 1.94373 0.647314   1.4384 255 255 255
 2.07474 0.939857  1.44951 255 255 255
1.45733 1.26547 1.27729 255 255 255
1.86469  0.8686  1.4109 255 255 255
  2.7024 0.463918  1.52721 255 255 255
  1.3985 0.868708  1.24966 255 255 255
 1.67754 0.896875  1.40836 255 255 255
 1.77339 0.386912  1.41645 255 255 255
 1.57744 0.778613  1.39449 255 255 255
 1.85227 0.550972  1.42154 255 255 255
 1.72567 0.999633  1.41235 255 255 255
 2.38106 0.629085  1.47144 255 255 255
 2.56651 0.306493    1.526 255 255 255
2.09393 1.04944 1.44747 255 255 255
 2.35936 0.816447  1.47424 255 255 255
  2.4921 0.499929  1.53053 255 255 255
 1.88557 0.345905  1.42854 255 255 255
  2.3923 0.638228   1.4741 255 255 255
 2.27115 0.619337  1.46544 255 255 255
1.36707 1.02177 1.24496 255 255 255
 2.02504 0.400457   1.4256 255 255 255
 1.90917 0.336024   1.4286 255 255 255
 2.57326 0.525328  1.52285 255 255 255
 1.38686 0.813678  1.23872 255 255 255
 1.49215 0.843738  1.24776 255 255 255
2.06811 1.00808 1.44771 255 255 255
 2.01937 0.680779  1.43966 255 255 255
1.91929  0.6152 1.43125 255 255 255
1.95298 1.19747 1.42633 255 255 255
1.63904 1.16625 1.27669 255 255 255
 1.9001 0.70562 1.42636 255 255 255
 2.01179 0.619454  1.44175 255 255 255
 1.70488 0.770611   1.4048 255 255 255
 1.72561 0.406308  1.40642 255 255 255
 1.72575 0.405891  1.40612 255 255 255
  2.1067 0.520869  1.42242 255 255 255
1.74685 1.08097 1.27366 255 255 255
 2.57615 0.384779   1.5265 255 255 255
 2.69021 0.492332  1.52842 255 255 255
 1.95896 0.247004  1.42649 255 255 255
1.62004 1.03489 1.38375 255 255 255
 1.82256 0.510274  1.43022 255 255 255
2.08226 1.02246 1.44756 255 255 255
 2.23207 0.838852  1.42781 255 255 255
  2.20987 -0.160458   1.49703 255 255 255
2.31874 0.42677 1.46574 255 255 255
 1.79145 0.670154  1.40207 255 255 255
   2.25938 -0.0840864    1.49627 255 255 255
  1.9074 0.572968  1.43512 255 255 255
1.47172 1.05199 1.24701 255 255 255
1.66214 1.50479 1.31395 255 255 255
1.65409 1.00494 1.37419 255 255 255
 2.18922 0.759413  1.44852 255 255 255
  2.3987 0.177966  1.49651 255 255 255
 1.66779 0.872115  1.40806 255 255 255
 2.08678 0.761388  1.44352 255 255 255
 2.05462 0.869476  1.44747 255 255 255
2.61917 0.44257 1.53469 255 255 255
 1.83234 0.924921  1.41026 255 255 255
2.07856 1.01316  1.4486 255 255 255
2.01971 1.02464 1.40714 255 255 255
 1.72946 0.460193  1.38129 255 255 255
 1.56723 0.897609  1.39659 255 255 255
1.61547 0.51986 1.38533 255 255 255
1.39713 1.22821 1.29497 255 255 255
 2.65994 0.417245  1.52393 255 255 255
 2.56235 0.457415  1.53066 255 255 255
   2.125 0.566486  1.43593 255 255 255
 1.81161 0.774347  1.40256 255 255 255
 1.7678 1.29393 1.42672 255 255 255
 1.73124 0.990165  1.41151 255 255 255
 1.84191 0.861469   1.4092 255 255 255
 2.52324 0.262494   1.5078 255 255 255
   1.656 0.862044  1.40818 255 255 255
 2.17843 0.799521  1.44866 255 255 255
 1.75293 0.566095  1.37289 255 255 255
1.58584 1.28218 1.25025 255 255 255
 1.75624 0.725939  1.39278 255 255 255
 2.38332 0.314082  1.49833 255 255 255
1.74124  1.0653 1.26864 255 255 255
 2.69745 0.412117  1.53503 255 255 255
 2.23042 0.245196  1.46064 255 255 255
 2.02332 0.628104  1.43221 255 255 255
 2.22237 0.525483  1.46086 255 255 255
 2.64733 0.337693  1.52242 255 255 255
 2.34116 0.475886  1.46386 255 255 255
1.57509  1.2574 1.26677 255 255 255
1.77739 1.24386 1.42376 255 255 255
 2.08256 0.488186  1.43784 255 255 255
 1.73041 0.837175  1.39288 255 255 255
2.02358 1.22183 1.42395 255 255 255
   2.24496 -0.0557155    1.50926 255 255 255
1.73591 1.29524 1.38879 255 255 255
 1.79182 0.282326  1.41697 255 255 255
1.34461 1.18837 1.28925 255 255 255
 2.14311 0.595806  1.42985 255 255 255
1.85617 1.14204  1.4114 255 255 255
  2.2721 0.327786  1.46493 255 255 255
 1.57903 0.983153  1.29165 255 255 255
1.66889 1.09215 1.27019 255 255 255
 1.64099 0.883608  1.40722 255 255 255
2.15366 0.59283 1.43942 255 255 255
1.55975 0.73549 1.40228 255 255 255
 1.39883 0.824371  1.24593 255 255 255
 1.61632 0.758245   1.4027 255 255 255
 1.55323 0.762462  1.40186 255 255 255
  1.8752 0.996936  1.41225 255 255 255
 2.08062 0.786264  1.44542 255 255 255
 1.83772 0.853932  1.41042 255 255 255
 0.720722 -0.437161    1.3562 255 255 255
  0.34144 -0.845914   1.40145 255 255 255
 0.339591 -0.102785   1.22256 255 255 255
 0.337229 -0.102809   1.22081 255 255 255
 0.278074 -0.361952   1.19866 255 255 255
0.494098 -1.03229  1.32267 255 255 255
 0.596288 -0.624519   1.19366 255 255 255
 0.334936 -0.936936   1.40451 255 255 255
-0.0344387  -0.113534    1.33055 255 255 255
0.0575511 0.0323642   1.26154 255 255 255
  0.73781 -0.355974   1.33359 255 255 255
 0.199272 -0.657243   1.34492 255 255 255
-0.137902  -0.42824   1.36265 255 255 255
-0.0488588  -0.480616    1.35475 255 255 255
 0.229151 -0.717074   1.36372 255 255 255
0.00979816  -0.422183    1.34723 255 255 255
 0.255106 -0.425034   1.22072 255 255 255
 0.972069 -0.496487   1.37738 255 255 255
  1.05014 -0.645451   1.38287 255 255 255
 0.383351 -0.717597   1.37475 255 255 255
 0.300595 -0.416043   1.31276 255 255 255
0.0888138 -0.202518    1.3468 255 255 255
 0.462459 -0.549433   1.35058 255 255 255
0.0194061 -0.253383   1.33184 255 255 255
 0.398519 -0.781244   1.39423 255 255 255
 0.444939 -0.687982   1.35786 255 255 255
0.00345885  -0.209135    1.34636 255 255 255
 0.367474 -0.644223   1.36288 255 255 255
0.444112 -1.10917  1.41174 255 255 255
0.0170458 -0.139516   1.34155 255 255 255
-0.100398 -0.525352   1.36993 255 255 255
-0.00660695   -0.350553     1.34894 255 255 255
 0.193375 -0.136228   1.27804 255 255 255
0.402898 -0.17296  1.24629 255 255 255
0.0560356 -0.251152   1.34486 255 255 255
0.0776677 -0.484482   1.35742 255 255 255
  1.02626 -0.954277    1.3991 255 255 255
0.456931 -0.85078  1.38892 255 255 255
0.483263 -1.02518  1.40064 255 255 255
-0.0562392  -0.442081    1.35016 255 255 255
0.984598 -1.00114  1.38678 255 255 255
  0.27881 0.0203424    1.2432 255 255 255
 0.255657 -0.899746   1.36028 255 255 255
 0.224841 -0.577515    1.3247 255 255 255
 0.722372 -0.761545   1.18736 255 255 255
 0.350081 -0.750599   1.37806 255 255 255
 0.32084 -1.07532  1.43631 255 255 255
 0.48102 -1.13808  1.42316 255 255 255
 0.429825 -0.279235   1.25644 255 255 255
0.0483859 -0.186776   1.34287 255 255 255
  0.497097 -0.0647499    1.27449 255 255 255
-0.143221 -0.365255   1.36042 255 255 255
 0.423498 -0.201208   1.25581 255 255 255
-0.0648127  -0.149967    1.31958 255 255 255
0.311266 -0.72322  1.35576 255 255 255
-0.0404866  -0.622944    1.34411 255 255 255
0.0685812 -0.166605   1.31533 255 255 255
0.375323 -1.11918  1.40055 255 255 255
0.0651597  -0.33063   1.31365 255 255 255
 0.429168 -0.821454   1.38733 255 255 255
0.0137099 -0.318473   1.35461 255 255 255
-0.0891104  -0.221622    1.31119 255 255 255
-0.0957609  -0.445089    1.34197 255 255 255
0.255017 -0.60621  1.35836 255 255 255
0.0252059 -0.290863    1.3427 255 255 255
0.769066 -1.15428  1.31382 255 255 255
  0.17325 -0.703914   1.33821 255 255 255
 0.473409 -0.447994   1.35554 255 255 255
0.0690274 -0.451628    1.3586 255 255 255
   0.47263 -0.0713298    1.27651 255 255 255
  0.166257 -0.0893062    1.29594 255 255 255
 0.288592 -0.456277   1.34911 255 255 255
 0.715734 -0.955668   1.25278 255 255 255
0.642367 -1.20267  1.30387 255 255 255
-0.107796 -0.520459   1.35348 255 255 255
0.414643 -1.15563  1.41736 255 255 255
-0.0310998  -0.401328    1.35811 255 255 255
 0.319495 -0.756781   1.37424 255 255 255
0.0386646 -0.392656   1.35483 255 255 255
-0.0578274  -0.515584    1.34884 255 255 255
0.262919 0.155737  1.24829 255 255 255
 1.04909 -0.88563  1.41595 255 255 255
  0.452796 -0.0653198    1.27372 255 255 255
0.372557 -1.09335  1.40373 255 255 255
 0.783204 -0.885056   1.25404 255 255 255
 -0.30789 -0.310335   1.21494 255 255 255
 0.696981 -0.329271   1.33528 255 255 255
 0.250525 0.0143963   1.24265 255 255 255
 0.250521 0.0143531   1.24274 255 255 255
0.00329148  -0.337686    1.32708 255 255 255
 0.699671 -0.855461   1.24568 255 255 255
-0.0116685 -0.0725572    1.30808 255 255 255
 0.293144 -0.762142   1.38092 255 255 255
  1.24057 -0.674253   1.42143 255 255 255
-0.216764 -0.270714   1.22877 255 255 255
0.283697 0.118879   1.2442 255 255 255
 0.765188 -0.641565   1.19124 255 255 255
-0.235351  -0.44191   1.36025 255 255 255
 0.792411 -0.947063   1.25203 255 255 255
  1.05411 -0.666482   1.36893 255 255 255
0.683873 -1.14821  1.31932 255 255 255
 0.355527 -0.813318    1.3858 255 255 255
 0.404005 -0.809626   1.39097 255 255 255
 0.805109 -0.857721   1.26442 255 255 255
0.486863 -1.20456   1.4215 255 255 255
 0.551728 -0.157782    1.3078 255 255 255
 0.385345 -0.305975   1.21315 255 255 255
 0.822311 -0.918419   1.26903 255 255 255
0.0762822 -0.649654   1.34082 255 255 255
 0.330101 0.0975331   1.24266 255 255 255
 0.329515 -0.817102   1.38746 255 255 255
0.0330144 -0.337993   1.35098 255 255 255
 0.864986 -0.975799   1.25144 255 255 255
 0.336549 -0.481216   1.34588 255 255 255
 0.303236 -0.967511   1.39493 255 255 255
 0.417431 0.0222447   1.23845 255 255 255
 0.857228 -0.900715   1.26004 255 255 255
0.0863444 -0.513026   1.35689 255 255 255
0.756917 -1.20289  1.31452 255 255 255
 0.229816 -0.900312   1.35377 255 255 255
 0.103698 -0.261154   1.34846 255 255 255
  0.110705 -0.0613853    1.33584 255 255 255
-0.0319053  -0.290782    1.30246 255 255 255
 0.686984 -0.808364   1.21544 255 255 255
0.0464477 -0.432232   1.35353 255 255 255
 0.650604 -0.794711    1.2013 255 255 255
 0.285248 -0.160649   1.21512 255 255 255
 0.651686 -0.515621   1.35309 255 255 255
   0.2515 -0.631744   1.35959 255 255 255
 0.354307 -0.203671   1.21515 255 255 255
-0.211188  -0.42775   1.36137 255 255 255
0.0831618 -0.414089   1.36072 255 255 255
-0.133517  -0.34497   1.36084 255 255 255
 0.795922 -0.921975   1.25002 255 255 255
-0.0216641 -0.0899472     1.3284 255 255 255
  0.179355 -0.0660628    1.31208 255 255 255
 0.416331 -0.678939   1.36551 255 255 255
 0.222642 -0.382926   1.21117 255 255 255
 0.746962 -0.846862   1.25718 255 255 255
-0.163203 -0.309417   1.36056 255 255 255
0.712904 -1.21032  1.31398 255 255 255
0.0580087 -0.276825   1.30763 255 255 255
 -0.01974 -0.631789   1.34382 255 255 255
-0.144982 -0.197734   1.26396 255 255 255
 0.418019 -0.699204   1.37401 255 255 255
 0.336426 -0.201627   1.21923 255 255 255
-0.271377 -0.340856   1.21747 255 255 255
0.568703 -1.18735  1.30591 255 255 255
 0.325401 -0.146602    1.2184 255 255 255
 -0.21772 -0.446866   1.35884 255 255 255
 0.538109 -0.149571   1.32367 255 255 255
 0.677748 -0.346702   1.36113 255 255 255
 0.677711 -0.346168    1.3598 255 255 255
 0.750422 -0.322404   1.35907 255 255 255
 0.724803 -0.389461   1.36744 255 255 255
 0.685632 -0.641171    1.1941 255 255 255
  1.11484 -0.629894   1.36706 255 255 255
 0.396005 -0.741616   1.37934 255 255 255
  0.26869 -0.623348    1.3509 255 255 255
0.705583 -1.22935  1.31687 255 255 255
-0.0734237  -0.596713    1.37602 255 255 255
 0.256636 -0.394842   1.20832 255 255 255
-0.159953 -0.191893   1.26566 255 255 255
 0.368987 -0.763005   1.39114 255 255 255
 0.110167 -0.171243   1.33732 255 255 255
 0.474426 -0.930935    1.3956 255 255 255
 0.380978 -0.069559   1.24263 255 255 255
-0.130774 -0.159866   1.28334 255 255 255
 0.766523 -0.388425   1.35975 255 255 255
-0.0755924   -0.33802     1.3556 255 255 255
 0.351477 -0.391005    1.2149 255 255 255
0.00075132  -0.612679    1.35058 255 255 255
0.762504 -1.14003   1.3279 255 255 255
 0.912564 -0.557472   1.35587 255 255 255
 0.762652 -0.604896   1.19037 255 255 255
