ply
format ascii 1.0
element vertex 1166
property float x
property float y
property float z
property uchar red
property uchar green
property uchar blue
end_header
  1.6776 0.369237  1.36668 255 255 255
1.14122  0.5679  1.2521 255 255 255
 1.5062 1.05511 1.25515 255 255 255
 1.59487 0.397806  1.37841 255 255 255
 1.82793 0.856415  1.40652 255 255 255
  2.14728 -0.301669   1.49421 255 255 255
 2.39293 0.318976  1.48213 255 255 255
   2.54317 -0.0462654    1.50367 255 255 255
1.44574   1.103 1.24455 255 255 255
 1.9849 0.47775 1.43204 255 255 255
 1.15719 0.602503  1.25215 255 255 255
 1.55324 0.830426  1.39679 255 255 255
 1.31278 0.984187  1.26923 255 255 255
1.59369 1.06292 1.32176 255 255 255
 1.60028 0.680214  1.35567 255 255 255
 1.94457 0.863405  1.38629 255 255 255
 1.72425 0.480586  1.38623 255 255 255
   2.2318 -0.042955   1.49881 255 255 255
 1.43765 0.797766  1.24111 255 255 255
  2.11135 -0.332396   1.47665 255 255 255
  1.90103 -0.228274   1.44843 255 255 255
1.10924 0.61829 1.24148 255 255 255
 1.26637 0.904642  1.31509 255 255 255
 2.14054 0.351525  1.44442 255 255 255
 1.12264 0.652457  1.24707 255 255 255
 1.46422 0.777334   1.2539 255 255 255
  1.72117 -0.136535   1.37559 255 255 255
 1.53053 0.219448  1.35791 255 255 255
1.42413  1.0088 1.29338 255 255 255
   2.07256 -0.0583286    1.44631 255 255 255
 1.57111 0.916208  1.40292 255 255 255
  1.69755 -0.124184   1.40214 255 255 255
 1.60193 0.732158  1.39798 255 255 255
1.35528 1.02957  1.2377 255 255 255
 1.16347 0.620313  1.25415 255 255 255
 2.04797 0.396031  1.42654 255 255 255
1.63435 0.36539 1.33208 255 255 255
 1.73717 -0.05124   1.4107 255 255 255
 1.11787 0.635084  1.24133 255 255 255
  2.03636 -0.207181   1.48696 255 255 255
 1.57733 0.535847  1.35655 255 255 255
 1.76343 0.521201  1.38083 255 255 255
  1.5069 0.471609  1.34706 255 255 255
   2.40749 -0.0276379    1.51326 255 255 255
  2.02379 -0.294017   1.47664 255 255 255
 1.82211 0.316095  1.42593 255 255 255
 1.53285 0.332298  1.38645 255 255 255
  2.18852 0.0183361   1.50034 255 255 255
  1.92837 -0.238454   1.42087 255 255 255
  1.92776 -0.235885   1.41668 255 255 255
  1.98804 -0.107462   1.46195 255 255 255
1.79156 0.59333 1.38702 255 255 255
   1.85955 -0.0951815     1.4429 255 255 255
 1.62055 0.133749  1.41972 255 255 255
 1.60203 0.151069   1.4125 255 255 255
 1.48964 0.417964  1.38669 255 255 255
 2.13769 -0.30928  1.48984 255 255 255
  1.5275 0.350141  1.37894 255 255 255
 1.80152 0.797292  1.39716 255 255 255
 2.11345 0.434846  1.39778 255 255 255
 1.12659 0.661243  1.26357 255 255 255
 2.11908 0.589423  1.43263 255 255 255
  2.49328 -0.115539   1.51832 255 255 255
 1.60412 0.340155  1.34161 255 255 255
   1.59247 -0.0608055    1.39549 255 255 255
 2.01338 0.636887  1.42353 255 255 255
 2.32461 -0.10856  1.51387 255 255 255
   2.17563 -0.0934804    1.50094 255 255 255
 1.50096 0.383756  1.39125 255 255 255
  2.08889 -0.357915   1.41332 255 255 255
  1.54842 0.0697841   1.39747 255 255 255
 1.37272 0.797168  1.26099 255 255 255
  1.77208 -0.229447   1.43388 255 255 255
 1.13722 0.496725  1.30759 255 255 255
 1.22251 0.301448  1.36651 255 255 255
 2.51935 0.204842  1.51087 255 255 255
  1.94858 -0.159668   1.46168 255 255 255
 1.58806 0.642109   1.2545 255 255 255
  1.94861 0.0437663   1.46887 255 255 255
1.54655 0.70912 1.25781 255 255 255
 1.95162 0.684075  1.43806 255 255 255
   1.94371 -0.0512476    1.46457 255 255 255
 1.49023 0.749656  1.25828 255 255 255
 2.41558 0.256441  1.50297 255 255 255
 2.11044 0.542642  1.43796 255 255 255
  2.00025 -0.363173   1.47525 255 255 255
2.10126 0.44923 1.39304 255 255 255
  2.31948 0.0490208   1.49552 255 255 255
 1.76357 0.493378  1.36604 255 255 255
1.66414 0.47955  1.3819 255 255 255
  2.29829 -0.145908   1.51659 255 255 255
 1.73096 0.394026  1.42467 255 255 255
 1.66268 0.455503  1.36891 255 255 255
 1.40502 0.914142  1.27713 255 255 255
 2.09317 0.433547  1.43715 255 255 255
 2.38126 0.120217  1.49027 255 255 255
 1.11442 0.930303  1.33317 255 255 255
 2.49336 0.107924   1.5238 255 255 255
1.77567 0.41338 1.41244 255 255 255
1.17543  0.4345 1.30168 255 255 255
 1.28369 0.703599  1.25108 255 255 255
  2.13277 0.0850768   1.50145 255 255 255
 2.09158 0.213549  1.48209 255 255 255
 1.67594 0.317345  1.39147 255 255 255
  1.99543 -0.374988   1.45369 255 255 255
 2.22883 0.284839  1.44746 255 255 255
  1.85962 -0.278904   1.44444 255 255 255
 1.12902 0.471568  1.32137 255 255 255
  1.4022 0.853776   1.2539 255 255 255
     1.5682 -0.00479918     1.40871 255 255 255
 1.58343 0.197122  1.39071 255 255 255
   1.67327 0.00920762    1.40695 255 255 255
2.35142 0.02142 1.50194 255 255 255
  1.87021 -0.169656   1.45301 255 255 255
 1.99807 0.546021  1.43309 255 255 255
  1.82365 -0.316535   1.44379 255 255 255
1.52675 0.16405 1.36512 255 255 255
 1.87969 0.372414  1.42779 255 255 255
 1.78625 0.833135  1.39822 255 255 255
 1.11853 0.464675  1.30239 255 255 255
   1.6482 0.0545091   1.40538 255 255 255
  1.55423 0.0805631   1.40508 255 255 255
 1.84285 0.776541  1.36589 255 255 255
  1.9874 0.834975  1.39992 255 255 255
 1.48799 0.810076   1.2576 255 255 255
 2.02408 0.394089  1.41842 255 255 255
 1.11934 0.452823  1.30328 255 255 255
  1.67469 -0.124559   1.40434 255 255 255
1.53713  1.1644 1.27277 255 255 255
1.53712 1.16453 1.27288 255 255 255
 2.33087 0.167112  1.49713 255 255 255
  1.59722 -0.022109   1.40633 255 255 255
  1.56522 0.0966379   1.40747 255 255 255
   2.32616 0.00578098    1.51263 255 255 255
 1.63601 0.414617  1.31942 255 255 255
 1.67213 0.178549   1.4203 255 255 255
  2.57355 0.0155046   1.50811 255 255 255
1.55139  1.0001 1.25912 255 255 255
  1.85527 0.0697136   1.36489 255 255 255
1.16304 0.74956  1.2533 255 255 255
  1.51813 0.0713166   1.34112 255 255 255
1.50664 1.11883 1.26696 255 255 255
   1.94723 -0.0927461    1.46025 255 255 255
 1.52493 0.108386   1.3914 255 255 255
    2.5067 -0.0820897    1.50927 255 255 255
   2.17156 -0.0536682    1.50272 255 255 255
 1.81189 0.421862  1.42148 255 255 255
 1.50039 0.412055  1.38174 255 255 255
  1.78364 0.0187321   1.41464 255 255 255
 2.19183 0.149764  1.48552 255 255 255
 1.78947 0.472046  1.43418 255 255 255
  1.97793 -0.385741   1.44479 255 255 255
 1.85247 0.132394  1.41261 255 255 255
  2.35624 -0.271754   1.50962 255 255 255
 2.00767 0.561881  1.43398 255 255 255
 2.15582 0.365896  1.44147 255 255 255
1.51106 1.17559 1.27227 255 255 255
  1.83868 0.0680897   1.38858 255 255 255
 1.68564 0.268013  1.41362 255 255 255
1.69938 0.36584 1.37735 255 255 255
 1.42736 0.345738  1.37771 255 255 255
 1.57744 0.952948  1.39155 255 255 255
 1.41772 0.660097  1.24528 255 255 255
 1.63166 0.967917  1.39477 255 255 255
    1.60772 -0.00156839     1.40425 255 255 255
 1.16664 0.833595  1.30177 255 255 255
 1.52039 0.821209   1.2635 255 255 255
 1.96946 0.305694  1.42378 255 255 255
 1.68516 0.350102  1.38528 255 255 255
  1.1801 0.440229  1.31569 255 255 255
  1.99246 -0.381377   1.42797 255 255 255
 1.72388 0.057346   1.4029 255 255 255
  1.95852 -0.166077   1.45516 255 255 255
 1.62706 0.256521  1.36162 255 255 255
     1.9302 -0.00882036      1.4602 255 255 255
 1.08573 0.553841  1.24903 255 255 255
 1.66289 0.179669  1.40658 255 255 255
 2.12601 -0.14105  1.49275 255 255 255
   2.52436 -0.0826458    1.51617 255 255 255
 2.01811 0.178171   1.4654 255 255 255
 2.14784 0.348751  1.44697 255 255 255
 1.54888 0.780734  1.38708 255 255 255
 1.50314 0.233356  1.37912 255 255 255
1.69116 1.01313 1.36956 255 255 255
 1.78492 0.371546  1.42428 255 255 255
  2.10397 0.0375134    1.4453 255 255 255
 1.64977 0.301645  1.34686 255 255 255
1.12951 0.80867  1.2691 255 255 255
 1.34153 0.533884  1.28747 255 255 255
 2.01047 0.818449  1.40437 255 255 255
 2.54247 0.311133  1.50848 255 255 255
1.53486 1.18644 1.27094 255 255 255
 2.40261 -0.21849  1.50979 255 255 255
1.70751 1.03328 1.27006 255 255 255
 1.77393 0.505087   1.3736 255 255 255
0.896502 0.694122  1.32807 255 255 255
  2.60176 0.0423467   1.51898 255 255 255
  2.22097 -0.286911   1.49297 255 255 255
  2.22354 -0.153927   1.42512 255 255 255
 1.89389 0.713068  1.40483 255 255 255
  1.59847 0.0998045   1.41025 255 255 255
1.81124 0.42095 1.41976 255 255 255
  2.30369 -0.344946   1.51136 255 255 255
  1.3213 0.224068  1.37716 255 255 255
2.46925 0.43991 1.52313 255 255 255
  2.3067 0.529158  1.46479 255 255 255
   1.667 0.956514   1.3934 255 255 255
 1.70256 0.282418  1.41353 255 255 255
 1.44855 0.765922  1.25225 255 255 255
  1.68594 0.0971281   1.40974 255 255 255
1.46637 1.05398 1.24607 255 255 255
 1.40691 0.664581  1.24764 255 255 255
 1.60537 0.186417  1.40615 255 255 255
  1.50628 0.0842257   1.35927 255 255 255
 2.22726 0.271939  1.45115 255 255 255
1.40365 1.09423 1.24383 255 255 255
  1.3034 0.993366  1.27327 255 255 255
1.50126 0.30462 1.38119 255 255 255
 2.39211 0.170562  1.48693 255 255 255
  1.86833 -0.158373    1.4525 255 255 255
  1.9104 0.166994  1.42246 255 255 255
 2.25239 0.362231  1.45117 255 255 255
 2.04991 0.724906  1.43189 255 255 255
 1.73874 0.539972  1.36612 255 255 255
 1.49252 0.352986   1.3585 255 255 255
 1.21229 0.642861  1.22815 255 255 255
 2.36362 -0.13361  1.51743 255 255 255
   2.3566 -0.283993   1.50799 255 255 255
   1.83804 -0.0472191    1.43648 255 255 255
 1.43734 0.512532  1.25703 255 255 255
   2.49596 -0.0968344    1.50945 255 255 255
1.52189 1.11402 1.27355 255 255 255
 2.10937 0.468598  1.43139 255 255 255
  1.82692 -0.339074   1.43285 255 255 255
2.37624 0.19172  1.4991 255 255 255
  1.2584 0.581542  1.23814 255 255 255
  1.64955 0.0258805   1.40196 255 255 255
 2.08104 0.391782  1.43335 255 255 255
 1.72925 0.451984  1.38419 255 255 255
1.69679 1.03729 1.27043 255 255 255
 1.76298 0.571153  1.35623 255 255 255
 1.58734 0.565177  1.32838 255 255 255
 1.47354 0.131768  1.36062 255 255 255
 2.01382 0.572031  1.44445 255 255 255
  1.5283 0.177856  1.36101 255 255 255
  2.27577 -0.201139   1.48572 255 255 255
 1.20421 0.824048  1.30063 255 255 255
 2.15396 0.187076  1.47925 255 255 255
 1.09334 0.581739  1.25601 255 255 255
 1.31571 0.250584  1.37495 255 255 255
  2.11868 -0.212113   1.46857 255 255 255
1.52423 1.19166  1.2742 255 255 255
  1.85867 0.0930855   1.40045 255 255 255
 1.84745 0.638886  1.39654 255 255 255
   2.12542 -0.0899373    1.47779 255 255 255
 1.14078 0.600046  1.25846 255 255 255
 1.50055 0.847079  1.25047 255 255 255
  1.72106 0.0805309   1.41555 255 255 255
 1.54241 0.661982  1.25585 255 255 255
 1.54312 0.661123  1.25212 255 255 255
0.639224 0.626079  2.13977 255 255 255
  1.3251 0.671842  1.24521 255 255 255
  1.4785 0.196269  1.37894 255 255 255
 1.56462 0.148052  1.40281 255 255 255
1.57684 1.08935 1.27196 255 255 255
 1.55781 0.178407  1.39107 255 255 255
 1.56643 0.910065  1.27804 255 255 255
 2.10987 0.274998  1.45063 255 255 255
  1.54525 0.0853827   1.40657 255 255 255
 1.14219 0.678204  1.26501 255 255 255
  1.73667 0.0286895   1.41667 255 255 255
 1.52323 0.600164  1.24188 255 255 255
  1.96743 -0.344585   1.43642 255 255 255
2.33283 0.18451 1.47885 255 255 255
1.72098 1.00633 1.40314 255 255 255
 1.83188 0.620424  1.40024 255 255 255
 1.59794 0.499938  1.38904 255 255 255
 2.20199 0.133231  1.49101 255 255 255
  2.1404 0.226696  1.46415 255 255 255
   2.05724 -0.0173302    1.46653 255 255 255
 2.31681 0.528706  1.46263 255 255 255
 1.94333 0.756368   1.4064 255 255 255
  1.99564 0.0870937   1.47341 255 255 255
  2.14556 -0.128214   1.49443 255 255 255
  2.07682 -0.114234   1.44302 255 255 255
 2.25856 0.246489  1.47108 255 255 255
 1.59622 0.320266  1.33159 255 255 255
  1.83202 -0.302227   1.44233 255 255 255
   2.19219 -0.0501296    1.50399 255 255 255
 1.21081 0.409576  1.32411 255 255 255
 1.20715 0.409541  1.31249 255 255 255
 1.14383 0.930107  1.32646 255 255 255
  1.53632 0.0765925   1.40436 255 255 255
  1.78836 -0.214291   1.43832 255 255 255
 1.31948 0.688353   1.2475 255 255 255
     1.9154 0.000799137     1.46115 255 255 255
 1.57647 0.105094  1.40081 255 255 255
 1.52818 0.611351  1.24323 255 255 255
 1.16056 0.445945  1.29468 255 255 255
 2.22559 0.306814  1.45707 255 255 255
 1.15161 0.934384  1.32673 255 255 255
 1.99347 -0.14097  1.45757 255 255 255
  1.95374 0.0964749    1.4551 255 255 255
  2.39411 -0.205677   1.51246 255 255 255
  2.60696 0.0587025   1.51321 255 255 255
 1.14029 0.878749  1.33257 255 255 255
 1.6049 1.03435 1.28924 255 255 255
 1.60254 0.142081   1.4014 255 255 255
 1.96354 0.768303  1.43886 255 255 255
 1.69513 0.275528  1.40814 255 255 255
 1.57005 0.999376  1.26465 255 255 255
   2.57472 -0.0111779    1.51765 255 255 255
  1.84287 0.0679157   1.35787 255 255 255
  2.09447 -0.243757   1.48124 255 255 255
 1.08316 0.787751  1.26599 255 255 255
 1.64179 0.547551  1.38082 255 255 255
 1.60463 0.717252  1.39321 255 255 255
 1.55303 0.691051  1.25479 255 255 255
 1.41373 0.973259  1.32667 255 255 255
 1.64018 0.664018  1.38162 255 255 255
 2.17212 0.320282  1.45609 255 255 255
   2.19024 -0.0377167    1.50044 255 255 255
 2.54404 0.206677  1.52323 255 255 255
 2.21652 -0.24529  1.51346 255 255 255
 2.47091 0.269009   1.5067 255 255 255
1.12987 0.75635  1.2528 255 255 255
 1.46723 0.289919  1.36402 255 255 255
 1.98811 0.253357  1.42704 255 255 255
1.68555 1.02237 1.32623 255 255 255
  1.7555 0.325018  1.42081 255 255 255
  1.99096 -0.377364   1.46759 255 255 255
2.63397  0.2697 1.50758 255 255 255
 2.42845 0.371106  1.50407 255 255 255
 1.16443 0.554616  1.30497 255 255 255
 2.46574 0.356709  1.51342 255 255 255
  2.14304 -0.219796   1.48836 255 255 255
 1.69691 0.102242  1.41192 255 255 255
 1.34774 0.798742  1.23556 255 255 255
 1.54506 0.486784  1.36189 255 255 255
 1.5094 1.15527 1.26927 255 255 255
 2.52879 0.269747  1.50453 255 255 255
1.48805 1.15338 1.26909 255 255 255
 1.55523 0.598623  1.24251 255 255 255
 1.47363 0.644371  1.25082 255 255 255
  1.692  1.0325 1.27281 255 255 255
 1.78105 0.438968  1.41656 255 255 255
  2.47829 0.0437842   1.51858 255 255 255
 1.67593 0.782262  1.39743 255 255 255
 1.75467 0.741884  1.38735 255 255 255
 1.50808 0.796079  1.27799 255 255 255
 2.53675 0.119209   1.5015 255 255 255
 1.65618 0.482753  1.37491 255 255 255
 1.34069 0.665376   1.2485 255 255 255
 1.69516 0.524303  1.37653 255 255 255
 1.57545 0.483724  1.38795 255 255 255
2.28191  0.4321 1.45384 255 255 255
  2.43259 -0.195663   1.51169 255 255 255
1.33152 0.64365 1.24781 255 255 255
  2.01047 -0.412885   1.44354 255 255 255
 1.78682 0.433542  1.41493 255 255 255
 2.30929 0.422512  1.46469 255 255 255
  2.0763 0.477258  1.43179 255 255 255
 1.79436 0.821751  1.38875 255 255 255
 1.82613 0.927473  1.40262 255 255 255
 2.05512 0.749532  1.43431 255 255 255
 1.43827 0.248589  1.37621 255 255 255
 1.07451 0.542078  1.25167 255 255 255
  1.97824 -0.162243   1.43742 255 255 255
  2.39903 0.0622981   1.49603 255 255 255
   2.39194 -0.0261609    1.51369 255 255 255
1.28879 0.69022 1.26043 255 255 255
  1.83412 0.0540614   1.33538 255 255 255
 1.70947 0.409709  1.39917 255 255 255
 1.90869 0.614429  1.41296 255 255 255
1.91006 0.61536 1.42432 255 255 255
  2.02537 -0.233307   1.48717 255 255 255
 1.31944 0.493549  1.31023 255 255 255
1.44383 0.72145 1.59617 255 255 255
   2.29177 -0.0965624    1.49197 255 255 255
 2.46377 0.198186  1.49823 255 255 255
 1.34942 0.611543  1.24979 255 255 255
 1.56085 0.913288  1.27453 255 255 255
 1.56094 0.913616  1.27566 255 255 255
  1.78274 0.0833055   1.41592 255 255 255
    1.78593 -0.00735608     1.41666 255 255 255
1.29612  0.6377 1.24811 255 255 255
 1.42574 0.484995  1.24407 255 255 255
  2.28411 0.0396243   1.51049 255 255 255
  2.50679 -0.108287   1.51573 255 255 255
   2.1584 -0.177944   1.47867 255 255 255
 1.77559 0.194518  1.41464 255 255 255
 1.58315 0.506612  1.38881 255 255 255
  1.5873 0.883865  1.39754 255 255 255
 1.50739 0.803218  1.26524 255 255 255
  1.64034 -0.104791   1.40903 255 255 255
2.16291 0.33907 1.45145 255 255 255
1.66372 1.06542 1.27109 255 255 255
 1.73066 0.865306  1.41366 255 255 255
  2.07951 -0.261429   1.45817 255 255 255
 1.49295 0.397032  1.38264 255 255 255
 2.34647 0.326805  1.48393 255 255 255
 2.18026 -0.18187  1.46157 255 255 255
   1.875 0.289803  1.41551 255 255 255
2.17794 0.23479  1.4484 255 255 255
 1.45052 0.198439  1.37816 255 255 255
 1.86715 0.935357  1.40373 255 255 255
 1.53458 0.905022  1.27388 255 255 255
 1.31426 0.582821  1.23671 255 255 255
  1.7164 0.374672  1.42332 255 255 255
  1.7162 0.670714  1.39513 255 255 255
1.99913 0.65053 1.42978 255 255 255
  1.75809 0.0849934   1.41883 255 255 255
  2.1466 -0.24049  1.46853 255 255 255
  1.2074 0.305175  1.37275 255 255 255
0.917064 0.696063  1.32817 255 255 255
 1.13451 0.680049  1.25834 255 255 255
   2.4308 0.0288251   1.51152 255 255 255
   1.64576 -0.0222097    1.40638 255 255 255
 2.20704 0.432289  1.45394 255 255 255
1.72216 0.48658   1.384 255 255 255
  1.51361 0.0799682   1.34468 255 255 255
 1.73795 0.492244  1.37209 255 255 255
  2.14457 -0.252679   1.47837 255 255 255
 1.4885 1.02843 1.25585 255 255 255
 1.78609 0.453611  1.42552 255 255 255
   1.62476 -0.0509176    1.41209 255 255 255
  2.60658 0.0692476   1.51498 255 255 255
  2.15171 0.0604906   1.48619 255 255 255
 1.49281 0.817832  1.25525 255 255 255
 1.76043 0.523357  1.37996 255 255 255
 2.42244 0.137105   1.4738 255 255 255
 1.46981 0.783416  1.25387 255 255 255
  2.60597 0.0316384   1.52153 255 255 255
 1.57185 0.746778  1.39729 255 255 255
  1.5692 0.726753  1.39925 255 255 255
 1.59839 0.722369  1.39208 255 255 255
 2.05554 -0.07631  1.47021 255 255 255
 1.69644 0.325694   1.4184 255 255 255
  2.3384 0.193569  1.48326 255 255 255
 2.49786 0.215788  1.50289 255 255 255
  1.8367 0.661754  1.38564 255 255 255
  2.27206 -0.217094   1.49427 255 255 255
 1.18101 0.669132  1.25721 255 255 255
  2.02847 -0.369878   1.46765 255 255 255
  2.13222 -0.203329   1.48315 255 255 255
 1.50296 0.220096  1.37988 255 255 255
 1.78586 0.163242  1.42036 255 255 255
 2.25873 0.353632  1.44838 255 255 255
1.55814 1.14891 1.27182 255 255 255
  2.21276 -0.290797   1.47821 255 255 255
1.36574 1.05498  1.2349 255 255 255
  1.92797 -0.200372   1.44321 255 255 255
  1.8584 0.637461  1.39298 255 255 255
 1.46967 0.745084  1.25428 255 255 255
 1.55056 0.686782  1.25364 255 255 255
   1.75054 -0.0237567    1.40569 255 255 255
  2.00151 -0.248903   1.48252 255 255 255
 2.53907 0.161681  1.51947 255 255 255
1.60387 0.46256 1.38521 255 255 255
 1.60361 0.166768  1.41054 255 255 255
  1.81308 -0.264356   1.44392 255 255 255
1.44366 1.15459 1.27814 255 255 255
  2.36677 -0.120725   1.51739 255 255 255
  2.36632 -0.120317   1.51629 255 255 255
 2.36179 0.221121  1.49764 255 255 255
    2.1905 -0.0174328     1.4973 255 255 255
 1.25719 0.311703  1.37763 255 255 255
 1.93452 0.219071  1.41157 255 255 255
 1.62978 0.698195  1.39777 255 255 255
  1.6231 0.211026  1.41649 255 255 255
  2.14384 0.0435551   1.48237 255 255 255
 1.71653 0.456841  1.37346 255 255 255
  2.45354 -0.141695   1.51786 255 255 255
1.73166 0.46068 1.37782 255 255 255
  2.33654 -0.103389   1.51539 255 255 255
 2.55483 0.199257  1.52341 255 255 255
  2.44481 -0.179255   1.51282 255 255 255
 1.47437 0.443975  1.26376 255 255 255
  1.50739 0.0806286   1.33918 255 255 255
  2.23151 -0.118613    1.4976 255 255 255
  1.87171 -0.106805   1.45332 255 255 255
 1.80746 0.226718  1.41974 255 255 255
   1.115 0.925917  1.33882 255 255 255
 2.09192 0.488129  1.41676 255 255 255
  1.5887 0.323579  1.33459 255 255 255
 2.10782 0.267164  1.45547 255 255 255
  1.56488 0.0613956   1.40327 255 255 255
 2.14341 0.388398  1.42209 255 255 255
 1.57696 0.940747  1.28084 255 255 255
 1.26446 0.312067   1.3793 255 255 255
 1.67257 0.918514  1.40582 255 255 255
  1.82778 -0.326492   1.42874 255 255 255
 1.70018 0.502968  1.38893 255 255 255
 1.96202 0.162056  1.43189 255 255 255
 1.71555 0.289947  1.41172 255 255 255
 1.86077 0.199932  1.42339 255 255 255
 2.34937 0.140928  1.49323 255 255 255
  2.17814 -0.202541   1.48574 255 255 255
 1.57204 0.995909   1.2715 255 255 255
  2.16049 -0.208404   1.48922 255 255 255
  2.00502 -0.259966   1.48226 255 255 255
 1.85058 0.629839  1.39548 255 255 255
 1.38657 0.793515   1.2483 255 255 255
 1.47411 0.587333  1.44559 255 255 255
 1.81095 0.638452   1.3841 255 255 255
 1.15233 0.759727  1.24775 255 255 255
  2.33194 0.0302319   1.51458 255 255 255
0.704515 0.702228  1.77787 255 255 255
1.24525 0.89591 1.29228 255 255 255
 2.56638 0.219727  1.52141 255 255 255
  2.2911 0.350769  1.46449 255 255 255
   1.566 0.831372   1.3943 255 255 255
 1.53968 0.673172  1.26202 255 255 255
 2.39534 0.135673  1.49476 255 255 255
  2.35067 -0.163159   1.51263 255 255 255
 1.50923 0.835585  1.25648 255 255 255
 1.55793 0.240898  1.34791 255 255 255
 1.45556 0.148891  1.36602 255 255 255
  2.12003 -0.198046   1.47897 255 255 255
 2.48936 0.346292    1.519 255 255 255
 2.35089 0.277453  1.49482 255 255 255
 1.79031 0.635177  1.38002 255 255 255
 2.21424 0.232046  1.44826 255 255 255
 1.64186 0.149703  1.41806 255 255 255
 1.52552 0.678736  1.25631 255 255 255
 1.83166 0.600819  1.39394 255 255 255
 1.20233 0.847982  1.29541 255 255 255
  1.55829 0.0632889   1.39937 255 255 255
 2.24942 0.258623  1.46353 255 255 255
 1.59954 0.298358  1.32041 255 255 255
 1.72386 0.539262    1.357 255 255 255
  2.2326 0.294013  1.45396 255 255 255
 2.30873 0.173867  1.49416 255 255 255
1.49109 0.83682  1.2475 255 255 255
1.48639 1.14492 1.28161 255 255 255
 2.23574 0.254097  1.45271 255 255 255
 1.69253 0.707319  1.40221 255 255 255
 1.30497 0.722792  1.23872 255 255 255
  1.89772 -0.414232   1.46974 255 255 255
 1.90627 0.300459  1.42531 255 255 255
 1.56307 0.711265  1.24799 255 255 255
-0.0664268  -0.251478    1.34543 255 255 255
-0.0127809   0.209067    1.27286 255 255 255
 0.353997 -0.536418    1.3483 255 255 255
 0.459167 -0.504288   1.32675 255 255 255
 0.428497 -0.385686   1.29063 255 255 255
-0.107909 -0.402552   1.35563 255 255 255
0.501942 -1.04513  1.34687 255 255 255
 0.606625 -0.624681   1.21004 255 255 255
-0.262971 -0.438314    1.3654 255 255 255
-0.0441449 -0.0224353    1.29349 255 255 255
-0.272086 -0.372831   1.28674 255 255 255
 0.300864 -0.320548   1.19766 255 255 255
 0.512771 -0.900607   1.33226 255 255 255
-0.188227 -0.255649   1.22401 255 255 255
-0.0335026  -0.109691    1.33937 255 255 255
0.0561393 -0.657403   1.33022 255 255 255
 0.207241 -0.664039   1.35582 255 255 255
0.0696611 -0.702839   1.31445 255 255 255
 0.217362 -0.392577   1.21311 255 255 255
0.214812 -0.39347  1.21734 255 255 255
 0.285989 -0.138935   1.21737 255 255 255
 0.628079 -0.580162   1.25433 255 255 255
-0.000915914    -0.645205      1.33921 255 255 255
0.527731 -1.32028  1.46823 255 255 255
 -0.263222 -0.0839322    1.22453 255 255 255
 0.206704 -0.346056   1.21151 255 255 255
  0.533502 -0.0823716    1.26746 255 255 255
  0.54216 -0.653311   1.22356 255 255 255
  0.126492 -0.0868803    1.32623 255 255 255
  0.130578 -0.0880794    1.32317 255 255 255
  0.145527 -0.0489614    1.31611 255 255 255
  0.36879 -0.180207   1.22839 255 255 255
   0.120206 -0.00553074      1.3259 255 255 255
-0.229836 -0.246754   1.21901 255 255 255
-0.142661 -0.530516   1.34844 255 255 255
  0.57138 -0.103035   1.28764 255 255 255
  0.65375 -0.246661    1.3434 255 255 255
  0.28401 -0.178104   1.21407 255 255 255
0.482513 -1.32973  1.46625 255 255 255
0.0155536   0.25191   1.30954 255 255 255
-0.348626 0.0743396   1.25002 255 255 255
0.460232 -1.16797  1.41899 255 255 255
 0.140367 -0.715687   1.14749 255 255 255
-0.0329115  -0.218445     1.3305 255 255 255
0.506839 -1.23888  1.42166 255 255 255
 0.392247 -0.209399   1.24846 255 255 255
 0.714768 -0.197116   1.35674 255 255 255
 0.458508 -0.988025   1.41484 255 255 255
0.475552 -1.05327  1.39366 255 255 255
 0.657204 -0.573179   1.35108 255 255 255
 0.787455 -0.636667   1.18718 255 255 255
 -0.107652 -0.0255489    1.29599 255 255 255
 -0.109777 -0.0245071    1.30115 255 255 255
-0.258523  0.181952   1.24897 255 255 255
  0.439005 0.00950786     1.2348 255 255 255
0.00922835 -0.0110248     1.2892 255 255 255
0.0750319  0.161395   1.26354 255 255 255
 0.438155 -0.223018   1.29816 255 255 255
 0.321827 -0.719598   1.36141 255 255 255
-0.0561178  -0.150522    1.30501 255 255 255
 -0.164069 -0.0283455    1.26414 255 255 255
 0.122121 0.0525793    1.2554 255 255 255
 0.0483364 -0.0142332     1.2563 255 255 255
-0.0901225 -0.0616144     1.2966 255 255 255
 0.362267 0.0911959   1.24862 255 255 255
0.0935537  0.177481   1.26638 255 255 255
  0.378215 -0.0505815    1.24065 255 255 255
-0.0449131   0.203768    1.30414 255 255 255
 0.461287 -0.775353   1.37972 255 255 255
-0.0675516  -0.144176    1.25808 255 255 255
 0.706367 -0.596737   1.32745 255 255 255
 -0.19945 -0.518794    1.3535 255 255 255
  0.10234 -0.115804   1.32935 255 255 255
 0.156753 -0.693273   1.31475 255 255 255
 0.565188 -0.796612   1.19359 255 255 255
 0.613696 -0.888167   1.24839 255 255 255
-0.00538557    0.176843     1.31321 255 255 255
0.0986409 -0.337543   1.34538 255 255 255
 0.589017 -0.800786   1.24785 255 255 255
  0.75804 -0.577166   1.34215 255 255 255
  -0.31644 -0.0159594    1.21488 255 255 255
-0.139794 0.0641575   1.24257 255 255 255
 0.448287 -0.797704   1.38682 255 255 255
  0.39606 -0.898919    1.3956 255 255 255
 0.404694 -0.875266   1.39467 255 255 255
0.277375  -0.8716   1.3853 255 255 255
-0.269886  0.111938   1.23407 255 255 255
-0.016435 -0.264385   1.30782 255 255 255
0.0562131 -0.235829   1.33343 255 255 255
-0.185269 -0.287073   1.22303 255 255 255
-0.0692923  -0.162448    1.27981 255 255 255
-0.218727 -0.201959   1.21626 255 255 255
 0.764655 -0.583227   1.17635 255 255 255
-0.191427 -0.230965   1.21528 255 255 255
 0.652841 -0.595444   1.34361 255 255 255
  0.47195 -0.418706   1.35257 255 255 255
  1.15879 -0.596136   1.40306 255 255 255
 0.221153 -0.601559   1.32109 255 255 255
 0.708487 -0.888228   1.24954 255 255 255
0.297056 -0.75818   1.3713 255 255 255
-0.00910312   0.0507801     1.29106 255 255 255
  0.62138 -0.578875   1.34406 255 255 255
 0.832948 -0.603933   1.19429 255 255 255
-0.0297665   -0.45845    1.35188 255 255 255
 0.619688 -0.743916   1.20709 255 255 255
-0.0768469  -0.121961    1.25999 255 255 255
0.112333 0.021203  1.32104 255 255 255
 0.216211 -0.363369   1.21106 255 255 255
0.582031 -0.80576  1.18758 255 255 255
 0.741167 -0.593529   1.33818 255 255 255
 0.151073 0.0333788   1.23574 255 255 255
-0.0311991    -0.6171    1.35528 255 255 255
-0.0147288  -0.288129    1.32884 255 255 255
0.168246 0.295806  1.30953 255 255 255
  0.31808 -0.449064   1.34943 255 255 255
-0.254255 -0.482721   1.38002 255 255 255
-0.0343258  -0.594026    1.35338 255 255 255
 0.454328 -0.191525   1.26274 255 255 255
0.0374863  0.391786   1.32768 255 255 255
0.0875428   0.28652   1.31026 255 255 255
-0.225718 -0.123819   1.21581 255 255 255
 0.497494 -0.666133   1.37118 255 255 255
-0.261861 -0.339462   1.23811 255 255 255
 0.104093 -0.498806   1.35445 255 255 255
0.509161 -1.04121  1.39743 255 255 255
 0.469731 -0.689903   1.37634 255 255 255
0.443919 -0.18118  1.27429 255 255 255
 0.982268 -0.451146   1.37084 255 255 255
 0.605021 -0.150119   1.33097 255 255 255
 0.273297 -0.620797   1.35082 255 255 255
0.516841 -1.35413  1.46107 255 255 255
-0.157548 -0.173139   1.28397 255 255 255
0.485397 -1.27009  1.43797 255 255 255
-0.069854 -0.190483   1.31478 255 255 255
 0.567706 -0.538686   1.32854 255 255 255
0.609623  -1.0108  1.25573 255 255 255
-0.107835 -0.595576   1.34226 255 255 255
 0.263314 -0.787694   1.37958 255 255 255
-0.00706615  -0.0134575     1.27146 255 255 255
-0.0475727  0.0191189    1.26889 255 255 255
 0.538364 -0.562091   1.35026 255 255 255
-0.0407919  0.0645011    1.29871 255 255 255
 0.607414 -0.989896   1.25098 255 255 255
 0.862903 -0.548925   1.36658 255 255 255
0.465982 -0.75146  1.37638 255 255 255
 -0.123353 -0.0304502    1.21216 255 255 255
-0.110844 -0.355436   1.35857 255 255 255
0.537458 -0.10407  1.26242 255 255 255
  1.00568 -0.511306    1.3901 255 255 255
-0.213032  -0.13771   1.22201 255 255 255
 -0.111453 0.00738476     1.2443 255 255 255
 0.532947 -0.683509   1.22668 255 255 255
 0.395792 -0.700333   1.37665 255 255 255
 -0.113699 -0.0532853     1.3163 255 255 255
0.0142286  0.187467   1.31097 255 255 255
 0.247368 -0.673476   1.34439 255 255 255
 0.731814 -0.644032   1.17888 255 255 255
-0.0409139  -0.285055    1.29838 255 255 255
 0.893855 -0.590367   1.36701 255 255 255
 0.661947 -0.777817   1.19646 255 255 255
0.183419 0.163618  1.24515 255 255 255
-0.0507024  0.0651686     1.2841 255 255 255
   0.34487 -0.0487706    1.24086 255 255 255
-0.0767702 -0.0184093    1.29164 255 255 255
 0.580176 -0.246167   1.33836 255 255 255
 0.580555 -0.246933   1.33856 255 255 255
 0.175691 -0.149172   1.33051 255 255 255
-0.205732  -0.37525   1.35354 255 255 255
-0.285582  -0.39618   1.34874 255 255 255
  0.14219 -0.687954   1.25317 255 255 255
-0.225434 -0.531459   1.36229 255 255 255
0.256153 -1.04372  1.36507 255 255 255
 0.851602 -0.595177    1.2009 255 255 255
 0.902661 -0.579547   1.36879 255 255 255
-0.00959377   -0.670378     1.33364 255 255 255
 0.565294 -0.137222   1.29211 255 255 255
 0.0571707 -0.0767745    1.33737 255 255 255
0.200847 0.210729  1.25299 255 255 255
 0.191836 -0.713961   1.31494 255 255 255
-0.00130812  -0.0234673     1.28888 255 255 255
 0.739009 -0.237257   1.33837 255 255 255
0.00331113   -0.36558    1.35544 255 255 255
 0.585917 -0.920234   1.25761 255 255 255
 0.554583 -0.105977   1.27766 255 255 255
0.243699 -0.65287  1.35277 255 255 255
-0.166135 -0.111878   1.27506 255 255 255
-0.072022 -0.231796   1.29637 255 255 255
 0.657423 -0.896485   1.25618 255 255 255
 0.589343 -0.451111   1.35405 255 255 255
-0.00138512  -0.0516148     1.30576 255 255 255
 0.231712 -0.475618    1.3664 255 255 255
-0.498875 -0.226857    1.3607 255 255 255
 0.565868 -0.597279   1.37021 255 255 255
-0.0107025  -0.648058    1.33125 255 255 255
0.0343158  0.125071   1.27537 255 255 255
-0.029316 -0.651727   1.34349 255 255 255
-0.00897733  -0.0391744     1.28946 255 255 255
 0.621217 -0.959828   1.24917 255 255 255
0.182479 0.162809  1.24188 255 255 255
0.0318912  0.281979   1.31957 255 255 255
0.00958153   0.353284    1.33019 255 255 255
  0.102031 -0.0371538    1.33068 255 255 255
 0.241006 -0.338929   1.20895 255 255 255
-0.195755 -0.402025   1.35826 255 255 255
0.00547986  -0.646582    1.33604 255 255 255
 0.316719 -0.601311   1.35072 255 255 255
 0.734356 -0.686952   1.20671 255 255 255
 0.534045 -0.441435    1.3515 255 255 255
0.244331 0.192146   1.2482 255 255 255
0.313087 -0.88451  1.39588 255 255 255
-0.0787913  0.0844741    1.24754 255 255 255
-0.0773093  -0.470782    1.32561 255 255 255
-0.478158 -0.185175    1.3511 255 255 255
0.483508 -1.16555   1.4091 255 255 255
0.0788571 -0.696663   1.19473 255 255 255
-0.160853 -0.561563   1.36236 255 255 255
 0.671181 -0.816406   1.22268 255 255 255
0.481622 -0.94922  1.38901 255 255 255
0.399417 -1.21574  1.41277 255 255 255
0.0445668  0.121539    1.2753 255 255 255
0.437436 -1.25804  1.42452 255 255 255
-0.0165689  -0.493748    1.35067 255 255 255
 0.886998 -0.540325   1.34906 255 255 255
-0.203394 -0.543032   1.35961 255 255 255
-0.506126 -0.193882   1.37324 255 255 255
 0.532405 -0.548179   1.35183 255 255 255
 -0.336021 -0.0764134     1.2072 255 255 255
0.00141233   0.279665    1.31271 255 255 255
-0.0912487  -0.204615     1.2935 255 255 255
 0.136996 -0.204803   1.33736 255 255 255
 -0.332766 -0.0839855    1.21259 255 255 255
-0.0936534  -0.146772    1.28355 255 255 255
-0.526163 -0.210173   1.35534 255 255 255
-0.0574529    0.47881    1.32594 255 255 255
0.0105987 0.0435665   1.27807 255 255 255
  0.42055 -0.720177   1.37461 255 255 255
0.500453 -1.28132  1.42738 255 255 255
 0.728023 -0.624127   1.20544 255 255 255
0.387407 -1.14639  1.39668 255 255 255
  0.49072 -0.461578   1.34845 255 255 255
0.452964 -0.16495  1.27325 255 255 255
-0.0374346   0.136354    1.30534 255 255 255
 -0.52981 -0.229324   1.35759 255 255 255
0.420879 -1.26358   1.4298 255 255 255
  -0.119523 -0.00680376     1.24883 255 255 255
0.934631 -0.50296  1.34901 255 255 255
 0.671306 -0.664654   1.21996 255 255 255
 0.381456 -0.596791   1.35002 255 255 255
-0.0555853   0.140427     1.2539 255 255 255
  0.93456 -0.550337   1.34865 255 255 255
 0.692009 -0.673265   1.20919 255 255 255
 0.123003 -0.113761   1.33103 255 255 255
-0.132985 -0.477313   1.30826 255 255 255
 0.744436 -0.734938   1.19783 255 255 255
-0.0641377  -0.604085    1.35485 255 255 255
 0.708723 -0.623085   1.20151 255 255 255
 0.737159 -0.741946   1.19481 255 255 255
-0.199702  -0.32942   1.22273 255 255 255
 0.686692 -0.912746   1.24242 255 255 255
 0.246059 -0.303645   1.21334 255 255 255
0.0342702    0.4222   1.31183 255 255 255
0.331355 -1.14101  1.40848 255 255 255
-0.199929 -0.490019   1.34935 255 255 255
-0.055351  -0.46885   1.31975 255 255 255
 0.751108 -0.692351   1.20474 255 255 255
 0.50987 -1.08661  1.31107 255 255 255
 -0.33339 -0.426564   1.35801 255 255 255
 0.758502 -0.747818   1.20107 255 255 255
0.395642 -1.06828  1.40846 255 255 255
 0.474908 -0.889692   1.39126 255 255 255
 0.121277 -0.587544   1.35363 255 255 255
 0.121608 -0.586907    1.3516 255 255 255
-0.194667 -0.186926    1.2655 255 255 255
-0.115783 0.0140268   1.23523 255 255 255
 0.769514 -0.754892   1.20433 255 255 255
 0.388689 -0.651312     1.363 255 255 255
0.242147 -0.31178  1.21462 255 255 255
0.102758 0.279933  1.30676 255 255 255
 0.250009 -0.293949   1.21174 255 255 255
-0.272793 -0.377472   1.29371 255 255 255
  1.53364 -0.493899   1.43053 255 255 255
 0.517494 -0.549038   1.34699 255 255 255
0.410086 -1.04689   1.3972 255 255 255
0.0181632  0.441633   1.31721 255 255 255
 -0.341811 -0.0438407    1.21739 255 255 255
0.0598037 -0.687148   1.32266 255 255 255
 0.914347 -0.521056   1.35469 255 255 255
-0.205788 -0.293114   1.22538 255 255 255
-0.0410701   0.163225    1.30969 255 255 255
0.0973583  0.266937   1.31423 255 255 255
 0.317396 -0.463319   1.33573 255 255 255
0.613523 -0.51248   1.3522 255 255 255
 0.268562 -0.677308   1.36768 255 255 255
 0.844498 -0.617274   1.19502 255 255 255
 0.813279 -0.656035   1.18077 255 255 255
 0.293765 -0.194563    1.2168 255 255 255
 0.673147 -0.604368   1.29345 255 255 255
0.352034 -1.04767  1.39625 255 255 255
 0.696754 -0.615686   1.20039 255 255 255
0.545792  -0.3002  1.34415 255 255 255
-0.063934  0.214406   1.31355 255 255 255
 0.633926 -0.983763   1.25418 255 255 255
-0.22391  0.30155  1.32165 255 255 255
-0.0569799  -0.498359    1.31788 255 255 255
-0.0670844   0.128783     1.2466 255 255 255
0.193842 0.161719  1.24427 255 255 255
0.424537 -1.08689  1.40418 255 255 255
-0.0811586 0.00122726    1.27772 255 255 255
0.327062 -1.10746  1.40114 255 255 255
 0.376336 0.0890584    1.2447 255 255 255
0.494803 -1.24223  1.43892 255 255 255
0.503625  -1.0015  1.39638 255 255 255
0.0105568  0.392322   1.32396 255 255 255
-0.239017 -0.424581   1.36895 255 255 255
 0.642452 -0.602168   1.19012 255 255 255
 0.141299 -0.172765   1.33576 255 255 255
 0.439723 -0.763296   1.36774 255 255 255
-0.0944589   0.211796    1.30808 255 255 255
-0.0501546   0.399564    1.32136 255 255 255
 -0.422125 -0.0695497    1.24585 255 255 255
-0.0401989  0.0485513    1.27542 255 255 255
 0.972338 -0.466353   1.36956 255 255 255
0.0722421  -0.19454   1.33641 255 255 255
  0.45961 -0.733445   1.37796 255 255 255
 0.729721 -0.671196   1.19451 255 255 255
 -0.22867 -0.281669   1.22434 255 255 255
-0.00483652   -0.599008     1.35228 255 255 255
-0.00514015   -0.599491     1.35367 255 255 255
-0.0906524   0.225207    1.31715 255 255 255
 0.392307 -0.669299   1.36534 255 255 255
 0.699538 -0.723306   1.20496 255 255 255
 0.745925 -0.613226   1.21006 255 255 255
 0.742934 -0.751715   1.19244 255 255 255
 0.437862 -0.872196   1.39558 255 255 255
 0.341223 -0.286903   1.21321 255 255 255
 0.532925 -0.262911   1.32866 255 255 255
 0.471044 -0.819572   1.38143 255 255 255
-0.0595013  -0.221626    1.29176 255 255 255
-0.061933 0.0954986    1.2885 255 255 255
 -0.150662 -0.0277661    1.32409 255 255 255
 0.692735 -0.767521   1.18382 255 255 255
  0.41643 -0.582517   1.34091 255 255 255
 0.350261 -0.642877   1.36178 255 255 255
 0.870878 -0.578462   1.37731 255 255 255
-0.187855 -0.329524   1.37402 255 255 255
0.0474517  0.381912   1.32526 255 255 255
  0.81259 -0.503773   1.35008 255 255 255
 0.632978 -0.599982   1.22033 255 255 255
0.508706  -1.0572  1.39436 255 255 255
-0.0357257   0.010019    1.26891 255 255 255
-0.159156 -0.242037    1.2206 255 255 255
-0.0399734  -0.249581    1.31704 255 255 255
 0.691444 -0.891067   1.25611 255 255 255
 -0.22834 -0.273006    1.2268 255 255 255
-0.00373436 -0.00980549     1.27718 255 255 255
0.539391 -1.04135  1.40345 255 255 255
 0.279574 -0.119251    1.2259 255 255 255
0.414582 -1.12717   1.4132 255 255 255
-0.174018 -0.310389    1.3529 255 255 255
0.0558285  0.398845   1.32546 255 255 255
0.230929 0.201523  1.24017 255 255 255
 0.567066 -0.805858   1.18931 255 255 255
0.46275 -1.0461  1.3983 255 255 255
  0.48025 -0.975907   1.39212 255 255 255
0.188992 0.311499  1.32053 255 255 255
0.264651 0.179945  1.25852 255 255 255
-0.00528565    0.395222     1.31748 255 255 255
0.0490975  0.396414   1.31451 255 255 255
-0.211151 -0.551829   1.35698 255 255 255
0.565149 -0.19947  1.32889 255 255 255
 0.741335 -0.716619   1.19764 255 255 255
-0.156657 -0.487676   1.30724 255 255 255
  0.42102 0.0434334   1.22493 255 255 255
-0.222504  0.273245   1.31988 255 255 255
 0.652683 -0.940029   1.26436 255 255 255
 0.11972 0.272857  1.20649 255 255 255
 0.317046 0.0219069   1.23796 255 255 255
0.606468 -0.88448  1.26179 255 255 255
 0.562794 -0.567662   1.34128 255 255 255
 0.553583 -0.678389   1.23074 255 255 255
 0.673347 -0.624476   1.19655 255 255 255
 0.46805 -1.09122  1.38987 255 255 255
-0.289186 -0.101725   1.22976 255 255 255
0.340685 -0.76324  1.37558 255 255 255
-0.0605566   0.128566    1.25207 255 255 255
 0.270918 -0.769636   1.38934 255 255 255
   0.2388 -0.737341   1.33809 255 255 255
0.696556 -0.62656   1.1903 255 255 255
-0.0497359   0.412218    1.31808 255 255 255
 0.628305 -0.777851   1.19756 255 255 255
 -0.16823 -0.260278   1.22355 255 255 255
0.260737  0.18426   1.2467 255 255 255
 0.747717 -0.873983   1.25317 255 255 255
-0.0441351  0.0770618    1.28599 255 255 255
-0.00925308   0.0898082     1.29025 255 255 255
  0.11341 -0.158599   1.34075 255 255 255
  0.26517 -0.772677   1.37875 255 255 255
0.760633 -0.63212   1.2023 255 255 255
 0.195066 -0.711487   1.33586 255 255 255
0.245697  -1.0097  1.36799 255 255 255
-0.274561   0.10998   1.23304 255 255 255
0.230832 0.157466  1.24661 255 255 255
 0.269401 0.0220753   1.24778 255 255 255
 0.432674 0.0290361   1.23293 255 255 255
-0.133821 -0.449803   1.35333 255 255 255
0.185046 0.224129  1.24744 255 255 255
0.597339 -0.53769  1.35294 255 255 255
 1.02303 -0.66799  1.38334 255 255 255
 -0.255729 -0.0625314    1.21964 255 255 255
0.341383 -1.14452    1.405 255 255 255
 0.148567 -0.672667   1.34067 255 255 255
0.0147237 0.0748399   1.27569 255 255 255
 -0.278566 -0.0998536    1.22611 255 255 255
0.177929 0.295105    1.314 255 255 255
 0.935941 -0.503013   1.33614 255 255 255
-0.0723629  0.0377831    1.26869 255 255 255
-0.214817  0.315068   1.31988 255 255 255
-0.540358 -0.138941   1.36852 255 255 255
0.418821 -1.02413  1.40105 255 255 255
   0.7087 -0.849749    1.2423 255 255 255
-0.00724496    0.484857     1.32653 255 255 255
-0.0796507 -0.0178305    1.28574 255 255 255
0.238245 0.175189  1.24821 255 255 255
 0.623011 -0.950518   1.25499 255 255 255
-0.0188704  -0.237125    1.30772 255 255 255
0.0712478 -0.494061   1.35467 255 255 255
 0.658079 -0.722118   1.21431 255 255 255
-0.0641012  -0.192437    1.31601 255 255 255
0.100269 0.272146  1.30875 255 255 255
 0.629074 -0.749567   1.20258 255 255 255
0.307601 -1.10869  1.40448 255 255 255
 0.698286 -0.735965   1.19703 255 255 255
-0.188258 -0.567729   1.35616 255 255 255
 0.384756 -0.956739   1.40554 255 255 255
-0.498208 -0.237797   1.36916 255 255 255
 0.625332 -0.798683   1.20924 255 255 255
 0.205008 0.0775907   1.23943 255 255 255
0.466097  -1.1237  1.40267 255 255 255
0.0465622  0.418779   1.31696 255 255 255
 0.463018 -0.714405   1.37524 255 255 255
-0.0738971  0.0934013    1.26244 255 255 255
 -0.19373 -0.187985   1.28414 255 255 255
  0.69698 -0.675789   1.21097 255 255 255
0.0506266 -0.195224   1.34395 255 255 255
 0.276872 -0.273166   1.21007 255 255 255
-0.302049 -0.470167   1.36245 255 255 255
 0.710914 -0.889365   1.24062 255 255 255
-0.034517 -0.296227    1.3013 255 255 255
-0.256087 0.0256962   1.24981 255 255 255
0.0753688 0.0791193   1.24956 255 255 255
 0.125736 -0.435207   1.35595 255 255 255
 0.511296 -0.636443   1.21107 255 255 255
 0.701851 -0.929188   1.25852 255 255 255
0.0846455  0.102354   1.24859 255 255 255
  0.58012 -0.233134   1.33554 255 255 255
 0.676296 -0.651933   1.20189 255 255 255
0.0689477 -0.488742   1.36075 255 255 255
-0.339144 -0.436324   1.35899 255 255 255
 -0.125296 -0.0562874    1.31407 255 255 255
 0.633779 -0.959427   1.26138 255 255 255
-0.253824 -0.121936   1.22275 255 255 255
 0.761085 -0.589486   1.34254 255 255 255
-0.167691 -0.400377   1.36399 255 255 255
 0.234323 -0.244295   1.21692 255 255 255
-0.271527 -0.330084   1.21324 255 255 255
 0.745911 -0.385609   1.34242 255 255 255
 0.679416 -0.695075    1.1994 255 255 255
 0.599343 -0.761492   1.22701 255 255 255
0.400045 -1.02901  1.39822 255 255 255
   0.2108 -0.298711   1.21431 255 255 255
-0.315222 -0.310411   1.21564 255 255 255
-0.236322   0.21148    1.2526 255 255 255
-0.522518 -0.230784   1.36251 255 255 255
0.153543 0.295769  1.30607 255 255 255
0.0872077  0.234078    1.2975 255 255 255
 0.265583 -0.354251   1.20557 255 255 255
  0.77408 -0.651042   1.18938 255 255 255
0.0469938 -0.260946   1.34604 255 255 255
0.495771 -1.26225  1.43138 255 255 255
0.00196415  0.0481034     1.2762 255 255 255
 0.687193 -0.701509    1.2004 255 255 255
0.0941924  -0.23374    1.3371 255 255 255
 0.0119446 -0.0494039    1.30726 255 255 255
 0.261531 -0.363358    1.2043 255 255 255
0.101432  0.10804   1.2425 255 255 255
 0.469646 -0.737323   1.22601 255 255 255
0.169296 0.226653  1.23977 255 255 255
0.210788  0.21383  1.24826 255 255 255
-0.214506  0.325585   1.32151 255 255 255
  -0.10631 -0.0174271    1.27324 255 255 255
0.530672 -0.67591  1.22837 255 255 255
-0.104786 -0.192889   1.29896 255 255 255
0.453926 -1.18146  1.41911 255 255 255
 0.322905 -0.772535   1.37647 255 255 255
0.0210095   0.35494   1.32503 255 255 255
  0.25751 -0.372206   1.20348 255 255 255
 0.489725 -0.565514   1.35124 255 255 255
-0.221956 -0.145271   1.21729 255 255 255
 0.345015 -0.216622   1.21257 255 255 255
 0.331424 -0.274913   1.21107 255 255 255
0.0787317  0.111879   1.23963 255 255 255
-0.0286888  -0.432837    1.35557 255 255 255
-0.281323 -0.326364   1.21564 255 255 255
-0.224814 -0.238612   1.22042 255 255 255
 0.330875 0.0261408   1.23937 255 255 255
0.0826176 -0.233286   1.34313 255 255 255
 0.230339 -0.253412   1.21471 255 255 255
 0.285035 -0.180128   1.21457 255 255 255
 0.299389 0.0370813   1.23523 255 255 255
 0.131467 0.0468707   1.24367 255 255 255
 0.330614 -0.764797   1.37491 255 255 255
-0.0853298  -0.194344    1.30728 255 255 255
 0.108894 -0.691741     1.332 255 255 255
-0.176701 -0.569141   1.35197 255 255 255
-0.253806 -0.302872   1.21971 255 255 255
 0.256981 -0.565235   1.35327 255 255 255
  0.67941 -0.703081   1.19743 255 255 255
0.0022617  0.386453   1.32233 255 255 255
 0.676336 -0.714818   1.18753 255 255 255
0.0572607  0.233377   1.31542 255 255 255
-0.202865  -0.14332   1.22089 255 255 255
0.00450392  -0.602336    1.35095 255 255 255
 0.201927 -0.348402   1.20953 255 255 255
0.395193 -1.02173  1.39992 255 255 255
-0.125267  0.102987   1.23406 255 255 255
-0.149815 -0.119174   1.31354 255 255 255
-0.206923 -0.152458   1.22128 255 255 255
0.408345 -1.11271  1.40525 255 255 255
 0.565454 -0.582975   1.34252 255 255 255
-0.0619976   0.125899    1.26765 255 255 255
-0.0450591  -0.152948    1.33887 255 255 255
 0.679422 -0.199563   1.35565 255 255 255
-0.273018 -0.113936   1.22467 255 255 255
0.270835 -1.04895  1.36312 255 255 255
  0.12331 -0.695948   1.14297 255 255 255
-0.142016 -0.618511   1.35482 255 255 255
-0.235354  -0.26573   1.21782 255 255 255
  1.12048 -0.621938   1.38847 255 255 255
-0.0204458  -0.363549    1.35326 255 255 255
0.220046 0.210823  1.23951 255 255 255
0.0491719  0.288013   1.32067 255 255 255
-0.133274 -0.196471    1.2702 255 255 255
 0.274597 -0.584009   1.35296 255 255 255
-0.210106 -0.161901    1.2195 255 255 255
-0.506071 -0.240616   1.36798 255 255 255
  -0.2761 -0.315942    1.2146 255 255 255
-0.0284411  -0.243024    1.30069 255 255 255
 0.932405 -0.490118    1.3472 255 255 255
0.414556 -1.25834   1.4383 255 255 255
 0.251803 -0.404125   1.21213 255 255 255
 0.605082 -0.913845   1.26402 255 255 255
 0.236004 0.0588775   1.24191 255 255 255
 -0.20923 -0.183831    1.2189 255 255 255
-0.234283 -0.256541   1.22271 255 255 255
-0.248415  0.189908   1.25503 255 255 255
-0.264744 -0.117734    1.2253 255 255 255
  0.67959 -0.600668   1.19375 255 255 255
0.370903 -0.16205  1.20267 255 255 255
 -0.17069 -0.151555   1.30338 255 255 255
    0.335 -0.203023   1.21724 255 255 255
-0.246577 -0.282732   1.22342 255 255 255
-0.087614  0.211104   1.31518 255 255 255
 0.413676 -0.797123   1.39077 255 255 255
-0.221324 -0.226973   1.22352 255 255 255
-0.0745918   0.424691    1.32175 255 255 255
 0.0573248 -0.0230279    1.33487 255 255 255
 0.638811 -0.519182    1.3421 255 255 255
-0.241155 -0.273526   1.22103 255 255 255
-0.265147 -0.288818   1.21681 255 255 255
 0.104196 -0.645647   1.35006 255 255 255
-0.0297942  -0.234276    1.31606 255 255 255
-0.240784  0.019771   1.24099 255 255 255
-0.268759 -0.298047   1.21603 255 255 255
-0.272344 -0.306934   1.21532 255 255 255
 0.744813 -0.635524     1.188 255 255 255
 0.764433 -0.520591   1.34099 255 255 255
 0.688526 -0.900764   1.26387 255 255 255
-0.163532 -0.605788   1.35269 255 255 255
 0.767858 -0.500207   1.35131 255 255 255
-0.176217 -0.169792   1.29798 255 255 255
 0.157035 -0.732399    1.1387 255 255 255
0.0152319 -0.655278   1.33571 255 255 255
 0.501302 -0.907479    1.3908 255 255 255
 0.362719 -0.152829    1.2015 255 255 255
-0.256723  0.214774   1.25486 255 255 255
-0.277032 -0.272173   1.21379 255 255 255
 0.563901 -0.611983   1.38003 255 255 255
 0.951221 -0.482345    1.3689 255 255 255
 0.584078 -0.284667   1.34035 255 255 255
 -0.166248 -0.0246607    1.33749 255 255 255
-0.0587281   0.418664    1.31402 255 255 255
 0.727083 -0.852452   1.24255 255 255 255
-0.227248 -0.132644   1.22014 255 255 255
-0.218705 -0.217883   1.22589 255 255 255
-0.00443819    0.086866      1.2941 255 255 255
  0.72399 -0.647416   1.19017 255 255 255
 0.612613 -0.903618   1.27143 255 255 255
 0.237137 -0.597332   1.33914 255 255 255
  0.43071 -0.717814   1.37346 255 255 255
0.0812306  0.180618   1.28145 255 255 255
0.487527 -1.00783  1.40059 255 255 255
  0.56244 -0.559315   1.34686 255 255 255
-0.347987 -0.417724   1.35707 255 255 255
 0.558851 -0.546377   1.34394 255 255 255
-0.0290554  -0.575859    1.35492 255 255 255
 0.288246 -0.963499   1.38775 255 255 255
0.0065874  0.231747   1.31716 255 255 255
-0.248428 -0.290604   1.22064 255 255 255
-0.0223044  -0.122654    1.33672 255 255 255
-0.148569 -0.623515   1.35286 255 255 255
-0.205033  0.116941   1.23567 255 255 255
 0.718888 -0.845981   1.23863 255 255 255
-0.0587521   0.121056    1.28936 255 255 255
 0.0761802 -0.0610485    1.33642 255 255 255
 0.415864 -0.862078   1.40056 255 255 255
-0.0141282  -0.348351    1.36124 255 255 255
 0.669942 -0.702022   1.21061 255 255 255
0.0607227 -0.628627   1.34457 255 255 255
0.158686 0.156521  1.22847 255 255 255
-0.240665  0.118087   1.23031 255 255 255
0.456337 -1.05259  1.39765 255 255 255
0.138301 0.196321   1.2479 255 255 255
0.198208 0.216083  1.24276 255 255 255
0.137596 0.231056  1.25547 255 255 255
0.0322406  0.224721   1.31612 255 255 255
