ply
format ascii 1.0
element vertex 1116
property float x
property float y
property float z
property uchar red
property uchar green
property uchar blue
end_header
-0.0115022  -0.345474    1.59278 255 255 255
 0.16521 -0.40033  1.24407 255 255 255
-0.303559 -0.350094   1.42731 255 255 255
-0.129001   -0.3102   1.54342 255 255 255
-0.608224 -0.437628   1.26515 255 255 255
-0.419134 -0.295099   1.34699 255 255 255
-0.426434 -0.406563   1.32192 255 255 255
 0.046762 -0.572699   1.23101 255 255 255
-0.121669 -0.275819   1.64396 255 255 255
-0.0405872  -0.266735    1.54671 255 255 255
-0.270539 -0.455328   1.42504 255 255 255
-0.557595 -0.479346   1.22512 255 255 255
 0.218948 -0.519317    1.2587 255 255 255
-0.542994 -0.398345   1.19647 255 255 255
 -0.32836 -0.285989   1.42404 255 255 255
-0.630101 -0.438923   1.22269 255 255 255
0.0216672 -0.563728   1.25532 255 255 255
-0.078017 -0.312302   1.57075 255 255 255
-0.192825  -0.22972   1.52628 255 255 255
0.174153 -0.54431  1.24559 255 255 255
-0.557171 -0.466486   1.18765 255 255 255
-0.430532 -0.359063   1.33223 255 255 255
-0.309216 -0.323972   1.41943 255 255 255
  0.23759 -0.431318   1.27927 255 255 255
-0.190197 -0.237938   1.52169 255 255 255
 0.147579 -0.395815   1.62748 255 255 255
-0.355325 -0.229276   1.40021 255 255 255
-0.228162 -0.287857   1.49178 255 255 255
-0.0591065  -0.285051    1.57833 255 255 255
-0.633457 -0.464551   1.24912 255 255 255
-0.197892 -0.268426   1.66994 255 255 255
-0.434621 -0.385012   1.31724 255 255 255
 0.128652 -0.409444   1.61532 255 255 255
 0.221423 -0.469788   1.32416 255 255 255
-0.265489 -0.376489   1.76986 255 255 255
-0.0557166   -0.33028     1.5757 255 255 255
-0.121387 -0.301835    1.5509 255 255 255
-0.540487 -0.405592   1.22318 255 255 255
 0.134164 -0.524117   1.27528 255 255 255
-0.445876 -0.351894   1.31628 255 255 255
-0.447409 -0.319882   1.31795 255 255 255
-0.387905 -0.274571   1.37913 255 255 255
-0.321872 -0.330093   1.41796 255 255 255
-0.319952 -0.497924   1.37754 255 255 255
-0.444566 -0.357482   1.31417 255 255 255
-0.401318 -0.277404   1.36383 255 255 255
 -0.30984 -0.283794   1.43719 255 255 255
-0.424693  -0.29051   1.34207 255 255 255
0.0143054 -0.596023   1.25786 255 255 255
 0.125631 -0.370737   1.62547 255 255 255
 0.176694 -0.505326   1.39053 255 255 255
-0.43321 -0.39317  1.31711 255 255 255
 -0.55961 -0.432375   1.16106 255 255 255
-0.300552 -0.341423   1.42681 255 255 255
-0.271805 -0.302795   1.72945 255 255 255
-0.334178 -0.287538   1.41955 255 255 255
-0.183848  -0.22933   1.52903 255 255 255
-0.422864 -0.369598    1.8119 255 255 255
-0.282203 -0.320893   1.44255 255 255 255
-0.625583 -0.441948   1.18727 255 255 255
-0.0588976  -0.357827    1.56463 255 255 255
0.0373924 -0.552633   1.26272 255 255 255
-0.372493 -0.307581   1.38469 255 255 255
-0.584983 -0.487164   1.20157 255 255 255
-0.401355 -0.271644   1.36716 255 255 255
-0.142277 -0.258454   1.54949 255 255 255
-0.0408613   -0.26713    1.51838 255 255 255
-0.400801  -0.42085   1.34605 255 255 255
  -0.4154 -0.378372   1.34542 255 255 255
 -0.10906 -0.160897   1.57907 255 255 255
-0.84995 0.054333  1.63509 255 255 255
-0.0454667  -0.150829    1.62568 255 255 255
-0.00867568   -0.235137      1.6179 255 255 255
 0.054207 -0.130174   1.66725 255 255 255
 0.310855 -0.302982   1.80547 255 255 255
 0.116523 -0.159057   1.68156 255 255 255
-0.884982 -0.194176   1.39476 255 255 255
-0.205355 -0.398735   1.47888 255 255 255
 0.195182 -0.581153   1.17891 255 255 255
-0.344339 -0.274804    1.4199 255 255 255
-0.633812  -0.45075   1.26894 255 255 255
-0.099531 -0.116893   1.59623 255 255 255
-0.588064 -0.497508   1.14327 255 255 255
-0.0819004  -0.192938    1.59834 255 255 255
0.0110124 -0.174492   1.60316 255 255 255
-0.212868 -0.231889   1.51719 255 255 255
-0.293288 -0.309387   1.44816 255 255 255
-0.112307 -0.259073   1.64056 255 255 255
-0.404582 -0.339945   1.34938 255 255 255
-0.381704 -0.298384    1.3756 255 255 255
-0.472026  -0.42419   1.27341 255 255 255
  0.24785 -0.528097   1.26424 255 255 255
 0.211111 -0.557414    1.1823 255 255 255
-0.152937 -0.111936   1.56878 255 255 255
-0.00805355   -0.488069     1.12545 255 255 255
 0.051766 -0.139421   1.63687 255 255 255
-0.256844 -0.320538   1.45267 255 255 255
0.0428899 -0.308887   1.61179 255 255 255
-0.839457 -0.207005   1.31806 255 255 255
-0.159383 -0.224747   1.54857 255 255 255
0.00159912  -0.395571    1.58119 255 255 255
 -0.883684 -0.0250687    1.52235 255 255 255
 0.270561 -0.453592   1.42928 255 255 255
 -0.118366 -0.0599334    1.58425 255 255 255
 0.238867 -0.570877   1.18133 255 255 255
 0.215606 -0.536964   1.10007 255 255 255
 0.292867 -0.178832   1.48239 255 255 255
-0.537862 -0.383132    1.2234 255 255 255
-0.00079292   -0.131274     1.74839 255 255 255
 0.242368 -0.181252   1.74166 255 255 255
-0.527062  0.102465   1.25213 255 255 255
-0.156234 -0.075782   1.56974 255 255 255
-0.704438 -0.524073   1.32047 255 255 255
-0.615205 -0.418526   1.14485 255 255 255
-0.700521 0.0846626   1.48155 255 255 255
-0.0127106  -0.113217    1.63822 255 255 255
-0.627538  0.159996   1.13229 255 255 255
-0.0684728  -0.131931    1.61757 255 255 255
-0.0735473  -0.150561     1.6046 255 255 255
-0.386067 -0.424052   1.34846 255 255 255
-0.154947 -0.332459   1.52203 255 255 255
0.0262079 -0.140035   1.66163 255 255 255
-0.437902 -0.342883   1.31751 255 255 255
-0.185982 -0.213113   1.52461 255 255 255
-0.845101 0.0212136    1.5047 255 255 255
-0.82009 0.068372  1.56685 255 255 255
-0.847324 -0.154633   1.42778 255 255 255
 -0.33899 -0.436641   1.38023 255 255 255
-0.0336301  -0.155113    1.62569 255 255 255
-0.198249 -0.228247   1.64825 255 255 255
0.0617198 -0.523255   1.24082 255 255 255
-0.490362 0.0960319    1.3161 255 255 255
-0.0791344  -0.167191      1.601 255 255 255
-0.165397 -0.137623   1.55534 255 255 255
-0.330437 -0.416715   1.39212 255 255 255
 -0.738209 -0.0516435    1.46194 255 255 255
0.0772265 -0.211751   1.66088 255 255 255
-0.745418 -0.202721   1.18174 255 255 255
 0.096843 -0.389439   1.62162 255 255 255
 0.179806 -0.568065   1.19084 255 255 255
 -0.715485 -0.0506609    1.47229 255 255 255
-0.489326 -0.383796   1.26853 255 255 255
0.246532 -0.55872  1.26747 255 255 255
-0.803014  -0.16346   1.37628 255 255 255
 -0.736002 -0.0205716    1.47031 255 255 255
-0.626928  -0.50311   1.23787 255 255 255
-0.266536 -0.344872   1.73273 255 255 255
-0.00975199   -0.131889     1.64941 255 255 255
-0.778363 -0.212876    1.3446 255 255 255
 -0.76052 -0.211468   1.17298 255 255 255
-0.639604  0.184415   1.12046 255 255 255
 -0.779363 -0.0996828    1.36073 255 255 255
-0.00932694  -0.0794876     1.61998 255 255 255
0.00893858  -0.273473      1.572 255 255 255
-0.135795 -0.121657   1.57935 255 255 255
0.0537434 -0.164663   1.66825 255 255 255
-0.675564 0.0694237   1.50604 255 255 255
-0.711342 -0.317791   1.10733 255 255 255
  -0.84335 -0.0979806    1.45314 255 255 255
-0.0878449  -0.380721    1.55235 255 255 255
0.0315099 -0.272892   1.62623 255 255 255
-0.884523 -0.157139   1.45468 255 255 255
 -0.50404 -0.477504   1.12647 255 255 255
 0.286445 -0.215275   1.45469 255 255 255
-0.511543 -0.227434  0.954808 255 255 255
 -0.121132 -0.0882077    1.58669 255 255 255
 -0.814953 -0.0629748    1.48049 255 255 255
-0.566149 -0.502873   1.17536 255 255 255
-0.109559 -0.185529   1.58881 255 255 255
 0.182418 -0.546697   1.28266 255 255 255
-0.170707 -0.274046   1.53097 255 255 255
-0.0778215  -0.250438    1.58317 255 255 255
 0.254547 -0.536889   1.27287 255 255 255
 -0.754757 -0.0274627    1.43219 255 255 255
 0.248687 -0.496221   1.11845 255 255 255
-0.439079 -0.400547   1.30762 255 255 255
 -0.799242 -0.0979785    1.42814 255 255 255
-0.736743 0.0575614   1.50652 255 255 255
-0.0603808   -0.23267    1.59899 255 255 255
-0.586574 -0.486691   1.15425 255 255 255
 0.319692 -0.335787   1.84502 255 255 255
 -0.779012 -0.0516383    1.50628 255 255 255
0.0700088 -0.117977   1.67955 255 255 255
  -0.871291 -0.00902113     1.52596 255 255 255
-0.801594 -0.217647   1.31924 255 255 255
-0.119558 -0.314966   1.54734 255 255 255
-0.0277141  -0.551164    1.21356 255 255 255
 -0.161098 -0.0937942    1.56475 255 255 255
-0.153993 -0.120986   1.56372 255 255 255
-0.416891 -0.354816   1.33669 255 255 255
-0.000518055    -0.198552      1.62167 255 255 255
-0.897008 -0.181713   1.42066 255 255 255
 0.236925 -0.280737   1.74058 255 255 255
0.0010792 -0.212882   1.62894 255 255 255
0.0914775 -0.574734   1.28958 255 255 255
-0.121686  -0.19161   1.58127 255 255 255
-0.393591  -0.27944   1.37295 255 255 255
-0.214531 -0.196157   1.51451 255 255 255
  -0.1426 -0.169659   1.56093 255 255 255
-0.159356 -0.163133   1.55697 255 255 255
-0.193934 -0.166618   1.61752 255 255 255
-0.384358   -0.4615    1.3435 255 255 255
0.0451456 -0.219455   1.64642 255 255 255
-0.183769 -0.251263   1.52849 255 255 255
-0.123592 -0.344247   1.70403 255 255 255
-0.599481 -0.518725   1.18512 255 255 255
-0.540098 -0.463707   1.20637 255 255 255
-0.146089 -0.216099   1.63464 255 255 255
 -0.93334 -0.122857    1.4815 255 255 255
-0.632392   0.17548   1.12311 255 255 255
 0.022234 -0.582812   1.21124 255 255 255
 -0.795264 0.00799197    1.54337 255 255 255
0.0322484 -0.128578   1.72492 255 255 255
 -0.52324 -0.416381   1.22561 255 255 255
 0.023003 -0.101732   1.63018 255 255 255
-0.0546205  -0.140622    1.61766 255 255 255
-0.593582 -0.274924  0.805787 255 255 255
-0.361152 -0.502143   1.34839 255 255 255
-0.831609 0.0441482   1.53838 255 255 255
-0.792895 -0.234928   1.31531 255 255 255
-0.796021 -0.263167   1.21012 255 255 255
-0.805813 0.0992095   1.52064 255 255 255
 -0.947383 -0.0384108    1.61488 255 255 255
-0.605864 -0.467669   1.14388 255 255 255
-0.740649 0.0264412   1.56117 255 255 255
0.0152595 -0.250217   1.62955 255 255 255
-0.373613 -0.458839   1.35154 255 255 255
0.0494219 -0.259256   1.66132 255 255 255
-0.816778 -0.217647    1.2747 255 255 255
-0.0239152    -0.1299    1.63019 255 255 255
  0.16775 -0.353772   1.64623 255 255 255
-0.0723346  -0.175349    1.60726 255 255 255
-0.202838 -0.148886   1.61675 255 255 255
0.0573202 -0.145924   1.65789 255 255 255
-0.196184 -0.302713   1.50582 255 255 255
 0.170366 -0.136311   1.70563 255 255 255
  -0.61979 -0.0809704    1.12202 255 255 255
-0.0236085  -0.279622    1.60244 255 255 255
-0.153537 -0.138428   1.56213 255 255 255
-0.516878 0.0393174   1.25069 255 255 255
-0.823153 -0.250489   1.22785 255 255 255
 -0.30788 -0.284914   1.43866 255 255 255
-0.415756 -0.330767   1.34574 255 255 255
0.0647114 -0.108278   1.67504 255 255 255
-0.223904 -0.127405   1.60965 255 255 255
-0.351242 -0.345107    1.3918 255 255 255
 0.212972 -0.591407   1.16621 255 255 255
 0.241908 -0.446044   1.42391 255 255 255
-0.00686879   -0.279371     1.60787 255 255 255
-0.578917 -0.521871   1.16135 255 255 255
-0.191907 -0.154664   1.61728 255 255 255
 -0.825297 -0.0412239    1.51511 255 255 255
0.0579649 -0.263815   1.63849 255 255 255
-0.101208 -0.386833   1.53301 255 255 255
 -0.872182 -0.0731888    1.61876 255 255 255
 -0.50565 -0.412227   1.24548 255 255 255
-0.406028  -0.32724   1.79679 255 255 255
 -0.104951 -0.0728534    1.59636 255 255 255
-0.308331 -0.339874   1.42311 255 255 255
-0.0317769  -0.530561    1.18844 255 255 255
-0.432602 -0.301926   1.33843 255 255 255
  0.29317 -0.271318   1.80024 255 255 255
0.0361024 -0.249518   1.63485 255 255 255
0.0353758 -0.560985   1.23041 255 255 255
-0.726947 0.0642707   1.50909 255 255 255
-0.422037 -0.340948    1.3373 255 255 255
-0.660862 0.0859413   1.59025 255 255 255
0.0152816 -0.309553   1.45922 255 255 255
-0.0703376  -0.144651    1.66753 255 255 255
-0.0291698 -0.0936858    1.62943 255 255 255
-0.544592 -0.373541   1.20819 255 255 255
-0.911336  -0.10233   1.60546 255 255 255
 -0.862666 -0.0250699    1.52247 255 255 255
 -0.84102 -0.285206   1.24774 255 255 255
  0.33447 -0.231522    1.4668 255 255 255
-0.811308 -0.216994   1.24182 255 255 255
 0.231175 -0.624234     1.228 255 255 255
-0.0894993  -0.562834    1.19348 255 255 255
-0.596497 -0.450607   1.23905 255 255 255
-0.572322 -0.478926   1.21751 255 255 255
-0.930707 -0.176348   1.50334 255 255 255
 0.245193 -0.580054   1.18961 255 255 255
-0.835461 -0.186348   1.36219 255 255 255
 -0.902471 -0.0369598    1.58187 255 255 255
-0.0507371 -0.0898945    1.61287 255 255 255
-0.711368 0.0811383   1.42157 255 255 255
 -0.928094 -0.0381106     1.5357 255 255 255
 -0.099076 -0.0636582    1.59804 255 255 255
-0.0175953  -0.197843    1.62887 255 255 255
-0.724602 0.0488985   1.56412 255 255 255
-0.568573 -0.520212   1.18304 255 255 255
 0.069309 -0.255205   1.59089 255 255 255
  -0.2787 -0.268934   1.71001 255 255 255
 -0.80015 -0.203382   1.23609 255 255 255
-0.439434 -0.415673   1.29666 255 255 255
-0.877634 -0.135929   1.46197 255 255 255
0.000498275   -0.110059     1.64668 255 255 255
-0.269451 -0.367717   1.74655 255 255 255
0.309433 -0.25711  1.49222 255 255 255
-0.516797  0.088403   1.27484 255 255 255
 0.161145 -0.515912   1.17811 255 255 255
-0.162192  -0.19503   1.55287 255 255 255
 -0.826355 -0.0672753    1.38781 255 255 255
-0.794429 -0.231267   1.23974 255 255 255
-0.748316 0.0426051   1.58042 255 255 255
-0.0158817  -0.112181    1.62317 255 255 255
 -0.830928 0.00266042    1.53147 255 255 255
-0.118581 -0.074309   1.58671 255 255 255
-0.627344  -0.48571   1.12433 255 255 255
-0.173989 -0.251583   1.53715 255 255 255
 -0.188859 -0.0973492    1.55821 255 255 255
0.0765263 -0.185593   1.71145 255 255 255
 0.289627 -0.200507   1.45981 255 255 255
-0.386696 -0.305748   1.36962 255 255 255
0.0717512 -0.622907   1.22489 255 255 255
-0.160297 -0.172789   1.62314 255 255 255
-0.627114 -0.500252   1.20769 255 255 255
 -0.613097 -0.0952857     1.1237 255 255 255
-0.634103 -0.422771    2.0227 255 255 255
 0.214274 -0.397362   1.36059 255 255 255
-0.279439 -0.229126    1.4683 255 255 255
-0.200926 -0.100648   1.53915 255 255 255
-0.129773 -0.224527   1.53416 255 255 255
-0.766649 -0.183332   1.30555 255 255 255
-0.310646 -0.284436   1.43788 255 255 255
 -0.552276 0.00650311    1.23388 255 255 255
-0.799458 -0.147613   1.42471 255 255 255
-0.363361 -0.233602   1.40286 255 255 255
 0.222083 -0.603657   1.15328 255 255 255
-0.166841 -0.184295   1.62126 255 255 255
 -0.776826 -0.0347326     1.5091 255 255 255
0.0250734 -0.599234   1.25271 255 255 255
 0.283591 -0.201424   1.71205 255 255 255
0.277289 -0.27206  1.47922 255 255 255
 -0.916279 -0.0259755    1.51177 255 255 255
-0.482963  -0.40659   1.27377 255 255 255
 -0.537938 -0.0311347    1.25075 255 255 255
-0.0394336  -0.168323    1.62131 255 255 255
0.0395464 -0.584828   1.17535 255 255 255
-0.780148 0.0309952   1.52018 255 255 255
-0.328003 -0.269063   1.42479 255 255 255
-0.998974  0.183462   1.79083 255 255 255
-0.0253327  -0.195287    1.62223 255 255 255
-0.521853 -0.530306   1.21235 255 255 255
 -0.829601 -0.0549008    1.49122 255 255 255
-0.213518 -0.312374   1.49549 255 255 255
 0.149347 -0.650439   1.27505 255 255 255
-0.00591367   -0.264918     1.61306 255 255 255
 -0.786408 -0.0245067    1.40034 255 255 255
0.0718441 -0.266897   1.68336 255 255 255
-0.377207 -0.466303   1.34359 255 255 255
-0.424928 -0.372461   1.82544 255 255 255
-0.286889 -0.235455   1.46613 255 255 255
-0.779763  -0.02537   1.44254 255 255 255
-0.189193 -0.146449   1.61718 255 255 255
0.0915755 -0.177528    1.6772 255 255 255
-0.116347 -0.306486   1.54709 255 255 255
 -0.806821 -0.0596605    1.42321 255 255 255
   -0.9051 -0.0376802    1.51373 255 255 255
0.0212715 -0.277924   1.54695 255 255 255
0.0491607  -0.57624   1.15806 255 255 255
 -0.81792 -0.120401    1.4383 255 255 255
 0.265422 -0.569701    1.3626 255 255 255
-0.565579 -0.521814   1.17377 255 255 255
 0.239137 -0.159375   1.72032 255 255 255
-0.168173 -0.180728   1.55326 255 255 255
-0.0555391  -0.103832    1.61595 255 255 255
-0.842214 -0.235909   1.27714 255 255 255
 0.375358 -0.207087   1.73034 255 255 255
-0.0118973  -0.204058    1.62663 255 255 255
-0.811878 -0.274297   1.21806 255 255 255
0.333082 -0.26601  1.70539 255 255 255
-0.0615027  -0.109852    1.61443 255 255 255
0.0379998 -0.617269   1.32193 255 255 255
-0.897261 0.0423373     1.529 255 255 255
0.0451004 -0.279311   1.62995 255 255 255
 0.133218 -0.552425   1.33602 255 255 255
-0.0680536  -0.226585    1.59541 255 255 255
-0.619698 -0.464387   1.22548 255 255 255
-0.829512 -0.155419   1.33991 255 255 255
-0.0289178  -0.267606    1.60532 255 255 255
-0.0177752  -0.440558    1.55913 255 255 255
  -0.1869 -0.168875   1.53953 255 255 255
 0.133153 -0.384985   1.62826 255 255 255
-0.0760978  -0.191916    1.59649 255 255 255
 0.183119 -0.384299   1.63556 255 255 255
-0.376452 -0.266713   1.38792 255 255 255
-0.0235407  -0.146842    1.63387 255 255 255
0.0549583 -0.279466   1.63348 255 255 255
0.0214436 -0.204608   1.63935 255 255 255
-0.849851   -0.2988   1.24554 255 255 255
0.061888 -0.26814  1.55683 255 255 255
-0.294357   -0.3344   1.43254 255 255 255
0.0397807 -0.296276   1.62125 255 255 255
 0.263664 -0.303328   1.77014 255 255 255
-0.149243 -0.192266    1.5568 255 255 255
  0.29002 -0.326854   1.67754 255 255 255
-0.0209095  -0.297609    1.60161 255 255 255
-0.0785145   -0.10106      1.745 255 255 255
0.0993975 -0.564245   1.23951 255 255 255
-0.782089 0.0535095   1.57559 255 255 255
-0.154626  -0.14986   1.60809 255 255 255
    -0.69719 -2.20528e-05      1.47991 255 255 255
-0.777147 0.0356714   1.54881 255 255 255
-0.0801775  -0.091538    1.60708 255 255 255
  0.38173 -0.216029   1.84043 255 255 255
-0.957639 -0.131993   1.57512 255 255 255
0.189547 -0.60692  1.16171 255 255 255
-0.0743064  -0.139519    1.61102 255 255 255
 0.314765 -0.254025   1.47467 255 255 255
-0.0487526  -0.321889    1.57567 255 255 255
 0.122405 -0.413042   1.61381 255 255 255
 -0.13507 -0.188263   1.55236 255 255 255
-0.395165 -0.316382   1.36186 255 255 255
 -0.80373 -0.190971   1.35198 255 255 255
0.0982952 -0.260826   1.59491 255 255 255
0.0363051 -0.205539   1.64075 255 255 255
0.0126781 -0.103308   1.62737 255 255 255
  -0.84798 -0.0172821    1.51876 255 255 255
-0.0529685  -0.155951    1.62351 255 255 255
 -0.130063 -0.0536319    1.60298 255 255 255
0.0796369 -0.279595   1.58152 255 255 255
-0.0178663 -0.0980815    1.75255 255 255 255
0.127813 -0.34447  1.64031 255 255 255
-0.191396 -0.110075    1.5443 255 255 255
  0.20067 -0.634968   1.21872 255 255 255
 0.254282 -0.343038   1.66959 255 255 255
-0.806825 -0.130025   1.48524 255 255 255
 0.264017 -0.357594   1.81647 255 255 255
-0.915156 -0.133319   1.56721 255 255 255
0.0406051 -0.306735   1.69545 255 255 255
-0.126432 -0.276081   1.46416 255 255 255
 -0.587154 -0.0447579    1.17583 255 255 255
0.0389515 -0.176666   1.65303 255 255 255
-0.262962 -0.350039     1.455 255 255 255
 0.313725 -0.321561   1.81064 255 255 255
-0.316175 -0.339424   1.42121 255 255 255
0.0915995 -0.159772   1.68111 255 255 255
-0.458239 -0.348387   1.29978 255 255 255
-0.115425 -0.281204   1.56101 255 255 255
 -0.132244 -0.0925191    1.58193 255 255 255
 0.319366 -0.283018   1.69654 255 255 255
-0.162536 -0.209018   1.53984 255 255 255
 -0.602322 0.00226293    1.12981 255 255 255
-0.785063 -0.045226    1.4421 255 255 255
-0.346507 -0.289622   1.41029 255 255 255
 -0.801942 -0.0134367    1.52528 255 255 255
-0.142595 -0.156054   1.56481 255 255 255
0.00607904  -0.216333    1.64671 255 255 255
-0.471834 -0.356621    1.8523 255 255 255
-0.0533734  -0.138206    1.65027 255 255 255
-0.0637458  -0.147659    1.64455 255 255 255
 -0.06225 -0.330754   1.56849 255 255 255
-0.0695214 -0.0722827     1.6161 255 255 255
-0.0767059 -0.0907804    1.61595 255 255 255
-0.761999 0.0173345   1.56915 255 255 255
-0.584685 0.0157366   1.16959 255 255 255
-0.0632927   -0.28281    1.50662 255 255 255
 -0.100447 -0.0974296    1.60576 255 255 255
 -0.91317 -0.124279     1.489 255 255 255
-0.209002 -0.193287   1.52362 255 255 255
-0.561839 -0.400023   1.18881 255 255 255
-0.844855 0.0335723   1.55872 255 255 255
0.0263944  -0.18945    1.6472 255 255 255
 -0.931467 -0.0232922    1.54555 255 255 255
-0.289419 -0.319481   1.44513 255 255 255
-0.693801 -0.363922   1.09375 255 255 255
 0.119615 -0.580023   1.03604 255 255 255
0.0865817 -0.143006   1.67677 255 255 255
-0.00782643   -0.197972     1.61896 255 255 255
-0.0509212  -0.224234    1.60513 255 255 255
-0.443996 -0.420316   1.28692 255 255 255
 0.210656 -0.167735    1.2615 255 255 255
 -0.780872 -0.0108562    1.51606 255 255 255
-0.851059  0.117265   1.60254 255 255 255
-0.556973 -0.487874    1.1914 255 255 255
 0.148514 -0.132947   1.69534 255 255 255
 0.072734 -0.176643   1.66894 255 255 255
 0.262616 -0.297245   1.68768 255 255 255
-0.0090208  -0.563694    1.22399 255 255 255
0.182325 -0.57377  1.01761 255 255 255
-0.243674 -0.331976   1.47546 255 255 255
-0.785635  0.122619   1.34363 255 255 255
-0.0939306 -0.0539899    1.60063 255 255 255
-0.477342 -0.384496   1.27988 255 255 255
0.0585786 -0.330202   1.71276 255 255 255
 -0.704318 -0.0463826     1.4514 255 255 255
0.000463043   -0.296265     1.66463 255 255 255
-0.816262 0.0844966   1.62369 255 255 255
-0.786972 -0.197903   1.28648 255 255 255
-0.219407 -0.304799   1.49586 255 255 255
-0.828125 -0.141315   1.36305 255 255 255
-0.00752136   -0.225714     1.62304 255 255 255
 0.227412 -0.165185   1.71652 255 255 255
 -0.184411 -0.0996085    1.54345 255 255 255
-0.909959 0.0893427   1.76115 255 255 255
 0.171882 -0.157546   1.70145 255 255 255
 0.145373 -0.362074   1.63777 255 255 255
-0.172013 -0.252467     1.652 255 255 255
 -0.748608 -0.0473298    1.45067 255 255 255
-0.610626 -0.506427   1.19827 255 255 255
-0.456077 -0.429062   1.28956 255 255 255
-0.193903 -0.166357   1.61576 255 255 255
-0.924959 0.0786168   1.57616 255 255 255
 0.173199 -0.425931   1.61776 255 255 255
 0.347458 -0.256308   1.71911 255 255 255
-0.519277 -0.419264     1.235 255 255 255
-0.628388 -0.498552   1.11038 255 255 255
 -0.79287 0.0368037   1.51814 255 255 255
-0.386848 -0.452541   1.33964 255 255 255
-0.400819 -0.337117   1.35347 255 255 255
-0.263866 -0.370324     1.448 255 255 255
-0.12364 -0.18514  1.44147 255 255 255
 -0.887894 -0.0916056     1.4696 255 255 255
-0.562737 -0.488064    1.1823 255 255 255
 -0.91315 0.0801995   1.52876 255 255 255
-0.594655 -0.490138   1.14639 255 255 255
 0.238933 -0.459701   1.28715 255 255 255
-0.684134 -0.507895    1.2194 255 255 255
 -0.510085 -0.0123584    1.29429 255 255 255
-0.278403 -0.286652   1.46279 255 255 255
-0.423972 -0.307347   1.33835 255 255 255
  -0.10808 -0.0806157    1.59152 255 255 255
-0.656172 -0.460821   1.24731 255 255 255
-0.0341104  -0.120082    1.62361 255 255 255
0.0306881 -0.163915   1.73783 255 255 255
 0.295999 -0.318256   1.68755 255 255 255
-0.825069 0.0438964   1.50279 255 255 255
-0.984954 -0.111031   1.57008 255 255 255
-0.0503449  -0.240389    1.59826 255 255 255
-0.845848 0.0067387   1.54463 255 255 255
-0.0150569  -0.334273    1.59582 255 255 255
-0.949725 -0.123844   1.57517 255 255 255
0.0440613 -0.246271   1.64026 255 255 255
-0.664481 -0.498333   1.09141 255 255 255
-0.839721 -0.347256   1.24717 255 255 255
 0.314221 -0.136626   1.48738 255 255 255
-0.664378 0.0703246    1.5185 255 255 255
  0.28516 -0.284339   1.77172 255 255 255
 0.222946 -0.139477   1.71373 255 255 255
-0.635741 -0.482404   1.10301 255 255 255
-0.164211 -0.151845   1.55713 255 255 255
 -0.826735 -0.0649803    1.54396 255 255 255
-0.838464 -0.217623    1.2928 255 255 255
 0.365707 -0.176953   1.74204 255 255 255
-0.268708 -0.236389   1.47224 255 255 255
  0.11296 -0.495289    1.2756 255 255 255
-0.542543  0.109912   1.23015 255 255 255
-0.230665 -0.207285   1.63736 255 255 255
 -0.029551 -0.0840693    1.63228 255 255 255
 0.248287 -0.449812   1.33187 255 255 255
0.0140709 -0.187169    1.6409 255 255 255
0.0953631 -0.240393   1.61078 255 255 255
-0.829285 -0.178812   1.39215 255 255 255
 -0.877964 0.00274778    1.54282 255 255 255
-0.834368  0.115155   1.58526 255 255 255
 0.219414 -0.603571   1.15859 255 255 255
-0.396867 -0.322578   1.35991 255 255 255
 0.230556 -0.145093    1.7214 255 255 255
-0.913564    0.1153   1.68375 255 255 255
 0.321891 -0.133552   1.49172 255 255 255
0.0195908 -0.379261   1.59042 255 255 255
 -0.61893 -0.494298   1.11959 255 255 255
-0.0240238  -0.107802    1.62213 255 255 255
0.0938228 -0.611249   1.18694 255 255 255
-0.0102728  -0.368871    1.57984 255 255 255
-0.513993 -0.423425   1.24527 255 255 255
-0.0853388 -0.0558171    1.60513 255 255 255
 0.232088 -0.542892   1.26935 255 255 255
-0.429289 -0.417302    1.3162 255 255 255
  0.21572 -0.132699   1.71863 255 255 255
-0.356826 -0.259478   1.40595 255 255 255
 -0.84373 0.0410817   1.49248 255 255 255
-0.628879 -0.507599   1.12373 255 255 255
-0.818961 -0.222141   1.27522 255 255 255
  -0.06156 -0.0622752    1.61661 255 255 255
-0.0379537  -0.192633    1.63678 255 255 255
-0.0422989  -0.339196    1.57751 255 255 255
-0.846817   -0.1989   1.33583 255 255 255
-0.0366112  -0.325541    1.58504 255 255 255
0.0986003  -0.25157   1.58861 255 255 255
-0.575073 -0.441226   1.16869 255 255 255
 -0.72893 0.0966935   1.54364 255 255 255
-0.783134  -0.32122   1.29814 255 255 255
-0.0615034  -0.109851    1.61443 255 255 255
-0.778161 -0.214316   1.31158 255 255 255
 0.125337 -0.592006   1.30257 255 255 255
-0.415336 -0.347467   1.34178 255 255 255
-0.911004 -0.362118   1.22782 255 255 255
-0.900356 -0.349829   1.22904 255 255 255
0.238638 -0.15365  1.74102 255 255 255
 -0.129639 -0.0696684    1.59886 255 255 255
-0.840334 -0.200134   1.36635 255 255 255
-0.186617 -0.311021   1.68731 255 255 255
-0.531068 -0.500558   1.20691 255 255 255
-0.933224 -0.382924    1.2339 255 255 255
 -0.782113 -0.0874475    1.44733 255 255 255
-0.734984  0.105679   1.52578 255 255 255
-0.660637 0.0643881   1.87297 255 255 255
-0.403847 -0.271586   1.37346 255 255 255
 0.322075 -0.251249    1.4555 255 255 255
-0.412031 -0.279914   1.35814 255 255 255
-0.438496 -0.377029   1.31529 255 255 255
-0.495752 0.0583867    1.2922 255 255 255
 0.111579 -0.148929   1.68396 255 255 255
-0.886521  0.108131   1.64925 255 255 255
-0.233266 -0.285058    1.7454 255 255 255
-0.106457 -0.207281    1.5798 255 255 255
-0.0394564  -0.100825    1.62092 255 255 255
 0.062052 -0.227168   1.65046 255 255 255
-0.128696 -0.108803   1.60258 255 255 255
-0.410326 -0.334116   1.82956 255 255 255
0.0364532 -0.169357   1.64579 255 255 255
-0.385312  -0.27077   1.75112 255 255 255
 -0.48972 0.0992231   1.30946 255 255 255
-0.0607429 -0.0694242    1.60781 255 255 255
 -0.40779 -0.311907   1.78108 255 255 255
-0.895515 -0.210836   1.35941 255 255 255
-0.072993 -0.246082    1.6516 255 255 255
-0.0792285  -0.328494     1.6833 255 255 255
-0.0385896  -0.302203    1.58749 255 255 255
-0.895908 -0.358035   1.22486 255 255 255
 0.26223 -0.27868  1.68857 255 255 255
-0.0405299  -0.251862    1.63844 255 255 255
-0.480731 -0.405303   1.27236 255 255 255
0.0450225  -0.30193     1.697 255 255 255
-0.355449 -0.432922   1.36581 255 255 255
 -0.118152 -0.0551258    1.59513 255 255 255
-0.400101 -0.284935   1.36225 255 255 255
 -0.497896 -0.0243425    1.29888 255 255 255
 -0.140369 -0.0773913    1.57097 255 255 255
0.0852557 -0.118059   1.65074 255 255 255
-0.548529 -0.473653   1.19613 255 255 255
-0.857155 -0.135174   1.54119 255 255 255
 -0.201175 -0.0975083    1.61186 255 255 255
-0.247692 -0.380952    1.4611 255 255 255
0.0718632  -0.27643   1.57077 255 255 255
-0.676666 -0.500415   1.13879 255 255 255
 -0.878448 -0.0345408    1.62937 255 255 255
-0.021605 -0.227721   1.61105 255 255 255
-0.167983 -0.193552    1.6319 255 255 255
-0.240299 -0.244533   1.66707 255 255 255
0.00508176  -0.198888     1.6505 255 255 255
 -0.17866 -0.149977   1.60881 255 255 255
 0.112888 -0.370236   1.62644 255 255 255
-0.481734 -0.399328   1.27266 255 255 255
-0.526953  0.057892   1.26819 255 255 255
 0.246043 -0.344757   1.66918 255 255 255
0.0786611 -0.203784   1.65774 255 255 255
-0.548395 -0.495284   1.19302 255 255 255
-0.374884  -0.41433   1.35881 255 255 255
-0.104959 -0.307904   1.56304 255 255 255
-0.216952 -0.196948   1.51688 255 255 255
-0.0907525  -0.351588    1.55513 255 255 255
-0.680415 -0.515119   1.17568 255 255 255
-0.681855 -0.443858   1.24351 255 255 255
-0.724862 -0.512631    1.1709 255 255 255
-0.385851 -0.267869    1.3802 255 255 255
-0.566746 -0.523795   1.17418 255 255 255
-0.0994598  -0.276601    1.56742 255 255 255
-0.582183 -0.481996   1.17389 255 255 255
0.0722496 -0.604713   1.30459 255 255 255
-0.525492 -0.537471   1.22082 255 255 255
-0.501915 -0.531607   1.15182 255 255 255
-0.379304 -0.258927   1.38584 255 255 255
-0.745815 -0.512686   1.20949 255 255 255
-0.624871 -0.457566   1.23324 255 255 255
-0.0570863  -0.274256    1.60582 255 255 255
-0.254829 -0.312783   1.71628 255 255 255
-0.441204 -0.415215   1.31303 255 255 255
-0.361579 -0.265396   1.39629 255 255 255
-0.00524788   -0.340897     1.59611 255 255 255
-0.140933 -0.320668   1.53839 255 255 255
-0.450974  -0.33094   1.80064 255 255 255
-0.0414867  -0.269247    1.52622 255 255 255
0.0618293 -0.324452   1.72847 255 255 255
-0.719885 -0.491484   1.12133 255 255 255
0.0531074 -0.131207   1.66869 255 255 255
-0.0424224  -0.187396    1.63374 255 255 255
-0.117168 -0.240309   1.68292 255 255 255
0.0432556 -0.200038   1.63213 255 255 255
 0.361011 -0.277218   1.74114 255 255 255
-0.173105 -0.127142   1.54808 255 255 255
-0.0679638 -0.0490492    1.61131 255 255 255
 0.432913 -0.269591   1.88501 255 255 255
 0.277479 -0.354517   1.79979 255 255 255
-0.156855 -0.223688   1.63741 255 255 255
 -0.059273 -0.0521782    1.62456 255 255 255
 0.131602 -0.103539   1.66801 255 255 255
 -0.128612 -0.0447977    1.58387 255 255 255
 -0.109198 -0.0994288    1.60176 255 255 255
-0.194989 -0.108744   1.60788 255 255 255
-0.250418 -0.354584   1.73856 255 255 255
-0.0460357 -0.0982816    1.63245 255 255 255
-0.0842653  -0.110182    1.60726 255 255 255
-0.0502634  -0.271832    1.64352 255 255 255
 0.406326 -0.261743   1.71883 255 255 255
 0.081771 -0.080774   1.68027 255 255 255
-0.0164686  -0.280648    1.63677 255 255 255
-0.0763962  -0.274645    1.67154 255 255 255
-0.215289 -0.295284   1.49555 255 255 255
 0.0625081 -0.0906291    1.60399 255 255 255
-0.115911 -0.048579   1.58929 255 255 255
-0.0633103 -0.0352573    1.60742 255 255 255
 0.0912688 -0.0855645    1.67903 255 255 255
-0.0425195   -0.12808    1.62172 255 255 255
-0.0200579 -0.0858083    1.62997 255 255 255
-0.384446 -0.281738   1.73632 255 255 255
0.0454333 -0.225847   1.64616 255 255 255
  0.27815 -0.302487   1.78133 255 255 255
-0.435425 -0.339651   1.80964 255 255 255
-0.215757 -0.109393   1.60982 255 255 255
-0.446212 -0.344715   1.81505 255 255 255
0.0633091 -0.148845    1.6258 255 255 255
-0.211298 -0.210347   1.63395 255 255 255
 0.273489 -0.265208   1.78092 255 255 255
-0.174696 -0.219947   1.65501 255 255 255
 0.101138 -0.128827   1.64926 255 255 255
-0.128773 -0.108712   1.60266 255 255 255
-0.149292 -0.236469   1.63575 255 255 255
-0.171653 -0.275442    1.6738 255 255 255
 -0.19496 -0.179864   1.53045 255 255 255
-0.0142544   -0.25056    1.59101 255 255 255
-0.230283 -0.183138   1.61892 255 255 255
 0.243066 -0.279068   1.68839 255 255 255
-0.369444 -0.334941   1.77038 255 255 255
0.0594233 -0.265313   1.56834 255 255 255
 0.358981 -0.177231   1.84042 255 255 255
 0.430469 -0.278528   1.87133 255 255 255
0.0714351 -0.266378   1.67945 255 255 255
 -0.133461 -0.0939798    1.58245 255 255 255
-0.108113 -0.308116   1.68099 255 255 255
0.127287 -0.11191  1.68821 255 255 255
-0.0449194  -0.139105    1.61865 255 255 255
-0.00888048   -0.212161     1.62654 255 255 255
-0.0658198  -0.294055    1.58295 255 255 255
 -0.154385 -0.0313471    1.59965 255 255 255
 -0.149166 -0.0766067    1.59797 255 255 255
-0.414551   -0.3534   1.80745 255 255 255
 -0.194603 -0.0424331    1.55496 255 255 255
-0.0807474 -0.0693687    1.60622 255 255 255
 0.280281 -0.323521   1.71284 255 255 255
 0.253531 -0.243962   1.76851 255 255 255
 0.444328 -0.294537   1.89655 255 255 255
-0.0150116 -0.0938345     1.5673 255 255 255
 0.138808 -0.111695   1.69005 255 255 255
 0.313196 -0.310382   1.80248 255 255 255
-0.0171041  -0.270208    1.50599 255 255 255
-0.105109  -0.20071   1.63585 255 255 255
0.344234 -0.34086  1.83265 255 255 255
-0.0149278  -0.313942    1.68509 255 255 255
 0.444046 -0.267846   1.88759 255 255 255
0.0601899 -0.189773   1.65755 255 255 255
0.415578 -0.34736  1.88741 255 255 255
-0.0954959 -0.0916902     1.6031 255 255 255
-0.0708202 -0.0794401    1.61136 255 255 255
0.0765994 -0.198012    1.6532 255 255 255
0.0853649 -0.118322   1.65013 255 255 255
 -0.132492 -0.0998256    1.60331 255 255 255
-0.150418 -0.154438   1.61187 255 255 255
-0.0851484  -0.116259    1.60453 255 255 255
 0.251972 -0.301137   1.75645 255 255 255
 -0.117411 -0.0689988    1.59587 255 255 255
-0.212842 -0.234163   1.64492 255 255 255
-0.0410481  -0.260379    1.61168 255 255 255
 0.267987 -0.219944   1.75294 255 255 255
 0.291248 -0.375835   1.81394 255 255 255
 -0.138998 -0.0661766    1.60569 255 255 255
 0.113529 -0.117645   1.69491 255 255 255
 0.418346 -0.252707   1.86941 255 255 255
-0.816237 0.0515863   1.47233 255 255 255
-0.165452  0.197414   1.51606 255 255 255
 -0.606551 -0.0318525    1.13647 255 255 255
0.0861108 -0.143391   1.67714 255 255 255
-0.501939  0.129034   1.35916 255 255 255
 0.0575546 -0.0962919    1.67459 255 255 255
-0.00742979   -0.198934     1.61835 255 255 255
 -0.579247 -0.0690817    1.18067 255 255 255
-0.100414 -0.335735   1.55671 255 255 255
 0.0342619 -0.0783067    1.67402 255 255 255
-0.390697  0.161169   1.41578 255 255 255
0.0724757 -0.171979   1.63977 255 255 255
-0.284784   0.21896   1.47189 255 255 255
-0.0111358  0.0135591    1.66168 255 255 255
-0.761153  0.195087   1.26895 255 255 255
-0.464794  0.162665   1.37332 255 255 255
0.0801368 -0.226857   1.61652 255 255 255
-0.0383639  -0.177708    1.66399 255 255 255
 -1.01798 0.0657208   1.57495 255 255 255
-0.0422201 -0.0156636    1.61679 255 255 255
  0.127696 -0.0508911    1.70661 255 255 255
 0.0542669 -0.0898273    1.64497 255 255 255
 -0.49203 0.0685568   1.31247 255 255 255
  0.147348 -0.0377065    1.71318 255 255 255
-0.759682  0.132312   1.45792 255 255 255
-1.09984 -0.01095  1.68499 255 255 255
-0.357852  0.168785   1.43579 255 255 255
  0.137856 -0.0705188    1.67488 255 255 255
 0.134061 -0.179837   1.68643 255 255 255
0.00799921  0.0291641    1.58762 255 255 255
-0.0817278 -0.0113471    1.60881 255 255 255
-0.0508518    0.02707    1.61563 255 255 255
-0.193629   0.18256   1.48559 255 255 255
-0.362307  0.186261   1.44883 255 255 255
 -1.02157 0.0174734   1.62361 255 255 255
-0.992408 0.0109236   1.60661 255 255 255
0.0356627 -0.126807   1.59903 255 255 255
-0.412855  0.165911   1.40332 255 255 255
-0.398637  0.176214   1.40957 255 255 255
-0.443588  0.114035   1.35743 255 255 255
 0.0280472 0.00141331    1.67813 255 255 255
-0.465398  0.186609   1.36441 255 255 255
 -1.05287 0.0147724   1.64423 255 255 255
 0.0999803 -0.0242354    1.64349 255 255 255
-0.431336  0.140141   1.37479 255 255 255
  -1.15368 -0.0323185    1.68985 255 255 255
0.0164354 0.0154249   1.58826 255 255 255
-0.0631598  -0.337957    1.56084 255 255 255
  -1.14258 -0.0655237    1.69666 255 255 255
-0.0180365  -0.367741    1.57026 255 255 255
  -1.17502 -0.0737923    1.70592 255 255 255
-0.470093   0.15061    1.3239 255 255 255
 -0.604956 -0.0637734     1.1449 255 255 255
-0.43795 0.136476  1.37167 255 255 255
-0.0142426  0.0469395    1.57974 255 255 255
0.0725051 -0.302814    1.6301 255 255 255
 -0.0624089 -0.00236047     1.61491 255 255 255
 0.085465 -0.249379   1.58377 255 255 255
   0.107745 -0.00608873     1.68808 255 255 255
0.0314141 -0.228132   1.63786 255 255 255
-0.299099   0.12941   1.48013 255 255 255
-0.479653 0.0582382   1.33114 255 255 255
0.0972141   0.03515   1.68282 255 255 255
-0.454412  0.180972   1.37346 255 255 255
-0.400094  0.142585   1.41395 255 255 255
-0.184765   0.18755   1.49224 255 255 255
-0.770807   0.12027   1.45717 255 255 255
-0.299508  0.221592   1.46156 255 255 255
-0.133988 -0.190747   1.56375 255 255 255
-0.0315169  0.0303375    1.62942 255 255 255
 -0.053334 -0.0356924    1.59649 255 255 255
-0.211033  0.241728   1.51837 255 255 255
-0.796453 0.0646875   1.56436 255 255 255
0.0765048 -0.140519   1.67665 255 255 255
-0.544049 0.0353232   1.24907 255 255 255
-0.0136346  -0.339175    1.57835 255 255 255
-0.427786  0.105806   1.38137 255 255 255
-0.620612 -0.056378   1.12923 255 255 255
-0.00380078   0.0562901     1.66124 255 255 255
   -1.12574 0.000510838     1.65774 255 255 255
-0.0672774 -0.0436491    1.76055 255 255 255
-0.660252 0.0960443   1.58016 255 255 255
-0.0745314  -0.121357    1.61627 255 255 255
0.0749457 0.0253056   1.67404 255 255 255
  0.137021 -0.0314647    1.70751 255 255 255
-0.0207416  -0.219366    1.62084 255 255 255
 -0.536858 -0.0646406    1.23367 255 255 255
-0.416963  0.140914   1.40863 255 255 255
-0.114981 -0.347574   1.54065 255 255 255
 0.0646771 -0.0657352    1.63453 255 255 255
-0.409752  0.145516   1.40935 255 255 255
-0.412189  0.157033    1.4058 255 255 255
 -1.01651 0.0619207   1.61589 255 255 255
-0.401789  0.123275   1.42148 255 255 255
-0.0795347   -0.11683    1.61246 255 255 255
   -0.52976 -0.00700161     1.33809 255 255 255
-0.0283436  -0.191018    1.65822 255 255 255
-0.454136  0.113695   1.35148 255 255 255
-0.00405781   -0.227847     1.62649 255 255 255
-0.0610131  -0.148263    1.61338 255 255 255
-0.259522 -0.396544   1.42156 255 255 255
-0.0412473    0.02795    1.62475 255 255 255
0.0492602 0.0189833   1.60472 255 255 255
  0.0843778 -0.00429705     1.69784 255 255 255
 -0.574045 -0.0747612     1.2218 255 255 255
 0.0909951 -0.0286044      1.644 255 255 255
 -0.828982 -0.0547427    1.49003 255 255 255
 -1.14117 -0.037292   1.69285 255 255 255
-0.152004 -0.185141   1.55283 255 255 255
 -0.618953 -0.0125115     1.1319 255 255 255
-0.379285  0.167658    1.4225 255 255 255
-0.0263875  -0.323073    1.59244 255 255 255
 0.013474 -0.151559    1.7115 255 255 255
-0.442946  0.145853   1.35945 255 255 255
-0.0625536 0.00823042    1.61111 255 255 255
-0.488252  0.147591   1.30568 255 255 255
 -0.739077 -0.0173766    1.37005 255 255 255
 -0.0721294 0.000498225     1.61014 255 255 255
-0.430132  0.188233   1.38604 255 255 255
-0.237023 -0.344912     1.455 255 255 255
0.0469123 -0.305651   1.71247 255 255 255
 0.122717 -0.187481   1.68117 255 255 255
-0.770114 -0.188302    1.3475 255 255 255
-0.184672  0.251738   1.53438 255 255 255
0.0832887 -0.190363   1.66872 255 255 255
0.0926913 -0.184962   1.67108 255 255 255
-0.0584665 -0.0292545    1.61727 255 255 255
-0.0728453  -0.234069    1.58332 255 255 255
-0.529197  0.127099   1.25121 255 255 255
 -0.33876 -0.357058   1.37007 255 255 255
-0.277347 -0.299233   1.43893 255 255 255
 0.126893 -0.191455   1.67912 255 255 255
-0.380092  0.222507   1.43843 255 255 255
 0.0405967 -0.0974814    1.77821 255 255 255
-0.0296046  -0.372235    1.56411 255 255 255
0.0847951 -0.274504   1.61527 255 255 255
0.0462192 0.0315982   1.66206 255 255 255
-0.396522  0.134271   1.41895 255 255 255
-0.394943  0.130678   1.45068 255 255 255
 -0.594242 -0.0613213    1.16638 255 255 255
-0.0750957 -0.0809071    1.61811 255 255 255
-0.278602 -0.335512   1.44999 255 255 255
 -0.0275037 -0.00987844     1.56764 255 255 255
-0.0705665 -0.0651899    1.61734 255 255 255
-0.417511  0.150233   1.40577 255 255 255
-0.350773  0.187341   1.43372 255 255 255
-0.0533604  -0.200751    1.61142 255 255 255
-0.0943748  -0.340286    1.55323 255 255 255
-0.693747 -0.399969   1.23584 255 255 255
 0.248965 -0.508669   1.12062 255 255 255
-0.412006 -0.265675   1.35598 255 255 255
-0.422858 -0.341386   1.33796 255 255 255
-0.654359 -0.492893   1.08659 255 255 255
-0.579178 -0.531851   1.16145 255 255 255
-0.395529 -0.472504   1.32896 255 255 255
-0.569893 -0.554449   1.21373 255 255 255
-0.662173 -0.414741   1.24402 255 255 255
-0.00523338   -0.211765     1.59302 255 255 255
-0.524553 -0.524762   1.21294 255 255 255
0.0138823 -0.418273   1.57418 255 255 255
 0.188188 -0.336582   1.68738 255 255 255
 0.194025 -0.329776   1.67674 255 255 255
-0.516733  -0.45193     1.229 255 255 255
-0.270601 -0.238262   1.47398 255 255 255
-0.227582 -0.282243   1.68025 255 255 255
 0.144106 -0.250254   1.67945 255 255 255
-0.0101305  0.0578839    1.63691 255 255 255
 0.191727 -0.166506   1.70461 255 255 255
 -0.112509 -0.0790018    1.58095 255 255 255
-0.312818 -0.172341   1.50361 255 255 255
-0.335606 -0.108254   1.48937 255 255 255
 0.157119 0.0314401   1.70761 255 255 255
-0.235346 -0.169352   1.53903 255 255 255
-0.0365247 -0.0478048    1.62532 255 255 255
-0.184531 -0.116598    1.5629 255 255 255
 -0.159653 -0.0581963    1.57293 255 255 255
 -0.279557 -0.0770367    1.51754 255 255 255
-0.247662 0.0411219   1.52504 255 255 255
-0.399593  -0.12125   1.45906 255 255 255
-0.0880335  -0.269503    1.57962 255 255 255
-0.438388  0.148564   1.39423 255 255 255
  -0.06809 -0.0165627    1.61239 255 255 255
-0.503004  0.143758   1.27663 255 255 255
 -0.264706 -0.0160352    1.51918 255 255 255
 0.200395 -0.115434   1.71508 255 255 255
-0.492199 0.0156251   1.38633 255 255 255
-0.249486  0.104182   1.51682 255 255 255
 0.042774 0.0537142   1.65741 255 255 255
-0.0685187   0.126653    1.60396 255 255 255
-0.300009 -0.122466    1.5084 255 255 255
-0.274803 -0.180333   1.51993 255 255 255
 0.199893 -0.239112   1.69723 255 255 255
-0.43127 -0.16066  1.44615 255 255 255
-0.264518 -0.217736   1.52673 255 255 255
-0.514287  0.106041   1.27608 255 255 255
 -0.127806 -0.0221129    1.58558 255 255 255
-0.357804 0.0420775   1.46387 255 255 255
-0.0985066 -0.0357311    1.60249 255 255 255
-0.258388 0.0760996     1.509 255 255 255
 0.0360374 -0.0327348    1.65683 255 255 255
-0.00487062    -0.16473     1.62712 255 255 255
-0.215732  0.139269   1.52456 255 255 255
-0.200203  0.106869   1.53804 255 255 255
-0.156512  0.125848   1.55814 255 255 255
-0.353369  0.138446   1.45315 255 255 255
-0.485846 -0.163127   1.42245 255 255 255
 -0.247802 -0.0457568    1.53102 255 255 255
-0.040152 -0.373313   1.55668 255 255 255
-0.191541 -0.128803    1.6108 255 255 255
-0.0880978   0.100943    1.59638 255 255 255
 0.376451 -0.189639   1.74444 255 255 255
 -0.343792 -0.0851922    1.48757 255 255 255
-0.441339 -0.114031   1.42811 255 255 255
0.0717062 -0.122728   1.67738 255 255 255
-0.0111358  0.0135591    1.66168 255 255 255
  0.205903 -0.0450471    1.72527 255 255 255
-0.154641 -0.010942   1.57768 255 255 255
 -0.395573 -0.0631219     1.4524 255 255 255
 0.161333 -0.315397   1.67404 255 255 255
  0.151214 -0.0501421    1.66999 255 255 255
 -0.494577 -0.0321126    1.39653 255 255 255
-0.0668346  0.0964299    1.60661 255 255 255
-0.0904691  0.0255527    1.59869 255 255 255
-0.181583 0.0810404   1.55788 255 255 255
 0.230049 0.0139913   1.74227 255 255 255
-0.0998326  0.0745307    1.59375 255 255 255
-0.167662 0.0434914   1.55804 255 255 255
-0.289826  0.064894   1.49487 255 255 255
0.0350048 -0.258096   1.63856 255 255 255
 0.113909 -0.277996   1.66663 255 255 255
-0.382794 -0.208356   1.47523 255 255 255
-0.308712 0.0998024    1.4815 255 255 255
   -0.3228 0.00498817    1.49034 255 255 255
-0.249402  -0.19032   1.53354 255 255 255
 -0.259947 -0.0893315    1.52249 255 255 255
 -0.43596 0.0498223   1.41814 255 255 255
 0.0215434 -0.0575308     1.6513 255 255 255
  0.296978 -0.0240089    1.76159 255 255 255
-0.133565 -0.179954   1.57623 255 255 255
-0.411385 0.0185856   1.45015 255 255 255
  0.254362 -0.0392417    1.74232 255 255 255
 -0.584876 -0.0579329    1.21491 255 255 255
-0.110315  0.122981   1.58186 255 255 255
0.187715  -0.2641  1.69264 255 255 255
  0.17353 0.0527273   1.71397 255 255 255
-0.452117 0.0959877   1.35312 255 255 255
  0.342754 -0.0279376    1.78035 255 255 255
 0.347985 -0.157567   1.76614 255 255 255
-0.557724 0.0677962   1.18606 255 255 255
-0.18332 0.156291  1.54213 255 255 255
 -0.496958 -0.0822951    1.40511 255 255 255
 -0.374277 -0.0612626    1.46342 255 255 255
  0.128598 0.00415113    1.70883 255 255 255
-0.241652 0.0698335   1.52736 255 255 255
-0.468775 0.0924682   1.38783 255 255 255
-0.425543 -0.186853   1.44958 255 255 255
-0.341211  0.116138   1.45937 255 255 255
-0.224521  0.062214   1.53356 255 255 255
-0.132841 -0.120688   1.57455 255 255 255
 -0.452123 -0.0619742    1.42436 255 255 255
-0.448532  0.170058   1.38094 255 255 255
-0.119258  0.022043   1.59053 255 255 255
 0.161561 -0.334956   1.67195 255 255 255
-0.207977 0.0654698   1.54036 255 255 255
-0.48735 0.070536  1.39327 255 255 255
-0.436766 -0.063794   1.43008 255 255 255
-0.413522 0.0729125   1.42785 255 255 255
 -0.50297 -0.468872    1.2474 255 255 255
-0.268207  0.143454   1.49587 255 255 255
-0.0834713  0.0839252    1.60075 255 255 255
 0.178003 -0.241594   1.69241 255 255 255
 0.181741 0.0142189   1.71264 255 255 255
 0.242667 -0.121845   1.73344 255 255 255
-0.298445 0.0902241   1.48989 255 255 255
-0.441716  0.165418   1.35594 255 255 255
0.00547235  0.0771625    1.64002 255 255 255
-0.385315 0.0711169   1.44314 255 255 255
-0.0756801 -0.0353205    1.60959 255 255 255
-0.280683 0.0822739    1.5029 255 255 255
-0.386935 -0.327228   1.37603 255 255 255
-0.365541 -0.126101   1.47627 255 255 255
-0.00495219 -0.00171137     1.64331 255 255 255
-0.374612 -0.151806   1.47317 255 255 255
-0.483313 0.0530187   1.32819 255 255 255
-0.00183632   0.0915552     1.63766 255 255 255
-0.221696 0.0459164   1.54427 255 255 255
-0.178643  0.051289   1.55627 255 255 255
-0.224022  0.101826   1.52952 255 255 255
-0.527648 -0.440367   1.22008 255 255 255
 0.347458 -0.256308   1.71911 255 255 255
 0.0241681 -0.0374352    1.65127 255 255 255
 0.219169 -0.212536   1.70998 255 255 255
 -0.495278 -0.0649659    1.40819 255 255 255
  0.273578 -0.0165539      1.752 255 255 255
-0.344504 0.0266388   1.47578 255 255 255
 -0.478803 -0.0382015    1.40719 255 255 255
 0.314329 -0.147388   1.75153 255 255 255
-0.235157  0.119044   1.51849 255 255 255
  0.14324 -0.209507   1.68489 255 255 255
-0.199802 0.0509154   1.54653 255 255 255
0.0768325 0.0403346   1.61016 255 255 255
  0.0616032 0.000421542      1.6702 255 255 255
-0.234368 0.0856067   1.52547 255 255 255
  0.203442 -0.0611671    1.69267 255 255 255
-0.123409  0.134794   1.57347 255 255 255
0.0906513 -0.294517   1.65607 255 255 255
 -0.290211 -0.0017961    1.50627 255 255 255
-0.268746 -0.284307   1.46682 255 255 255
-0.0404401  0.0147461    1.63905 255 255 255
-0.573304 0.0404937   1.18263 255 255 255
-0.322612 -0.216548   1.49914 255 255 255
-0.291219 0.0397617   1.50109 255 255 255
 -0.504979 -0.0949985    1.40029 255 255 255
 0.221109 -0.240025   1.70628 255 255 255
-0.356959  0.112926   1.45087 255 255 255
 0.259757 -0.055282   1.74525 255 255 255
 0.348029 -0.152272   1.76911 255 255 255
 0.0140124 -0.0806295    1.64508 255 255 255
-0.0938579  -0.135438    1.60092 255 255 255
 -0.434819 -0.0342002    1.43177 255 255 255
-0.448458 0.0375124   1.41392 255 255 255
 0.127235 -0.269432   1.67227 255 255 255
  0.106516 -0.0243272    1.68553 255 255 255
 -0.324399 -0.0680288    1.49388 255 255 255
-0.113329 0.0792478   1.58735 255 255 255
  -0.234584 -0.00526133     1.53628 255 255 255
   0.110809 -0.00549991      1.7058 255 255 255
-0.342682 -0.409515   1.38726 255 255 255
 -0.12742 0.0295647   1.58044 255 255 255
-0.478673  0.156321   1.31288 255 255 255
 -0.164327 0.00804973    1.56793 255 255 255
-0.170381  0.061493   1.56056 255 255 255
-0.414278 0.0402622   1.43347 255 255 255
 0.390201 -0.274079   1.75533 255 255 255
 0.198163 -0.281757    1.6925 255 255 255
 -0.38723 0.0861297   1.43888 255 255 255
-0.447098  0.129193   1.35769 255 255 255
 -0.14936 0.0214794   1.57141 255 255 255
-0.132776 0.0728362   1.57855 255 255 255
 0.206577 -0.218499   1.70429 255 255 255
  0.214289 0.00853247    1.73032 255 255 255
 0.130352 -0.258369   1.67374 255 255 255
 0.356206 -0.134486   1.76972 255 255 255
-0.259879 0.0544361   1.51704 255 255 255
0.022189 -0.17729  1.64266 255 255 255
 0.129538 -0.320762    1.6687 255 255 255
