ply
format ascii 1.0
element vertex 1215
property float x
property float y
property float z
property uchar red
property uchar green
property uchar blue
end_header
  1.95855 -0.908509   1.50482 255 255 255
  1.74001 -0.979135   1.49737 255 255 255
 0.949191 -0.739126   1.40226 255 255 255
 0.949583 -0.739087   1.39936 255 255 255
 0.845384 -0.921246   1.26654 255 255 255
 0.728725 -0.699658   1.20708 255 255 255
1.42533 -1.0521   1.438 255 255 255
   0.7032 -0.877066   1.26737 255 255 255
  1.56257 -0.849091   1.40007 255 255 255
 0.632695 -0.141749   1.33939 255 255 255
  1.6793 -1.21217  1.49432 255 255 255
 1.29241 -1.32918  1.48457 255 255 255
  1.13521 -0.387828   1.37841 255 255 255
  1.19019 -0.338532   1.38548 255 255 255
1.17582 -1.2667 1.43501 255 255 255
 0.768706 -0.659603   1.20871 255 255 255
  1.18267 -0.259253   1.36117 255 255 255
 0.863272 -0.653626   1.20495 255 255 255
 1.47902 -1.22735  1.48192 255 255 255
  1.19455 -0.367087   1.39392 255 255 255
 0.846443 -0.642761   1.20204 255 255 255
 1.71194 -1.30958  1.49889 255 255 255
1.72184 -1.3391 1.49884 255 255 255
 0.899903 -0.304258   1.35912 255 255 255
  1.4861 -1.37935  1.48026 255 255 255
0.973226 -1.22836  1.45185 255 255 255
 0.792291 -0.840895   1.26762 255 255 255
 1.27795 -1.17601  1.43863 255 255 255
 1.05203 -0.36341   1.3513 255 255 255
  1.46845 -0.546559   1.41605 255 255 255
 0.701732 -0.758973   1.20758 255 255 255
  1.96216 -0.896263   1.50311 255 255 255
 1.09035 -1.09184  1.43067 255 255 255
 0.673307 -0.659711   1.20523 255 255 255
  2.03954 -0.978732   1.50248 255 255 255
  1.8387 -1.27249  1.50962 255 255 255
 0.796542 -0.747221    1.2073 255 255 255
 1.21628 -1.28663  1.43384 255 255 255
   1.3954 -0.709383   1.41411 255 255 255
  1.39544 -0.709314   1.41397 255 255 255
 1.14137 -0.50709  1.38108 255 255 255
  1.3286 -0.55041  1.40171 255 255 255
 1.10609 -0.86193  1.40387 255 255 255
 0.633686 -0.826798   1.26157 255 255 255
1.19434 -1.2669 1.43601 255 255 255
 1.20224 -0.86535  1.41422 255 255 255
 0.754787 -0.678561   1.21091 255 255 255
 1.58736 -1.01988  1.45458 255 255 255
 0.785719 -0.834127   1.26938 255 255 255
 1.29557 -1.45056   1.4276 255 255 255
 1.48688 -1.37031  1.48316 255 255 255
 1.73502 -1.35349  1.50105 255 255 255
 0.913055 -0.226038   1.35686 255 255 255
 1.49985 -1.27118  1.46722 255 255 255
  1.00445 -0.451025   1.38722 255 255 255
  1.35946 -0.740965    1.4096 255 255 255
 1.06535 -1.25132   1.4591 255 255 255
  1.72059 -0.954178   1.50712 255 255 255
 1.44271 -1.34617  1.48515 255 255 255
  1.34063 -0.872905   1.43077 255 255 255
 0.891973 -0.750397   1.40464 255 255 255
 1.05126 -0.39771  1.36524 255 255 255
   1.3936 -0.892781   1.44856 255 255 255
   1.4163 -0.542126   1.42332 255 255 255
 0.632067 -0.208486   1.35244 255 255 255
  1.73347 -0.712453    1.4488 255 255 255
 0.702419 -0.807097   1.35531 255 255 255
 0.767085 -0.108014   1.36138 255 255 255
  1.00578 -0.175835    1.3595 255 255 255
  1.11652 -0.373218    1.3883 255 255 255
  1.05962 -0.778586   1.39869 255 255 255
0.875475 -1.09543  1.31833 255 255 255
 1.87475 -1.20804  1.50698 255 255 255
  1.01889 -0.530531   1.38434 255 255 255
  1.4889 -1.20541  1.48275 255 255 255
  2.05076 -0.985811   1.50287 255 255 255
 1.43884 -1.03094  1.43863 255 255 255
  1.76489 -0.918406   1.50033 255 255 255
 1.07023 -1.33936  1.47082 255 255 255
 1.49795 -1.34132  1.48607 255 255 255
  1.11003 -0.446514    1.3692 255 255 255
 0.724473 -0.356244   1.30903 255 255 255
 0.973087 -0.810603   1.39178 255 255 255
 0.753782 -0.742131   1.20494 255 255 255
  1.94912 -0.915042   1.50273 255 255 255
 1.18416 -1.10143  1.43061 255 255 255
 1.25826 -1.41843  1.45188 255 255 255
 1.60798 -1.33349   1.4907 255 255 255
  1.06625 -0.768377   1.40317 255 255 255
  1.02718 -0.842932   1.40959 255 255 255
  1.43337 -0.566122   1.41614 255 255 255
 0.649775 -0.760123   1.20012 255 255 255
 1.37082 -1.60846  1.42385 255 255 255
  1.05477 -0.275352   1.35792 255 255 255
 0.785902 -0.856937   1.26715 255 255 255
  1.35179 -0.814891   1.42266 255 255 255
 1.42634 -1.23252  1.48485 255 255 255
     0.94 -0.712672   1.38127 255 255 255
0.978065 -1.01682  1.41275 255 255 255
 0.838991 -0.034439   1.36372 255 255 255
  1.48763 -0.681151   1.42036 255 255 255
 1.08632 -1.06497  1.42815 255 255 255
  1.13154 -0.616969    1.3888 255 255 255
 0.386589 -0.466042   1.34916 255 255 255
  1.05105 -0.567383   1.36989 255 255 255
 1.59546 -1.21844  1.49043 255 255 255
0.840565 -0.93904  1.25528 255 255 255
 0.679324 -0.618494   1.19809 255 255 255
 1.23583 -1.43206  1.42502 255 255 255
0.890026 -1.03739  1.33868 255 255 255
 1.00553 -1.32197  1.46234 255 255 255
 0.822084 -0.600916   1.20106 255 255 255
  1.41541 -0.626478   1.42463 255 255 255
  0.87981 -0.867843   1.26279 255 255 255
0.757547 -0.90444  1.24309 255 255 255
1.36809 -1.0693 1.43893 255 255 255
  1.0019 -1.07801  1.43404 255 255 255
  1.26998 -0.357631   1.38495 255 255 255
  1.1277 -1.32794  1.45914 255 255 255
 0.897631 -0.682343   1.37441 255 255 255
 1.31621 -1.23097  1.47336 255 255 255
  1.48407 -0.690833   1.41788 255 255 255
0.857865 -0.15811  1.35928 255 255 255
 0.954591 -0.806009   1.39689 255 255 255
  1.29444 -0.766983   1.40829 255 255 255
   0.9811 -0.855475   1.39304 255 255 255
  1.34716 -0.880652   1.43961 255 255 255
  1.01886 -0.836389   1.40944 255 255 255
  1.19528 -0.856949   1.41532 255 255 255
 0.887221 -0.612738   1.37411 255 255 255
  1.01871 -0.392332   1.36764 255 255 255
 0.772273 -0.936643   1.26276 255 255 255
 1.55273 -1.33706  1.48704 255 255 255
0.808912 -0.13596  1.36173 255 255 255
  0.93824 0.0302499   1.36729 255 255 255
  1.3317 -1.56791  1.45246 255 255 255
 1.73716 -1.34436  1.50228 255 255 255
 0.849068 -0.600585   1.20592 255 255 255
  1.02572 -0.244207    1.3617 255 255 255
  1.12296 -0.766874   1.40515 255 255 255
 0.991313 -0.175171   1.35882 255 255 255
 1.37364 -1.31683  1.47635 255 255 255
 1.18305 -1.33011  1.46964 255 255 255
 0.983778 -0.768367   1.39563 255 255 255
  1.04109 -0.610533   1.38531 255 255 255
 1.58826 -1.37631  1.45559 255 255 255
 0.785045 -0.654309   1.18286 255 255 255
 0.419921 -0.467934   1.34628 255 255 255
  1.1723 -1.32818  1.46635 255 255 255
 0.728243 -0.882304   1.24258 255 255 255
  1.71446 -0.717397   1.45909 255 255 255
  1.40103 -0.975303   1.44553 255 255 255
  1.24112 -0.993669   1.44246 255 255 255
  1.56743 -0.768884   1.45439 255 255 255
 1.24865 -1.35594  1.47101 255 255 255
  1.19357 -0.831306   1.40705 255 255 255
 0.783069 -0.787837   1.37108 255 255 255
  1.79905 -0.694854   1.46021 255 255 255
 0.894081 -0.654464    1.3713 255 255 255
 1.19242 -1.33314  1.47693 255 255 255
 0.715971 -0.853183   1.24221 255 255 255
 1.65027 -0.75624  1.45467 255 255 255
 1.40425 -1.44628  1.41771 255 255 255
 1.12535 -1.35598  1.46696 255 255 255
1.51216 -1.3844 1.48086 255 255 255
 0.666307 -0.372635   1.35343 255 255 255
 0.644404 -0.605227   1.20358 255 255 255
   1.0398 -0.350107   1.35305 255 255 255
  1.17535 -0.647328   1.39531 255 255 255
 1.24671 -1.58029  1.45808 255 255 255
 1.06453 -1.36316   1.4628 255 255 255
0.738064 -0.85079  1.24351 255 255 255
0.759842 -0.60537  1.18961 255 255 255
  1.39885 -0.782335   1.41669 255 255 255
 0.797868 -0.677092   1.19161 255 255 255
 0.740184 -0.890847   1.24262 255 255 255
 1.41801 -1.53121  1.45576 255 255 255
 0.854235 -0.644471   1.20143 255 255 255
 1.07762 -1.19017  1.44244 255 255 255
 0.966314 -0.351286   1.35649 255 255 255
 1.33594 -1.64162  1.41512 255 255 255
 0.957824 -0.764543   1.40584 255 255 255
 0.875743 -0.689668   1.19554 255 255 255
0.219823   2.3967  1.32888 255 255 255
0.125419  2.22203  1.33284 255 255 255
0.261444  2.39072  1.35751 255 255 255
0.0151708   2.44456   1.34896 255 255 255
0.58244 2.15772 1.35356 255 255 255
0.195908  2.18322  1.32608 255 255 255
0.348696  2.15315  1.33842 255 255 255
0.255881  2.08553  1.32251 255 255 255
0.291075  2.12961  1.32195 255 255 255
0.315405  2.11573   1.3296 255 255 255
0.228551  2.19289    1.307 255 255 255
0.205199   2.4551  1.35665 255 255 255
0.239846  2.27566  1.33727 255 255 255
0.274782  2.32636   1.3342 255 255 255
0.343482  2.35328  1.31682 255 255 255
0.199933  1.97309   1.3211 255 255 255
0.0473695   2.12706   1.32623 255 255 255
0.264779   2.4424  1.34998 255 255 255
0.100352  2.18591  1.32985 255 255 255
0.297289  2.32712  1.34249 255 255 255
0.23802 2.27355 1.33011 255 255 255
0.192725  2.08961  1.32552 255 255 255
0.312644    2.371  1.34391 255 255 255
0.149979  2.22342  1.33441 255 255 255
 0.3118 2.25995 1.33604 255 255 255
0.332425  1.95929  1.22743 255 255 255
0.344266  2.37833  1.35006 255 255 255
0.335604   2.3982    1.348 255 255 255
-0.0219948    2.32368    1.33895 255 255 255
0.159775  2.30444  1.34443 255 255 255
0.505532  2.26707  1.35219 255 255 255
0.169098  2.44509  1.35085 255 255 255
0.119516  2.44862   1.3492 255 255 255
0.206491  2.31192  1.33873 255 255 255
0.210804  2.09022  1.32979 255 255 255
0.241864  2.42004  1.34059 255 255 255
0.287005  2.05834  1.33446 255 255 255
0.173887  2.27246  1.34049 255 255 255
0.00821491    2.35436    1.34394 255 255 255
0.230052  2.44006  1.35214 255 255 255
0.365251   2.2164  1.33925 255 255 255
0.268161  2.42651  1.34751 255 255 255
0.489379  2.25527  1.35996 255 255 255
-0.12347  2.46456  1.32597 255 255 255
0.189965  2.12906  1.32592 255 255 255
0.433018  2.15071  1.34687 255 255 255
0.465298  2.14751  1.34909 255 255 255
0.399982  2.30945  1.34426 255 255 255
0.256501  2.37863  1.33624 255 255 255
0.143505  2.25441  1.33299 255 255 255
0.147652  2.45358   1.3521 255 255 255
0.50253 2.17035 1.35214 255 255 255
-0.00750119     2.38204     1.33876 255 255 255
0.0295416   2.44427   1.34256 255 255 255
0.230905  1.95139  1.33391 255 255 255
0.176132  2.47329  1.34689 255 255 255
0.220046  2.41212  1.34252 255 255 255
0.261189  2.24444  1.33437 255 255 255
0.324818  2.06503  1.33971 255 255 255
0.345576  2.24058   1.3408 255 255 255
0.378916  2.21959  1.34165 255 255 255
 0.5546 2.13585 1.34824 255 255 255
0.229504  2.10416  1.31707 255 255 255
0.163394  2.31189  1.33607 255 255 255
0.132768  2.45013  1.35556 255 255 255
0.0636202   2.12454   1.32453 255 255 255
0.127785  2.02108  1.32169 255 255 255
0.451858  2.14964  1.34898 255 255 255
0.0822394   2.16063   1.32694 255 255 255
0.276394  2.04728  1.33114 255 255 255
0.286995  2.08473  1.33119 255 255 255
0.0898912    2.2005   1.32975 255 255 255
0.36771 2.17623 1.34459 255 255 255
0.487579  2.29492  1.35172 255 255 255
0.224144  2.47049   1.3544 255 255 255
-0.104493   2.32724   1.34214 255 255 255
0.124346   2.0585   1.3152 255 255 255
0.211797  2.46223   1.3587 255 255 255
0.566828  2.14992  1.34935 255 255 255
0.157693  2.42603  1.35139 255 255 255
0.478035  2.30078  1.35253 255 255 255
0.168539  2.42924  1.34927 255 255 255
0.0176999   2.38389   1.33978 255 255 255
-0.0230217    2.19148    1.33061 255 255 255
0.399924  2.26211  1.34373 255 255 255
0.348402  2.39723  1.34808 255 255 255
0.063924  2.32704  1.34049 255 255 255
0.234001  2.12019  1.30616 255 255 255
0.25898  2.1529 1.33257 255 255 255
0.212402   2.4182  1.33124 255 255 255
0.16151 2.46794 1.35204 255 255 255
0.447211  2.18169  1.34917 255 255 255
0.190371  2.01626  1.32226 255 255 255
0.0173691   2.36911   1.34211 255 255 255
0.0992013   2.46411   1.35309 255 255 255
-0.00892776     2.34326     1.34151 255 255 255
0.160435  2.45725  1.34605 255 255 255
0.22384 2.33232 1.33932 255 255 255
0.272252  2.30298  1.33801 255 255 255
0.187926  2.46859  1.35256 255 255 255
0.154979  2.00546   1.3209 255 255 255
0.200022  2.14177  1.31721 255 255 255
0.241846  2.43735  1.34966 255 255 255
0.127299  2.09498   1.3213 255 255 255
0.287005  2.41029  1.35308 255 255 255
0.26665 2.29253 1.33956 255 255 255
0.38937 2.25713 1.34321 255 255 255
0.0354634   2.48301   1.34659 255 255 255
0.231371  2.34359  1.33908 255 255 255
0.169638  2.33549  1.33251 255 255 255
0.250661  2.46595  1.35479 255 255 255
0.0763713   2.13885   1.32631 255 255 255
0.477928  2.14258  1.34804 255 255 255
0.0948163   2.39503   1.34356 255 255 255
0.149166  2.13011  1.32423 255 255 255
0.30928  2.1223 1.33081 255 255 255
0.0363678   2.14167   1.32464 255 255 255
-0.151877   2.44486   1.32973 255 255 255
0.132835  2.47141  1.35161 255 255 255
-0.0338309    2.34281    1.33459 255 255 255
0.323302  2.05354  1.33787 255 255 255
0.00384593    2.40854    1.33682 255 255 255
-0.0216727    2.35059    1.33406 255 255 255
-0.053695   2.32068   1.33565 255 255 255
0.0388193   2.35547    1.3426 255 255 255
0.0724868   2.14768   1.32826 255 255 255
0.297955  2.11151  1.32985 255 255 255
0.116592  2.09189  1.32057 255 255 255
-0.0707146    2.32418     1.3354 255 255 255
0.446005  2.16789  1.34772 255 255 255
 0.2672  2.1375 1.32176 255 255 255
0.201595  2.35308  1.34067 255 255 255
0.153405  2.44764  1.35086 255 255 255
0.0116031   2.14021   1.32381 255 255 255
0.24565 2.39739 1.35007 255 255 255
0.233456    2.482  1.35823 255 255 255
0.377878  1.94768  1.23225 255 255 255
0.318887   2.3115  1.31716 255 255 255
0.33034 2.17605  1.3349 255 255 255
0.358602  2.36639  1.32311 255 255 255
-0.0256072    2.34192    1.33969 255 255 255
0.282757  2.44562   1.3489 255 255 255
0.14768 2.13862 1.32495 255 255 255
0.319842  2.14258  1.33364 255 255 255
-0.00930015     2.23719     1.33466 255 255 255
0.00181828     2.3751     1.3368 255 255 255
0.331655  2.20218  1.33543 255 255 255
0.166049  2.10469  1.31601 255 255 255
0.318013  2.13215  1.33246 255 255 255
-0.00820726     2.30424     1.34079 255 255 255
0.30491 2.35761 1.34447 255 255 255
0.0553557    2.1476   1.32858 255 255 255
0.459295  2.18263  1.35022 255 255 255
-0.0354139    2.32723    1.33511 255 255 255
-0.0379227    2.32729    1.33984 255 255 255
0.188427  2.31039  1.34172 255 255 255
0.024383  2.29073  1.33528 255 255 255
0.0500388   2.38959   1.34338 255 255 255
0.31314 2.14013  1.3353 255 255 255
0.518208  2.15535  1.35159 255 255 255
0.0141349   2.28964   1.33912 255 255 255
0.546523  2.24149  1.35888 255 255 255
0.128883  2.43742  1.34931 255 255 255
-0.136989   2.42482   1.32937 255 255 255
0.170074  2.45897  1.34367 255 255 255
0.570979  2.07219  1.34436 255 255 255
0.0205629   2.16409   1.32199 255 255 255
0.176148  2.07764  1.32405 255 255 255
-0.0827012    2.24407    1.33477 255 255 255
0.00139599    2.42077     1.3358 255 255 255
-0.0299457    2.32356    1.33842 255 255 255
0.142005  2.42901  1.34443 255 255 255
0.51751 2.18063 1.35131 255 255 255
0.141028  2.33366   1.3386 255 255 255
-0.0932329    2.26199     1.3369 255 255 255
-0.0173946    2.30927    1.33957 255 255 255
0.127724  2.10361  1.32063 255 255 255
0.18602 2.46108 1.35471 255 255 255
0.420911  1.97565  1.23384 255 255 255
0.335746  2.38546  1.34537 255 255 255
0.22893 2.03881 1.32534 255 255 255
0.0578222    2.4267   1.34788 255 255 255
0.202302  2.47232  1.35619 255 255 255
0.246566  2.15489  1.33346 255 255 255
0.254223  2.07869  1.32787 255 255 255
0.257089  2.11939  1.33006 255 255 255
-0.127059   2.26928   1.33819 255 255 255
-0.0522141    2.33002     1.3368 255 255 255
0.0993028   2.47183   1.34979 255 255 255
0.0304227   2.27895   1.33752 255 255 255
0.0595134   2.16214   1.32556 255 255 255
0.0443711   2.40636   1.34738 255 255 255
0.248562  2.12539  1.31482 255 255 255
0.363662  2.20134   1.3387 255 255 255
0.317941  2.15187   1.3354 255 255 255
0.460932  2.13162  1.34812 255 255 255
0.268371  2.47437  1.35588 255 255 255
0.295514  2.29166  1.32191 255 255 255
0.312644  2.09477  1.33612 255 255 255
0.14229 2.12439 1.32326 255 255 255
0.61071 2.18885  1.3558 255 255 255
0.00484842    2.14873    1.32671 255 255 255
0.0869541   2.43894   1.34965 255 255 255
0.114387  2.08964  1.32046 255 255 255
0.299842  2.04499  1.33545 255 255 255
0.379397  2.16874  1.34672 255 255 255
0.391507   2.0319  1.23437 255 255 255
0.0829242   2.39449   1.34436 255 255 255
0.139561  2.27256  1.33196 255 255 255
0.052271   2.2022  1.33135 255 255 255
0.572262  2.18087  1.35124 255 255 255
-0.034388   2.33621   1.33434 255 255 255
0.558105  2.14918  1.35064 255 255 255
0.122378  2.25124  1.32967 255 255 255
0.287278   2.2485  1.31142 255 255 255
0.140412  2.10746  1.30914 255 255 255
0.0852876   2.40183   1.34735 255 255 255
0.115783  2.46322  1.35143 255 255 255
0.15698 2.08249 1.32305 255 255 255
-0.0256466    2.17972    1.32975 255 255 255
-0.0987068    2.30008    1.33993 255 255 255
0.147385  2.32338  1.33581 255 255 255
0.105705  2.21474  1.33007 255 255 255
0.0795061   2.18997   1.32999 255 255 255
0.0694352   2.18465   1.32826 255 255 255
0.235205  2.42857  1.34154 255 255 255
-0.0996201    2.25622    1.33512 255 255 255
0.329268  2.16419  1.33547 255 255 255
0.262979  2.17781  1.33373 255 255 255
0.187226   1.9879  1.32243 255 255 255
-5.12613e-05      2.35379       1.3429 255 255 255
-0.050154   2.19092      1.33 255 255 255
0.154059  2.37996  1.30562 255 255 255
-0.0333942    2.29939    1.33957 255 255 255
0.137616   2.4341  1.34924 255 255 255
-0.043577   2.32958   1.33387 255 255 255
0.10881 2.25358 1.33325 255 255 255
0.282502  2.29321  1.33811 255 255 255
0.147305  2.11439  1.32719 255 255 255
0.0958528   2.07222   1.31793 255 255 255
0.118336  2.23723  1.33166 255 255 255
0.137634  2.30857  1.33961 255 255 255
0.216172  2.47072  1.35344 255 255 255
0.138736  2.23196  1.33404 255 255 255
0.269107  1.99281  1.33496 255 255 255
0.174361  2.07901  1.32279 255 255 255
0.230302   2.2232  1.32013 255 255 255
0.166188  2.08349  1.32466 255 255 255
-0.0556934    2.19813    1.33182 255 255 255
-0.117059   2.29075   1.33867 255 255 255
0.0127789   2.38913    1.3376 255 255 255
0.16788 2.48409 1.35629 255 255 255
0.267224  1.97278  1.33286 255 255 255
0.0603022   2.30391   1.33804 255 255 255
0.187611  2.35153  1.34167 255 255 255
-0.0339269    2.27971    1.33681 255 255 255
0.204607  2.05103  1.32153 255 255 255
0.139429  2.11626   1.3247 255 255 255
0.255089  2.21245  1.33588 255 255 255
0.34035 2.06988 1.33376 255 255 255
0.133443  2.42529  1.34849 255 255 255
0.0719517    2.2723   1.33641 255 255 255
0.0697036   2.34842    1.3411 255 255 255
0.315157  2.20564   1.3372 255 255 255
-0.0467092     2.3042    1.33854 255 255 255
0.128667  2.29623  1.33742 255 255 255
-0.00987002     2.31222     1.33914 255 255 255
0.33274 2.33727 1.32057 255 255 255
0.124879  2.05216  1.32177 255 255 255
0.00802944     2.3712    1.33903 255 255 255
0.0436505   2.41527   1.34724 255 255 255
-0.0347657     2.3756    1.33039 255 255 255
0.0216381   2.32612   1.34037 255 255 255
-0.0313354    2.22328    1.33465 255 255 255
0.103269  2.07894   1.3205 255 255 255
0.0436401   2.13132   1.32216 255 255 255
0.351947  2.16165  1.33588 255 255 255
0.265825  2.20269  1.33684 255 255 255
0.156735  2.06581  1.32184 255 255 255
0.195129  2.29493  1.33679 255 255 255
0.217088  2.16276  1.30715 255 255 255
0.304694  2.02934  1.33566 255 255 255
0.397841  2.14966  1.33931 255 255 255
-0.0645563    2.21738    1.33496 255 255 255
0.217408  2.15731  1.30711 255 255 255
0.180595  2.10021  1.32633 255 255 255
0.228376  2.04657  1.32571 255 255 255
0.220714  2.48111  1.34974 255 255 255
0.151942   2.1462  1.32673 255 255 255
-0.0629969    2.31136    1.33896 255 255 255
0.261455   2.0728  1.32906 255 255 255
0.205902  1.98246  1.32533 255 255 255
0.0921766   2.40511   1.34488 255 255 255
0.110719  2.37792  1.34297 255 255 255
-0.0788146    2.30188    1.33889 255 255 255
0.0868559   2.20893   1.32998 255 255 255
0.349437  2.20156  1.33699 255 255 255
0.0684055   2.31907    1.3384 255 255 255
0.0996718   2.22374   1.33067 255 255 255
0.188308  2.28669  1.33772 255 255 255
0.0636336   2.25163   1.33452 255 255 255
0.186772   2.3308  1.33948 255 255 255
-0.00615991     2.18959     1.33044 255 255 255
0.0648756   2.34397    1.3406 255 255 255
0.0880229   2.28391   1.33555 255 255 255
-0.019321   2.32891    1.3401 255 255 255
0.0889721   2.19716   1.33017 255 255 255
0.325551  2.11068  1.33526 255 255 255
0.323029  2.21226  1.33792 255 255 255
0.329944  2.14048  1.33518 255 255 255
0.161984  2.33095  1.33614 255 255 255
0.172951  2.09331  1.32075 255 255 255
0.0193659   2.28354   1.33741 255 255 255
0.0213204   2.12528   1.32642 255 255 255
0.0550839   2.33351   1.33984 255 255 255
0.0299367    2.2863   1.33782 255 255 255
0.0843242   2.23828    1.3338 255 255 255
0.0663969    2.3846   1.34423 255 255 255
0.123982  2.20268  1.33012 255 255 255
0.223727  2.10119  1.31687 255 255 255
-0.00491379       2.373       1.337 255 255 255
0.179179  2.28924  1.33773 255 255 255
-0.0688672    2.29793    1.33761 255 255 255
0.26508 2.05409 1.33049 255 255 255
-0.0561944     2.3194    1.33479 255 255 255
0.206762  2.34907  1.34139 255 255 255
0.163864  2.08933  1.32493 255 255 255
0.106146  2.06341  1.32174 255 255 255
0.131184  2.11991  1.32475 255 255 255
0.158043  2.32671  1.33576 255 255 255
0.00110409    2.38375    1.33965 255 255 255
0.12153 2.10849 1.32456 255 255 255
0.0898612   2.31975   1.33783 255 255 255
0.26395 2.23428 1.33658 255 255 255
0.202865  2.07142  1.32646 255 255 255
-0.110564   2.25999     1.337 255 255 255
0.308485  2.04875  1.33642 255 255 255
0.339409   2.2066  1.33739 255 255 255
0.116621   2.1954  1.33078 255 255 255
0.322055   2.0618  1.33756 255 255 255
0.415034  2.10596  1.34422 255 255 255
0.454292    2.064  1.23746 255 255 255
-0.0726818    2.21943    1.33423 255 255 255
0.0612934   2.17865   1.32443 255 255 255
0.200372  2.48696  1.35856 255 255 255
0.333784   2.1309  1.33863 255 255 255
0.104488  2.32097  1.34016 255 255 255
0.104519  2.29637  1.33714 255 255 255
0.053279  2.44687  1.34917 255 255 255
0.243946  2.01407  1.32967 255 255 255
0.0931726   2.36854   1.34216 255 255 255
0.202871  1.94193  1.33443 255 255 255
-0.0503489    2.31997    1.33642 255 255 255
0.0918769   2.27269   1.33527 255 255 255
0.352972   2.1712  1.33648 255 255 255
0.129936  2.25892  1.33025 255 255 255
-0.000343161      2.45908      1.33754 255 255 255
0.0274074   2.13028   1.32393 255 255 255
0.122726  2.44102  1.34825 255 255 255
0.112537  2.18958  1.32971 255 255 255
0.16573 2.25656 1.33398 255 255 255
-0.0566751    2.33922    1.33535 255 255 255
0.138232  2.12887  1.32507 255 255 255
-0.0844159    2.29264    1.33851 255 255 255
0.0854039   2.28913   1.33675 255 255 255
0.0664798   2.30319   1.33735 255 255 255
0.312681  2.24953  1.33353 255 255 255
0.0649319   2.48951   1.35092 255 255 255
-0.0917254     2.2511    1.33509 255 255 255
-0.0557995    2.22409    1.33441 255 255 255
-0.0462084    2.32068    1.33773 255 255 255
0.290674  2.17124  1.33519 255 255 255
-0.00978829     2.29233     1.33898 255 255 255
0.0970887   2.36565   1.34227 255 255 255
0.160476  2.14055  1.32521 255 255 255
0.0840249   2.47343   1.35101 255 255 255
-0.0411085    2.21792    1.33353 255 255 255
-0.00716916     2.27171     1.33755 255 255 255
-0.0622139    2.20084    1.33155 255 255 255
0.113087  2.38442  1.34358 255 255 255
0.140648  2.07272  1.32381 255 255 255
0.283428  2.26514  1.31286 255 255 255
0.0524332   2.17046   1.32357 255 255 255
-0.0414285    2.33661    1.33676 255 255 255
-0.106203   2.28966    1.3387 255 255 255
0.0786788   2.19728   1.32689 255 255 255
-0.0469652     2.1946    1.33249 255 255 255
0.259712   2.0889  1.33043 255 255 255
0.0883588   2.06615   1.31746 255 255 255
0.00412469    2.19947    1.33149 255 255 255
-0.0281931    2.20084    1.32901 255 255 255
-0.071011   2.35033   1.32901 255 255 255
0.276755  2.18005  1.33447 255 255 255
0.259757  2.13844   1.3245 255 255 255
-0.0461909    2.35179    1.33189 255 255 255
-0.0643088    2.29559    1.33883 255 255 255
0.193054  1.92944  1.34038 255 255 255
0.076767  2.20192  1.32794 255 255 255
0.192947  2.00609  1.32334 255 255 255
0.00352401    2.37807    1.33498 255 255 255
0.0355415   2.44312   1.34467 255 255 255
0.158022  2.14966  1.32775 255 255 255
0.363737  2.08559   1.3777 255 255 255
0.0800149   2.43224   1.34708 255 255 255
0.144007  2.27115  1.33469 255 255 255
0.0845248   2.06316   1.31827 255 255 255
0.00223056     2.4268     1.3328 255 255 255
-0.0748831    2.34821    1.32951 255 255 255
-0.0410929    2.18288    1.32987 255 255 255
0.0981274   2.40635    1.3447 255 255 255
0.119672  2.41522  1.34723 255 255 255
0.0731677   2.46129   1.34937 255 255 255
-0.0797456    2.29702    1.33843 255 255 255
-0.0513511    2.20523    1.33173 255 255 255
0.259158  2.27451  1.33536 255 255 255
0.132474  2.11575  1.32237 255 255 255
0.0765551   2.44383   1.34741 255 255 255
0.303093  2.08519  1.33417 255 255 255
0.095278  2.29852  1.33778 255 255 255
0.109557  2.31304  1.33922 255 255 255
0.209199   1.9221  1.33921 255 255 255
0.257864  1.96452  1.33569 255 255 255
0.253067  2.21017  1.33659 255 255 255
0.417093  2.12663  1.34441 255 255 255
0.00979251    2.31601    1.34084 255 255 255
0.411734  2.11999  1.34444 255 255 255
0.0349227   2.36264   1.34216 255 255 255
0.182506  2.30201  1.33802 255 255 255
-0.0414682     2.2731     1.3379 255 255 255
0.200162  1.97399  1.32468 255 255 255
0.18128 2.28462 1.33589 255 255 255
0.225985   2.0546  1.32686 255 255 255
0.331361  2.20949  1.33693 255 255 255
0.20338 2.04686  1.3252 255 255 255
0.0994078   2.07456   1.32066 255 255 255
0.339589  2.06403  1.33725 255 255 255
0.00679048    2.26721    1.33717 255 255 255
0.280952  2.24933  1.31404 255 255 255
-0.0887049    2.33566    1.33978 255 255 255
0.0159057   2.16872   1.32517 255 255 255
-0.0483465    2.32513    1.33733 255 255 255
0.0688565   2.43932   1.34693 255 255 255
-0.0288542    2.31331     1.3396 255 255 255
0.179929   2.1057   1.3264 255 255 255
0.000549968     2.41521     1.33213 255 255 255
-0.0491466    2.22655    1.33313 255 255 255
-0.082322   2.21679   1.33342 255 255 255
0.0246571   2.37317    1.3428 255 255 255
-0.0296586     2.3689    1.33205 255 255 255
0.198853  2.12005  1.32934 255 255 255
-0.0732231    2.28917    1.33809 255 255 255
0.310752   2.2239  1.33696 255 255 255
0.223407  2.04894  1.32667 255 255 255
-0.13327  2.27328  1.33845 255 255 255
0.0519552   2.45537   1.34968 255 255 255
0.0898761   2.35678   1.34201 255 255 255
0.066484  2.45406   1.3498 255 255 255
0.190476  2.02529  1.32356 255 255 255
0.00736231    2.34421    1.34029 255 255 255
0.0540621   2.28667   1.33677 255 255 255
-0.0647779    2.24585    1.33474 255 255 255
0.0126315   2.38358     1.336 255 255 255
0.267904  2.17677  1.33356 255 255 255
0.017539  2.38819  1.33717 255 255 255
0.0858767   2.35866   1.34205 255 255 255
-0.0421557    2.23821    1.33622 255 255 255
0.00588066    2.15648    1.32819 255 255 255
-0.0263521    2.36798    1.33435 255 255 255
0.206604  2.07484    1.327 255 255 255
0.174893  2.29105  1.34035 255 255 255
-0.072962   2.35842   1.32805 255 255 255
0.101807  2.18772  1.32848 255 255 255
0.209117  2.01451  1.32455 255 255 255
0.0387961   2.46282   1.34624 255 255 255
-0.0726052    2.26401    1.33616 255 255 255
0.248903   1.9541  1.33563 255 255 255
0.270873  2.18037  1.33394 255 255 255
-0.0819984    2.23803    1.33425 255 255 255
0.691336  2.04262  1.33426 255 255 255
0.195432  2.04762  1.32519 255 255 255
0.220879  2.03321  1.32555 255 255 255
0.343641  2.21248  1.33782 255 255 255
0.337131  2.17018  1.33604 255 255 255
-0.0108743    2.33509    1.34128 255 255 255
0.0974401    2.2904   1.33764 255 255 255
0.151836  2.07013  1.32222 255 255 255
0.19418 2.13389  1.3275 255 255 255
0.287098  2.21873  1.33692 255 255 255
0.0121609   2.37094   1.34357 255 255 255
-0.06031  2.31547  1.33758 255 255 255
0.0348673   2.45611   1.34639 255 255 255
0.0519772   2.37946   1.34327 255 255 255
0.15454  2.3207 1.33882 255 255 255
0.209576  2.35334  1.34233 255 255 255
0.228922  2.14484   1.3319 255 255 255
0.0548476   2.46938   1.35085 255 255 255
0.0046441   2.31973   1.34006 255 255 255
0.286114  2.25332  1.31317 255 255 255
0.0729082   2.37082   1.34253 255 255 255
-0.0642324    2.31324    1.33922 255 255 255
0.0683901   2.43361   1.34718 255 255 255
0.296905  2.01336  1.33731 255 255 255
-0.0525468    2.24274    1.33524 255 255 255
0.074754  2.23753  1.33441 255 255 255
0.0825071   2.20938    1.3257 255 255 255
0.0992998   2.32256    1.3397 255 255 255
0.083051  2.43869  1.34906 255 255 255
0.210686  1.96684  1.32818 255 255 255
0.0505359   2.13182   1.32081 255 255 255
-0.124981   2.31239   1.33867 255 255 255
0.190591  1.99788  1.32279 255 255 255
0.0931662   2.46553   1.34944 255 255 255
0.0635979   2.17323   1.32772 255 255 255
-0.00244716     2.36818      1.3391 255 255 255
0.192312  2.00101  1.32351 255 255 255
-0.0248874    2.28411    1.33699 255 255 255
0.0826339   2.46618   1.35004 255 255 255
-0.0253525    2.21136    1.33161 255 255 255
0.0268496   2.42481   1.34088 255 255 255
-0.0738984    2.23415    1.33422 255 255 255
0.0604094    2.1567    1.3261 255 255 255
0.000997963     2.16207     1.32796 255 255 255
0.0320541    2.1371   1.32498 255 255 255
0.240322  2.16635  1.32698 255 255 255
0.169892  2.00124  1.32158 255 255 255
0.214966  1.98512  1.32651 255 255 255
-0.083567   2.30073   1.33825 255 255 255
0.0303055   2.36898   1.34249 255 255 255
0.0530551   2.41998    1.3461 255 255 255
0.100536  2.27169  1.33438 255 255 255
0.337169  2.21044  1.33515 255 255 255
-0.0473985    2.25279     1.3356 255 255 255
0.385383   2.0724  1.33982 255 255 255
 1.5343 1.37969  1.2656 255 255 255
1.95889 1.16499 1.42292 255 255 255
1.95927 1.16403 1.42354 255 255 255
 2.45722 0.632779  1.50253 255 255 255
2.38497 1.07355 1.42464 255 255 255
 1.93328 0.567559  1.45601 255 255 255
1.48097 1.29151  1.2731 255 255 255
  2.0072 0.756597   1.4218 255 255 255
2.09981 1.25568 1.42816 255 255 255
 2.23202 0.624232  1.47786 255 255 255
 2.40626 0.851176   1.4765 255 255 255
1.73219 1.35673 1.31692 255 255 255
 1.77711 0.709209  1.42377 255 255 255
1.39912 1.25459 1.28601 255 255 255
2.03242 1.31213 1.42809 255 255 255
1.36576 1.18267 1.27761 255 255 255
1.95093 1.42161 1.32564 255 255 255
 2.1931 1.24828 1.46036 255 255 255
 2.61493 0.670499  1.53806 255 255 255
 2.62104 0.665139  1.55122 255 255 255
1.39456 1.14182 1.26731 255 255 255
1.34752  1.1518 1.27026 255 255 255
 2.08037 0.983203  1.45435 255 255 255
2.46413 1.02305  1.4807 255 255 255
1.32385 1.10085 1.25871 255 255 255
 2.66789 0.789478   1.5349 255 255 255
 2.29596 0.164713  1.48952 255 255 255
 2.65987 0.684255  1.52403 255 255 255
 2.06559 0.383586  1.39118 255 255 255
 2.48054 0.684456  1.48764 255 255 255
1.57902 1.57993 1.30475 255 255 255
1.63609 1.31498 1.26414 255 255 255
1.72874 1.41263 1.31305 255 255 255
2.23658 1.22838 1.45918 255 255 255
 2.53908 0.460458  1.54281 255 255 255
 2.71223 0.658217  1.54005 255 255 255
  1.754  1.1627 1.32185 255 255 255
  2.711 0.77041 1.53138 255 255 255
 2.43814 0.749427  1.44505 255 255 255
 2.37701 0.666189  1.47562 255 255 255
 2.03585 0.406728  1.41595 255 255 255
2.04241 1.22276 1.41759 255 255 255
 2.48116 0.934391  1.48421 255 255 255
 1.67419 0.969186  1.38641 255 255 255
1.86907 1.21319 1.41948 255 255 255
 2.39037 0.780259  1.48086 255 255 255
1.63225 1.58044 1.31128 255 255 255
2.03555  1.3837 1.42882 255 255 255
1.63591 1.50781 1.27186 255 255 255
 2.26119 0.580487  1.44771 255 255 255
 2.63563 0.735244  1.53237 255 255 255
   1.557 0.877148  1.33431 255 255 255
1.44238 1.02271 1.24481 255 255 255
  1.5661 0.810416  1.38998 255 255 255
1.81684 1.28151 1.41227 255 255 255
 1.92507 0.958152  1.37012 255 255 255
1.93742 1.29744 1.42251 255 255 255
 2.44412 0.980416  1.48841 255 255 255
 1.4372 1.24306 1.32227 255 255 255
1.29355 1.13887 1.28169 255 255 255
1.57417 1.06226 1.28014 255 255 255
1.80849 1.37246 1.43115 255 255 255
 2.78626 0.633774  1.53291 255 255 255
 1.56658 0.911464   1.3838 255 255 255
1.59517 1.48469 1.25098 255 255 255
1.85395 1.19024 1.42435 255 255 255
  1.4914 0.949192  1.26686 255 255 255
2.08921 1.03838 1.44667 255 255 255
2.04043 1.11021   1.383 255 255 255
2.03818 1.21892  1.4268 255 255 255
 2.46449 0.968708  1.47851 255 255 255
1.74592 1.32055 1.34118 255 255 255
 2.57842 0.695741   1.5291 255 255 255
1.62615 1.32163 1.25602 255 255 255
 1.76777 0.935113   1.3982 255 255 255
 2.52304 0.633769  1.53186 255 255 255
1.38626 1.15086 1.27444 255 255 255
1.98499 0.76181 1.42504 255 255 255
1.85047 1.39145 1.42432 255 255 255
1.37857 1.21958 1.37369 255 255 255
2.20119 1.16802 1.45826 255 255 255
 1.81252 0.598202  1.39961 255 255 255
1.37159 1.06795 1.24051 255 255 255
1.87715 1.34823 1.32782 255 255 255
1.53925 1.09917 1.27295 255 255 255
 2.68204 0.769381  1.53306 255 255 255
1.33407 1.19269 1.28654 255 255 255
1.34025 1.09415 1.25371 255 255 255
 2.27498 0.698448  1.46918 255 255 255
2.21529 0.51685 1.44788 255 255 255
 2.00283 0.780432  1.43822 255 255 255
 2.05112 0.972693  1.44762 255 255 255
2.43011 1.19144 1.48237 255 255 255
 2.41588 0.243742  1.49279 255 255 255
1.38798  1.1246 1.26831 255 255 255
 2.06897 0.244314  1.45206 255 255 255
 1.85207 0.817369   1.4056 255 255 255
1.50069 1.06892 1.26059 255 255 255
2.06288 1.40718 1.42921 255 255 255
   2.627 0.571014  1.53313 255 255 255
 1.92904 0.809217  1.42031 255 255 255
 2.48636 0.855956  1.48219 255 255 255
 1.8184 1.02147 1.36054 255 255 255
 2.67753 0.901516   1.5304 255 255 255
 1.89957 0.922299  1.41376 255 255 255
 1.76578 0.973481  1.39425 255 255 255
1.89383 1.13193 1.42314 255 255 255
1.46305 1.08183 1.25895 255 255 255
2.51104 1.07934 1.49646 255 255 255
 2.74874 0.868837  1.53033 255 255 255
1.75262 1.22747 1.40673 255 255 255
2.02904 1.39061 1.42934 255 255 255
 2.65602 0.620891  1.52989 255 255 255
1.94612 1.32895 1.41985 255 255 255
 1.3865 1.16922 1.28781 255 255 255
1.59239 1.46463 1.24604 255 255 255
 2.70539 0.501267  1.53063 255 255 255
 1.96428 0.844418  1.41137 255 255 255
1.62621 1.18187 1.27945 255 255 255
1.81511 0.72194 1.39894 255 255 255
2.06628  0.5175 1.43413 255 255 255
2.25418 1.21936 1.47108 255 255 255
1.73041 1.33158 1.30322 255 255 255
 2.67121 0.663949  1.52971 255 255 255
 2.67196 0.663248  1.53174 255 255 255
1.97346 1.32677 1.42329 255 255 255
 2.53126 0.554216  1.52966 255 255 255
1.56672 1.34991 1.24024 255 255 255
1.92451 1.24653 1.40931 255 255 255
2.06727 1.28947 1.42532 255 255 255
1.84465  1.4296 1.30516 255 255 255
   2.063 0.486361  1.43121 255 255 255
   2.501 0.816026  1.48031 255 255 255
2.41138 0.29897 1.49002 255 255 255
 2.63159 0.627092  1.52997 255 255 255
 2.12671 0.196785  1.46999 255 255 255
 2.74955 0.599715  1.53016 255 255 255
1.53053 1.30778 1.25255 255 255 255
 2.39106 0.734918  1.47549 255 255 255
1.45005 1.34571 1.27055 255 255 255
 2.30975 0.724266  1.46784 255 255 255
 1.95095 0.541042  1.43507 255 255 255
 2.0362 1.06956 1.40259 255 255 255
 1.94932 0.688586  1.43477 255 255 255
 2.66086 0.637809  1.53453 255 255 255
2.36731 1.15975  1.4701 255 255 255
 1.81907 0.833993    1.407 255 255 255
 2.35251 0.570999  1.46127 255 255 255
2.35085 0.57309 1.45697 255 255 255
 2.21011 0.801363  1.44771 255 255 255
1.92839 1.05909 1.40865 255 255 255
2.16386  1.1578 1.44744 255 255 255
2.32561 0.18744 1.47015 255 255 255
2.45881 1.07955 1.49749 255 255 255
  1.8424 0.769034  1.38678 255 255 255
 2.72557 0.735923  1.53441 255 255 255
 1.91816 0.598531  1.43466 255 255 255
 1.89666 0.744053  1.36706 255 255 255
 1.5205 1.60672 1.30828 255 255 255
1.85098 1.14857 1.41004 255 255 255
 2.42887 0.329814  1.50202 255 255 255
1.88994 1.20559 1.42772 255 255 255
1.89538 1.00662 1.40621 255 255 255
1.60463 0.87559 1.40305 255 255 255
 2.55409 0.686719  1.52813 255 255 255
 2.61967 0.757732  1.53286 255 255 255
 1.54808 0.981156  1.27245 255 255 255
1.91997  1.1519 1.42279 255 255 255
 2.22965 0.488018  1.46473 255 255 255
2.00235 1.10967 1.42093 255 255 255
 2.27872 0.409335  1.44944 255 255 255
 2.73482 0.609746  1.53927 255 255 255
 2.42243 0.262236  1.49127 255 255 255
1.34423 1.22258 1.28905 255 255 255
 2.76655 0.645653  1.53132 255 255 255
 2.0087 1.14155 1.37862 255 255 255
 2.37043 0.598275  1.47812 255 255 255
2.49148 0.29029 1.51226 255 255 255
 2.32501 0.801283   1.4564 255 255 255
 2.19867 0.286015  1.44936 255 255 255
 2.77299 0.667497  1.53565 255 255 255
 1.99194 0.570654  1.43371 255 255 255
  2.0026 0.589903  1.43617 255 255 255
1.99054 1.33741 1.42118 255 255 255
 2.65361 0.878998  1.53434 255 255 255
2.05364 1.12791 1.39006 255 255 255
1.86094 1.06615 1.39666 255 255 255
1.63398 1.39031 1.24476 255 255 255
1.94099 1.23834 1.41901 255 255 255
 2.70329 0.783856  1.54038 255 255 255
 2.71064 0.620627   1.5268 255 255 255
2.35013 0.23561 1.47122 255 255 255
 2.10704 0.584208  1.43671 255 255 255
  1.9591 0.509581  1.43136 255 255 255
 2.62501 0.594054  1.51966 255 255 255
2.55608 1.00619 1.49854 255 255 255
 2.27814 0.470202   1.4645 255 255 255
1.92108 1.55015 1.32472 255 255 255
 2.77941 0.655687  1.53264 255 255 255
 2.31236 0.469412  1.45742 255 255 255
1.33337 1.08093 1.24836 255 255 255
 2.67488 0.453076  1.51663 255 255 255
 2.34375 0.810266  1.46287 255 255 255
 2.36537 0.840108  1.48009 255 255 255
 2.46595 0.905904  1.49009 255 255 255
1.47633 1.08968 1.27325 255 255 255
 2.34536 0.863679  1.47082 255 255 255
 2.32631 0.554747  1.47447 255 255 255
1.37974 1.16584 1.27717 255 255 255
 1.94719 0.709648  1.42437 255 255 255
 2.63635 0.386403  1.52937 255 255 255
 2.54254 0.723468  1.52363 255 255 255
  2.5627 0.400475  1.51823 255 255 255
 2.39144 0.311116  1.49137 255 255 255
1.74137 1.28233 1.42095 255 255 255
   2.228 0.347288  1.45605 255 255 255
 2.06371 0.457114  1.42783 255 255 255
 2.46976 0.424593  1.52483 255 255 255
2.06146 1.38253 1.43066 255 255 255
 2.17024 0.473924  1.45938 255 255 255
 2.23446 0.294019  1.45307 255 255 255
  2.5316 0.935404   1.4837 255 255 255
  2.6443 0.439118   1.5085 255 255 255
 2.24084 0.692291   1.4269 255 255 255
1.61077 1.58552 1.29265 255 255 255
1.70054 1.37305 1.30559 255 255 255
2.52282 0.52164 1.52886 255 255 255
1.92387 1.04489 1.41255 255 255 255
 1.86498 0.674733   1.4968 255 255 255
  2.5726 0.656141  1.53421 255 255 255
1.47947 1.52499 1.30313 255 255 255
 2.61363 0.620154  1.52231 255 255 255
 1.98475 0.769222   1.4399 255 255 255
2.50631 0.92015 1.47726 255 255 255
 2.36691 0.682202  1.47903 255 255 255
1.47282 1.08161  1.2684 255 255 255
1.48838 1.05003 1.25504 255 255 255
  1.9276 0.632276   1.4293 255 255 255
 2.76677 0.576117  1.51713 255 255 255
 2.37988 0.933072  1.47378 255 255 255
 2.46074 0.370045  1.51677 255 255 255
2.42157 1.17055 1.48009 255 255 255
  2.6811 0.922877  1.53576 255 255 255
2.07524 1.10964 1.41762 255 255 255
 2.59151 0.746698  1.52564 255 255 255
1.22846 1.17629 1.28175 255 255 255
 2.69136 0.731123  1.52288 255 255 255
2.61802 0.38992 1.52292 255 255 255
 2.29316 0.183056  1.48001 255 255 255
2.46194 0.84711 1.48649 255 255 255
 2.25361 0.372271  1.46044 255 255 255
1.58263 1.32439 1.23885 255 255 255
2.30789 0.52982 1.46556 255 255 255
1.51336 1.59683  1.3069 255 255 255
1.95023 1.00167 1.42054 255 255 255
1.53201   1.383 1.24099 255 255 255
 1.70607 0.855842  1.39568 255 255 255
1.72281 1.60887 1.32353 255 255 255
 2.22117 0.797052  1.44796 255 255 255
 2.53518 0.349493  1.51166 255 255 255
1.75632 1.24456 1.42291 255 255 255
 2.58351 0.532243  1.52158 255 255 255
1.91209 0.58196 1.42571 255 255 255
 2.36635 0.244678  1.48538 255 255 255
 2.58689 0.764176  1.53348 255 255 255
 1.69696 0.830764  1.39116 255 255 255
 2.04188 0.432901  1.42612 255 255 255
 1.62741 0.910954  1.39824 255 255 255
 2.55575 0.710084  1.53099 255 255 255
2.31798 0.42504 1.43937 255 255 255
 1.95389 0.727995  1.43523 255 255 255
  2.6093 0.569809  1.53079 255 255 255
 1.81802 0.583951  1.38598 255 255 255
 2.21592 0.238582  1.44548 255 255 255
 2.27678 0.433622  1.46068 255 255 255
 2.75257 0.749407  1.53386 255 255 255
 1.93017 0.975789  1.36427 255 255 255
 2.33252 0.996366  1.44928 255 255 255
2.04228 1.02452 1.41239 255 255 255
 2.51474 0.822984  1.48674 255 255 255
2.48398 0.88966 1.48727 255 255 255
 2.72842 0.682228  1.53876 255 255 255
 2.41747 0.358887  1.50244 255 255 255
 1.95476 0.717351  1.42848 255 255 255
 1.65757 0.820742  1.40305 255 255 255
 2.2013 1.21464 1.44076 255 255 255
 1.90505 0.999571   1.4072 255 255 255
1.34429 1.25686 1.28047 255 255 255
2.17764 1.25846 1.44169 255 255 255
1.63738 1.23005 1.27716 255 255 255
1.70401 1.67653 1.32772 255 255 255
 1.5512 1.40023 1.23917 255 255 255
 2.67838 0.591221  1.53322 255 255 255
1.39141  1.7798 1.64541 255 255 255
1.89143    1.11  1.4178 255 255 255
 2.41013 0.414151  1.50082 255 255 255
 2.65055 0.814711  1.53289 255 255 255
1.96319 1.21307 1.42478 255 255 255
  2.7546 0.679739  1.53617 255 255 255
 2.13399 0.327552  1.44594 255 255 255
1.74675 1.25399 1.42205 255 255 255
 1.86073 0.639295  1.40381 255 255 255
1.50907 1.37765 1.24025 255 255 255
1.61333 1.38054 1.23713 255 255 255
 1.61329 0.863436  1.39844 255 255 255
 2.21315 0.532896  1.45618 255 255 255
  2.5895 0.403394  1.52944 255 255 255
  2.2607 0.623225  1.45947 255 255 255
1.22658 1.16236 1.28597 255 255 255
 2.53862 0.312018  1.52334 255 255 255
 2.69692 0.638536  1.53063 255 255 255
 2.37561 0.620189  1.46986 255 255 255
2.53937 0.59364 1.53016 255 255 255
 1.5661 1.30618 1.23331 255 255 255
 2.07909 0.443065  1.42076 255 255 255
 1.66543 0.785742  1.40301 255 255 255
1.63237 1.21794 1.27721 255 255 255
 2.56665 0.748953  1.52551 255 255 255
 2.41573 0.725684  1.46987 255 255 255
 1.62323 0.896817  1.39839 255 255 255
 1.95437 0.671893  1.43577 255 255 255
1.63841 1.32152 1.26758 255 255 255
1.59248 1.39251 1.22962 255 255 255
 2.04699 0.892809  1.44094 255 255 255
1.64249 1.24512 1.27984 255 255 255
  2.4611 0.887762  1.48987 255 255 255
2.01707 1.39443 1.42612 255 255 255
 2.47109 0.883089  1.48617 255 255 255
 2.55617 0.417574  1.51429 255 255 255
 2.68691 0.613352  1.53318 255 255 255
1.68771 1.18931 1.28227 255 255 255
 2.65607 0.559289  1.53083 255 255 255
 2.50218 0.647396  1.52052 255 255 255
 2.28335 0.718376  1.47775 255 255 255
2.28304 1.06011 1.46087 255 255 255
1.86772 1.23868 1.41505 255 255 255
2.00302 1.36904 1.42211 255 255 255
1.54025 1.40918 1.24319 255 255 255
 2.59903 0.768924  1.53205 255 255 255
 2.72136 0.497826  1.52821 255 255 255
 2.11387 0.570235  1.43674 255 255 255
 2.60363 0.778579  1.53536 255 255 255
1.63395 1.14315  1.2726 255 255 255
1.98969  1.3113 1.41593 255 255 255
 1.59695 0.999273  1.38295 255 255 255
1.60055 1.38238 1.22912 255 255 255
1.40031 1.21383  1.3187 255 255 255
2.29149 1.06035 1.45585 255 255 255
 2.0271 1.40469 1.42922 255 255 255
 2.61389 0.993241  1.50355 255 255 255
1.25037 1.21072 1.27875 255 255 255
2.48392 1.00291  1.4834 255 255 255
 1.78969 0.793389  1.39406 255 255 255
 2.07083 0.746922  1.44158 255 255 255
 2.28875 0.426844  1.45449 255 255 255
1.79148 1.28678  1.4268 255 255 255
 2.69079 0.641718  1.53683 255 255 255
 1.9718 1.03094 1.41266 255 255 255
  1.8321 0.624228  1.39118 255 255 255
1.68549 1.39722 1.29597 255 255 255
 2.64261 0.638994  1.52992 255 255 255
2.03592 1.23909 1.41599 255 255 255
1.85616 1.53791  1.3234 255 255 255
 2.48281 0.784333  1.48135 255 255 255
 2.83141 0.623446  1.53804 255 255 255
 2.42751 0.892901  1.47672 255 255 255
2.43931 1.17421 1.49026 255 255 255
2.04925 1.37289 1.42965 255 255 255
 2.75561 0.624935  1.52071 255 255 255
 2.30617 0.931268  1.45592 255 255 255
 2.32489 0.473952  1.46194 255 255 255
 2.35165 0.609189  1.47814 255 255 255
  2.2651 0.382418  1.45242 255 255 255
 2.3608 0.66794 1.47209 255 255 255
  1.6273 0.857508  1.40316 255 255 255
1.28786 1.12341 1.28095 255 255 255
1.35268 1.26152 1.28864 255 255 255
 2.53788 0.301882  1.52066 255 255 255
 1.4634 1.48956 1.30007 255 255 255
1.36844 1.26053 1.29068 255 255 255
1.88311 1.21396 1.42086 255 255 255
1.49036 1.07555 1.26548 255 255 255
1.79631  1.2945 1.42533 255 255 255
1.47012  1.0986 1.26527 255 255 255
1.82972 1.37038  1.4301 255 255 255
2.11071 1.37522 1.43314 255 255 255
 2.02987 0.634121  1.43776 255 255 255
 1.4754 1.11792 1.26067 255 255 255
1.56482 1.34387 1.23874 255 255 255
1.61227  1.3874 1.23452 255 255 255
1.72933  1.2924  1.3958 255 255 255
 2.05445 0.450243  1.42263 255 255 255
1.73824 1.64289   1.324 255 255 255
1.59734 1.32676 1.24221 255 255 255
 2.11763 0.973057  1.45365 255 255 255
 2.57472 0.302751  1.52292 255 255 255
1.80156 1.15843 1.36115 255 255 255
1.54851 1.38322 1.24097 255 255 255
1.47677 1.10501 1.26162 255 255 255
2.51569 0.76038 1.49529 255 255 255
 1.65651 0.796558  1.40228 255 255 255
 2.30446 0.713218  1.47402 255 255 255
2.47726  0.9973  1.4865 255 255 255
2.23211 0.76356 1.44373 255 255 255
1.90187 1.20736 1.42418 255 255 255
1.76021 1.34445 1.33262 255 255 255
 1.75358 0.876249  1.40288 255 255 255
 1.76298 0.569565  1.36153 255 255 255
 1.76317 0.570867   1.3606 255 255 255
 2.43459 0.869204   1.4878 255 255 255
1.69071 0.77048 1.39748 255 255 255
 2.32529 0.968911  1.46005 255 255 255
2.55668 0.66828 1.53416 255 255 255
1.67279 0.65178 1.39201 255 255 255
1.56799 1.48382 1.25065 255 255 255
2.31584  1.0389 1.46279 255 255 255
1.63658 1.58957 1.32297 255 255 255
  2.3421 0.987262  1.45489 255 255 255
 2.01774 0.400088  1.42737 255 255 255
 2.16406 0.343805  1.45099 255 255 255
1.62647 1.43667 1.24276 255 255 255
 2.69799 0.489002  1.52531 255 255 255
2.14344 1.16393 1.44347 255 255 255
 2.46779 0.477572  1.52823 255 255 255
  2.3574 0.639259  1.47357 255 255 255
2.50361 1.10427 1.50055 255 255 255
1.62887 1.35411 1.24506 255 255 255
 1.81049 0.492429  1.42698 255 255 255
2.13677 1.33299 1.43673 255 255 255
 2.63184 0.383632  1.51404 255 255 255
 2.73068 0.529912  1.52978 255 255 255
1.54823 1.34261 1.23886 255 255 255
1.54816 1.34278 1.23878 255 255 255
 2.11621 0.793246  1.44221 255 255 255
 2.0889 1.07239 1.44402 255 255 255
 2.41797 0.837611  1.48732 255 255 255
 2.61161 0.397981  1.53211 255 255 255
1.47364 1.09111 1.26857 255 255 255
1.37627 1.17187 1.32553 255 255 255
 1.7115 1.19296 1.28044 255 255 255
2.22775 1.17614  1.4562 255 255 255
1.56855 1.31396 1.24023 255 255 255
1.56839 1.31432 1.24127 255 255 255
1.75056 0.60198 1.38063 255 255 255
 1.59719 0.786441  1.39995 255 255 255
2.66386 0.23826   2.332 255 255 255
1.69917 1.11395 1.26953 255 255 255
  2.23705 0.0911322   1.50284 255 255 255
1.34878 1.25125 1.28791 255 255 255
 2.63815 0.820908   1.5331 255 255 255
1.31096  1.1557 1.28788 255 255 255
 2.20062 0.803496  1.44922 255 255 255
 1.69324 0.929782  1.40897 255 255 255
 2.18982 0.268459  1.44488 255 255 255
2.00054 1.09854 1.41831 255 255 255
 2.02719 0.326503  1.43208 255 255 255
2.11793 1.33842  1.4351 255 255 255
 2.48363 0.459831  1.51545 255 255 255
 2.36995 0.827436  1.48153 255 255 255
 2.44637 0.939707  1.47859 255 255 255
 2.46284 0.555888  1.51176 255 255 255
 2.43985 0.851196  1.48397 255 255 255
2.17469 1.23971 1.44165 255 255 255
2.10537 1.11581 1.44687 255 255 255
1.59098 0.99612 1.26768 255 255 255
 2.45418 0.910067  1.48954 255 255 255
  2.6587 0.570593  1.53329 255 255 255
1.83159  1.5136 1.31966 255 255 255
1.60932 1.45967 1.24638 255 255 255
 2.49339 0.499986  1.53122 255 255 255
 2.54299 0.462398  1.53059 255 255 255
 1.6285 1.44574 1.24746 255 255 255
 2.66053 0.746236  1.52873 255 255 255
1.44307 1.25374 1.27202 255 255 255
 2.67773 0.968957   1.5361 255 255 255
1.56715 1.32268 1.23825 255 255 255
1.37567 1.15545 1.26685 255 255 255
 1.4344 1.42712 1.29841 255 255 255
 2.29883 0.699557   1.4615 255 255 255
   2.387 0.583086  1.47447 255 255 255
2.15037 1.18102 1.44053 255 255 255
 2.11644 0.211969  1.47299 255 255 255
2.17491  1.2777 1.44033 255 255 255
1.32944 1.07409 1.24149 255 255 255
2.51484 0.68907 1.51557 255 255 255
 2.36024 0.535653  1.47042 255 255 255
2.35853 0.53847  1.4647 255 255 255
 1.84942 0.899649   1.4027 255 255 255
1.40701 1.40473 1.33268 255 255 255
 2.56729 0.653269  1.52736 255 255 255
 2.33118 0.220371  1.49223 255 255 255
 2.22566 0.120557  1.49748 255 255 255
 2.23023 0.260597  1.45395 255 255 255
1.86609 1.01286 1.41242 255 255 255
1.56305 1.36262 1.24052 255 255 255
2.23243 1.29316 1.46349 255 255 255
 2.46668 0.306175  1.50474 255 255 255
2.07607 1.00549 1.44689 255 255 255
1.78019 1.32621 1.42461 255 255 255
