ply
format ascii 1.0
element vertex 1147
property float x
property float y
property float z
property uchar red
property uchar green
property uchar blue
end_header
0.0295781 -0.181455   1.34255 255 255 255
 0.416354 -0.655929   1.37183 255 255 255
  0.02522 -0.662789   1.33836 255 255 255
  0.449769 -0.0400238    1.26399 255 255 255
0.457528 -1.11709  1.40664 255 255 255
  0.88453 -0.543034   1.35218 255 255 255
 0.919317 -0.580945   1.36585 255 255 255
 0.628561 -0.553888   1.35244 255 255 255
0.0978325 -0.679504   1.33635 255 255 255
0.0475677 -0.355766   1.35427 255 255 255
 0.795006 -0.527446   1.35222 255 255 255
  1.22612 -0.721618   1.41972 255 255 255
  1.05369 -0.840061   1.41716 255 255 255
  1.01349 -0.693649   1.38485 255 255 255
 0.758173 -0.753611   1.20723 255 255 255
0.0497494 -0.377637   1.35696 255 255 255
 -0.22137 -0.332604    1.2273 255 255 255
0.0450434 -0.659833   1.33736 255 255 255
 0.505811 -0.551867   1.35428 255 255 255
 0.298391 -0.617029   1.35289 255 255 255
0.301139 0.130057  1.24762 255 255 255
0.0837191  -0.22432    1.3428 255 255 255
-0.225808 -0.296714   1.22231 255 255 255
 0.201274 -0.699326   1.35502 255 255 255
 0.634069 -0.944552   1.26467 255 255 255
-0.140228 -0.201758   1.28942 255 255 255
-0.0383304  -0.270549    1.31509 255 255 255
 0.695545 -0.898107   1.26086 255 255 255
0.657713 -1.13974  1.31405 255 255 255
0.678884 -1.19179  1.31498 255 255 255
 0.297755 -0.176545    1.2179 255 255 255
 0.811266 -0.331064   1.36234 255 255 255
-0.237999 -0.371826    1.3728 255 255 255
0.231429 0.148062  1.24728 255 255 255
 0.742124 -0.896491   1.24504 255 255 255
 0.609404 -0.515014   1.35465 255 255 255
 0.356332 -0.698226   1.37474 255 255 255
-0.098135 -0.127057   1.25895 255 255 255
0.0116519 -0.623129   1.35117 255 255 255
-0.178175 -0.291457   1.29542 255 255 255
-0.211743 -0.395217   1.35913 255 255 255
 0.236979 -0.947973   1.35927 255 255 255
  1.06202 -0.899561   1.41235 255 255 255
-0.00227238   -0.467081     1.35933 255 255 255
 0.640441 -0.999994   1.24688 255 255 255
 0.833436 -0.893054   1.26618 255 255 255
0.926476 -1.04079  1.31549 255 255 255
 0.470637 -0.896785   1.39687 255 255 255
 0.131652 -0.687375   1.33611 255 255 255
 0.614176 -0.702094   1.23406 255 255 255
  0.47618 -0.670133   1.37469 255 255 255
 0.416973 -0.796102   1.39076 255 255 255
0.666318 -1.17576  1.30717 255 255 255
-0.0362067  -0.508373     1.3515 255 255 255
-0.0697855  -0.605742    1.35366 255 255 255
 0.686576 -0.719586   1.20311 255 255 255
 0.363755 -0.678828   1.37039 255 255 255
0.602089 -1.16225  1.31079 255 255 255
-0.0424905  -0.361552    1.35487 255 255 255
0.802948 -1.07097  1.32698 255 255 255
-0.184944 -0.410283   1.35964 255 255 255
 0.571878 -0.530341    1.3553 255 255 255
 0.739896 -0.528549   1.35374 255 255 255
   0.455031 -0.00480977     1.24201 255 255 255
  1.02669 -0.736128   1.39926 255 255 255
-0.173817 -0.399066   1.35665 255 255 255
 0.68415 -1.17641  1.31074 255 255 255
 0.266447 -0.577017   1.35521 255 255 255
 0.302112 0.0163092   1.23809 255 255 255
0.0232336 -0.462024   1.35852 255 255 255
 0.749975 -0.871207   1.25775 255 255 255
 0.541811 -0.301854   1.34512 255 255 255
-0.0482742 -0.0429091    1.28629 255 255 255
 0.413071 -0.647722   1.37223 255 255 255
   1.0485 -0.912234   1.41018 255 255 255
-0.160685 -0.248078   1.29905 255 255 255
 0.634046 -0.612874   1.19718 255 255 255
  0.359977 0.00319687    1.23402 255 255 255
0.425278 -1.07777  1.40164 255 255 255
 0.329775 -0.828352   1.39023 255 255 255
 0.541637 -0.532598   1.35322 255 255 255
 0.348853 -0.840967   1.37596 255 255 255
  0.70009 -0.971163   1.24607 255 255 255
-0.0490522   -0.14324    1.33687 255 255 255
0.784628 -1.13547  1.31852 255 255 255
-0.199207 -0.345959   1.28928 255 255 255
0.753769 -0.73331  1.20173 255 255 255
0.000735221    -0.23608        1.32 255 255 255
0.974619 -0.54897  1.37944 255 255 255
-0.188263 -0.297011   1.21757 255 255 255
0.369751 -1.10845  1.39575 255 255 255
 1.00999 -1.02008  1.41337 255 255 255
 0.273392 -0.656671   1.35634 255 255 255
0.0505065 -0.594826   1.35288 255 255 255
-0.174995  -0.19694   1.29273 255 255 255
 0.206942 -0.282508   1.21478 255 255 255
  1.04384 -0.872501   1.40792 255 255 255
 0.221925 -0.247532   1.21699 255 255 255
 0.627112 -0.974129   1.25099 255 255 255
  0.316405 -0.0515124    1.28224 255 255 255
0.790629 -1.15549  1.31837 255 255 255
  0.474705 -0.0428132    1.26965 255 255 255
 0.16074 0.225181  1.25009 255 255 255
0.247925 0.144246  1.24859 255 255 255
-0.00688395   -0.284172     1.34289 255 255 255
  1.00534 -0.695326   1.39706 255 255 255
 0.433602 -0.878365   1.40125 255 255 255
 0.137054 0.0527624   1.24495 255 255 255
-0.211247 -0.293416   1.22589 255 255 255
 0.598257 -0.458634   1.35832 255 255 255
-0.232778 -0.282334   1.22153 255 255 255
 0.826316 -0.912984   1.26677 255 255 255
 0.354423 -0.719162   1.37956 255 255 255
   1.0567 -0.580203   1.37354 255 255 255
-0.186246 -0.191858    1.2939 255 255 255
0.428296 -1.15676  1.41695 255 255 255
 0.556549 -0.633217   1.23233 255 255 255
0.706045 -1.13319  1.31951 255 255 255
-0.199976 -0.346138   1.32514 255 255 255
-0.221599 -0.389032    1.3572 255 255 255
0.381448  -1.0802  1.40191 255 255 255
0.0285123 -0.190826   1.35178 255 255 255
0.443374 -1.03348  1.40145 255 255 255
0.454912 -1.01447  1.40122 255 255 255
-0.0103444  -0.601011    1.35124 255 255 255
-0.0607207  -0.302726    1.29253 255 255 255
 0.362938 0.0821436   1.24207 255 255 255
-0.0673343   -0.53653    1.35387 255 255 255
 0.645587 -0.950677   1.25947 255 255 255
0.214938  -0.2644  1.21676 255 255 255
  0.21131 -0.272693   1.21563 255 255 255
0.463278  -1.0836  1.39684 255 255 255
 0.702955 -0.916378   1.24984 255 255 255
 0.258016 -0.292339   1.21163 255 255 255
 0.752602 -0.949645   1.25743 255 255 255
 0.413776 -0.896039    1.4004 255 255 255
   0.6971 -0.767078   1.19881 255 255 255
 0.583567 -0.443262   1.35848 255 255 255
 0.709574 -0.749342   1.19823 255 255 255
 0.660612 -0.997375    1.2609 255 255 255
 0.758201 -0.579549   1.34143 255 255 255
  1.11034 -0.887478   1.40006 255 255 255
 0.369879 -0.739842   1.37759 255 255 255
-0.0138091  -0.533473    1.35594 255 255 255
 0.228305 -0.940377   1.36787 255 255 255
 0.560234 -0.120289    1.3008 255 255 255
 0.835625 -0.743844   1.19964 255 255 255
0.0616589 -0.185326   1.34188 255 255 255
  0.83253 -0.479871   1.35609 255 255 255
 0.492287 -0.536077   1.35525 255 255 255
 0.818608 -0.879072   1.26802 255 255 255
0.0403034 -0.530545   1.35564 255 255 255
 0.192165 -0.477441    1.3568 255 255 255
 0.464376 -0.909376    1.3975 255 255 255
0.0156122 -0.468953   1.35712 255 255 255
 0.423673 -0.414275   1.35654 255 255 255
  0.34012 -0.887347   1.39619 255 255 255
   1.0429 -0.736573   1.40337 255 255 255
-0.244399 -0.309373   1.22485 255 255 255
  1.06302 -0.895734   1.41276 255 255 255
  1.04789 -0.898432   1.40874 255 255 255
 0.622017 -0.994591   1.25348 255 255 255
0.377784 -1.13603  1.41373 255 255 255
  0.254042 -0.0135259    1.24074 255 255 255
-0.122019  -0.53949   1.35537 255 255 255
0.235914 0.136012  1.24378 255 255 255
-0.354196 -0.304092    1.2142 255 255 255
0.610756 -1.18891  1.31568 255 255 255
  -0.1524 -0.353867   1.36048 255 255 255
 0.365357 -0.725253   1.37905 255 255 255
 0.75199 -0.71728   1.2054 255 255 255
 0.836322 -0.722393   1.19073 255 255 255
0.859522 -1.09816  1.31609 255 255 255
 0.806467 -0.689109   1.20562 255 255 255
 0.686897 -0.935602   1.24916 255 255 255
  1.19297 -0.875362   1.41756 255 255 255
 0.787236 -0.926286   1.25628 255 255 255
0.313744 0.022023   1.2412 255 255 255
-0.0690776  -0.364454    1.35617 255 255 255
0.623098 -1.16588  1.32356 255 255 255
 0.640015 -0.546764    1.3482 255 255 255
0.358084 -1.07206  1.40348 255 255 255
 0.785376 -0.349037   1.36052 255 255 255
-0.014506 -0.405498   1.35537 255 255 255
 0.505952 -0.595079   1.33692 255 255 255
 0.273353 0.0371537   1.24144 255 255 255
 0.639522 -0.803501   1.20256 255 255 255
  0.35035 -0.198335   1.21323 255 255 255
 0.267237 -0.162967   1.21855 255 255 255
 -0.14638 -0.187217   1.25625 255 255 255
-0.276973 -0.373528   1.27309 255 255 255
 0.160218 0.0896962   1.24182 255 255 255
0.0107877 -0.357964    1.3527 255 255 255
0.0568499  -0.40713   1.35822 255 255 255
 0.433966 -0.313184   1.35704 255 255 255
 0.276775 -0.166753   1.21719 255 255 255
0.438192  -1.2226  1.43101 255 255 255
 0.755202 -0.658615   1.19307 255 255 255
  1.12207 -0.954445    1.4252 255 255 255
 0.116128 -0.213867    1.3414 255 255 255
 0.888971 -0.452117   1.35833 255 255 255
 0.107958 -0.431073   1.35631 255 255 255
 0.260516 -0.157231   1.22045 255 255 255
-0.239032 -0.299582    1.2246 255 255 255
-0.263671 -0.107597   1.22188 255 255 255
 0.183924 -0.355266   1.21173 255 255 255
 0.686803 -0.333978   1.35899 255 255 255
 0.995168 -0.581259   1.38159 255 255 255
 0.821291 -0.957496   1.23718 255 255 255
 0.299662 0.0246702   1.23425 255 255 255
 0.689615 -0.968056   1.24427 255 255 255
0.00522954  -0.100771    1.33751 255 255 255
0.812195 -0.64702  1.18774 255 255 255
0.286384 -0.17083  1.21577 255 255 255
 0.868778 -0.818585   1.26353 255 255 255
0.00180051  -0.284922    1.35306 255 255 255
 0.638804 -0.714713    1.2075 255 255 255
 0.684052 -0.359727   1.35898 255 255 255
 0.683671 -0.612971   1.19552 255 255 255
0.576884 -1.18103  1.31685 255 255 255
0.433482 -1.18317  1.41214 255 255 255
 0.644978 -0.363101    1.3554 255 255 255
-0.276657  -0.37446   1.30539 255 255 255
  0.93399 -0.428235   1.34661 255 255 255
 0.670272 -0.891776   1.26219 255 255 255
-0.273306 -0.103403   1.22239 255 255 255
 0.868552 -0.882423   1.26566 255 255 255
 0.169949 0.0890598   1.23178 255 255 255
-0.042729  -0.60237   1.35275 255 255 255
 0.816787 -0.662458   1.19216 255 255 255
0.409597 -1.10359  1.40112 255 255 255
  0.19019 -0.446549   1.35578 255 255 255
   0.36321 -0.0177779    1.24011 255 255 255
-0.0504522   -0.15308     1.3397 255 255 255
0.201981 0.219038  1.24143 255 255 255
0.864353 -0.93504  1.25888 255 255 255
0.578789 -1.15657  1.31885 255 255 255
 0.690388 -0.738597   1.20567 255 255 255
 0.267623 -0.391386   1.20685 255 255 255
 0.687023 -0.288064     1.353 255 255 255
 0.142304 0.0677163   1.24409 255 255 255
-0.051639 -0.371771   1.35591 255 255 255
0.707788 -0.84077  1.25898 255 255 255
 0.723974 -0.234537   1.36073 255 255 255
0.292313 0.128982  1.24672 255 255 255
 0.584958 -0.181579   1.33408 255 255 255
 0.202784 -0.363604   1.20922 255 255 255
  0.508896 -0.0793541    1.27417 255 255 255
0.472421 -1.15261  1.41211 255 255 255
 0.630638 -0.796476   1.19802 255 255 255
0.0716441 -0.316977   1.30988 255 255 255
-0.366079 -0.292055   1.21635 255 255 255
 0.261515 -0.301593   1.20993 255 255 255
 0.341093 0.0162987   1.23231 255 255 255
0.0154897 -0.655954    1.3406 255 255 255
0.264454 0.122213  1.24341 255 255 255
 0.776488 -0.945482   1.26359 255 255 255
 -0.23811 -0.118269   1.22095 255 255 255
 0.238108 -0.413009   1.21161 255 255 255
0.617477 -1.19874  1.31363 255 255 255
 0.149992 -0.651385    1.3484 255 255 255
 -0.283068 -0.0995623    1.22326 255 255 255
0.246369 -0.61579   1.3587 255 255 255
-0.0632666  0.0102696    1.25107 255 255 255
0.0425538 -0.499589   1.35638 255 255 255
 0.799038 -0.910971   1.25906 255 255 255
 0.338896 -0.456749   1.35645 255 255 255
0.353114 -1.11116  1.39279 255 255 255
 0.684493 -0.653578   1.20106 255 255 255
 0.517854 -0.208761   1.33168 255 255 255
 0.517854 -0.208761   1.33168 255 255 255
   0.37685 -0.0268815    1.23985 255 255 255
0.821116 -0.75831  1.20801 255 255 255
  0.01121 -0.285425   1.35076 255 255 255
 0.861157 -0.534756   1.35519 255 255 255
0.0745833 -0.412634   1.35784 255 255 255
0.325111 -0.20974  1.21013 255 255 255
-0.0468593   -0.41507    1.35761 255 255 255
 0.698674 -0.495255   1.35391 255 255 255
 0.187544 -0.345383   1.21219 255 255 255
 0.667824 -0.641258   1.19061 255 255 255
 0.175114 -0.678266   1.34805 255 255 255
 0.238553 -0.356266   1.20718 255 255 255
0.0448383  -0.40358   1.35542 255 255 255
 0.138731 -0.194774   1.33804 255 255 255
 0.230571 -0.375221   1.20728 255 255 255
0.0113427 -0.460051   1.35788 255 255 255
-0.0721872  -0.456522    1.32448 255 255 255
 0.320068 0.0260218   1.23688 255 255 255
 0.353716 -0.158786   1.19626 255 255 255
 0.215095 -0.281624   1.21417 255 255 255
0.613691 -1.40482  1.44349 255 255 255
0.0829605 -0.321809   1.35163 255 255 255
0.0581604 -0.659324   1.33602 255 255 255
 0.657998 -0.916525   1.26379 255 255 255
 0.434899 -0.812263   1.38757 255 255 255
 0.246656 -0.591188   1.35075 255 255 255
0.432215 -1.14267  1.41252 255 255 255
 0.622445 -0.387573   1.35731 255 255 255
0.844956 -1.06003  1.31706 255 255 255
 0.320971 -0.331836   1.21686 255 255 255
 0.332443 -0.347237   1.22136 255 255 255
0.702143 -1.39577   1.4517 255 255 255
  0.65314 -0.731995   1.20628 255 255 255
 0.748552 -0.973417    1.2594 255 255 255
 0.552808 -0.202888   1.33204 255 255 255
0.776587 -1.12872  1.32267 255 255 255
   0.6273 -0.897089   1.25071 255 255 255
 0.262149 -0.172371   1.21909 255 255 255
0.331605 -0.90193  1.39703 255 255 255
 0.642999 -0.767994   1.19432 255 255 255
 0.379067 -0.957526    1.4004 255 255 255
-0.356558 -0.296373   1.21545 255 255 255
-0.175233 -0.553843    1.3563 255 255 255
 0.250175 -0.383592   1.20352 255 255 255
  0.320535 -0.0469913    1.23647 255 255 255
 0.345579 -0.207987   1.21316 255 255 255
  0.57582 -0.349871    1.3578 255 255 255
 0.693187 -0.915138   1.24469 255 255 255
 0.128143 0.0473287   1.24553 255 255 255
 0.168959 -0.438267     1.358 255 255 255
 0.234275 -0.365219   1.20796 255 255 255
 0.759342 -0.555054   1.34394 255 255 255
  0.474389 -0.0255486    1.28074 255 255 255
0.596943 -1.17068  1.30404 255 255 255
 0.258812 -0.721978   1.36895 255 255 255
-0.0168744 -0.0548821    1.26781 255 255 255
 0.257773 -0.310705   1.20991 255 255 255
 0.269438 -0.337276   1.20555 255 255 255
 0.29213 0.156418  1.25011 255 255 255
 0.818784 -0.464857   1.35002 255 255 255
 0.320034 -0.197052   1.21016 255 255 255
0.484795  -1.1538  1.40333 255 255 255
0.287064 0.112412  1.24082 255 255 255
 0.328331 -0.276203   1.20782 255 255 255
 0.529679 -0.208454   1.33259 255 255 255
 0.920861 -0.420956   1.35567 255 255 255
 0.532119 -0.408255   1.35716 255 255 255
 0.292904 -0.357864   1.20557 255 255 255
0.661691 -1.42816  1.45228 255 255 255
-0.203917 -0.352499   1.23268 255 255 255
0.0311127 -0.424042   1.35448 255 255 255
-0.0183409  -0.054774     1.3047 255 255 255
0.352107 -0.22182  1.20936 255 255 255
0.265507 -0.34646  1.20514 255 255 255
 0.277556 -0.319111   1.20545 255 255 255
0.771583 -1.14885  1.31757 255 255 255
 0.206679 -0.353206   1.21027 255 255 255
-0.294274 -0.402361   1.35553 255 255 255
 0.991565 -0.470517   1.38529 255 255 255
0.389747  -1.0256  1.39959 255 255 255
0.0673081 -0.664397   1.33535 255 255 255
-0.288333 -0.109342   1.22385 255 255 255
 0.761689 -0.905936   1.25697 255 255 255
0.698352 -1.17339  1.30929 255 255 255
0.380291 -0.89399  1.40137 255 255 255
  0.62368 -0.439599   1.35711 255 255 255
 0.197928 -0.349458   1.21006 255 255 255
 0.144965 0.0580117    1.2439 255 255 255
 0.469474 -0.973951   1.39534 255 255 255
 0.264708 -0.766967    1.3813 255 255 255
 0.261162 -0.974404   1.38441 255 255 255
0.284344 -0.32767   1.2052 255 255 255
   0.3325 -0.210081   1.21656 255 255 255
-0.0904228  -0.292412    1.29054 255 255 255
-0.243092 -0.128106   1.22093 255 255 255
 0.273463 -0.328478   1.20519 255 255 255
0.624233 -1.19664  1.32027 255 255 255
0.220621 0.142457  1.24582 255 255 255
 0.233165 0.0638741   1.23864 255 255 255
0.0589126 -0.636179   1.34381 255 255 255
0.498436  -1.0856  1.39196 255 255 255
-0.160821 -0.389428   1.35758 255 255 255
 0.218977 -0.272417    1.2145 255 255 255
  0.28059 -0.384965    1.2049 255 255 255
  1.11129 -0.623712   1.38056 255 255 255
  0.12217 -0.451435   1.35628 255 255 255
0.367433 0.091229  1.24611 255 255 255
 0.619125 -0.782054    1.2051 255 255 255
 0.196049 -0.366629   1.20883 255 255 255
 0.648207 -0.893783   1.26243 255 255 255
 0.801544 -0.889423    1.2622 255 255 255
 0.357885 -0.884388   1.40062 255 255 255
 0.737722 -0.643132    1.1862 255 255 255
0.0700753 -0.657475    1.3349 255 255 255
0.698316 -1.20566   1.3142 255 255 255
  0.24508 -0.990735   1.37457 255 255 255
0.676988 -1.22569  1.32079 255 255 255
 0.281036 -0.496188   1.36041 255 255 255
 0.622023 -0.575241   1.34654 255 255 255
0.742011 -0.64868  1.18617 255 255 255
 0.161565 -0.698494   1.33713 255 255 255
0.316804 -0.91955  1.39978 255 255 255
0.0582169 -0.199332   1.34185 255 255 255
 0.379514 -0.757937    1.3892 255 255 255
 0.674944 -0.601341   1.18859 255 255 255
  0.364682 -0.0390462    1.23976 255 255 255
-0.255453 -0.319666   1.21937 255 255 255
0.378407 -0.23977  1.29469 255 255 255
  1.15121 -0.882497    1.4107 255 255 255
0.586885 -1.36985  1.44868 255 255 255
  1.10253 -0.923406   1.41659 255 255 255
 0.426195 -0.721621   1.37756 255 255 255
0.443283 -1.14194  1.41389 255 255 255
-0.0056485  -0.413866    1.35582 255 255 255
 0.743458 -0.659869   1.18522 255 255 255
-0.0161673  -0.455293    1.36012 255 255 255
 0.785423 -0.827638   1.26143 255 255 255
  1.03103 -0.854212   1.41152 255 255 255
-0.00185065  -0.0335822     1.30229 255 255 255
 0.646677 -0.735214   1.20987 255 255 255
0.0100998 -0.374067   1.35499 255 255 255
 0.263072 -0.793491   1.38041 255 255 255
0.271938 -0.83393   1.3936 255 255 255
 0.214422 -0.381574   1.20991 255 255 255
 0.101967 -0.046798   1.33386 255 255 255
-0.229706  -0.46176    1.3574 255 255 255
  1.06014 -0.915062     1.411 255 255 255
 0.713717 -0.887748   1.24242 255 255 255
0.362795 -1.05903  1.39856 255 255 255
 0.714875 -0.897328   1.24269 255 255 255
-0.0591588  -0.316077    1.29248 255 255 255
0.711994 -0.85652   1.2417 255 255 255
-0.200336 -0.350691   1.19744 255 255 255
 0.723736 -0.855396   1.24222 255 255 255
0.725658 -0.88686  1.24373 255 255 255
0.857248 -0.96443  1.26463 255 255 255
0.0765795 -0.662634   1.33514 255 255 255
 0.333289 -0.150709   1.21836 255 255 255
-0.573478 -0.198614   1.36761 255 255 255
 0.726052 -0.895273   1.24099 255 255 255
0.0171631 -0.373398   1.35462 255 255 255
 0.738772 -0.683443   1.20647 255 255 255
 0.140392 -0.280546   1.33659 255 255 255
0.733134 -1.40142  1.46478 255 255 255
 0.793028 -0.692215   1.20813 255 255 255
 0.313399 -0.356684   1.22433 255 255 255
0.0497025 -0.446854   1.35713 255 255 255
-0.133996 -0.381741   1.35817 255 255 255
0.497787 -1.31809  1.44472 255 255 255
   0.4347 -0.655709   1.37746 255 255 255
-0.0579045  -0.478557    1.30627 255 255 255
-0.142896 -0.465009   1.35585 255 255 255
-0.0160278 -0.0611759    1.30727 255 255 255
-0.0270568  -0.440479    1.35915 255 255 255
-0.153913 -0.388246   1.35918 255 255 255
0.0783331 -0.497913   1.35799 255 255 255
-0.225553 -0.396086   1.35667 255 255 255
0.0484003 -0.638681     1.346 255 255 255
  0.10953 -0.598039   1.34856 255 255 255
 -0.191111 -0.0483373    1.23708 255 255 255
 0.386114 -0.247937   1.22687 255 255 255
-0.0365516   0.136576    1.29095 255 255 255
0.176653  0.11907  1.24948 255 255 255
-0.0948696   0.133852    1.24738 255 255 255
 0.359965 -0.320844   1.22237 255 255 255
-0.348003  0.252862   1.24629 255 255 255
-0.0383165 -0.0286997    1.27228 255 255 255
 0.743213 -0.356864   1.34185 255 255 255
-0.202647 -0.112449   1.23274 255 255 255
  0.254014 -0.0522971    1.22238 255 255 255
-0.00191274    0.490236     1.31942 255 255 255
 0.0147006 -0.0348831    1.31244 255 255 255
0.0275091  0.145323   1.29515 255 255 255
 0.625635 -0.306287    1.3565 255 255 255
 0.452514 -0.261026   1.26197 255 255 255
  0.356768 -0.0367259    1.24023 255 255 255
0.00677291  -0.428474     1.3604 255 255 255
   0.18579 -0.0140856    1.25092 255 255 255
-0.115316 0.0674596   1.25145 255 255 255
0.307364 0.111543  1.24268 255 255 255
 0.445978 -0.692843   1.37539 255 255 255
 0.221702 -0.119268   1.25237 255 255 255
 0.830446 -0.255609   1.35516 255 255 255
 0.512216 -0.526233   1.34352 255 255 255
 0.119889 -0.233489   1.34153 255 255 255
0.567101 -0.10089  1.27758 255 255 255
-0.0199299     0.1358    1.30994 255 255 255
-0.298927  0.271614   1.27891 255 255 255
0.0693343  0.165184   1.27461 255 255 255
-0.0998785  -0.332456    1.34946 255 255 255
0.0615792 -0.374917   1.35765 255 255 255
 0.721857 -0.398059   1.36194 255 255 255
 0.338457 0.0774451   1.24401 255 255 255
 0.238056 0.0465465   1.23897 255 255 255
 0.750046 -0.180183   1.36964 255 255 255
 0.0126517 -0.0742069    1.32003 255 255 255
 0.309281 -0.661098   1.35625 255 255 255
  0.81948 -0.210834   1.35291 255 255 255
-0.170014 -0.218765   1.29348 255 255 255
 -0.16704 -0.249729   1.29682 255 255 255
0.07185 0.47824 1.32333 255 255 255
 0.0266146 0.00865657    1.22498 255 255 255
-0.548344  0.240343   1.28486 255 255 255
-0.0662701   0.192031    1.27879 255 255 255
 0.304908 -0.690996   1.35671 255 255 255
-0.0351832   0.450432    1.31496 255 255 255
 0.586144 -0.508103    1.3517 255 255 255
 0.259666 0.0379367   1.24246 255 255 255
0.173107 -0.70066  1.32388 255 255 255
0.251706 0.131404  1.24373 255 255 255
-0.497371  0.281709   1.30121 255 255 255
0.00737548   0.412478    1.31758 255 255 255
-0.565918  0.208403   1.28652 255 255 255
-0.0252428 -0.0390617    1.27582 255 255 255
 0.318622 -0.189007   1.21472 255 255 255
-0.124283 -0.182768     1.281 255 255 255
 0.773352 -0.509545   1.35532 255 255 255
 0.816776 -0.472931   1.35701 255 255 255
-0.132269 0.0998207   1.25216 255 255 255
-0.132356 0.0986862   1.24837 255 255 255
 0.358678 0.0865869   1.23997 255 255 255
-0.0472091  0.0622987    1.28798 255 255 255
 -0.115076 -0.0106982    1.26858 255 255 255
0.0657193 -0.681239   1.33658 255 255 255
-0.0943023 0.00592104    1.27821 255 255 255
  0.40034 -0.881739   1.39982 255 255 255
-0.0365687   -0.19326    1.34135 255 255 255
0.0195862  0.245151   1.31926 255 255 255
 0.753691 -0.499019   1.35484 255 255 255
 0.336463 -0.201982   1.21696 255 255 255
-0.144244 0.0635127   1.23994 255 255 255
   0.46622 -0.0148239     1.2399 255 255 255
-0.381922 -0.063026    1.2339 255 255 255
 0.0457466 -0.0470423    1.33462 255 255 255
0.0992389  0.106939   1.24502 255 255 255
0.322357 0.116629  1.24686 255 255 255
-0.109776  0.538529   1.32487 255 255 255
-0.263025   0.33355   1.31917 255 255 255
  0.550077 -0.0760485     1.2719 255 255 255
0.00279405   0.511188    1.31891 255 255 255
 0.171546 -0.240961   1.33754 255 255 255
 0.704196 -0.586629   1.34464 255 255 255
-0.150164  0.635882    1.3251 255 255 255
-0.0165734  -0.377652    1.35407 255 255 255
  0.455685 -0.0481791    1.26195 255 255 255
 0.724446 -0.583123    1.3454 255 255 255
-0.455576  0.261614    1.2689 255 255 255
 0.083251 0.0602657   1.25336 255 255 255
0.0910337 -0.380828    1.3559 255 255 255
-0.0519297  0.0192581    1.26405 255 255 255
0.157297 0.152561  1.23094 255 255 255
0.157976  0.15333  1.23164 255 255 255
   0.285851 -0.00231547     1.23669 255 255 255
-0.0332833  0.0119178    1.25761 255 255 255
-0.0868451  0.0338805    1.27621 255 255 255
0.0603869 -0.499863    1.3551 255 255 255
 0.149261 -0.201446   1.33799 255 255 255
 0.796336 -0.479012   1.35588 255 255 255
-0.277641  0.195833   1.24763 255 255 255
-0.202601   0.43649   1.32429 255 255 255
0.0109608  0.433894   1.32426 255 255 255
 0.569851 -0.657975   1.22857 255 255 255
0.0327744   0.37797   1.32434 255 255 255
-0.012994 0.0999985   1.29153 255 255 255
-0.0480489   0.553693    1.32943 255 255 255
-0.0480489   0.553693    1.32943 255 255 255
0.733509 -0.31157  1.35984 255 255 255
-0.224335  0.274419   1.31843 255 255 255
0.0329521  0.388768   1.32048 255 255 255
0.411774 -0.75083  1.37636 255 255 255
0.300094  0.16832  1.24813 255 255 255
0.135106 0.128072  1.23669 255 255 255
0.286432 0.177539   1.2455 255 255 255
0.038674 0.269734  1.31915 255 255 255
 0.418842 -0.876092   1.40016 255 255 255
0.0408882  0.151252   1.27691 255 255 255
 0.252084 -0.305857    1.2111 255 255 255
-0.264345  0.319671   1.31362 255 255 255
 0.302695 -0.189505   1.21591 255 255 255
0.265649 0.147825  1.24667 255 255 255
-0.0786486    0.52657    1.33157 255 255 255
  0.43257 -0.705819   1.37534 255 255 255
 -0.458905 -0.0226048    1.23605 255 255 255
-0.278571  0.287074   1.30663 255 255 255
 0.117364 -0.286027   1.34503 255 255 255
 0.629394 -0.553986   1.35348 255 255 255
 0.476583 -0.954567   1.39112 255 255 255
 0.426838 -0.564978   1.34984 255 255 255
  -0.17152 -0.0455425     1.2609 255 255 255
-0.223889 -0.272085    1.2307 255 255 255
 0.718853 -0.378598   1.33433 255 255 255
 0.116189 -0.690444   1.33167 255 255 255
0.396687 -0.67026  1.35735 255 255 255
-0.208522 -0.302308    1.2206 255 255 255
 0.742143 -0.582854   1.34426 255 255 255
 0.326582 0.0973071   1.24408 255 255 255
-0.128333  0.201527   1.27913 255 255 255
 0.320868 -0.763258   1.37464 255 255 255
 0.226059 -0.367339   1.20971 255 255 255
-0.257517 -0.102241   1.22583 255 255 255
 0.381202 -0.584098   1.35055 255 255 255
0.0116181 -0.623167   1.35118 255 255 255
 0.811422 -0.331033   1.36113 255 255 255
  1.35965 -0.528165   1.41141 255 255 255
 0.396123 -0.827278   1.40013 255 255 255
0.386198  0.11588  1.24763 255 255 255
-0.0043968   0.121354    1.30753 255 255 255
-0.0224537   0.173379      1.307 255 255 255
0.0312666  0.544899   1.33539 255 255 255
0.0161915  0.210822   1.31028 255 255 255
0.224377 0.137427  1.23678 255 255 255
-0.0311021    0.15037    1.31252 255 255 255
-0.137702  0.629887   1.34025 255 255 255
 0.360125 -0.202545   1.21043 255 255 255
  0.87667 -0.437259   1.35874 255 255 255
-0.261376  0.280526   1.31379 255 255 255
-0.20586 -0.31741  1.22119 255 255 255
 0.218426 -0.253746   1.20975 255 255 255
-0.129983   0.63351   1.32738 255 255 255
 0.253842 -0.173463   1.21552 255 255 255
 0.634902 -0.588268   1.34397 255 255 255
-0.125144  0.551198   1.33176 255 255 255
-0.146974  0.526398   1.32933 255 255 255
0.126356 0.165307  1.24588 255 255 255
0.0737742 0.0563474   1.24822 255 255 255
-0.126413  0.586356   1.32994 255 255 255
 0.149209 -0.652154   1.34075 255 255 255
  0.28903 -0.135433   1.22178 255 255 255
0.136431 0.403663   1.3198 255 255 255
-0.000112382    0.0985195      1.30004 255 255 255
 0.313876 -0.183259   1.21457 255 255 255
0.426789 -1.03856  1.40249 255 255 255
-0.00178602    0.399229     1.32639 255 255 255
-0.214502  0.440882   1.32068 255 255 255
0.011291  0.49162   1.3231 255 255 255
-0.0883816   0.492634    1.32909 255 255 255
-0.0419427   0.091632    1.28734 255 255 255
-0.123063  0.567052   1.32469 255 255 255
0.637504 -0.37522   1.3552 255 255 255
 0.112229 -0.275229   1.34728 255 255 255
-0.246706  0.325257   1.31486 255 255 255
0.128078 0.432179  1.32785 255 255 255
0.0885059  0.396239   1.31963 255 255 255
0.349664 0.211727    1.314 255 255 255
0.0451466 -0.252616    1.3457 255 255 255
 0.416655 -0.795588   1.38985 255 255 255
0.0806226  0.101519   1.24425 255 255 255
 0.476057 -0.981636   1.39453 255 255 255
0.332847 -0.29956  1.21413 255 255 255
 0.433545 -0.878357   1.40084 255 255 255
-0.00132229    0.465275      1.3223 255 255 255
-0.533427  0.242801   1.29982 255 255 255
-0.0529051    0.38628    1.32811 255 255 255
0.0500629 -0.123332   1.33831 255 255 255
 0.433503 -0.186485   1.26391 255 255 255
-0.27016 0.283077  1.31213 255 255 255
-0.0899672   0.504224    1.32854 255 255 255
 0.255989 -0.701846   1.36946 255 255 255
-0.0481492   0.400394    1.33015 255 255 255
0.317476 0.261454  1.31158 255 255 255
 0.292797 -0.370985   1.21151 255 255 255
 0.267158 -0.162901   1.21833 255 255 255
-0.237247  0.271843   1.31865 255 255 255
 0.598465 -0.458585   1.35766 255 255 255
 0.598279 -0.458304   1.35633 255 255 255
 0.300904 -0.374183   1.21055 255 255 255
-0.39562 0.231917   1.2528 255 255 255
-0.557903  0.190319   1.28762 255 255 255
-0.535272  0.130234   1.27334 255 255 255
-0.581687  0.150406   1.27725 255 255 255
-0.552813  0.156844   1.28101 255 255 255
-0.0311684   0.551031    1.32977 255 255 255
 0.316437 -0.569671   1.35505 255 255 255
  0.556488 -0.0104272    1.30267 255 255 255
 0.351897 -0.286197   1.21997 255 255 255
0.0400683 -0.530522   1.35641 255 255 255
 0.667573 -0.529676   1.35456 255 255 255
  0.571697 0.00289707    1.29895 255 255 255
0.0945526 -0.166595   1.33893 255 255 255
0.111479 0.383687  1.31643 255 255 255
-0.0761383   0.431419    1.31747 255 255 255
0.338985 0.206023  1.30969 255 255 255
-0.00947311    0.395322     1.31571 255 255 255
0.10283 0.38676 1.31939 255 255 255
 0.482546 -0.858867   1.39896 255 255 255
-0.0745299   0.542343    1.32902 255 255 255
0.382819 0.193432  1.32047 255 255 255
-0.151137 0.0685206   1.23371 255 255 255
 0.404828 -0.873158   1.39991 255 255 255
-0.00475428    0.492323     1.32283 255 255 255
  -0.036296 -0.00198302     1.27105 255 255 255
 0.369338 -0.789873   1.39195 255 255 255
0.227076 0.204341   1.2455 255 255 255
0.340916 0.214716  1.31236 255 255 255
 0.722562 -0.326864   1.33708 255 255 255
 0.378318 -0.499224   1.35606 255 255 255
 -0.0866899 -0.00750424     1.28123 255 255 255
-0.0869449 -0.0071341    1.28251 255 255 255
  0.452085 0.00513903     1.2424 255 255 255
-0.135521  0.593503   1.33343 255 255 255
0.0144153 -0.388942   1.35555 255 255 255
 0.466552 -0.671764   1.37729 255 255 255
 0.502526 -0.985121   1.39518 255 255 255
-0.268263  0.308213   1.30377 255 255 255
 0.857023 -0.432213   1.35782 255 255 255
0.0317867  0.411889   1.32231 255 255 255
0.322825 -0.98054  1.39587 255 255 255
 0.229808 -0.520812   1.35712 255 255 255
 0.596333 -0.448964   1.35689 255 255 255
 0.145044 -0.584548     1.354 255 255 255
-0.197637  0.594985   1.32288 255 255 255
0.0563855 -0.421774   1.35576 255 255 255
-0.109207  0.575869   1.32833 255 255 255
 0.614846 -0.421052   1.35676 255 255 255
 0.359418 -0.214925   1.21664 255 255 255
0.207114  0.18505  1.23948 255 255 255
0.139765 0.177978  1.24767 255 255 255
-0.0748217  -0.243079    1.28756 255 255 255
-0.0502386   0.510288    1.33517 255 255 255
0.321043 0.143501  1.24898 255 255 255
  0.26541 -0.292396   1.21016 255 255 255
 0.375047 -0.881934    1.3993 255 255 255
-0.159318  0.561697   1.32998 255 255 255
 0.710488 -0.574935   1.34116 255 255 255
0.370178 0.192021  1.31659 255 255 255
 0.414758 -0.475552   1.35589 255 255 255
-0.000265641     0.163047      1.31205 255 255 255
0.0958483 -0.262335   1.34788 255 255 255
-0.533203  0.237871   1.30754 255 255 255
 -0.329364 -0.0896909    1.20971 255 255 255
 0.0240651 -0.0902512    1.33686 255 255 255
 0.300621 -0.210303   1.21222 255 255 255
-0.018849  0.480516   1.32416 255 255 255
 0.653775 -0.549577   1.35083 255 255 255
 0.368931 0.0961628   1.24401 255 255 255
 0.021799 -0.647867   1.34159 255 255 255
 0.246009 -0.337948   1.20829 255 255 255
 0.454304 0.0802812   1.24548 255 255 255
  0.245488 -0.0108974     1.2423 255 255 255
0.130575 -0.23481  1.34328 255 255 255
0.130618 -0.23464  1.34262 255 255 255
0.027887 0.364158  1.32509 255 255 255
 0.281562 -0.180751   1.21507 255 255 255
 0.281673 -0.180881   1.21576 255 255 255
-0.0468223  -0.415032    1.35749 255 255 255
 0.487663 -0.412859   1.36074 255 255 255
0.421764 -0.91089  1.40084 255 255 255
-0.135513  0.571849   1.32999 255 255 255
0.429999 -0.91915  1.40079 255 255 255
-0.247142  0.286996   1.32062 255 255 255
 0.456858 0.0739581   1.24673 255 255 255
 0.249971 -0.328661   1.20892 255 255 255
-0.198227  0.209136   1.24557 255 255 255
0.211113  -0.2905    1.214 255 255 255
0.0191744  0.478039    1.3236 255 255 255
 0.272785 -0.176956   1.21627 255 255 255
 0.272899 -0.176918   1.21634 255 255 255
0.242109 -0.34672  1.20774 255 255 255
  0.92081 -0.373676   1.35855 255 255 255
 0.389251 -0.801394   1.38995 255 255 255
0.027868 0.225326  1.31745 255 255 255
-0.160717 -0.389376   1.35718 255 255 255
 0.961725 -0.377111   1.36001 255 255 255
-0.166304 0.0608454   1.23171 255 255 255
 0.460603 0.0834513    1.2472 255 255 255
 -0.245557 -0.0750434    1.22357 255 255 255
  0.33509 0.0896459   1.24049 255 255 255
 0.31582 -0.20593   1.2113 255 255 255
-0.0842716  0.0737573    1.26693 255 255 255
 0.218463 -0.326054   1.21154 255 255 255
0.238276 -0.35625  1.20853 255 255 255
0.253803 -0.31968  1.20924 255 255 255
0.0771625 0.0898831   1.24574 255 255 255
 0.684612 -0.589218   1.34105 255 255 255
-0.540849  0.155688   1.28476 255 255 255
-0.535112  0.161257   1.27568 255 255 255
-0.0104614  -0.135959    1.33858 255 255 255
  0.12756 -0.662145   1.34619 255 255 255
-0.0347158   0.525441    1.33188 255 255 255
 0.572528 -0.279127   1.34433 255 255 255
 0.384099 -0.166815    1.2193 255 255 255
-0.00785809    0.382077     1.32464 255 255 255
0.126424 0.196379  1.24222 255 255 255
 0.32281 0.223402  1.31473 255 255 255
 0.267622 -0.410519   1.21464 255 255 255
-0.0607409   0.484316    1.33735 255 255 255
0.162237 0.235749  1.24156 255 255 255
 0.147401 -0.276772   1.33649 255 255 255
-0.549696  0.142455   1.27505 255 255 255
 0.395872 -0.721683   1.37658 255 255 255
-0.580554  0.142969   1.27202 255 255 255
-0.351569  0.274738   1.24654 255 255 255
 0.153207 -0.238408   1.34081 255 255 255
 0.76009 -0.55506  1.34467 255 255 255
   0.196 -0.25165  1.33506 255 255 255
 0.381942 -0.165726   1.22627 255 255 255
-0.0820343   0.507946    1.33005 255 255 255
   0.36699 -0.0472854    1.24104 255 255 255
0.0688616  -0.61268   1.35189 255 255 255
-0.219706 -0.125594   1.21888 255 255 255
 0.747922 -0.590514   1.34487 255 255 255
0.0433221 -0.384392   1.35599 255 255 255
0.115482 0.173377  1.24617 255 255 255
-0.0665872   0.571112    1.32961 255 255 255
 0.374727 -0.175438    1.2237 255 255 255
 0.445527 -0.812962   1.38996 255 255 255
-0.0414982  0.0994635    1.28491 255 255 255
0.0877115   0.26271   1.31768 255 255 255
-0.111305 -0.401857   1.35612 255 255 255
 0.119732 -0.222014   1.34137 255 255 255
 0.147064 0.0981843   1.22948 255 255 255
0.225215 0.172776  1.25173 255 255 255
 0.359972 -0.733573   1.37837 255 255 255
0.0654553  0.492096   1.32677 255 255 255
 0.583953 -0.337138   1.35781 255 255 255
0.315292 0.209747  1.31011 255 255 255
-0.249714 -0.078433   1.21707 255 255 255
 0.0891105 -0.0400943    1.33525 255 255 255
 0.160133 -0.678111    1.3479 255 255 255
-0.0903962 -0.0152981    1.28193 255 255 255
 0.362752 -0.825746   1.38533 255 255 255
-0.0951223   0.513346    1.33069 255 255 255
 0.363139 -0.606029   1.35316 255 255 255
0.00273849   0.519551    1.32237 255 255 255
 0.665057 -0.494387   1.42851 255 255 255
  0.10908 -0.597953   1.34825 255 255 255
  1.08944 -0.544304    1.3831 255 255 255
 0.356294 -0.532743   1.33273 255 255 255
 1.14422 -1.07814  1.43549 255 255 255
  0.86778 -0.264545   1.36065 255 255 255
 0.967067 -0.425117   1.36803 255 255 255
   1.286 -1.00272  1.44753 255 255 255
 0.469887 -0.601286   1.30838 255 255 255
  1.10055 -0.703135   1.36561 255 255 255
  1.17021 -0.981545    1.4554 255 255 255
 1.20682 -1.24637  1.45481 255 255 255
  0.17597 -0.385362   1.24525 255 255 255
  1.21881 -0.606245    1.3857 255 255 255
 0.608327 -0.937128   1.26197 255 255 255
0.878426 -1.28203  1.36862 255 255 255
 1.06953 -1.46593  1.45765 255 255 255
    1.36 -1.20469  1.46766 255 255 255
   0.521753 -0.00851863      1.2797 255 255 255
 0.825225 -0.739337   1.19362 255 255 255
  0.99882 -0.738451   1.40176 255 255 255
 0.665532 -0.748855   1.19406 255 255 255
 0.768569 -0.685674   1.20432 255 255 255
 0.324468 -0.216269   1.21951 255 255 255
 0.521401 -0.197475   1.32536 255 255 255
  0.54349 -0.430553   1.36152 255 255 255
1.28188 -1.0709 1.42235 255 255 255
   1.0414 -0.998886   1.41677 255 255 255
 0.351168 -0.587939   1.34962 255 255 255
 0.536527 -0.656708   1.22289 255 255 255
 0.958463 -0.788261   1.38357 255 255 255
 0.238399 -0.537923   1.34623 255 255 255
0.991403    -1.01   1.4092 255 255 255
0.363725 -0.17735  1.22679 255 255 255
  0.529595 -0.0814733    1.26946 255 255 255
  0.420796 -0.0435464    1.23171 255 255 255
 0.91199 -1.05388  1.31596 255 255 255
0.804587 -0.43539  1.34659 255 255 255
0.974036 -1.34483  1.45436 255 255 255
  1.0712 -1.23828  1.46153 255 255 255
  1.45052 -0.979772   1.44752 255 255 255
0.664582 -1.16575  1.29855 255 255 255
 0.985125 -0.359577   1.35537 255 255 255
  0.362062 -0.0327189    1.23556 255 255 255
 1.18402 -1.29845  1.43304 255 255 255
 1.36269 -1.35605  1.47816 255 255 255
 0.280462 -0.668192    1.3585 255 255 255
 1.02685 -1.22804  1.45712 255 255 255
 1.17525 -1.42849  1.44489 255 255 255
 1.10587 -1.01951  1.43299 255 255 255
 1.22379 -1.09744  1.42956 255 255 255
  1.2256 -1.27459  1.44394 255 255 255
0.956983 -0.34189  1.37068 255 255 255
 0.683841 -0.666429   1.20491 255 255 255
 1.27404 -1.41642  1.44213 255 255 255
 1.28265 -1.26281  1.47998 255 255 255
 0.308323 -0.758039   1.36174 255 255 255
 0.582407 -0.562044   1.34313 255 255 255
 0.869384 -0.255383   1.36028 255 255 255
 1.50546 -1.10465  1.46689 255 255 255
 0.17409 -0.70152  1.33424 255 255 255
 1.21727 -1.44119  1.47087 255 255 255
  0.456233 -0.0289528    1.23711 255 255 255
   1.2314 -0.668236   1.39742 255 255 255
 1.24278 -1.22214  1.45523 255 255 255
 1.02323 -1.56983  1.47018 255 255 255
 0.644376 -0.195774   1.35714 255 255 255
0.0541282 -0.189083   1.32957 255 255 255
0.823757 -1.43857  1.44857 255 255 255
 0.299831 -0.695623   1.34461 255 255 255
 1.14631 -1.42813   1.4676 255 255 255
 0.646833 -0.751722   1.19955 255 255 255
 0.943337 -0.467047   1.35831 255 255 255
 0.964545 -0.307633    1.3607 255 255 255
 0.651632 -0.973481   1.25248 255 255 255
0.651614 -0.97329  1.25119 255 255 255
  1.19679 -0.982407   1.42405 255 255 255
 1.30655 -1.40458   1.4739 255 255 255
 0.788717 -0.982261   1.24116 255 255 255
 0.745001 -0.992915   1.25608 255 255 255
 0.665115 -0.175977   1.35363 255 255 255
 0.685383 -0.799845   1.22147 255 255 255
 0.419564 -0.955262   1.39584 255 255 255
 0.952884 -0.538461   1.37507 255 255 255
  1.56955 -0.817231    1.4717 255 255 255
 1.24991 -1.43681  1.41041 255 255 255
0.845748 -1.46971  1.42405 255 255 255
 0.585766 -0.511417   1.35023 255 255 255
 1.11522 -0.65943  1.35469 255 255 255
 0.556086 -0.359235   1.36084 255 255 255
0.75108 -1.0938 1.31888 255 255 255
0.850195 -1.45056  1.43654 255 255 255
  1.14832 -0.658761   1.39767 255 255 255
 0.278599 -0.433006    1.2243 255 255 255
 0.535418 0.0836676   1.30788 255 255 255
0.773892 -1.45878  1.45506 255 255 255
 1.31563 -1.24432  1.45863 255 255 255
  1.50507 -0.919811   1.45832 255 255 255
 0.845298 -0.968321   1.25955 255 255 255
 0.947444 -0.507514   1.37482 255 255 255
 1.1224 -1.5565 1.41997 255 255 255
  1.38131 -0.730314   1.41698 255 255 255
0.823922 -0.91401  1.26699 255 255 255
 1.59578 -1.09911   1.4774 255 255 255
 1.23245 -1.40824  1.46307 255 255 255
 0.274655 -0.822734   1.39055 255 255 255
0.867286 -1.20124  1.31685 255 255 255
0.607617 -0.17036  1.30838 255 255 255
  1.10237 -0.765413   1.38788 255 255 255
 0.532712 -0.459048   1.35714 255 255 255
0.723656 -1.08708  1.31847 255 255 255
 0.647627 -0.695332    1.2025 255 255 255
 0.616509 -0.806112   1.19463 255 255 255
 1.08811 -1.43664  1.44969 255 255 255
 0.624221 -0.750334   1.20093 255 255 255
  1.50085 -0.896653   1.46288 255 255 255
0.949778 -1.47307  1.46188 255 255 255
  1.46217 -0.967436   1.44811 255 255 255
 1.10872 -1.37554   1.4515 255 255 255
0.276149 -0.78266  1.38074 255 255 255
0.860554 -1.16466  1.31546 255 255 255
 0.232509 -0.557641   1.34093 255 255 255
 0.164938 -0.737816   1.29997 255 255 255
0.719868 -1.06607  1.32251 255 255 255
 1.42194 -1.03148  1.44552 255 255 255
 0.259966 -0.787401   1.37375 255 255 255
 0.301358 -0.824324   1.38735 255 255 255
 1.00943 -0.92034  1.40086 255 255 255
 1.37798 -1.24077  1.46282 255 255 255
 0.355581 -0.469025   1.35744 255 255 255
0.617706 -0.78898  1.19925 255 255 255
 0.253402 -0.656911   1.36033 255 255 255
 0.844699 -0.971367   1.25198 255 255 255
 0.414897 -0.323505   1.36279 255 255 255
 0.997923 -0.966819   1.39592 255 255 255
 0.453923 -0.209763   1.24539 255 255 255
  1.17713 -0.517863   1.38566 255 255 255
 0.490515 -0.432998   1.35818 255 255 255
  1.32275 -0.965393   1.44625 255 255 255
 0.409376 -0.310054   1.34744 255 255 255
 0.946639 -0.412631    1.3483 255 255 255
 0.682081 -0.350979   1.33828 255 255 255
  1.0523 -1.22206  1.45649 255 255 255
  1.44925 -0.692158   1.43033 255 255 255
 0.571138 -0.547525   1.34414 255 255 255
 1.49458 -1.23493  1.48143 255 255 255
  0.69949 -0.690981   1.21134 255 255 255
 0.257015 -0.557529   1.36858 255 255 255
 1.37251 -1.09529  1.44328 255 255 255
 0.617644 -0.531936   1.35134 255 255 255
0.525647  -0.1148  1.29991 255 255 255
 0.627654 -0.366561   1.35728 255 255 255
 0.685851 -0.640199   1.19796 255 255 255
 0.961042 -0.943241   1.40035 255 255 255
 1.26391 -1.42347    1.462 255 255 255
 0.409827 -0.851019   1.40917 255 255 255
  1.20477 -0.684207   1.40149 255 255 255
  0.438762 -0.0282604    1.23142 255 255 255
 0.671699 -0.969977   1.25705 255 255 255
-0.135233 -0.388052   1.35381 255 255 255
 1.19401 -1.39384  1.43525 255 255 255
 1.10298 -1.30901  1.43593 255 255 255
  1.06053 -0.975932   1.43467 255 255 255
 0.761032 -0.628241    1.1891 255 255 255
 0.567846 -0.415158   1.36032 255 255 255
  1.33244 -0.900469    1.4482 255 255 255
 0.932097 -0.520872   1.35356 255 255 255
0.634928 -1.22019  1.31648 255 255 255
 0.359069 -0.292106   1.21218 255 255 255
 0.588767 -0.214905   1.32849 255 255 255
  1.05565 -0.926183   1.40645 255 255 255
0.767752 -1.14829  1.32013 255 255 255
 1.16607 -1.45412  1.46432 255 255 255
 0.552967 0.0679494    1.3009 255 255 255
 0.51345 0.103759  1.30871 255 255 255
 0.430925 -0.402458   1.35775 255 255 255
  1.14101 -0.642633   1.37598 255 255 255
0.789934 -1.19998  1.30645 255 255 255
 1.20592 -1.17343  1.44831 255 255 255
 0.905265 -0.780081   1.40315 255 255 255
  1.39141 -0.990657   1.45175 255 255 255
 1.52582 -1.12772  1.46383 255 255 255
 1.07605 -1.46012   1.4266 255 255 255
 0.549998 0.0185296   1.29166 255 255 255
-0.0450652  -0.466617    1.31389 255 255 255
  0.25385 -0.646213   1.35272 255 255 255
 0.633608 -0.201088   1.35245 255 255 255
 0.465754 -0.031884   1.26796 255 255 255
  1.05002 -0.863112   1.41472 255 255 255
  1.54571 -0.869462   1.43335 255 255 255
 1.45366 -1.18055  1.46372 255 255 255
0.907116 -1.10955  1.30837 255 255 255
0.739707 -0.99034  1.26541 255 255 255
0.800071 -1.42933  1.45197 255 255 255
 0.641865 -0.149263   1.35077 255 255 255
 1.53696 -1.11036  1.47264 255 255 255
 0.982719 -0.760001   1.40504 255 255 255
0.757705 -1.20541  1.31318 255 255 255
 0.223519 -0.600558   1.30706 255 255 255
 1.35338 -0.73541  1.41942 255 255 255
 0.272547 -0.875691   1.39192 255 255 255
0.839951 -1.08009  1.31729 255 255 255
  0.73294 -0.649353   1.18659 255 255 255
 0.331981 -0.062882   1.27947 255 255 255
 0.66173 -1.00498  1.25059 255 255 255
  1.26772 -0.822775    1.3856 255 255 255
 1.43728 -1.24368  1.48277 255 255 255
 0.582821 -0.219978   1.30711 255 255 255
 0.763754 -0.642851    1.1882 255 255 255
 1.24143 -1.37584  1.46356 255 255 255
 0.748387 -0.108919   1.36632 255 255 255
0.986939 -1.23963  1.45377 255 255 255
 1.35734 -1.24988  1.47201 255 255 255
0.893851 -1.13303  1.30628 255 255 255
 1.40369 -0.85606  1.45173 255 255 255
 0.997201 -0.846835   1.40179 255 255 255
 0.753879 -0.753709   1.19469 255 255 255
  1.29027 -0.693195   1.41503 255 255 255
0.809375 -1.38973  1.44955 255 255 255
 0.831369 -0.981855   1.23993 255 255 255
 1.04023 -1.54214  1.44023 255 255 255
 0.287902 -0.676878    1.3594 255 255 255
  1.07569 -0.809044   1.41246 255 255 255
0.598888 -1.19707  1.31316 255 255 255
 0.368442 -0.907078   1.40256 255 255 255
 0.546761 -0.545025   1.34676 255 255 255
 0.939954 -0.485025   1.37047 255 255 255
  1.53782 -0.937808   1.43995 255 255 255
 0.832461 -0.830394   1.26818 255 255 255
  0.79473 -0.446815   1.35665 255 255 255
 0.363143 -0.358175   1.21298 255 255 255
 0.645348 -0.657188   1.21289 255 255 255
0.819192 -1.15575  1.31459 255 255 255
0.0108679 -0.281215   1.33579 255 255 255
 0.685193 -0.953782   1.24959 255 255 255
 0.940773 -0.579839   1.36788 255 255 255
 1.11976 -1.46879  1.45774 255 255 255
 0.540627 -0.117372   1.29874 255 255 255
 0.668841 -0.793412   1.22885 255 255 255
 0.274067 -0.433631   1.26901 255 255 255
0.744572 -1.23342  1.31351 255 255 255
0.723958  -1.2325  1.31499 255 255 255
  1.46133 -0.750452   1.44264 255 255 255
0.290418 -0.75463  1.37656 255 255 255
  1.03289 -0.414882   1.38814 255 255 255
 0.684128 -0.266252   1.35811 255 255 255
 0.488651 -0.413216   1.35734 255 255 255
0.867014 -1.45469  1.40182 255 255 255
  1.64159 -0.878755   1.44769 255 255 255
  0.60067 -0.782862   1.20438 255 255 255
 0.733866 -0.748585   1.19641 255 255 255
 0.836773 -0.932607   1.25873 255 255 255
0.959422  -1.3928  1.45694 255 255 255
0.345409 -0.30813  1.22301 255 255 255
0.944572 -1.35248  1.45454 255 255 255
 0.334839 -0.414271   1.32915 255 255 255
 1.0177 -1.3143 1.43772 255 255 255
0.959549  -1.3923  1.45647 255 255 255
  0.392738 -0.0188712    1.24006 255 255 255
  0.17919 -0.743252   1.30455 255 255 255
 0.948783 -0.455273   1.36632 255 255 255
 0.799158 -0.878504   1.26384 255 255 255
 0.498356 -0.266458   1.33327 255 255 255
 0.327355 -0.601579   1.35225 255 255 255
 1.01183 -1.22117  1.45697 255 255 255
 0.491366 -0.208751   1.33243 255 255 255
 0.463094 -0.560618   1.35221 255 255 255
 0.579906 -0.161162   1.29798 255 255 255
0.489361 -1.07262  1.38828 255 255 255
 0.549608 -0.541063   1.35556 255 255 255
0.913136 -1.39942  1.45456 255 255 255
   1.5216 -0.912499   1.44309 255 255 255
 0.731308 -0.715952   1.19892 255 255 255
 0.730557 -0.717477   1.19871 255 255 255
0.403082 -1.06305  1.39621 255 255 255
1.32592 -1.3821 1.47184 255 255 255
   1.5302 -0.987255   1.43306 255 255 255
  1.26409 -0.800361    1.4073 255 255 255
 0.77575 -1.40259  1.45743 255 255 255
 1.59222 -0.81197  1.45475 255 255 255
 0.318295 -0.749242   1.37494 255 255 255
 0.612813 -0.365244   1.35612 255 255 255
 1.67955 -1.04306  1.48523 255 255 255
0.590908 -1.13565  1.30969 255 255 255
0.812374 -1.41499  1.44839 255 255 255
 0.697027 -0.959677   1.24746 255 255 255
 0.665284 -0.670611   1.19877 255 255 255
  1.62351 -0.844276   1.44716 255 255 255
  1.2244 -1.07359  1.44124 255 255 255
0.681373 -1.21165  1.31857 255 255 255
0.397137 -0.32481  1.35113 255 255 255
 1.47922 -1.13356  1.45865 255 255 255
 0.309981 -0.376676   1.21849 255 255 255
  0.90074 -0.503965    1.3522 255 255 255
 0.797156 -0.827074   1.25558 255 255 255
  1.74877 -0.971187   1.50075 255 255 255
 0.687805 -0.678373    1.2073 255 255 255
 0.688823 -0.677223   1.20179 255 255 255
0.485211 -0.55675  1.35394 255 255 255
  0.42926 0.0308296   1.24017 255 255 255
 0.935588 -0.462716   1.36532 255 255 255
 0.745522 -0.829535   1.26062 255 255 255
 1.55569 -1.09256  1.46747 255 255 255
  0.75113 -0.636497   1.20598 255 255 255
  1.72956 -0.937397   1.50926 255 255 255
 0.708075 -0.750893   1.19714 255 255 255
 0.278444 -0.423907     1.254 255 255 255
 0.703544 -0.704832   1.19816 255 255 255
  0.34482 -0.635866   1.36108 255 255 255
0.827229 -1.15255  1.32932 255 255 255
  1.08067 -0.364586   1.37778 255 255 255
 0.615267 -0.969399   1.25494 255 255 255
 0.482964 -0.282854    1.3428 255 255 255
0.0676634 -0.421004   1.35591 255 255 255
  1.7423 -0.97447  1.50814 255 255 255
 0.975845 -0.432864    1.3486 255 255 255
 0.216879 -0.725916   1.33943 255 255 255
 0.630227 -0.783512   1.20264 255 255 255
0.844493 -1.14312  1.31815 255 255 255
 0.741926 -0.736461   1.19481 255 255 255
 0.998189 -0.695192   1.38694 255 255 255
  1.44592 -0.963531   1.46467 255 255 255
-0.00212864   -0.538237     1.35563 255 255 255
 0.667389 -0.624572   1.19028 255 255 255
0.778657 -1.41319  1.45059 255 255 255
 0.655251 -0.721396   1.20021 255 255 255
  1.64403 -0.862489   1.44737 255 255 255
 0.100535 -0.678542   1.33356 255 255 255
 0.980318 -0.915587   1.40153 255 255 255
 1.16424 -1.42891   1.4618 255 255 255
-0.0506279  -0.483175    1.30556 255 255 255
  1.41291 -0.866605    1.4499 255 255 255
