ply
format ascii 1.0
element vertex 1232
property float x
property float y
property float z
property uchar red
property uchar green
property uchar blue
end_header
  1.10887 -0.855481   1.40845 255 255 255
  1.57974 -0.564583   1.41853 255 255 255
 1.11376 0.010944  1.35392 255 255 255
  1.58733 -0.709171   1.44448 255 255 255
 0.917596 -0.390089    1.3526 255 255 255
  1.15171 0.0335722    1.3711 255 255 255
  1.64576 -0.335571   1.34712 255 255 255
   1.3641 -0.187067    1.3918 255 255 255
   1.39115 -0.0469364    1.35005 255 255 255
  1.83624 -0.743072   1.46338 255 255 255
  1.32234 -0.363027   1.39859 255 255 255
 0.975055 -0.367061   1.35617 255 255 255
0.851141 0.153693  1.29951 255 255 255
 1.57615 -0.56182  1.42638 255 255 255
 0.825073 -0.143124   1.36258 255 255 255
  1.43155 -0.818664   1.43329 255 255 255
  1.24069 -0.155574   1.34298 255 255 255
0.749624 -0.35714   1.3039 255 255 255
  1.44974 -0.665525   1.41832 255 255 255
  1.50298 -0.245775   1.39602 255 255 255
  1.24899 -0.568097   1.39203 255 255 255
 1.06212 0.147547  1.29761 255 255 255
 0.607245 0.0974027   1.30591 255 255 255
   1.45973 -0.0870823    1.40138 255 255 255
  1.31295 -0.601871   1.41648 255 255 255
  1.10627 -0.738243   1.40088 255 255 255
 0.80191 0.168885  1.23867 255 255 255
  1.23937 -0.247339   1.34053 255 255 255
   0.40678 -0.0587067    1.22968 255 255 255
    0.78463 -0.00767434     1.29313 255 255 255
  1.55277 -0.665266   1.43909 255 255 255
 1.26122 -0.64631  1.41698 255 255 255
  1.22015 -0.704572   1.40505 255 255 255
  1.79228 -0.424742   1.43687 255 255 255
 0.470834 -0.046367   1.26992 255 255 255
0.513628 0.276324   1.3118 255 255 255
   1.2466 -0.596177    1.3807 255 255 255
    0.6086 -0.0925584    1.25508 255 255 255
  1.24283 -0.296605   1.38892 255 255 255
 0.964757 -0.374741   1.35709 255 255 255
0.898862 0.197878  1.29607 255 255 255
    1.4342 -0.0708311    1.39293 255 255 255
  1.72321 -0.567101   1.45897 255 255 255
  1.21595 -0.443622   1.37956 255 255 255
  1.56444 -0.852798   1.40136 255 255 255
  1.18607 -0.275773    1.3653 255 255 255
 0.542267 -0.285432   1.34558 255 255 255
0.887185 0.278909  1.19185 255 255 255
  1.50157 -0.992328   1.44209 255 255 255
0.861178 0.500572  1.31986 255 255 255
  1.25074 -0.299125   1.39051 255 255 255
  1.30048 -0.254731   1.38921 255 255 255
  1.30043 -0.254964      1.39 255 255 255
  1.29089 -0.689474   1.41592 255 255 255
 0.505375 -0.024233   1.29501 255 255 255
 1.35004 -0.10791   1.3525 255 255 255
 0.546718 -0.158379   1.31628 255 255 255
 0.665411 -0.171704   1.35688 255 255 255
0.581034 -0.23498   1.3244 255 255 255
  0.780675 -0.0963066    1.35947 255 255 255
0.535262 0.120851  1.30551 255 255 255
  1.53853 -0.169804   1.40488 255 255 255
  1.23596 -0.035314   1.35739 255 255 255
0.892651 0.244092  1.23498 255 255 255
  1.51768 -0.411478   1.41805 255 255 255
  0.949673 -0.0254024    1.36538 255 255 255
  1.32829 -0.423646   1.39034 255 255 255
  1.59631 -0.736241   1.45435 255 255 255
  1.08381 -0.784103   1.37272 255 255 255
0.997089  -0.6483  1.38042 255 255 255
  0.853564 -0.0397029    1.36285 255 255 255
  1.53433 -0.375413   1.39662 255 255 255
 0.501877 0.0784188    1.3025 255 255 255
   1.66166 -0.0767948    1.41296 255 255 255
  1.16686 -0.110004   1.34361 255 255 255
  1.48597 -0.528787   1.39359 255 255 255
  0.54337 0.0985692    1.3026 255 255 255
 0.987209 -0.385798   1.35648 255 255 255
 1.25137 -1.06786  1.44355 255 255 255
  1.63256 -0.345268   1.35788 255 255 255
   1.4471 -0.737798   1.44006 255 255 255
0.943964 0.252173   1.2441 255 255 255
0.803788 0.126059  1.26453 255 255 255
   1.3778 -0.173436   1.38702 255 255 255
 0.73131 0.249144  1.23474 255 255 255
  1.05415 0.0695979   1.36862 255 255 255
  1.18076 -0.486697   1.36157 255 255 255
  1.83998 -0.482146   1.45739 255 255 255
  1.27297 -0.516344   1.38657 255 255 255
  0.875675 -0.0926773    1.36258 255 255 255
0.685593 0.149562  1.22901 255 255 255
0.504986 0.132298  1.30985 255 255 255
 1.39835 -0.29858  1.39925 255 255 255
  1.20115 -0.299334   1.39176 255 255 255
0.725241 0.237438  1.23552 255 255 255
0.980061 0.127148   1.2954 255 255 255
  1.85218 -0.463254   1.45619 255 255 255
0.763668 0.302162  1.20578 255 255 255
  0.8266 0.270345  1.20255 255 255 255
0.820618 0.122954  1.23707 255 255 255
 1.62807 -1.04086  1.48375 255 255 255
  1.21484 -0.823636     1.418 255 255 255
  1.62175 -0.546937   1.42921 255 255 255
1.28034 -1.0591 1.40632 255 255 255
  1.21639 -0.556045   1.39193 255 255 255
  1.80789 -0.583197   1.46456 255 255 255
  1.90089 -0.494876   1.46191 255 255 255
 1.21324 0.263939  1.37329 255 255 255
  1.0451 0.275419  1.28028 255 255 255
  1.82304 -0.672829    1.4689 255 255 255
 0.995167 -0.459658   1.38107 255 255 255
  1.26541 -0.519555   1.39716 255 255 255
  1.15858 -0.340439   1.38763 255 255 255
  0.96117 -0.313101   1.35631 255 255 255
  1.50036 -0.940193   1.42031 255 255 255
0.631559 0.416576  1.31727 255 255 255
 0.506962 -0.169192   1.32476 255 255 255
   1.0804 -0.865161   1.41233 255 255 255
0.817643  0.28748  1.20906 255 255 255
  1.71646 -0.326166   1.40821 255 255 255
  0.43412 0.0764406   1.23645 255 255 255
 0.92325 0.252604  1.24401 255 255 255
  0.600348 -0.0175375    1.30074 255 255 255
  1.41632 -0.707559   1.42385 255 255 255
 0.981257 -0.689774   1.38271 255 255 255
  1.45565 -0.670164   1.41782 255 255 255
0.820988 0.185573  1.24697 255 255 255
 0.396732 0.0257553   1.21876 255 255 255
0.859406 0.339287  1.18411 255 255 255
  1.55381 -0.610985   1.42452 255 255 255
0.897908 0.339837  1.18544 255 255 255
0.748515 0.103556  1.26306 255 255 255
0.619233 0.398567  1.31585 255 255 255
0.828971 0.314814  1.17731 255 255 255
  1.53959 -0.449812    1.4313 255 255 255
0.878005 0.356463  1.18177 255 255 255
 0.934661 0.0298579    1.3511 255 255 255
0.849637 0.473623  1.31097 255 255 255
 0.750538 -0.062649   1.35528 255 255 255
  1.14883 -0.503978    1.3895 255 255 255
  1.35436 -0.474672   1.39497 255 255 255
 1.82898 -0.25362  1.44717 255 255 255
1.37112 -1.0759 1.44877 255 255 255
  1.61057 -0.391713    1.4272 255 255 255
  1.74384 -0.438125   1.41797 255 255 255
  1.52314 -0.846989   1.45748 255 255 255
  1.03696 0.0327878   1.32097 255 255 255
  1.03732 0.0315959   1.31974 255 255 255
  1.50332 -0.781448   1.43941 255 255 255
   1.04183 -0.0326245    1.34701 255 255 255
0.560691  0.10142  1.30683 255 255 255
0.895993 0.320297  1.17832 255 255 255
  1.05094 0.0822888    1.3678 255 255 255
   1.40463 -0.0305125    1.34403 255 255 255
  1.43245 -0.300201   1.39941 255 255 255
 0.551821 -0.242357   1.33133 255 255 255
 1.89679 -0.29646   1.4457 255 255 255
  0.49119 0.0772312   1.29485 255 255 255
   1.6168 -0.575152    1.4333 255 255 255
 0.796803 0.0531565   1.32723 255 255 255
0.806828 0.147199   1.2675 255 255 255
  0.717633 0.00892334    1.29479 255 255 255
 1.30439 -0.77639  1.37628 255 255 255
  0.772521 -0.0974421    1.36088 255 255 255
  1.24995 0.0300509   1.37112 255 255 255
   1.0244 0.0705991   1.33322 255 255 255
   1.5732 -0.191227   1.40836 255 255 255
  1.64621 -0.998752   1.46817 255 255 255
  1.02565 -0.138865   1.31685 255 255 255
  1.26468 -0.265671   1.39115 255 255 255
0.905974 0.236027  1.24174 255 255 255
  1.11813 -0.509839   1.37856 255 255 255
 0.552386 -0.182947   1.32917 255 255 255
 0.755164 -0.354702   1.30814 255 255 255
  0.593294 -0.0430686    1.30438 255 255 255
  1.01529 -0.956845   1.40615 255 255 255
  1.21488 -0.205539   1.32015 255 255 255
  1.70382 -0.449929   1.43083 255 255 255
 1.05072 0.154983  1.29893 255 255 255
 0.720501 -0.301185   1.35734 255 255 255
   1.4456 -0.630618   1.42419 255 255 255
 0.430806 0.0689184   1.23633 255 255 255
0.975264 0.382625  1.30866 255 255 255
  1.80114 -0.682544   1.46071 255 255 255
  1.30586 -0.488781   1.33045 255 255 255
0.861959 0.153838  1.29505 255 255 255
 0.630422 -0.207942    1.3553 255 255 255
  1.13544 -0.187569   1.36628 255 255 255
  1.05654 -0.672338   1.30508 255 255 255
  1.79982 -0.651289   1.46105 255 255 255
  1.59086 -0.553298   1.41837 255 255 255
0.884201 0.358104  1.17973 255 255 255
0.869722 0.348169  1.18261 255 255 255
  1.61491 -0.834505   1.43595 255 255 255
  1.79105 -0.353333   1.44182 255 255 255
   0.579715 -0.00519209     1.30275 255 255 255
 0.972422 0.0548225   1.36879 255 255 255
  1.55588 -0.151073   1.40539 255 255 255
  1.16746 -0.207437     1.311 255 255 255
1.92157  2.1662 1.47898 255 255 255
2.07143 2.00793 1.43801 255 255 255
2.05581   1.814 1.41396 255 255 255
2.78696 1.33949 1.52405 255 255 255
2.05039 1.79293 1.43096 255 255 255
1.96564 1.52221 1.36566 255 255 255
2.09885 1.26134 1.41868 255 255 255
2.68515 1.41336 1.48755 255 255 255
2.01754 1.71589 1.42529 255 255 255
2.95245 1.40498 1.52067 255 255 255
1.74177 2.17145 1.41952 255 255 255
1.97526  1.6705 1.42445 255 255 255
2.27907 1.30697 1.47713 255 255 255
2.75709 1.50591 1.45491 255 255 255
2.29967  2.1255 1.47492 255 255 255
2.22618 1.73598 1.48449 255 255 255
 2.5647 1.34071 1.47705 255 255 255
2.70017 1.35684 1.53272 255 255 255
1.96683 2.27768 1.43659 255 255 255
1.96743 1.81224 1.41179 255 255 255
1.90432 2.44116 1.42571 255 255 255
2.33402 1.17993 1.46102 255 255 255
2.84811  1.6501 1.51898 255 255 255
2.27846 1.82072  1.4449 255 255 255
2.41324 1.01412 1.46799 255 255 255
2.71246 1.14385 1.49329 255 255 255
3.00787 1.48413 1.55605 255 255 255
  2.6198 0.954244   1.5095 255 255 255
 2.2708 1.66874 1.42335 255 255 255
2.13285 2.06858 1.45476 255 255 255
2.00153 2.44878 1.41816 255 255 255
1.97804 1.76159 1.43357 255 255 255
2.68436 1.04006 1.53392 255 255 255
2.14022 1.89039 1.42089 255 255 255
3.03362 1.49674 1.53912 255 255 255
1.69433 1.91288 1.40765 255 255 255
2.54697 1.63576 1.38342 255 255 255
2.52835  1.0193 1.49196 255 255 255
 2.4041 1.46252 1.47302 255 255 255
1.99231 1.58531  1.4294 255 255 255
2.03532 1.38404 1.43097 255 255 255
2.36838 1.79974 1.47484 255 255 255
2.30497 1.03107 1.45617 255 255 255
2.58511 1.48617 1.50088 255 255 255
2.09085 2.11475 1.38947 255 255 255
2.85167 1.35196 1.48104 255 255 255
2.46047 1.95087 1.47288 255 255 255
2.06349 1.57464 1.40243 255 255 255
2.30616 1.03212 1.45839 255 255 255
2.61769  1.3039 1.50337 255 255 255
2.88764  1.1256 1.55776 255 255 255
2.40321   1.757 1.45935 255 255 255
2.99154 1.41162 1.54671 255 255 255
2.44738 1.71801 1.38631 255 255 255
 2.8241 1.25133 1.47193 255 255 255
1.92525 1.53163  1.3195 255 255 255
1.89458 2.05715 1.38729 255 255 255
1.90048  2.5378 1.45085 255 255 255
1.96097 1.55596 1.43611 255 255 255
 2.1459 1.39211 1.42367 255 255 255
1.93063 2.41411 1.41078 255 255 255
 2.72449 0.981552  1.53859 255 255 255
1.78872 1.71347 1.32336 255 255 255
2.61173 1.89369 1.39756 255 255 255
1.97316 1.84571 1.38835 255 255 255
  2.404 2.00765 1.46427 255 255 255
1.99546 2.35879 1.40381 255 255 255
2.80395 1.56648 1.45004 255 255 255
2.15326 1.70972  1.4267 255 255 255
2.86536 1.73253 1.51031 255 255 255
2.04512 2.09611 1.43069 255 255 255
2.65187 1.35943 1.51055 255 255 255
2.56731 1.56916 1.37858 255 255 255
1.54464 2.00502 1.40147 255 255 255
 2.0661 1.83852    1.42 255 255 255
2.76066 1.05357 1.53298 255 255 255
1.71889 1.90318 1.41647 255 255 255
 2.4955 1.06303 1.45422 255 255 255
2.22055 1.44675 1.47248 255 255 255
1.74991 1.73943 1.32035 255 255 255
2.21283 1.20129 1.45644 255 255 255
  2.5383 0.952285  1.49375 255 255 255
2.23762 1.20615 1.45531 255 255 255
2.06879 2.08861 1.45431 255 255 255
3.00864 1.38516  1.5465 255 255 255
2.93184 1.60342 1.53031 255 255 255
2.10246 1.55279 1.37425 255 255 255
2.07453 2.07076 1.45201 255 255 255
 2.57936 0.955128  1.48612 255 255 255
2.19294 1.38155 1.46666 255 255 255
1.91962 2.36743 1.43999 255 255 255
2.08624 1.55669 1.37531 255 255 255
2.22923 2.10469 1.47107 255 255 255
2.12628 1.86749 1.42227 255 255 255
2.46928 1.53552 1.43615 255 255 255
2.18876 1.14232  1.4642 255 255 255
2.12954 1.49966  1.4111 255 255 255
1.80193 1.91275 1.42139 255 255 255
2.25447 1.21946 1.47163 255 255 255
1.99867 2.39152 1.43572 255 255 255
2.49006  1.3284 1.43936 255 255 255
1.92163 2.29822 1.42577 255 255 255
2.13938 2.09241 1.45478 255 255 255
 2.37967 0.908242  1.47982 255 255 255
2.42249 1.06018 1.49004 255 255 255
2.34616 1.02704 1.41708 255 255 255
1.84535 2.28548 1.44418 255 255 255
1.90241 2.40301 1.42386 255 255 255
2.52607 1.71974 1.37865 255 255 255
2.12809 1.48295 1.40894 255 255 255
2.37819 1.27357 1.48465 255 255 255
 2.9482 1.42879 1.54649 255 255 255
 1.7246 2.06339 1.39459 255 255 255
2.56258 1.03007 1.48202 255 255 255
1.83696 1.71813 1.40634 255 255 255
 2.63234 0.996249  1.51431 255 255 255
 2.7381 1.18373  1.4759 255 255 255
2.54265  1.3072 1.47196 255 255 255
1.87241 2.01439 1.39024 255 255 255
2.86611 1.42681 1.53176 255 255 255
2.37585 2.08649 1.46645 255 255 255
2.66618 1.06868 1.50344 255 255 255
  2.633 1.28156 1.50286 255 255 255
 1.8225 1.72095 1.40278 255 255 255
1.77412 1.81482 1.41172 255 255 255
2.44253 1.48587 1.43501 255 255 255
2.57487 1.03663 1.49372 255 255 255
2.18511 1.20862 1.44665 255 255 255
 2.46547 0.867287  1.48987 255 255 255
 2.3149 2.21071 1.48031 255 255 255
2.92128 1.35637 1.50937 255 255 255
 2.3292 1.12046  1.4593 255 255 255
2.14022 1.66559 1.40025 255 255 255
1.81143 1.73482 1.41246 255 255 255
2.45979 1.14678 1.48749 255 255 255
1.65042 1.77402 1.35175 255 255 255
2.28105 2.11665 1.47429 255 255 255
2.60673 1.07778 1.49785 255 255 255
1.86714 1.73485 1.41281 255 255 255
2.04636 1.27052 1.42655 255 255 255
 2.7573 1.40239 1.51977 255 255 255
2.40862 1.62062 1.49473 255 255 255
2.14597 2.05228 1.44391 255 255 255
1.80927  2.1521 1.42821 255 255 255
2.23837  1.9261 1.47209 255 255 255
2.69496 1.70963 1.39688 255 255 255
2.37821 1.97119 1.47576 255 255 255
1.86113 1.66022 1.34352 255 255 255
2.71858 1.32863 1.52461 255 255 255
 2.68469 0.997737  1.52872 255 255 255
1.95329 1.58065 1.42994 255 255 255
2.75137 1.14183 1.49336 255 255 255
 2.59835 0.796988  1.52646 255 255 255
2.25452 1.69238 1.46106 255 255 255
2.37932 1.54321 1.43391 255 255 255
 2.5275  1.3734 1.43607 255 255 255
2.36213 2.13192 1.46729 255 255 255
2.47426 1.15372    1.49 255 255 255
1.55032 2.07699 1.41111 255 255 255
1.81538 2.22184 1.40457 255 255 255
2.19951 1.91378 1.43954 255 255 255
1.99217 1.52282 1.43134 255 255 255
2.21067 2.01094 1.46518 255 255 255
1.96416 1.64192 1.39445 255 255 255
2.71868 1.00617 1.53445 255 255 255
2.60165 1.09474   1.497 255 255 255
2.72768 1.19036  1.4889 255 255 255
2.62915 1.58517 1.37747 255 255 255
2.44636 1.20904 1.47947 255 255 255
1.88436  1.8887 1.42203 255 255 255
2.00958 1.60759 1.42308 255 255 255
2.09232  1.3926 1.44286 255 255 255
2.17828 1.80153 1.44106 255 255 255
1.99388 1.81601 1.39619 255 255 255
1.84948 2.41454 1.42389 255 255 255
 2.56713 0.964044  1.49354 255 255 255
1.84063 2.40718 1.42909 255 255 255
1.85668 2.01673 1.39454 255 255 255
1.83929 2.46864 1.45155 255 255 255
2.14165 1.44635 1.43262 255 255 255
1.81881 1.73696 1.40239 255 255 255
2.30522 1.12732 1.46611 255 255 255
1.61285   2.078 1.41742 255 255 255
1.91058 2.12845 1.44269 255 255 255
2.74767 1.04367 1.53628 255 255 255
2.51882 1.26222 1.49579 255 255 255
 2.8318 1.05935 1.54057 255 255 255
1.97101 2.27618 1.45994 255 255 255
2.54816   1.586 1.37733 255 255 255
 2.64448 0.902205  1.53669 255 255 255
 2.49007 0.927854  1.48493 255 255 255
2.38825   1.111  1.4622 255 255 255
2.55592 1.96129 1.48241 255 255 255
1.80539  2.4273 1.43965 255 255 255
1.67055 2.04173 1.41911 255 255 255
2.19204 1.50908 1.41058 255 255 255
 2.49715 0.837932  1.48229 255 255 255
2.22043 1.87258 1.46978 255 255 255
 2.69804 0.917136  1.52821 255 255 255
2.52694 1.27273 1.49178 255 255 255
2.02839 2.35486 1.45128 255 255 255
2.80191 1.13003 1.53596 255 255 255
2.17335 2.09936 1.43022 255 255 255
2.85012 1.35224 1.49765 255 255 255
1.64972 1.83248  1.3131 255 255 255
2.57141 1.57985 1.38177 255 255 255
2.75604 1.14294 1.51044 255 255 255
2.63778 1.29533 1.50218 255 255 255
2.12119 1.52025 1.41296 255 255 255
  2.089 1.89551 1.42146 255 255 255
2.62459 1.11092 1.48835 255 255 255
2.48206 1.13378 1.49777 255 255 255
2.28664 2.15191 1.46361 255 255 255
 2.62076 0.809986  1.52801 255 255 255
1.53345 2.13143  1.4096 255 255 255
 2.8476 1.10341 1.54991 255 255 255
2.62239 1.35846 1.51117 255 255 255
2.15365 1.52102 1.41474 255 255 255
2.85082  1.6791 1.51521 255 255 255
1.77479 1.73587 1.30831 255 255 255
2.00798 2.39004 1.44356 255 255 255
1.56418 1.84934 1.32293 255 255 255
 2.48257 0.906811  1.48361 255 255 255
2.09294 1.41246 1.43243 255 255 255
2.78053 1.74898 1.42469 255 255 255
2.18016 1.94656 1.42004 255 255 255
2.48827 1.01606    1.48 255 255 255
 1.5137 2.01546 1.40175 255 255 255
2.38815 1.66693 1.46091 255 255 255
2.59039 1.07547 1.49508 255 255 255
2.22121 1.55866 1.47073 255 255 255
2.22117 1.55898 1.47326 255 255 255
2.93767 1.64919 1.53594 255 255 255
2.53332 1.35604 1.43713 255 255 255
1.59226 2.04113 1.40781 255 255 255
2.01958 1.65407 1.43395 255 255 255
2.02044 1.65402 1.43338 255 255 255
2.93384 1.15588 1.54474 255 255 255
1.52826 2.14458 1.38643 255 255 255
 2.6226 1.11145 1.49001 255 255 255
2.62462 1.08362 1.49106 255 255 255
 2.44797 0.939287  1.47896 255 255 255
1.52545 2.13387 1.40738 255 255 255
2.39529 1.63755 1.46196 255 255 255
1.94333 2.49762 1.44703 255 255 255
1.84433 1.81827 1.41495 255 255 255
 2.48192 0.881774  1.47635 255 255 255
2.72875 1.27948 1.50676 255 255 255
2.44748 0.80573 1.47318 255 255 255
2.16212 1.62692 1.41442 255 255 255
2.71998 1.03151 1.53863 255 255 255
2.46298 1.10269 1.48174 255 255 255
1.95029 1.56451 1.40054 255 255 255
2.73422 1.02512 1.53308 255 255 255
1.78131 1.89984 1.41588 255 255 255
2.90821 1.33728 1.48911 255 255 255
2.67913 1.45172 1.46353 255 255 255
2.14883 1.43291 1.44622 255 255 255
1.97373  1.6114 1.40909 255 255 255
1.83663 2.13394 1.44107 255 255 255
2.49175 1.71135 1.38715 255 255 255
1.91341 2.35288 1.43786 255 255 255
2.64384 1.61487 1.38266 255 255 255
2.45959 1.06752 1.49419 255 255 255
2.42335 2.02705 1.48562 255 255 255
  2.4533 0.877995  1.48793 255 255 255
1.89524 1.83277 1.42475 255 255 255
2.76045 1.79506 1.40186 255 255 255
2.20118 1.18332 1.46169 255 255 255
2.50345 1.23755 1.50565 255 255 255
 1.4484 1.90853 1.32783 255 255 255
2.85819 1.11385 1.54738 255 255 255
2.31041 2.14321 1.47696 255 255 255
2.08249  1.4106 1.43261 255 255 255
1.88852 2.07373 1.39533 255 255 255
1.53877 1.86174  1.3227 255 255 255
2.00985  2.3991 1.44452 255 255 255
2.53191 1.11009 1.49113 255 255 255
1.96848 2.12001 1.44879 255 255 255
2.22203 1.23377 1.46951 255 255 255
2.31893 1.58725 1.43375 255 255 255
 2.6913 1.12118 1.50581 255 255 255
1.47799 2.06033 1.40504 255 255 255
2.21096 1.80015 1.46166 255 255 255
1.86542 1.84023 1.41222 255 255 255
 2.3879  2.1529 1.47232 255 255 255
 2.44845 0.948347  1.48199 255 255 255
1.82647 1.74847 1.39964 255 255 255
1.53447 1.87021  1.3228 255 255 255
2.13895  1.9678 1.42966 255 255 255
2.26376 1.88891 1.39323 255 255 255
2.27342 2.25256 1.47982 255 255 255
2.92326 1.47908 1.52897 255 255 255
1.88581 1.72231 1.42693 255 255 255
2.84777 1.27089 1.49575 255 255 255
2.97301 1.58784 1.51861 255 255 255
2.54465 1.82446 1.39494 255 255 255
2.33545 1.32809 1.48033 255 255 255
1.49845 2.11728 1.40625 255 255 255
2.89475 1.32333 1.48833 255 255 255
2.37168 1.32065 1.48419 255 255 255
2.93189 1.47805 1.52592 255 255 255
1.86498 1.68964 1.43488 255 255 255
 2.52389 0.994796  1.49507 255 255 255
  1.582 1.90966 1.35802 255 255 255
1.99885 1.62817 1.41927 255 255 255
2.32732 1.21433 1.47509 255 255 255
1.42871 2.02865 1.39775 255 255 255
2.18229 2.19078 1.42838 255 255 255
2.58625 1.57958 1.38097 255 255 255
2.88541 1.37019 1.53004 255 255 255
2.63372 1.09196 1.49755 255 255 255
 1.7738 2.26459 1.41456 255 255 255
2.55247 1.30994 1.47778 255 255 255
2.91767 1.37712 1.49707 255 255 255
2.50478 2.06001 1.48459 255 255 255
1.70834 2.15542 1.42656 255 255 255
2.53469 1.03342 1.49725 255 255 255
1.79043 2.18148 1.30899 255 255 255
  2.5938 0.966933  1.49958 255 255 255
1.72028 1.97864 1.41699 255 255 255
 2.3472 1.65479 1.46187 255 255 255
2.02383 1.60136 1.43257 255 255 255
2.34862 2.19527 1.47855 255 255 255
2.93461 1.67743 1.53196 255 255 255
2.60311 1.97528 1.49658 255 255 255
2.69647 1.17818 1.50528 255 255 255
2.18076 2.12311  1.4204 255 255 255
2.42871 1.12843 1.48234 255 255 255
 2.52078 0.757209  1.50197 255 255 255
 2.5142 2.04252 1.48419 255 255 255
2.84381 1.07697 1.54559 255 255 255
1.95783 2.24791 1.46117 255 255 255
2.05039 1.69374 1.43196 255 255 255
 2.4818 1.53036 1.44356 255 255 255
2.15255  1.7364 1.43546 255 255 255
 2.46236 0.796274  1.48049 255 255 255
2.06978 1.40575 1.43021 255 255 255
2.06898 1.40622 1.42854 255 255 255
1.54118 2.02633 1.40133 255 255 255
 2.3497 1.29191 1.48311 255 255 255
2.35741  1.7248 1.46515 255 255 255
2.44735 1.13399  1.4972 255 255 255
2.74673 1.26279 1.48744 255 255 255
 2.0207 1.97031  1.4424 255 255 255
1.93525  2.2321 1.44018 255 255 255
2.99262 1.57055 1.53139 255 255 255
1.93815 2.23874 1.45231 255 255 255
2.86149 1.12781 1.54578 255 255 255
2.67689 1.11489 1.50384 255 255 255
2.40672 2.15074 1.48772 255 255 255
 2.47895 0.894318  1.48396 255 255 255
1.73809 1.79218 1.41152 255 255 255
2.38899 1.14965 1.47233 255 255 255
2.10192  1.8368  1.4402 255 255 255
1.85466 2.40866 1.42669 255 255 255
 2.1541 1.46008 1.41806 255 255 255
 2.9332 1.66851 1.52921 255 255 255
2.76031  1.7697 1.39999 255 255 255
1.46879 2.08018 1.40102 255 255 255
2.49568 1.95523 1.48195 255 255 255
2.42453 1.13873 1.48976 255 255 255
2.32681  1.7945 1.44718 255 255 255
2.50008 1.05279 1.48409 255 255 255
1.69399  1.8991 1.42093 255 255 255
2.61061 1.32913 1.50896 255 255 255
2.66992 1.62446 1.38778 255 255 255
1.52603  2.0536 1.40833 255 255 255
1.62787 1.86292 1.32585 255 255 255
2.35396  1.0777 1.46774 255 255 255
2.38466 2.12116 1.46296 255 255 255
2.21473 1.41523 1.47505 255 255 255
  2.751 1.06728 1.53926 255 255 255
2.73482 1.79944 1.39831 255 255 255
2.48369 1.93824  1.4665 255 255 255
2.34802 1.80358 1.47316 255 255 255
2.01864 1.60877  1.4271 255 255 255
2.15675 1.78119 1.44177 255 255 255
2.17737 1.71624 1.44458 255 255 255
2.32333 1.10774 1.46303 255 255 255
 1.8026 1.77877 1.39832 255 255 255
1.86489 2.02178 1.39047 255 255 255
2.39011 1.82069  1.4709 255 255 255
2.62801 1.36616 1.51565 255 255 255
2.61692 1.36751 1.51258 255 255 255
2.52848 1.37687 1.43069 255 255 255
2.19343 1.92162 1.43794 255 255 255
2.35832 1.20351 1.47222 255 255 255
2.65156 1.27882 1.50021 255 255 255
2.32558 2.15599 1.48078 255 255 255
2.35401 1.26946 1.47887 255 255 255
 2.71219 0.985583  1.53023 255 255 255
1.87946 2.08398 1.40395 255 255 255
2.13916 1.35712 1.44233 255 255 255
2.07988 1.81642  1.4364 255 255 255
3.00304 1.38798 1.55017 255 255 255
2.13011 1.69561 1.40936 255 255 255
2.07516  1.4293 1.42553 255 255 255
1.98791 1.45645 1.42716 255 255 255
2.23677 1.17821 1.46275 255 255 255
1.89798 2.32226 1.44273 255 255 255
1.54931 1.88873 1.32368 255 255 255
 2.45758 0.811042  1.47479 255 255 255
1.87432 1.96977 1.42769 255 255 255
2.08179 1.62203 1.35181 255 255 255
2.08141 1.62168 1.35214 255 255 255
2.60595  1.9823 1.48665 255 255 255
2.49567 1.03359  1.4979 255 255 255
2.49644 1.22916 1.50036 255 255 255
2.30795  1.4084 1.48027 255 255 255
2.16429 1.70825  1.4295 255 255 255
 2.2314 1.28193 1.46668 255 255 255
2.37534 1.25782 1.48032 255 255 255
2.34972 1.81379 1.47299 255 255 255
2.56448  1.0421 1.49221 255 255 255
2.93338 1.17661  1.5343 255 255 255
2.47738 1.57434 1.37662 255 255 255
2.24285 1.50269 1.47397 255 255 255
2.20639 1.45545 1.47917 255 255 255
2.30074  1.9246 1.38614 255 255 255
1.53868 1.85462 1.31853 255 255 255
2.70387 1.10363 1.51064 255 255 255
2.66001 1.87647 1.40031 255 255 255
2.02187 1.36853 1.43109 255 255 255
2.61063 1.02292 1.49431 255 255 255
1.62628 2.15302  1.4029 255 255 255
1.63038 1.87729 1.32271 255 255 255
2.63987 1.06647 1.50037 255 255 255
1.66657 1.98077 1.40912 255 255 255
 2.1868 1.26809 1.44111 255 255 255
2.46606 1.29559 1.48497 255 255 255
1.48109 1.92624 1.33222 255 255 255
1.92104 2.53072 1.44735 255 255 255
2.38876 1.77092 1.46652 255 255 255
2.35862  1.5338 1.43304 255 255 255
2.35003 1.18876 1.46767 255 255 255
 2.1339 1.83439 1.45189 255 255 255
2.69221 1.10637 1.50916 255 255 255
1.67769 2.09377 1.42028 255 255 255
2.89133 1.31547  1.4893 255 255 255
1.97736  1.5943 1.42547 255 255 255
2.78068 1.06458 1.53008 255 255 255
2.82302 1.27716  1.4776 255 255 255
2.12914 2.00793 1.41663 255 255 255
3.00022 1.58806 1.52742 255 255 255
2.85286 1.70851 1.51496 255 255 255
2.17544 1.74216 1.44112 255 255 255
1.74221 1.81311  1.4134 255 255 255
2.64875 1.02351  1.5157 255 255 255
2.62714 1.31725 1.50411 255 255 255
2.91138 1.40423 1.53501 255 255 255
1.92429  2.3444 1.43213 255 255 255
1.80029 1.68796 1.38941 255 255 255
 1.5461 2.16575 1.39475 255 255 255
2.33577  1.6449 1.45723 255 255 255
2.41518 1.73671 1.38597 255 255 255
2.34976 2.18138 1.49569 255 255 255
2.41675 1.80897 1.38943 255 255 255
1.94046 1.75448 1.42662 255 255 255
2.53331 1.08837 1.49301 255 255 255
3.01874  1.5597 1.52916 255 255 255
1.86157 1.65407 1.33546 255 255 255
2.42353 2.07852 1.48704 255 255 255
2.16632 1.21671 1.44311 255 255 255
 2.1636  1.2497 1.44151 255 255 255
  2.4701 0.859404  1.48343 255 255 255
1.60698 2.08517 1.41853 255 255 255
2.35843 1.68036   1.466 255 255 255
2.67191 1.63462 1.38614 255 255 255
1.77249 2.37917 1.44394 255 255 255
2.70572 1.09266  1.5135 255 255 255
2.70059 1.12442 1.50796 255 255 255
0.038248  1.69661  1.28221 255 255 255
0.378514  1.43347  1.28961 255 255 255
-0.0517406     1.7456    1.29552 255 255 255
-0.0335158     1.7983    1.31407 255 255 255
0.0268382   1.34044   1.26942 255 255 255
0.419448  1.45588  1.29826 255 255 255
0.457701   1.4305  1.29487 255 255 255
-0.0204987    1.70272    1.29865 255 255 255
0.00580938    1.39222    1.27558 255 255 255
0.180832  1.48759  1.27166 255 255 255
0.227504  1.44923  1.24282 255 255 255
0.348414  1.34601  1.22586 255 255 255
0.538953  1.47268   1.3042 255 255 255
-0.0511544    1.69934    1.29313 255 255 255
0.13909 1.55571 1.26612 255 255 255
0.13504  1.4815 1.27079 255 255 255
0.410965  1.55441  1.33621 255 255 255
0.159561   1.6672   1.3103 255 255 255
0.460521  1.40514  1.28593 255 255 255
0.229234  1.80054  1.35984 255 255 255
0.184285  1.15295  1.27449 255 255 255
-0.0684072    1.65889    1.28856 255 255 255
-0.0250386    1.39767    1.28172 255 255 255
 0.1857 1.73266 1.35467 255 255 255
-0.00104793     1.74896     1.30728 255 255 255
0.0811168   1.65027    1.2877 255 255 255
0.368909  1.41154  1.26118 255 255 255
0.00625547    1.65487     1.2854 255 255 255
0.097395  1.82761  1.32454 255 255 255
0.435238  1.04303  1.27891 255 255 255
0.493883  1.50105  1.29868 255 255 255
0.408143  1.43206   1.2883 255 255 255
0.0623715   1.79224   1.30829 255 255 255
0.054244  1.64172  1.28801 255 255 255
0.00651737    1.36979    1.27318 255 255 255
0.0312748   1.84149   1.30913 255 255 255
0.217998  1.40567  1.24158 255 255 255
0.0708943   1.78041   1.31029 255 255 255
0.0361256   1.89856   1.30611 255 255 255
0.0284748   1.63891   1.28801 255 255 255
-0.0233891     1.6542    1.29281 255 255 255
0.450345  1.45056  1.29164 255 255 255
0.502331  1.48519  1.29288 255 255 255
-0.0312798    1.71199    1.29844 255 255 255
0.297909  1.58437  1.35807 255 255 255
0.0168014   1.82518   1.30804 255 255 255
-0.00344756     1.31308     1.27726 255 255 255
0.415234  1.35964   1.2677 255 255 255
0.196279  1.10347  1.27569 255 255 255
-0.0846802    1.74236    1.29069 255 255 255
0.207958  1.74652  1.35074 255 255 255
0.359925    1.395  1.25078 255 255 255
-0.0330718    1.37483    1.28415 255 255 255
0.011383  1.89797  1.30555 255 255 255
0.0282989   1.96041   1.30748 255 255 255
0.0446242   1.83607   1.31054 255 255 255
0.218446  1.12451  1.27447 255 255 255
0.224725  1.52776  1.28785 255 255 255
-0.0310595    1.32327    1.28058 255 255 255
0.112408  1.51524  1.27085 255 255 255
-0.0157522    1.80393    1.30492 255 255 255
0.135829  1.50733  1.26727 255 255 255
0.212365  1.46931  1.24574 255 255 255
0.193331  1.67665   1.3549 255 255 255
0.432637  1.36469  1.27573 255 255 255
0.144759  1.28358  1.27457 255 255 255
  0.446  1.3915 1.28877 255 255 255
0.236564  1.04801  1.27224 255 255 255
0.36467 1.36093 1.23313 255 255 255
0.219737  1.44162  1.24334 255 255 255
-0.00836133     1.28419     1.27985 255 255 255
-0.0384375    1.79885    1.30551 255 255 255
0.318471  1.10947  1.27198 255 255 255
-0.00384061     1.88741     1.29692 255 255 255
-0.0421682    1.33069     1.2797 255 255 255
0.223253  1.08237  1.27738 255 255 255
-0.0332819    1.34041    1.27986 255 255 255
-0.0459441    1.63437     1.2883 255 255 255
-0.0785177    1.72017    1.28899 255 255 255
0.0384345   1.58159   1.27662 255 255 255
0.274509  1.46085  1.25925 255 255 255
0.0333107   1.94272    1.3041 255 255 255
-0.0562775    1.70324    1.29759 255 255 255
-0.0148208      1.898    1.30528 255 255 255
0.488365  1.37681  1.29264 255 255 255
0.108056  1.66711  1.29206 255 255 255
-0.0210419    1.30624      1.281 255 255 255
0.23807 1.36729 1.22941 255 255 255
0.136782  1.48637  1.26878 255 255 255
0.0342032   1.77751   1.30666 255 255 255
0.395209  0.98482  1.27464 255 255 255
-0.0432924    1.45829    1.28419 255 255 255
0.207178  1.41965  1.24434 255 255 255
0.284698   1.5443  1.29888 255 255 255
0.553221  1.49547  1.30198 255 255 255
0.0311994   1.75666   1.30498 255 255 255
0.0806854    1.5583    1.2728 255 255 255
0.372975  1.39335  1.25128 255 255 255
-0.0809834    1.72897    1.28746 255 255 255
0.533278   1.4548  1.30377 255 255 255
-0.01122  1.74029  1.30229 255 255 255
0.168224   1.4267  1.24781 255 255 255
0.150305  1.85072   1.3603 255 255 255
-0.0752887    1.76468    1.29959 255 255 255
-0.0474822     1.6638    1.28164 255 255 255
-0.0677368     1.7243    1.29117 255 255 255
0.182987  1.56274  1.28699 255 255 255
0.255403  1.38512  1.23037 255 255 255
0.192095  1.54111  1.27838 255 255 255
-0.0368776    1.72615    1.29136 255 255 255
-0.0496698    1.68643    1.28882 255 255 255
0.401055  1.33272  1.24839 255 255 255
0.234441  1.02032  1.27449 255 255 255
0.202315  1.72148  1.35277 255 255 255
0.404404  1.44553  1.29183 255 255 255
0.192533  1.83523  1.36123 255 255 255
0.0222689   1.87124   1.30941 255 255 255
0.529132  1.42602  1.29971 255 255 255
0.0989565    1.5698   1.27376 255 255 255
0.062089   1.5199  1.26413 255 255 255
0.354527  1.63806  1.34928 255 255 255
0.18165 1.64791 1.31301 255 255 255
0.233707  1.40908  1.23824 255 255 255
0.430338  1.34604  1.26402 255 255 255
0.213576  1.44852  1.24775 255 255 255
0.48719 1.43018 1.30004 255 255 255
0.438027  1.39606  1.28899 255 255 255
0.201236  1.54388  1.28354 255 255 255
0.552654  1.45822  1.30317 255 255 255
0.000642893     1.61242     1.27318 255 255 255
0.43984 1.34623 1.26379 255 255 255
0.178876  1.80584  1.36081 255 255 255
0.0316276   1.57482   1.27369 255 255 255
0.459114  1.56314  1.33958 255 255 255
0.115695  1.78684  1.35638 255 255 255
0.015579   1.6416  1.28591 255 255 255
0.524434  1.46122  1.30258 255 255 255
0.24055 1.53793 1.29371 255 255 255
0.098038  1.84757  1.31161 255 255 255
0.275801  1.32191  1.22326 255 255 255
0.245029  1.21346  1.24265 255 255 255
-0.0394663    1.78121    1.30462 255 255 255
0.364275 0.993572  1.28035 255 255 255
-0.0496826    1.83856    1.30099 255 255 255
0.223727  1.38595  1.23428 255 255 255
-0.0571177    1.81721    1.30453 255 255 255
0.00667493    1.70539    1.30011 255 255 255
0.285217  1.73422  1.35921 255 255 255
0.231447  1.38371  1.23293 255 255 255
0.0541159   1.60338   1.28234 255 255 255
-0.0242204    1.90128    1.30427 255 255 255
0.158022  1.57773   1.2742 255 255 255
0.152668  1.48584  1.26777 255 255 255
0.0329053   1.80214   1.30724 255 255 255
-0.0642271    1.71603    1.29695 255 255 255
 0.3691 1.38287 1.24816 255 255 255
0.232908   1.6847  1.35329 255 255 255
0.173375  1.44711  1.25013 255 255 255
0.0972127   1.81622   1.35723 255 255 255
0.219198  1.55042  1.29418 255 255 255
0.24671 1.68995 1.35516 255 255 255
0.366229  1.40858   1.2625 255 255 255
-0.00817108     1.82806     1.30765 255 255 255
0.067607  1.80767  1.30873 255 255 255
-0.0483373     1.3774    1.28109 255 255 255
0.45542 1.37084 1.28248 255 255 255
0.263928  1.51082  1.28279 255 255 255
0.27037 1.66875 1.34991 255 255 255
0.0412092   1.80068   1.30715 255 255 255
0.0139885   1.84332   1.30866 255 255 255
0.399888  1.65649  1.35137 255 255 255
0.428537  1.46546  1.29014 255 255 255
0.138071  1.51462  1.26826 255 255 255
0.173301  1.57246  1.28618 255 255 255
0.220382  1.45328  1.24471 255 255 255
0.09675 1.72567 1.30981 255 255 255
0.520338  1.52861  1.30469 255 255 255
0.25354 1.35148 1.22648 255 255 255
-0.0232771    1.75189    1.30404 255 255 255
0.464984  1.41026  1.28917 255 255 255
0.480139  1.41806  1.29718 255 255 255
0.403031  1.58707  1.34761 255 255 255
0.266731  1.68324   1.3541 255 255 255
0.299428  1.54279  1.30789 255 255 255
-0.0587229    1.44597    1.28599 255 255 255
0.145026  1.51499  1.26987 255 255 255
0.171069  1.19479  1.26954 255 255 255
0.344907  1.43886  1.27255 255 255 255
0.511132  1.52425  1.30484 255 255 255
0.442748  1.46015  1.29066 255 255 255
0.219522   1.4308  1.24347 255 255 255
-0.075295     1.783   1.30168 255 255 255
0.0362129   1.77353   1.30364 255 255 255
0.0417799   1.62608   1.28518 255 255 255
0.287867  1.47129  1.27025 255 255 255
0.245437  1.36323  1.22746 255 255 255
-0.00240646     1.81014     1.30605 255 255 255
0.206867  1.54808   1.2956 255 255 255
0.0130071   1.96824   1.30748 255 255 255
0.440998  1.38854  1.28645 255 255 255
0.232102  1.55535  1.29965 255 255 255
-0.00735726     1.60916     1.26931 255 255 255
0.00093089    1.82726     1.3078 255 255 255
0.32319 1.43518 1.25882 255 255 255
0.118899  1.64761  1.28684 255 255 255
0.248759  1.01356  1.27513 255 255 255
0.305579  1.35104  1.22301 255 255 255
0.0333713    1.5464   1.26663 255 255 255
0.0450868   1.82306   1.30925 255 255 255
0.210051  1.39161  1.23763 255 255 255
0.198874  1.39123  1.23962 255 255 255
0.365845  1.61841  1.35062 255 255 255
0.0112359   1.72979   1.30003 255 255 255
0.00166244    1.67966     1.2992 255 255 255
0.0129132   1.61472   1.28181 255 255 255
0.338027  1.35631  1.22548 255 255 255
0.094703   1.7104  1.30619 255 255 255
0.00915117    1.79345    1.30675 255 255 255
-0.00546931     1.59949     1.27466 255 255 255
0.0364786   1.80984   1.30875 255 255 255
0.246984  1.42636  1.23947 255 255 255
0.212254  1.43241  1.24435 255 255 255
0.220464  1.42329  1.24138 255 255 255
0.114202  1.81956  1.36302 255 255 255
0.291257  1.70903   1.3529 255 255 255
-0.0625693    1.82723    1.30531 255 255 255
0.0894556   1.71219   1.30222 255 255 255
0.347759 0.974578  1.27231 255 255 255
0.119515  1.27415  1.27687 255 255 255
-0.0241523    1.81231    1.30548 255 255 255
0.098173  1.59915  1.27788 255 255 255
0.260176  1.53607  1.29729 255 255 255
0.0818601   1.73118   1.31111 255 255 255
0.131439  1.86581  1.32495 255 255 255
0.0231024   1.67496   1.29391 255 255 255
0.492828  1.43797  1.30342 255 255 255
0.201772  1.41105  1.24333 255 255 255
0.121568  1.63492  1.28131 255 255 255
0.464847  1.40338  1.28649 255 255 255
0.187688  1.63062  1.30625 255 255 255
-0.0579626    1.63771    1.29286 255 255 255
0.0548537   1.94321   1.31448 255 255 255
0.314178  1.71803  1.35195 255 255 255
0.0100783   1.60836   1.27753 255 255 255
0.324228  1.58246  1.33757 255 255 255
0.063201  1.57616  1.27685 255 255 255
0.512873  1.38011  1.30114 255 255 255
0.141566  1.59724   1.2704 255 255 255
0.167045  1.53639  1.26688 255 255 255
0.129754   1.4918   1.2719 255 255 255
-0.0523773     1.6285    1.28107 255 255 255
0.317615  1.46265  1.27814 255 255 255
0.301941  1.41688   1.2425 255 255 255
0.156675  1.64262   1.3053 255 255 255
0.117887   1.8717  1.30473 255 255 255
0.18753 1.40717 1.24271 255 255 255
0.264715  1.42391  1.23804 255 255 255
0.0564603   1.76661    1.3043 255 255 255
-0.0782799    1.80417    1.30348 255 255 255
0.555532  1.45054  1.30211 255 255 255
0.0844605   1.71736   1.30438 255 255 255
0.0127996   1.83176    1.3089 255 255 255
-0.0689018    1.85012    1.30966 255 255 255
-0.0440189    1.78685    1.30463 255 255 255
0.215799  1.54382  1.28862 255 255 255
0.180963  1.42432  1.24838 255 255 255
-0.0321251    1.77962    1.30389 255 255 255
-0.0398749    1.86459    1.30123 255 255 255
0.302168  1.32715   1.2217 255 255 255
0.194919  1.26885  1.26004 255 255 255
0.215246  1.39552  1.23881 255 255 255
0.177417  1.88891  1.36656 255 255 255
0.418952  1.45523  1.29655 255 255 255
0.0698102   1.76595   1.31035 255 255 255
0.16378 1.57999 1.28115 255 255 255
0.143889  1.64379  1.29498 255 255 255
0.217703  1.09813  1.27498 255 255 255
0.366843  1.34132  1.23049 255 255 255
0.0772413   1.75934   1.31522 255 255 255
-0.0532588    1.82473    1.30436 255 255 255
0.22938 1.40082 1.23813 255 255 255
0.414918  1.43924  1.29194 255 255 255
0.0412519   1.75253   1.30407 255 255 255
0.161497  1.57218  1.27321 255 255 255
0.257674  1.42676  1.23966 255 255 255
0.340708  1.58128   1.3483 255 255 255
-0.00587928     1.41932     1.27691 255 255 255
0.216819  1.38819    1.236 255 255 255
0.255014  1.47175  1.26225 255 255 255
-0.000390029      1.85927      1.30748 255 255 255
0.438021  1.41895  1.29381 255 255 255
-0.0223526    1.72584    1.30098 255 255 255
0.257665  1.34376  1.21967 255 255 255
-0.023231   1.80212   1.30712 255 255 255
0.0615636   1.83821   1.31073 255 255 255
0.390783  1.37585  1.25596 255 255 255
0.382898 0.999321  1.27556 255 255 255
0.548558   1.4312  1.30023 255 255 255
0.295874  1.50562  1.29522 255 255 255
0.134402  1.66317  1.30745 255 255 255
0.409539  1.43786  1.29223 255 255 255
0.218583  1.77459  1.35726 255 255 255
0.111577  1.30537  1.27817 255 255 255
0.167184  1.41803  1.24548 255 255 255
0.198814  1.63634   1.3144 255 255 255
0.250783  1.54917   1.3006 255 255 255
0.0614398   1.78223   1.30564 255 255 255
 0.1507 1.56732 1.26527 255 255 255
0.402723 0.952933  1.27887 255 255 255
0.0579273   1.62695   1.28643 255 255 255
-0.0683765    1.81624    1.30641 255 255 255
0.00305582    1.71903    1.30108 255 255 255
0.0495182   1.62624    1.2851 255 255 255
0.114293  1.50545   1.2695 255 255 255
0.194887  1.50031  1.26737 255 255 255
-0.0327819    1.73575    1.29488 255 255 255
0.0256484   1.66102   1.29166 255 255 255
0.35986 1.35092 1.22816 255 255 255
0.375361  1.41902  1.27003 255 255 255
0.114039  1.65504   1.2865 255 255 255
0.330493  1.43581  1.26667 255 255 255
0.20535 1.58929 1.30191 255 255 255
0.250032  1.18774  1.24681 255 255 255
0.15216 1.54956 1.25845 255 255 255
0.435562  1.47925  1.29161 255 255 255
0.17438 1.45321 1.25057 255 255 255
0.548653  1.47083  1.30312 255 255 255
-0.0712121    1.82966    1.30331 255 255 255
0.0859136   1.67086   1.29037 255 255 255
0.0436781    1.6454   1.28887 255 255 255
0.415666  1.43217  1.29082 255 255 255
0.0915492   1.65322   1.29307 255 255 255
0.249154  1.66985  1.35265 255 255 255
0.270572  1.33602  1.22443 255 255 255
0.0827242     1.827   1.31006 255 255 255
0.172772  1.58222  1.29035 255 255 255
0.314319  1.36604   1.2252 255 255 255
-0.00579617     1.27471     1.27978 255 255 255
0.0583206   1.77478   1.30562 255 255 255
0.438915  1.54028  1.30536 255 255 255
0.00538019    1.69962    1.30005 255 255 255
0.246087  1.19226  1.24497 255 255 255
0.399485  1.05209  1.27652 255 255 255
0.148009  1.58134  1.26665 255 255 255
0.195865  1.55218    1.287 255 255 255
0.346485  1.40705  1.25382 255 255 255
0.0808051   1.74067     1.311 255 255 255
0.448168  1.48882  1.29377 255 255 255
0.206496  1.43038  1.24473 255 255 255
0.0414498   1.75907   1.30525 255 255 255
0.333216  1.37509  1.22737 255 255 255
0.076791  1.59655  1.27854 255 255 255
-0.0349425    1.87508    1.30504 255 255 255
0.442868  1.37038  1.28305 255 255 255
0.00302021    1.26822    1.28203 255 255 255
0.36365 1.35408 1.23013 255 255 255
0.192352  1.46202  1.25015 255 255 255
0.15525 1.43367 1.25081 255 255 255
-0.160269   1.71066   1.29884 255 255 255
-0.00323611      1.6751     1.29684 255 255 255
0.0724952   1.58159   1.27728 255 255 255
0.200199  1.26998  1.25528 255 255 255
-0.0654622    1.45619     1.2875 255 255 255
0.0252167   1.66902   1.29404 255 255 255
0.42535 1.37028 1.27708 255 255 255
-0.0420423    1.62103    1.28862 255 255 255
0.48061 1.37648 1.29599 255 255 255
0.513364  1.54054  1.30477 255 255 255
0.350901  1.64417  1.35204 255 255 255
0.333572   1.4398   1.2677 255 255 255
0.263562  1.45732  1.25729 255 255 255
-0.00862938      1.6245     1.26737 255 255 255
0.063088  1.53299    1.265 255 255 255
-0.0590979    1.71277    1.29952 255 255 255
0.0514102   1.77973   1.30392 255 255 255
0.150825   1.4316  1.25165 255 255 255
0.443519   1.4626  1.29262 255 255 255
0.390707 0.950714    1.277 255 255 255
0.288838  1.51671  1.29621 255 255 255
-0.0304362    1.36724    1.28324 255 255 255
0.354572  1.33192  1.22368 255 255 255
-0.0786038    1.73632    1.28586 255 255 255
0.397823  1.58291  1.34429 255 255 255
0.0185787   1.96947   1.31039 255 255 255
0.0340789   1.99527   1.31304 255 255 255
0.0758336   1.91945   1.31344 255 255 255
0.342115  1.57318  1.34699 255 255 255
0.201445  1.85048  1.36252 255 255 255
0.225971  1.55144   1.3008 255 255 255
0.201987  1.62176  1.31091 255 255 255
0.00762703     1.6889    1.29948 255 255 255
0.271664  1.46868    1.263 255 255 255
0.0623759   1.77204   1.30788 255 255 255
0.119732   1.9035  1.31363 255 255 255
0.195326  1.13754  1.27671 255 255 255
-0.0232639    1.37997    1.28282 255 255 255
-0.0108999    1.28942    1.28049 255 255 255
0.521063  1.53537  1.30532 255 255 255
0.413572   1.4448  1.29275 255 255 255
-0.0395065    1.39427    1.28162 255 255 255
-0.075326   1.92492   1.31119 255 255 255
0.163906   1.2131  1.26789 255 255 255
0.0382578   1.78365   1.30619 255 255 255
0.0698589   1.77088    1.3097 255 255 255
0.141575  1.83749  1.36252 255 255 255
0.177566  1.77711  1.35804 255 255 255
0.226566  1.44006  1.24445 255 255 255
0.00231753    1.71408    1.30047 255 255 255
-0.0423969    1.33923    1.28092 255 255 255
-0.00774138     1.26897     1.27942 255 255 255
0.172845  1.40549  1.24535 255 255 255
0.0834342   1.75138   1.31551 255 255 255
0.188774  1.65522  1.32471 255 255 255
0.0646042   1.76828   1.30824 255 255 255
0.338039  1.36252  1.22679 255 255 255
0.0799728   1.74665   1.31173 255 255 255
0.443757   1.4858   1.2916 255 255 255
-0.00500866     1.57483     1.28176 255 255 255
0.419819 0.999255  1.27502 255 255 255
0.0370231   1.66075   1.29094 255 255 255
0.12589 1.89127 1.31479 255 255 255
0.075681   1.7536  1.31197 255 255 255
0.169992  1.57848  1.28385 255 255 255
-0.0410487    1.70084    1.29946 255 255 255
0.245516  1.58104  1.30541 255 255 255
0.426548   1.4499  1.29559 255 255 255
0.0211084   1.96421   1.30825 255 255 255
0.0689943   1.54023   1.26709 255 255 255
0.160401  1.41673  1.24776 255 255 255
0.0693641   1.75417   1.30745 255 255 255
0.0369896   1.76079   1.30561 255 255 255
0.0260673   1.81026   1.30765 255 255 255
0.208486  1.55725  1.29585 255 255 255
0.446888  1.43192  1.29318 255 255 255
0.0342029   1.62274   1.28608 255 255 255
-0.00927584     1.26322     1.27886 255 255 255
0.158682  1.43717  1.25164 255 255 255
0.243445  1.66762  1.35323 255 255 255
0.111691  1.48155  1.27377 255 255 255
0.0349911   1.74734    1.3042 255 255 255
0.40595 1.32474 1.24618 255 255 255
0.241143  1.50861  1.27086 255 255 255
0.0322421   1.62673   1.28596 255 255 255
0.204647  1.60866  1.30831 255 255 255
0.17588 1.53841 1.27077 255 255 255
0.0217133   1.63942   1.28719 255 255 255
-0.0150551    1.66548    1.29516 255 255 255
0.269954  1.45258  1.25753 255 255 255
0.0969171   1.81249   1.35261 255 255 255
0.140729     1.64  1.29499 255 255 255
0.0858277    1.7393    1.3125 255 255 255
0.286525  1.62117  1.35052 255 255 255
0.0186605   1.63279   1.28733 255 255 255
-0.0489424    1.75166    1.30133 255 255 255
0.166203  1.66101   1.3139 255 255 255
0.0466724   1.64107   1.28779 255 255 255
0.129011  1.61221  1.26846 255 255 255
0.0403316   1.73185   1.30338 255 255 255
0.233116  1.59704   1.3089 255 255 255
0.195126  1.48299  1.24733 255 255 255
0.0643702   1.71306   1.29126 255 255 255
0.0964696   1.95003   1.31477 255 255 255
0.163697  1.60551  1.28557 255 255 255
0.0923622   1.72081   1.30953 255 255 255
0.156195  1.56112  1.26597 255 255 255
-0.0755791    1.74014    1.28802 255 255 255
0.152771  1.59082  1.27282 255 255 255
0.16989 1.77098 1.35812 255 255 255
-0.00158128     1.70517     1.30092 255 255 255
0.344728  1.41239  1.25823 255 255 255
 1.67889 0.853903  1.39588 255 255 255
 2.28848 0.820582  1.45516 255 255 255
 1.41558 0.941148  1.35128 255 255 255
1.21857 1.39729 1.24594 255 255 255
1.31209 1.36929 1.31215 255 255 255
 2.04399 0.841273  1.43431 255 255 255
1.17291 1.13302 1.29496 255 255 255
1.81654  1.2636 1.41032 255 255 255
 1.3193 1.35174  1.3121 255 255 255
1.47192 1.23877 1.30395 255 255 255
1.42959  1.3795 1.30573 255 255 255
0.930681  1.27236  1.29989 255 255 255
 1.73508 0.809129  1.38131 255 255 255
1.30792 1.41964 1.35327 255 255 255
 2.33627 0.906329  1.46582 255 255 255
0.929352  1.23368  1.28709 255 255 255
1.13628 1.56119 1.36316 255 255 255
1.12362  1.3799 1.26085 255 255 255
1.15263 1.38743 1.25553 255 255 255
1.54944  1.0162 1.24511 255 255 255
1.42888 1.34018 1.28797 255 255 255
 1.54283 0.728515  1.38858 255 255 255
1.33677 1.50216  1.2969 255 255 255
 1.58792 0.617757  1.25348 255 255 255
 2.17708 0.743954  1.45163 255 255 255
1.04741 1.48948 1.35412 255 255 255
1.35813 1.11324  1.2543 255 255 255
1.35543 1.48312  1.3057 255 255 255
  1.4045 0.983171  1.35979 255 255 255
  1.6574 0.446682  1.35518 255 255 255
 1.77514 0.335284  1.42534 255 255 255
 1.43741 0.888845   1.3723 255 255 255
 2.07086 0.693865  1.45013 255 255 255
1.60417 1.32688 1.25485 255 255 255
 1.73181 0.894679   1.4069 255 255 255
 1.41031 0.829246  1.25363 255 255 255
0.912292  1.18352  1.29016 255 255 255
1.41554 1.42168 1.32941 255 255 255
1.76551 1.01774 1.36268 255 255 255
1.10791 1.52401  1.3648 255 255 255
 1.76483 0.369221  1.41932 255 255 255
 1.3578 1.45264  1.3318 255 255 255
1.37199  1.3175   1.331 255 255 255
 2.07177 0.392124  1.41884 255 255 255
1.06707 1.18068 1.34165 255 255 255
1.86026 0.72796 1.36067 255 255 255
0.868482  1.25519  1.28141 255 255 255
1.31117 1.46134 1.36478 255 255 255
1.50003 1.59472 1.30514 255 255 255
 1.7123 1.32435 1.31514 255 255 255
1.60037 1.12247 1.27504 255 255 255
1.20831  1.3714 1.35806 255 255 255
1.68237 1.08579 1.27018 255 255 255
1.54404 1.14533 1.28079 255 255 255
1.43287 1.15494 1.29489 255 255 255
 1.4162 1.29656 1.29457 255 255 255
 1.3577 1.43432  1.3498 255 255 255
 1.5028 1.12983 1.27984 255 255 255
 1.0515 1.45919 1.34744 255 255 255
1.66901 1.05498  1.2761 255 255 255
 1.76605 0.899994  1.40502 255 255 255
 1.61252 0.765849  1.39948 255 255 255
1.29373 1.13574  1.2817 255 255 255
 1.26914 0.886041   1.3038 255 255 255
 1.92334 0.940295  1.41094 255 255 255
1.20662 1.60159 1.36351 255 255 255
 1.90349 0.582757  1.44109 255 255 255
1.37838 1.15027 1.27593 255 255 255
1.24534 1.57214 1.37105 255 255 255
1.56782 1.08653 1.27392 255 255 255
1.04027 1.43394 1.34813 255 255 255
1.68455 1.22958 1.28984 255 255 255
1.20851 1.56496 1.36472 255 255 255
1.25472 1.27072 1.29057 255 255 255
1.09349 1.48435 1.36369 255 255 255
1.34098 1.29264 1.29056 255 255 255
1.25321 1.41256 1.36193 255 255 255
1.25308 1.41249 1.36158 255 255 255
 1.59058 0.418331  1.38741 255 255 255
1.21826 1.63008 1.36728 255 255 255
 1.69853 0.363192   1.3779 255 255 255
 1.1042 1.50163  1.3647 255 255 255
0.915237   1.2277  1.29085 255 255 255
1.31615 1.30325  1.2902 255 255 255
 1.68267 0.455057   1.3544 255 255 255
0.903709  1.21798  1.28664 255 255 255
0.90229 1.23471 1.28933 255 255 255
1.25164  1.6387 1.37093 255 255 255
 1.31397 0.760606  1.24345 255 255 255
0.920197  1.20924  1.28475 255 255 255
1.10364 1.19747 1.34268 255 255 255
