ply
format ascii 1.0
element vertex 1148
property float x
property float y
property float z
property uchar red
property uchar green
property uchar blue
end_header
  1.60702 -0.776408   1.44319 255 255 255
  1.72152 -0.804339   1.46877 255 255 255
0.893488 0.236862  1.23834 255 255 255
0.723776 0.181963   1.2491 255 255 255
  1.86159 -0.572488   1.50534 255 255 255
   1.6177 -0.612303    1.4392 255 255 255
0.621686 0.253998  1.22174 255 255 255
  0.95958 -0.488909   1.36986 255 255 255
  1.44886 -0.766192   1.42227 255 255 255
0.906007 0.352195  1.30376 255 255 255
 0.463719 0.0776767   1.23579 255 255 255
 0.740119 -0.151499   1.35922 255 255 255
0.832097 0.143938  1.31873 255 255 255
0.806643 0.376144  1.20888 255 255 255
0.808652 0.373224  1.20493 255 255 255
 1.03204 -0.13085  1.34288 255 255 255
 0.871604 0.0389815     1.321 255 255 255
0.478734  0.11912   1.2664 255 255 255
  1.95426 -0.473178   1.45871 255 255 255
   0.48446 0.00113912    1.24411 255 255 255
  1.30593 0.0442802    1.3721 255 255 255
  1.03677 0.0327741   1.36098 255 255 255
  1.64224 -0.358421   1.34618 255 255 255
   0.72608 -0.0615196    1.30725 255 255 255
  1.60249 -0.190306   1.39673 255 255 255
  1.50061 -0.219401   1.40077 255 255 255
  1.65474 -0.555198    1.4051 255 255 255
  1.0267 0.361396  1.27447 255 255 255
0.876067 0.341363   1.1816 255 255 255
   1.12588 -0.0603266    1.36932 255 255 255
 1.05495 0.100086  1.34983 255 255 255
 0.764252 0.0747783   1.25352 255 255 255
  1.78181 -0.616295   1.46488 255 255 255
 1.03724 0.250419  1.27473 255 255 255
 2.62572 -2.20361  4.49473 255 255 255
  1.32917 -0.148903   1.37134 255 255 255
 0.753638 -0.458149   1.35329 255 255 255
 1.09634 0.117721  1.36515 255 255 255
 0.949365 0.0373666   1.33451 255 255 255
    0.52674 -0.00309216     1.29609 255 255 255
  1.92448 -0.533141   1.45764 255 255 255
    1.03545 -0.00778227     1.36335 255 255 255
 0.440755 -0.086811   1.28246 255 255 255
  1.99969 -0.576755   1.51925 255 255 255
0.785714  0.19437   1.2411 255 255 255
  1.60659 -0.427982   1.41562 255 255 255
  1.61469 -0.292282   1.37494 255 255 255
0.756889 0.126848  1.23841 255 255 255
 0.868042 -0.255593   1.35915 255 255 255
  0.998065 -0.0272391    1.38104 255 255 255
  1.80976 -0.759915   1.46818 255 255 255
  1.74978 -0.699217   1.45111 255 255 255
 1.61088 -1.05859  1.48493 255 255 255
   1.4787 -0.525439   1.41106 255 255 255
 1.05123 0.131459  1.29488 255 255 255
  1.32567 -0.482992   1.38473 255 255 255
  0.972394 -0.0788539    1.35287 255 255 255
  1.77449 -0.535395   1.45981 255 255 255
  1.55779 -0.490625   1.42954 255 255 255
 0.466391 -0.125073   1.29781 255 255 255
 1.07996 0.210244   1.3066 255 255 255
  1.88846 -0.600522   1.45674 255 255 255
 0.959338 -0.045131   1.36913 255 255 255
  1.45006 -0.649211   1.43049 255 255 255
 1.54771 -1.06797  1.45596 255 255 255
 1.38704 -1.10227  1.41889 255 255 255
0.911205 0.212832  1.24538 255 255 255
  0.592448 -0.0833089     1.2663 255 255 255
   1.60008 -0.0522133    1.42135 255 255 255
0.976695 0.152302  1.30166 255 255 255
0.999315 0.299021  1.24196 255 255 255
  1.53683 -0.907045    1.4411 255 255 255
0.864346  0.19911  1.28555 255 255 255
 0.552172 -0.106971   1.26775 255 255 255
 1.49855 -1.09764  1.46171 255 255 255
0.800903 0.147424  1.24908 255 255 255
  1.22552 -0.217182   1.34647 255 255 255
0.750035 0.257877  1.22799 255 255 255
 0.61508 0.370735   1.3053 255 255 255
 0.986339 -0.445365   1.38276 255 255 255
  1.37687 -0.208478   1.40219 255 255 255
  0.407713 0.00332195    1.23614 255 255 255
  0.79479 -0.519626   1.35251 255 255 255
 0.430241 0.0375707   1.23219 255 255 255
 0.431177 0.0375605    1.2299 255 255 255
  1.71581 -0.525086   1.43854 255 255 255
  0.491081 -0.0329468    1.29199 255 255 255
0.515131 -0.15077  1.32296 255 255 255
  1.44504 -0.274067   1.39834 255 255 255
  1.52809 -0.496403   1.42699 255 255 255
   1.3254 -0.356897   1.40419 255 255 255
  1.93061 -0.800062   1.56904 255 255 255
  1.44541 -0.491007   1.40924 255 255 255
  1.52786 -0.495462   1.42374 255 255 255
0.849387 0.179167  1.29341 255 255 255
0.517725 0.153961   1.3074 255 255 255
   1.5561 -0.186468   1.40625 255 255 255
  1.55587 -0.186273   1.40531 255 255 255
  1.34123 -0.118284   1.35849 255 255 255
  1.42757 -0.406352   1.39872 255 255 255
 0.671615 -0.017423   1.29989 255 255 255
0.490094 0.083252  1.23264 255 255 255
 0.649926 0.0158994   1.29286 255 255 255
  1.03205 -0.175877   1.34017 255 255 255
  0.626135 -0.0118462    1.26832 255 255 255
   1.38237 -0.0182698    1.33999 255 255 255
  0.448171 -0.0484441    1.25754 255 255 255
  1.62439 -0.596412   1.40618 255 255 255
  0.434063 -0.0742818    1.26186 255 255 255
  0.454702 -0.0672176    1.26652 255 255 255
  1.48096 -0.978892    1.4292 255 255 255
 1.06089 0.269573  1.30354 255 255 255
 1.14762 0.162909  1.36147 255 255 255
  0.932083 -0.0194975    1.34657 255 255 255
  1.35092 -0.863564   1.43991 255 255 255
0.591187 0.119157   1.3002 255 255 255
0.836862 0.296878  1.18076 255 255 255
 0.861038 0.0305657   1.36033 255 255 255
  1.50378 -0.190188   1.40705 255 255 255
0.468927 0.108859   1.2517 255 255 255
  0.584811 -0.0519302    1.27763 255 255 255
  1.23801 -0.186912    1.3217 255 255 255
 1.22214 0.051422  1.36795 255 255 255
  1.51208 -0.383854   1.40809 255 255 255
  1.69521 -0.322697   1.40187 255 255 255
  1.55311 -0.953801   1.42728 255 255 255
 1.07528 0.336706  1.25132 255 255 255
0.568034 0.030495  1.31639 255 255 255
 0.986859 0.0192203   1.36457 255 255 255
0.996643 0.161275  1.27772 255 255 255
 0.838371 -0.227864   1.35868 255 255 255
  0.478131 -0.0299824    1.25811 255 255 255
  0.927915 -0.0376829    1.35885 255 255 255
 0.984937 0.0806122   1.31786 255 255 255
  1.10796 -0.761088   1.39445 255 255 255
  1.48617 -0.262126   1.40044 255 255 255
 1.12005 0.128495  1.30499 255 255 255
0.402511 0.016819  1.22586 255 255 255
0.743171  -0.3696  1.31878 255 255 255
 0.61566 0.105982  1.30706 255 255 255
  1.47073 -0.216013   1.40544 255 255 255
0.962288  0.11664  1.29393 255 255 255
  1.54037 -0.973086   1.42015 255 255 255
  1.56257 -0.936421   1.43768 255 255 255
  1.20797 -0.120081   1.36819 255 255 255
 0.574986 -0.172546   1.32545 255 255 255
 0.844531 0.0265186   1.29924 255 255 255
 0.557925 0.0900799   1.30688 255 255 255
0.544594 0.110477  1.30928 255 255 255
0.806404 0.215091  1.24023 255 255 255
  1.65008 -0.972853   1.48024 255 255 255
  1.22181 -0.200064   1.33304 255 255 255
 1.61412 -0.14866  1.40835 255 255 255
  1.81377 -0.597676   1.46543 255 255 255
  1.49588 -0.996199   1.42543 255 255 255
  1.25018 -0.391285   1.39209 255 255 255
0.832516 0.369183  1.19238 255 255 255
  1.04638 -0.263725   1.36199 255 255 255
  1.13159 -0.229161   1.32349 255 255 255
0.877235 0.271763  1.21117 255 255 255
  1.02509 -0.612864   1.37856 255 255 255
 1.06658 0.124997  1.32872 255 255 255
  1.38637 -0.734707   1.41198 255 255 255
 1.00659 0.193316  1.26112 255 255 255
 0.49547 0.173091  1.30606 255 255 255
   1.2952 -0.815283   1.36712 255 255 255
   1.21434 -0.0919952    1.35825 255 255 255
0.567267 0.126168  1.30819 255 255 255
  1.84767 -0.631093    1.4661 255 255 255
   1.09215 -0.0309564     1.3652 255 255 255
  1.80824 -0.512353   1.45616 255 255 255
0.632752  0.12761  1.30176 255 255 255
  1.45333 -0.237175   1.40184 255 255 255
   1.3812 -0.491966   1.38481 255 255 255
  1.30187 -0.185201   1.33467 255 255 255
   1.7565 -0.752879   1.45507 255 255 255
  1.72293 -0.392015   1.44247 255 255 255
  1.57353 -0.947815   1.43162 255 255 255
  1.22539 -0.269647   1.39249 255 255 255
  1.33044 -0.376725   1.40129 255 255 255
  1.14312 -0.160774    1.3666 255 255 255
0.791987 0.504637  1.31721 255 255 255
  1.40231 -0.601119   1.42482 255 255 255
  1.25249 -0.145687   1.31509 255 255 255
    1.11602 -0.00227947     1.36623 255 255 255
  1.26168 -0.819142   1.37762 255 255 255
  0.509616 -0.0314195    1.30039 255 255 255
  1.10229 -0.131295   1.35229 255 255 255
 0.608381 0.0804316   1.30586 255 255 255
0.718815 -0.08501  1.31729 255 255 255
0.912068 -0.15413  1.36584 255 255 255
 0.887233 0.0624153   1.29173 255 255 255
 0.886308 0.0643484   1.29525 255 255 255
  1.61857 -0.822139   1.45378 255 255 255
   1.36713 -0.0315629    1.35682 255 255 255
  1.12757 -0.603348   1.38663 255 255 255
  1.65117 -0.879882   1.45046 255 255 255
  1.74421 -0.876445   1.47851 255 255 255
0.599097 0.372299  1.32637 255 255 255
  1.30096 -0.488253   1.39537 255 255 255
  1.18846 -0.180479   1.34959 255 255 255
  1.06733 -0.575822   1.38312 255 255 255
0.606713  0.03949  1.29809 255 255 255
  1.64944 -0.417036   1.43286 255 255 255
  1.21958 -0.818847   1.41033 255 255 255
  1.50301 -0.277457   1.40156 255 255 255
  1.20035 -0.740292   1.43091 255 255 255
  1.48898 -0.152549   1.41773 255 255 255
  0.565899 -0.0381522    1.29161 255 255 255
  1.24652 -0.214871   1.34244 255 255 255
0.842492 -0.18527   1.3788 255 255 255
 0.598949 0.0596124   1.30546 255 255 255
   1.5006 -0.147247   1.40406 255 255 255
 1.37101 -1.09875   1.4473 255 255 255
  1.34283 0.0111864   1.36257 255 255 255
 1.01297 0.148223  1.29587 255 255 255
  1.76521 -0.684823   1.44912 255 255 255
  1.72748 -0.589922   1.45806 255 255 255
 0.538964 0.0087765   1.28928 255 255 255
  1.26415 -0.785051   1.41168 255 255 255
 0.909051 -0.529191   1.35973 255 255 255
  1.24465 -0.674193   1.42068 255 255 255
0.518973 0.218082  1.26767 255 255 255
     1.3288 -0.00703029     1.36351 255 255 255
0.849829 0.278504  1.20525 255 255 255
0.593364 0.342685  1.31698 255 255 255
  1.23073 -0.543314    1.3834 255 255 255
 1.01131 0.213046  1.27246 255 255 255
 1.05531 0.402019   1.2865 255 255 255
 0.957908 -0.578911   1.36012 255 255 255
  1.26167 -0.649327   1.39067 255 255 255
 0.495926 0.0647052   1.30664 255 255 255
   1.10719 -0.0867157    1.33952 255 255 255
0.485892 0.163709  1.29652 255 255 255
  1.20261 -0.983651   1.42808 255 255 255
0.534518 0.144863  1.30798 255 255 255
  1.11993 -0.466456   1.37108 255 255 255
 0.571879 -0.159021   1.31483 255 255 255
  1.19103 -0.885224   1.42363 255 255 255
 1.00056 0.221847  1.24603 255 255 255
 0.900909 0.0554973   1.29436 255 255 255
  1.0314 0.149803  1.29548 255 255 255
  1.48992 -0.335796   1.40438 255 255 255
  0.911336 -0.0494367    1.36583 255 255 255
0.645867 0.207828  1.28602 255 255 255
   1.8187 -0.618953   1.47144 255 255 255
 0.55593 0.230511  1.29602 255 255 255
0.954599 0.243531  1.24863 255 255 255
0.607146 -0.15203  1.33598 255 255 255
   1.3187 -0.163363   1.34413 255 255 255
0.869391 0.150642  1.29813 255 255 255
  1.11663 -0.504343   1.38323 255 255 255
 0.90303 0.344626  1.18241 255 255 255
  1.20561 -0.912584   1.38215 255 255 255
  1.65928 -0.569123   1.44078 255 255 255
   1.6726 -0.521412   1.43543 255 255 255
 1.22949 -0.28707   1.3857 255 255 255
0.611151  0.13127  1.29522 255 255 255
 1.12215 0.146986  1.29984 255 255 255
  1.91478 -0.592621   1.47016 255 255 255
 1.07768 0.260687  1.30388 255 255 255
  1.26251 -0.272125    1.3904 255 255 255
  1.29838 -0.945714    1.4582 255 255 255
  1.28674 -0.778372   1.41545 255 255 255
0.615458 0.385861  1.31509 255 255 255
  1.23648 -0.555935   1.38275 255 255 255
  1.06638 0.0781465   1.37004 255 255 255
  1.45876 -0.299958   1.41182 255 255 255
  1.42432 -0.712973   1.41615 255 255 255
  1.40264 -0.331474   1.39695 255 255 255
 1.01285 0.161308  1.28878 255 255 255
1.11222 -0.1159 1.32682 255 255 255
   0.565647 0.000894832     1.29273 255 255 255
0.836415 0.489882  1.30574 255 255 255
   0.9357 -0.415583   1.36315 255 255 255
  1.66606 -0.961377   1.47619 255 255 255
  1.50208 -0.647063   1.42213 255 255 255
  1.84095 -0.637715   1.46164 255 255 255
   1.33193 -0.0232877    1.33472 255 255 255
 0.995765 0.0942426   1.31224 255 255 255
 1.05318 0.144798  1.30121 255 255 255
  1.72289 -0.708342   1.45018 255 255 255
0.516369 0.244303  1.29921 255 255 255
  1.79033 -0.665397    1.4676 255 255 255
0.965599 0.132887  1.29353 255 255 255
0.966339 0.131664  1.29046 255 255 255
  1.25789 -0.160959   1.33374 255 255 255
  1.24153 -0.969089   1.44663 255 255 255
  1.23417 -0.582752   1.36697 255 255 255
  1.16412 -0.473625   1.37635 255 255 255
  1.74217 -0.803796   1.41238 255 255 255
  1.19045 -0.828551   1.41876 255 255 255
   1.22077 -0.0599919    1.37166 255 255 255
0.628773 0.390792  1.31702 255 255 255
0.731701 0.118305  1.26496 255 255 255
 0.486082 0.0691984   1.26457 255 255 255
  1.15437 -0.749772   1.41209 255 255 255
   1.2786 0.0040656   1.36838 255 255 255
  1.52198 -0.401377   1.41461 255 255 255
 0.635793 -0.200743   1.35282 255 255 255
  1.74395 -0.575274   1.46284 255 255 255
    0.363197 -7.98452e-05      1.22623 255 255 255
   0.515031 -0.00523653     1.29612 255 255 255
 0.805546 -0.454193   1.35159 255 255 255
 0.622055 -0.254752   1.33302 255 255 255
 1.43731 -1.09603  1.45021 255 255 255
  1.36446 -0.629928   1.42012 255 255 255
  1.45561 -0.199882   1.40838 255 255 255
   0.503712 -0.00894392     1.27999 255 255 255
 1.45954 -0.66917  1.41833 255 255 255
 1.45946 -0.67194  1.42392 255 255 255
0.952006 0.103739  1.29144 255 255 255
  1.76132 -0.447838   1.39545 255 255 255
0.610221 0.155274  1.29794 255 255 255
0.476934 0.152387  1.30066 255 255 255
0.501564 0.287166   1.3118 255 255 255
0.586094 0.345741  1.30946 255 255 255
 1.15503 0.137665  1.36839 255 255 255
 0.949469 -0.226221   1.36238 255 255 255
  1.95642 -0.403854   1.47844 255 255 255
  1.10384 -0.881144   1.40871 255 255 255
0.86076 0.23519 1.20773 255 255 255
 1.38329 -1.08851  1.43203 255 255 255
0.843066 0.355625  1.18523 255 255 255
 0.481872 0.0574763   1.28818 255 255 255
    1.142 -0.396202   1.39426 255 255 255
  1.29006 -0.126054   1.35222 255 255 255
0.812087  0.10463  1.26625 255 255 255
0.936073 0.423869  1.31941 255 255 255
  1.17199 -0.936864   1.39052 255 255 255
 0.953526 -0.385599   1.35381 255 255 255
 1.12748 -0.74431  1.40319 255 255 255
0.817606 0.117418  1.26717 255 255 255
  0.619797 -0.0479701    1.27046 255 255 255
 1.61757 -0.87701   1.4524 255 255 255
0.759071 0.105219   1.2453 255 255 255
  1.11406 -0.375085   1.38874 255 255 255
  1.32801 -0.658338   1.42133 255 255 255
  1.74962 -0.543246   1.46339 255 255 255
   1.11986 -0.0867338    1.33893 255 255 255
1.62584 -0.4369 1.42839 255 255 255
 1.12504 0.135389   1.3025 255 255 255
    1.34163 -0.00779218     1.34475 255 255 255
  1.08043 0.0878867   1.37335 255 255 255
  1.30061 -0.224204   1.39512 255 255 255
0.926471 -0.42427  1.35356 255 255 255
 0.724383 -0.329669   1.35283 255 255 255
  1.25249 -0.814125   1.41218 255 255 255
 0.641337 -0.121228   1.33128 255 255 255
 1.50818 -0.24387  1.40368 255 255 255
 0.650712 -0.178419   1.35391 255 255 255
 1.07638 0.232298  1.28895 255 255 255
  1.44791 -0.287444   1.40282 255 255 255
 1.10817 -0.31884  1.34787 255 255 255
  1.40813 -0.261602   1.39182 255 255 255
   0.6482 -0.165243   1.34494 255 255 255
  1.93683 -0.382663   1.47834 255 255 255
  1.05437 -0.580316   1.37275 255 255 255
0.844802 0.215742  1.24924 255 255 255
 1.61359 -1.04744   1.4838 255 255 255
 0.551187 0.0317927   1.30285 255 255 255
  1.15845 -0.919892   1.38641 255 255 255
  0.499054 -0.0163785    1.26793 255 255 255
0.486637 0.141288  1.29897 255 255 255
 0.917283 -0.215372   1.36457 255 255 255
 0.487553 0.0650927     1.243 255 255 255
  1.57643 -0.850171   1.45197 255 255 255
 0.83105 0.325489   1.1817 255 255 255
0.752545 0.333305  1.19604 255 255 255
0.835078 0.509145   1.3174 255 255 255
  1.17629 -0.741519   1.41325 255 255 255
  1.13012 -0.377904   1.38923 255 255 255
   1.1376 -0.265478   1.31091 255 255 255
 0.429337 -0.106569   1.30418 255 255 255
  1.51803 -0.760465   1.43914 255 255 255
  0.394086 -0.0109926    1.22589 255 255 255
  1.43569 0.0519428   1.37024 255 255 255
 1.32065 -1.01028  1.41862 255 255 255
0.629926 0.145923  1.29674 255 255 255
 0.581384 0.0639034    1.2953 255 255 255
0.501417 0.149669  1.30542 255 255 255
0.479765 0.123784  1.30088 255 255 255
  1.75611 -0.420772   1.42647 255 255 255
 0.588038 0.0928654   1.31691 255 255 255
0.925486 0.325812  1.24081 255 255 255
  1.19917 -0.574842   1.37672 255 255 255
 0.890619 -0.271312   1.35579 255 255 255
0.890591 -0.27149  1.35612 255 255 255
  1.30372 -0.771789   1.40767 255 255 255
 0.685381 -0.139001   1.30781 255 255 255
  1.96766 -0.589679   1.51096 255 255 255
 0.85261 0.367506  1.17836 255 255 255
0.765493 0.344445  1.18373 255 255 255
  1.49262 -0.975263   1.44216 255 255 255
0.778633 0.398705  1.20295 255 255 255
  1.77577 -0.393203   1.44316 255 255 255
0.642349 0.328651  1.31032 255 255 255
0.776206 0.340898  1.19673 255 255 255
0.892989 0.170202   1.2959 255 255 255
0.470414  0.15546  1.29142 255 255 255
  1.46836 -0.946889   1.44628 255 255 255
  0.435923 -0.0405614     1.2605 255 255 255
  1.63007 -0.386255   1.40263 255 255 255
  1.24779 -0.273194   1.39441 255 255 255
0.637633 0.147784  1.30417 255 255 255
    1.37359 -0.00171717     1.33384 255 255 255
0.551659 0.142566  1.31113 255 255 255
  0.532679 -0.0417612    1.30191 255 255 255
  1.33156 0.0587322   1.37886 255 255 255
   1.0217 -0.171987    1.3645 255 255 255
1.11847  0.1044 1.37586 255 255 255
 0.406672 0.0169031   1.22357 255 255 255
  1.75427 -0.516663   1.42377 255 255 255
 1.28672 -1.06765  1.40417 255 255 255
 0.805234 0.0658166   1.29017 255 255 255
  1.26036 -0.680566   1.42792 255 255 255
  0.424249 -0.0732948    1.25686 255 255 255
 1.64374 -1.02525  1.47404 255 255 255
  1.39581 0.0359344   1.37281 255 255 255
 0.867756 -0.579706   1.36937 255 255 255
 0.95821 0.241446  1.26732 255 255 255
 1.48003 -1.13967  1.49069 255 255 255
  1.37795 -0.302948   1.40295 255 255 255
0.607171 0.144945  1.29789 255 255 255
0.679305 0.382242  1.28955 255 255 255
  1.50817 -0.162401   1.39213 255 255 255
  1.19923 -0.276567   1.37466 255 255 255
  1.47521 -0.705444    1.4242 255 255 255
  1.24651 -0.164623   1.33706 255 255 255
 1.26872 -1.06123  1.43156 255 255 255
 0.431825 0.0582632   1.23524 255 255 255
0.926174 0.181956  1.29365 255 255 255
 1.35083 -0.18061  1.38587 255 255 255
 0.87486 0.248685  1.23885 255 255 255
0.797548 0.031632  1.33846 255 255 255
   1.31293 -0.0379823    1.32475 255 255 255
  1.32187 -0.921985   1.45542 255 255 255
 0.549061 -0.253945   1.34192 255 255 255
  1.10921 -0.638632   1.38448 255 255 255
  1.21923 -0.973919   1.41243 255 255 255
  1.53781 -0.128028   1.39712 255 255 255
  0.93971 0.0741206   1.29617 255 255 255
  1.13279 -0.198052   1.36575 255 255 255
  1.59831 -0.981884    1.4464 255 255 255
   0.502947 -0.00723097     1.25601 255 255 255
  1.69578 -0.764601   1.45947 255 255 255
    1.4247 -0.0970188    1.38987 255 255 255
 0.982172 -0.534686   1.37961 255 255 255
  0.417995 -0.0850882    1.23264 255 255 255
   1.0419 -0.682778   1.28005 255 255 255
0.577007 0.349434  1.30795 255 255 255
  1.69656 -0.773363   1.45679 255 255 255
    1.4378 -0.0959955    1.39899 255 255 255
  1.42526 -0.309575   1.40283 255 255 255
 0.86481 0.223294  1.25239 255 255 255
 1.20819 0.195052   1.3749 255 255 255
 1.07843 0.128604  1.29673 255 255 255
  1.51589 -0.220281   1.39301 255 255 255
   0.512067 -0.00156438     1.25724 255 255 255
 1.41575 -0.29976  1.40124 255 255 255
0.659067 0.181648  1.22967 255 255 255
  1.00612 -0.534366   1.38185 255 255 255
 0.572405 0.0912901   1.30352 255 255 255
  1.01786 0.0261772   1.31603 255 255 255
  1.02649 -0.356357   1.36293 255 255 255
  1.18785 -0.258921   1.36091 255 255 255
  1.59369 -0.383444   1.43681 255 255 255
  1.34259 -0.229627   1.40114 255 255 255
  1.60359 -0.830317   1.44843 255 255 255
 0.927377 -0.482363   1.35432 255 255 255
  1.69213 -0.292684   1.43311 255 255 255
  1.00251 -0.513706   1.38723 255 255 255
  1.41418 -0.971465   1.44346 255 255 255
 0.79677 0.343505  1.20647 255 255 255
 0.884088 -0.541501   1.34585 255 255 255
 0.588166 0.0684304   1.30535 255 255 255
  1.67547 -0.682041   1.46518 255 255 255
 1.28587 -1.05347  1.44005 255 255 255
  1.39543 -0.131039   1.39175 255 255 255
  1.54118 -0.958791   1.45174 255 255 255
 0.575245 0.0419074   1.29531 255 255 255
   1.40833 -0.0784153    1.39238 255 255 255
0.704531 0.207627  1.22981 255 255 255
 0.988322 -0.304796   1.36247 255 255 255
  1.12431 -0.314527   1.35949 255 255 255
0.622556 0.337667  1.31512 255 255 255
  1.09026 -0.489677   1.38191 255 255 255
0.390627  0.11382  1.24452 255 255 255
  1.54717 -0.465192   1.43161 255 255 255
  1.03805 -0.383406   1.36558 255 255 255
  0.504068 -0.0196557     1.3032 255 255 255
  1.49863 -0.239373   1.39936 255 255 255
  1.58538 -0.239899    1.3982 255 255 255
 1.0234 0.20021 1.27752 255 255 255
  1.81864 -0.687837   1.46495 255 255 255
 0.530829 -0.103675   1.27278 255 255 255
0.553321 0.126807  1.30735 255 255 255
0.578471 0.144227   1.3118 255 255 255
  1.27824 -0.185868    1.3363 255 255 255
   1.0837 -0.356594   1.37724 255 255 255
  1.45761 -0.275128   1.39508 255 255 255
0.918647 0.259529  1.24725 255 255 255
  1.54886 -0.850619   1.41197 255 255 255
 0.589557 0.0355951   1.30115 255 255 255
   1.2017 -0.923714   1.42273 255 255 255
 0.621723 0.0172064   1.29596 255 255 255
  1.14277 -0.144209   1.35311 255 255 255
  1.30114 -0.164999   1.33005 255 255 255
  1.71602 -0.620327   1.42178 255 255 255
 0.999065 -0.132949   1.29451 255 255 255
  1.18186 -0.860718   1.41753 255 255 255
  1.99123 -0.534048   1.50164 255 255 255
 0.560291 0.0353501    1.3043 255 255 255
0.993746 0.151541  1.29376 255 255 255
0.620306 0.151797  1.29985 255 255 255
    1.4669 -0.0436022    1.39486 255 255 255
   1.3032 -0.794951   1.37554 255 255 255
  1.35821 -0.610774   1.42161 255 255 255
 1.07742 -0.12373  1.36741 255 255 255
  1.07713 -0.125371    1.3647 255 255 255
  1.68698 -0.638294   1.45356 255 255 255
 1.42564 -0.12557   1.3995 255 255 255
  1.35623 0.0958183   1.36435 255 255 255
0.524207 0.128612  1.30757 255 255 255
 1.43295 -1.11574  1.44941 255 255 255
 1.52213 -0.14325  1.39628 255 255 255
 1.40187 -0.44209  1.39726 255 255 255
0.515527 0.161414  1.30747 255 255 255
0.968056 0.243893  1.26189 255 255 255
  1.60439 -0.860406   1.44277 255 255 255
  1.4275 -1.22782  1.48102 255 255 255
 0.837743 -0.151447    1.3625 255 255 255
  1.43826 -0.204736   1.40972 255 255 255
  1.03421 -0.683205   1.29752 255 255 255
 1.19291 -0.59329  1.34055 255 255 255
  1.05652 -0.597458   1.38613 255 255 255
  1.85036 -0.280907   1.43693 255 255 255
 1.02503 0.162175  1.27807 255 255 255
 0.578419 -0.161762   1.29749 255 255 255
  1.75399 -0.314529   1.44878 255 255 255
 0.717827 -0.334337   1.32658 255 255 255
0.834312 0.158936  1.25876 255 255 255
 0.993952 -0.216674   1.31645 255 255 255
 1.02525 0.141806  1.30526 255 255 255
    1.211 -0.576532   1.35464 255 255 255
    1.273 -0.284597   1.39398 255 255 255
 0.534866 0.0442832   1.31968 255 255 255
 0.78593 0.123075  1.26286 255 255 255
 0.945045 -0.267311   1.36222 255 255 255
  1.50906 -0.391422   1.40854 255 255 255
  1.53034 -0.298467   1.39832 255 255 255
   0.940471 -0.00830697     1.35212 255 255 255
0.995225 0.124692  1.30295 255 255 255
0.781656 0.116214  1.26198 255 255 255
  1.38763 -0.273906   1.39335 255 255 255
  1.35698 -0.628504   1.42592 255 255 255
0.896906 0.345742  1.17512 255 255 255
  1.06652 -0.285652     1.361 255 255 255
  1.31091 -0.447729   1.38348 255 255 255
  1.41254 -0.725931   1.42785 255 255 255
   1.7419 -0.621371   1.44208 255 255 255
   1.1468 -0.304052   1.36717 255 255 255
  1.24559 -0.640259   1.41679 255 255 255
  1.68446 -0.603345   1.46314 255 255 255
 1.16775 0.182863  1.36034 255 255 255
 0.962821 -0.518915   1.37712 255 255 255
0.832827 0.316291  1.18065 255 255 255
  1.38455 -0.773693   1.43423 255 255 255
  1.46931 -0.232081    1.4067 255 255 255
0.614375 0.120458  1.30537 255 255 255
  1.66156 -0.811075   1.44049 255 255 255
  1.65843 -0.382698   1.37711 255 255 255
0.684177 -0.28266   1.3535 255 255 255
 1.17263 -0.58032  1.39063 255 255 255
  1.47194 -0.189574   1.39752 255 255 255
 0.866961 0.0577173   1.28653 255 255 255
  1.32157 -0.317555    1.3908 255 255 255
 0.79618 0.239051  1.22521 255 255 255
  1.60313 -0.338661   1.33422 255 255 255
  1.09145 0.0909629   1.37023 255 255 255
 0.975677 0.0508981   1.37159 255 255 255
1.34205  -1.062 1.42649 255 255 255
  1.57948 -0.597001   1.38558 255 255 255
0.519226 0.143292  1.31203 255 255 255
  1.32653 -0.202434    1.3889 255 255 255
 1.39451 -0.28079  1.39346 255 255 255
  1.33732 0.0916239    1.3665 255 255 255
 1.76381 -0.77822  1.38852 255 255 255
0.738027 -0.33606  1.31599 255 255 255
    1.243 -0.305685   1.39411 255 255 255
  1.38936 -0.158473   1.39229 255 255 255
   1.04932 -0.0814341    1.31943 255 255 255
  1.90226 -0.529004   1.45126 255 255 255
  1.06816 -0.476931   1.39377 255 255 255
  1.78897 -0.403322   1.42978 255 255 255
 0.670059 -0.375782   1.35407 255 255 255
  1.08969 -0.766339   1.36751 255 255 255
0.730566 0.106307  1.26383 255 255 255
0.825137 0.289826  1.20208 255 255 255
  1.28015 -0.791703   1.41546 255 255 255
  1.85938 -0.616088   1.46388 255 255 255
  1.66811 -0.262388   1.43214 255 255 255
  1.26974 -0.205889   1.34776 255 255 255
0.514869 0.267639  1.31206 255 255 255
  1.23663 0.0391482   1.36896 255 255 255
  1.45109 -0.189156   1.40622 255 255 255
0.710058 0.206625    1.235 255 255 255
   1.25285 -0.0311149    1.38457 255 255 255
  1.65643 -0.402556   1.42307 255 255 255
   1.9824 -0.598114   1.51138 255 255 255
  1.37358 -0.765941   1.38765 255 255 255
0.893611 0.296813  1.21633 255 255 255
   1.35333 -0.0442424    1.35773 255 255 255
   1.5954 -0.549798   1.42217 255 255 255
  1.60896 -0.207211   1.40132 255 255 255
  1.51307 -0.735791   1.45117 255 255 255
  0.666809 -0.0332897    1.33328 255 255 255
  1.11632 0.0932837   1.36964 255 255 255
  1.05483 0.0363144    1.3705 255 255 255
  1.14168 -0.325509   1.36533 255 255 255
  1.01142 0.0592037   1.34209 255 255 255
 1.26482 0.113669  1.35708 255 255 255
  1.14868 -0.622873   1.37014 255 255 255
 1.76013 -0.54133  1.42204 255 255 255
  1.86157 -0.626268   1.46286 255 255 255
   1.2122 -0.232221   1.36823 255 255 255
  1.3719 -1.05138  1.44349 255 255 255
 0.925271 0.0698805   1.29758 255 255 255
  1.58425 -0.368998   1.39278 255 255 255
 1.26995 -0.79055  1.40132 255 255 255
 1.30653 -1.03855  1.44292 255 255 255
 0.863733 -0.608569   1.37499 255 255 255
  1.71255 -0.730167   1.45268 255 255 255
  0.605783 -0.0167125    1.30094 255 255 255
  1.41669 -0.699444   1.41503 255 255 255
  1.47286 -0.684046   1.42292 255 255 255
   1.37138 -0.0929703    1.37993 255 255 255
 1.57488 -0.25479  1.40475 255 255 255
  1.34053 -0.130365   1.35709 255 255 255
0.92961   0.256  1.2454 255 255 255
  1.13828 -0.306712   1.36977 255 255 255
  1.81038 -0.544056   1.47218 255 255 255
  1.29852 -0.957719     1.447 255 255 255
  1.40074 -0.254548   1.39636 255 255 255
  1.05215 -0.686301   1.29662 255 255 255
0.900795 0.308883  1.18138 255 255 255
  1.05302 -0.223296   1.35382 255 255 255
  1.53625 -0.796027   1.45402 255 255 255
 0.967587 0.0723655    1.3646 255 255 255
  0.458422 -0.0370581    1.27045 255 255 255
0.764055 0.337691  1.20445 255 255 255
  1.68967 -0.974424   1.49681 255 255 255
  1.20057 -0.288172   1.38276 255 255 255
  0.731281 -0.0957885    1.36309 255 255 255
0.854742 0.196579  1.26893 255 255 255
  1.22443 0.0385353   1.37287 255 255 255
  1.39662 -0.309437   1.39964 255 255 255
 0.624244 -0.165531   1.30817 255 255 255
 0.88442 0.202432  1.26803 255 255 255
  1.50839 -0.135879   1.40385 255 255 255
  1.51433 -0.137497   1.39602 255 255 255
  1.14236 -0.312072   1.36526 255 255 255
 1.10736 0.122821  1.30086 255 255 255
  1.53009 -0.122175   1.39775 255 255 255
0.711362 0.213726   1.2305 255 255 255
  1.62488 -0.401276   1.42301 255 255 255
0.766205 0.341027  1.19194 255 255 255
0.987673 -0.17597  1.36343 255 255 255
   1.11129 -0.0969245    1.32494 255 255 255
   1.5223 -0.648857   1.42503 255 255 255
 0.939791 -0.473464   1.38123 255 255 255
 0.848364 -0.242641    1.3575 255 255 255
  1.55264 -0.414523   1.42957 255 255 255
 0.444831 -0.100612   1.29876 255 255 255
  1.73791 -0.538262   1.46309 255 255 255
 0.82316 0.475558  1.31125 255 255 255
 0.414341 0.0672825   1.23502 255 255 255
  1.48474 -0.347801   1.40362 255 255 255
   1.33975 -0.0219885    1.31535 255 255 255
  1.13175 -0.390252   1.38123 255 255 255
   1.20965 -0.0621444    1.35741 255 255 255
 1.01332 0.211876  1.27572 255 255 255
  1.11351 -0.154424   1.36098 255 255 255
  1.11344 -0.154255   1.36105 255 255 255
  1.05638 -0.662594   1.31282 255 255 255
  1.06867 -0.132742   1.36801 255 255 255
  1.41527 -0.232638   1.39336 255 255 255
  1.21144 -0.834122   1.41466 255 255 255
  1.20043 -0.257532   1.36355 255 255 255
  1.20105 -0.257946   1.36826 255 255 255
  1.52317 -0.910776   1.45228 255 255 255
0.564698 0.164626  1.30782 255 255 255
   1.4506 -0.743206   1.42345 255 255 255
 0.670262 -0.377033   1.35463 255 255 255
1.12154 -0.1527 1.36194 255 255 255
  1.22903 -0.236061     1.346 255 255 255
   1.13454 -0.0966213    1.31038 255 255 255
  1.66318 -0.760439   1.47287 255 255 255
  1.31707 -0.908597   1.43894 255 255 255
  1.11616 -0.250121   1.33178 255 255 255
0.859382 0.363897   1.1848 255 255 255
 0.756566 -0.494143   1.35732 255 255 255
  1.79115 -0.378552   1.42884 255 255 255
  1.38132 -0.269602   1.40001 255 255 255
   0.511019 0.000191069     1.25062 255 255 255
  1.19367 -0.840618   1.40542 255 255 255
0.689687 0.157632  1.23195 255 255 255
0.947549 0.250391  1.27918 255 255 255
  1.82942 -0.676403    1.4707 255 255 255
  1.25415 -0.278089   1.38906 255 255 255
  1.03339 -0.237043   1.36408 255 255 255
 1.40191 -0.14206  1.40183 255 255 255
  1.25454 -0.779878   1.41173 255 255 255
0.99508 -0.1025 1.32925 255 255 255
  0.457877 -0.0239663    1.25542 255 255 255
  1.46043 -0.283917   1.39457 255 255 255
 0.479665 -0.217797   1.32997 255 255 255
0.815579 0.130917  1.26656 255 255 255
 0.924459 0.0132226   1.37195 255 255 255
 0.484119 0.0534264   1.23899 255 255 255
   1.6494 -0.817086   1.44742 255 255 255
  1.43227 -0.104664   1.39509 255 255 255
0.868069 0.511031   1.3151 255 255 255
   1.1149 -0.877008   1.40522 255 255 255
0.879623 0.487991  1.31679 255 255 255
  1.76986 -0.375822   1.43572 255 255 255
  1.29829 -0.139446   1.34594 255 255 255
 0.985129 -0.466337   1.37716 255 255 255
  1.56135 -0.735154   1.45293 255 255 255
  1.92676 -0.468536   1.46239 255 255 255
  1.91402 -0.581052   1.46592 255 255 255
 0.996794 -0.394586   1.36232 255 255 255
  1.37551 -0.626596   1.42314 255 255 255
1.03307 -0.1568 1.36465 255 255 255
  1.00028 -0.454441   1.39249 255 255 255
 0.727336 -0.344848    1.3045 255 255 255
0.815075 0.147027  1.25631 255 255 255
0.488901 0.130652  1.29721 255 255 255
  1.64289 -0.862135   1.44989 255 255 255
  1.25417 -0.903778    1.4153 255 255 255
   1.54163 -0.0830215    1.40945 255 255 255
    1.2472 -0.0288141    1.36298 255 255 255
0.841565 0.327395  1.18312 255 255 255
  1.68308 -0.120444   1.40399 255 255 255
 0.988626 -0.516161    1.3731 255 255 255
 0.529834 -0.191749   1.33011 255 255 255
 0.621562 -0.231087   1.31546 255 255 255
0.518297 0.215211  1.31807 255 255 255
 0.622161 -0.211983   1.32983 255 255 255
0.633349 0.380021  1.31697 255 255 255
   1.25547 -0.0105574    1.35892 255 255 255
0.688607 0.148968  1.23169 255 255 255
  1.77544 -0.379028   1.43033 255 255 255
1.44733 -0.7302 1.42456 255 255 255
   1.34054 -0.0718076    1.37487 255 255 255
 0.512135 0.0428228   1.29985 255 255 255
  1.38618 -0.710665   1.42155 255 255 255
  1.28004 -0.895678    1.4523 255 255 255
  1.79462 -0.719775   1.47295 255 255 255
0.902448 0.328936  1.18288 255 255 255
  1.31681 0.0131197   1.37073 255 255 255
   1.2421 -0.431019   1.38485 255 255 255
  1.17315 -0.456816   1.38025 255 255 255
0.586226 0.358944  1.30833 255 255 255
  1.10428 -0.859277   1.41008 255 255 255
  1.57668 -0.567818   1.42054 255 255 255
   1.11023 0.00936512    1.35672 255 255 255
  1.58401 -0.712856    1.4462 255 255 255
 0.91332 -0.39244   1.3548 255 255 255
  1.14813 0.0319245   1.37349 255 255 255
  1.64337 -0.338038   1.34855 255 255 255
 1.36101 -0.18925   1.3948 255 255 255
   1.38824 -0.0486903    1.35237 255 255 255
 1.83365 -0.74689  1.46434 255 255 255
  1.31457 -0.362486   1.38564 255 255 255
0.970975 -0.36933  1.35801 255 255 255
0.847486 0.152533  1.30154 255 255 255
  1.57374 -0.566576   1.43061 255 255 255
 0.820816 -0.144991   1.36481 255 255 255
  1.42771 -0.822487   1.43476 255 255 255
  1.23738 -0.157528   1.34511 255 255 255
 0.745539 -0.359158   1.30502 255 255 255
  1.44624 -0.669006   1.42032 255 255 255
  1.49951 -0.248203   1.39727 255 255 255
  1.24508 -0.571002   1.39386 255 255 255
 1.05893 0.146302  1.29969 255 255 255
 0.603124 0.0961401   1.30765 255 255 255
   1.45749 -0.0887702    1.40684 255 255 255
  1.30909 -0.605088   1.41879 255 255 255
  1.10183 -0.741464   1.40233 255 255 255
0.798726 0.167679  1.23981 255 255 255
 1.23605 -0.24949  1.34295 255 255 255
  0.401987 -0.0598782    1.23197 255 255 255
   0.780835 -0.00913082      1.2949 255 255 255
  1.54942 -0.668825   1.44101 255 255 255
  1.25717 -0.649593   1.41915 255 255 255
  1.21604 -0.707992   1.40705 255 255 255
  1.78958 -0.427602    1.4382 255 255 255
  0.466503 -0.0477222    1.27152 255 255 255
0.509561 0.275217  1.31371 255 255 255
  1.24275 -0.599122   1.38237 255 255 255
  0.604703 -0.0940386    1.25626 255 255 255
  1.23913 -0.298943   1.39139 255 255 255
 0.960646 -0.377022   1.35891 255 255 255
0.895396 0.196711  1.29794 255 255 255
   1.43104 -0.0727394    1.39527 255 255 255
  1.72037 -0.570503   1.46097 255 255 255
  1.21217 -0.446299   1.38185 255 255 255
  1.56102 -0.856388   1.40154 255 255 255
  1.18242 -0.278004   1.36756 255 255 255
 0.537209 -0.287397    1.3476 255 255 255
0.884424 0.278053  1.19303 255 255 255
  1.49774 -0.996618   1.44274 255 255 255
0.857578 0.500097  1.32237 255 255 255
  1.24707 -0.301464    1.3931 255 255 255
  1.29699 -0.256994   1.39172 255 255 255
  1.29676 -0.257639    1.3926 255 255 255
  1.28685 -0.692778   1.41767 255 255 255
  0.500901 -0.0256009    1.29685 255 255 255
  1.34699 -0.109797   1.35493 255 255 255
 0.542067 -0.160036   1.31808 255 255 255
 0.660463 -0.173487    1.3598 255 255 255
 0.576557 -0.236789   1.32578 255 255 255
   0.77623 -0.0980012    1.36216 255 255 255
0.531125 0.119583  1.30719 255 255 255
   1.5355 -0.171956   1.40705 255 255 255
   1.23287 -0.0371938    1.35968 255 255 255
0.889573 0.243154  1.23651 255 255 255
   1.5146 -0.414326   1.42074 255 255 255
  0.945715 -0.0270972    1.36788 255 255 255
  1.32478 -0.426359   1.39288 255 255 255
  1.59295 -0.740043   1.45608 255 255 255
  1.07946 -0.787371   1.37383 255 255 255
 0.992598 -0.651378   1.38224 255 255 255
   0.84936 -0.0413818    1.36546 255 255 255
  1.53137 -0.378069   1.39886 255 255 255
 0.497353 0.0772712   1.30465 255 255 255
   1.65905 -0.0787025    1.41517 255 255 255
  1.16345 -0.111844   1.34625 255 255 255
  1.48282 -0.531862   1.39569 255 255 255
 0.539071 0.0973642   1.30453 255 255 255
  0.98312 -0.388138   1.35862 255 255 255
 1.24679 -1.07242  1.44471 255 255 255
  1.63009 -0.347782   1.35946 255 255 255
  1.44333 -0.741436   1.44183 255 255 255
0.941001 0.251026  1.24548 255 255 255
0.800301 0.124869  1.26612 255 255 255
   1.3745 -0.175554    1.3895 255 255 255
0.728175 0.247943  1.23567 255 255 255
  1.05034 0.0682823   1.37193 255 255 255
  1.17698 -0.489335   1.36347 255 255 255
  1.83736 -0.485229   1.45873 255 255 255
  1.26924 -0.519231   1.38883 255 255 255
  0.871475 -0.0944564    1.36511 255 255 255
0.682297 0.148373  1.23004 255 255 255
0.500571 0.131152  1.31196 255 255 255
  1.39507 -0.301029    1.4021 255 255 255
  1.19738 -0.301643   1.39433 255 255 255
0.722114 0.236211  1.23641 255 255 255
 0.97675 0.125754  1.29708 255 255 255
  1.84979 -0.466349   1.45781 255 255 255
0.762161 0.298783   1.2023 255 255 255
0.824343 0.268966  1.20313 255 255 255
 0.81721 0.121833  1.23906 255 255 255
 1.62451 -1.04569  1.48454 255 255 255
  1.21049 -0.827333    1.4196 255 255 255
  1.61789 -0.549724   1.42862 255 255 255
 1.27608 -1.06341  1.40691 255 255 255
 1.21245 -0.55901  1.39408 255 255 255
  1.80517 -0.586633   1.46599 255 255 255
  1.89853 -0.498041   1.46311 255 255 255
  1.2099 0.262698  1.37533 255 255 255
 1.04202 0.274558  1.28235 255 255 255
   1.8197 -0.676107   1.46901 255 255 255
0.990828 -0.46227  1.38321 255 255 255
  1.26153 -0.522369   1.39913 255 255 255
   1.1547 -0.342862    1.3904 255 255 255
 0.957059 -0.315301   1.35865 255 255 255
  1.49668 -0.944272   1.42094 255 255 255
0.628086  0.41516  1.31839 255 255 255
 0.502194 -0.170864   1.32656 255 255 255
  1.07567 -0.869006   1.41401 255 255 255
 0.81465 0.286614  1.21038 255 255 255
  1.71402 -0.328767    1.4102 255 255 255
 0.429655 0.0755218   1.23869 255 255 255
0.920246 0.251486  1.24549 255 255 255
  0.596236 -0.0189914    1.30221 255 255 255
  1.41264 -0.711154   1.42583 255 255 255
 0.976715 -0.692724   1.38404 255 255 255
  1.45212 -0.673626   1.41967 255 255 255
0.817684 0.184503  1.24847 255 255 255
 0.392584 0.0246226   1.22051 255 255 255
0.856795 0.338329  1.18498 255 255 255
0.895689 0.338507  1.18549 255 255 255
 0.74504 0.102246  1.26431 255 255 255
0.615378 0.397561  1.31778 255 255 255
0.826527 0.313449  1.17733 255 255 255
   1.5365 -0.452816   1.43403 255 255 255
0.875358 0.355712  1.18291 255 255 255
 0.930753 0.0283774   1.35375 255 255 255
0.846042 0.473127  1.31345 255 255 255
  0.746164 -0.0642733     1.3576 255 255 255
  1.14477 -0.506788    1.3918 255 255 255
  1.35085 -0.477536    1.3974 255 255 255
  1.82724 -0.256183   1.45078 255 255 255
 1.36685 -1.08048   1.4496 255 255 255
 1.60769 -0.39452  1.42966 255 255 255
  1.74123 -0.441016   1.41949 255 255 255
  1.51943 -0.851054   1.45902 255 255 255
  1.03351 0.0311863   1.32275 255 255 255
  1.03396 0.0299912   1.32131 255 255 255
  1.49976 -0.785351   1.44119 255 255 255
    1.0382 -0.0343333    1.34927 255 255 255
0.556409 0.100127  1.30883 255 255 255
0.893366 0.319515  1.17943 255 255 255
  1.04731 0.0807326   1.36993 255 255 255
    1.4018 -0.0322229    1.34626 255 255 255
  1.42925 -0.302647   1.40207 255 255 255
 0.546718 -0.244199   1.33399 255 255 255
  1.89467 -0.299247   1.44737 255 255 255
 0.486668 0.0761092     1.297 255 255 255
  1.61373 -0.578453   1.43524 255 255 255
 0.792791 0.0517817   1.32943 255 255 255
0.803506 0.145868  1.26864 255 255 255
  0.713829 0.00744773    1.29622 255 255 255
  1.30058 -0.779866   1.37748 255 255 255
  0.768111 -0.0992225     1.3634 255 255 255
  1.24622 0.0283531   1.37042 255 255 255
  1.02085 0.0691747    1.3357 255 255 255
  1.57021 -0.193438   1.41046 255 255 255
  1.6427 -1.00325  1.46865 255 255 255
  1.02209 -0.140685   1.31919 255 255 255
  1.26165 -0.267866   1.39152 255 255 255
0.902939 0.234937  1.24308 255 255 255
  1.11407 -0.512515   1.38051 255 255 255
 0.547579 -0.184739   1.33119 255 255 255
 0.751059 -0.356729   1.30931 255 255 255
  0.589122 -0.0445614    1.30585 255 255 255
  1.01053 -0.960636   1.40667 255 255 255
  1.21166 -0.207556   1.32243 255 255 255
  1.70116 -0.452928   1.43288 255 255 255
 1.04749 0.153785  1.30104 255 255 255
0.715842  -0.3033  1.35951 255 255 255
  1.44202 -0.633973   1.42624 255 255 255
 0.426308 0.0679909   1.23859 255 255 255
0.971858 0.382077  1.31122 255 255 255
  1.79832 -0.686154   1.46178 255 255 255
  1.30256 -0.491418   1.33196 255 255 255
0.858478 0.152501  1.29661 255 255 255
0.625706 -0.20979  1.35727 255 255 255
  1.13173 -0.189622   1.36877 255 255 255
  1.05269 -0.675074   1.30574 255 255 255
  1.79702 -0.654872   1.46215 255 255 255
  1.58785 -0.556516   1.42034 255 255 255
 0.88158 0.357357  1.18085 255 255 255
0.867048 0.347407  1.18376 255 255 255
  1.61162 -0.838494   1.43698 255 255 255
  1.78865 -0.356092   1.44386 255 255 255
   0.575419 -0.00657904      1.3045 255 255 255
 0.968497 0.0533418   1.37162 255 255 255
  1.55303 -0.153159   1.40792 255 255 255
  1.16419 -0.209433   1.31322 255 255 255
 0.263516 -0.350799   1.25527 255 255 255
 0.160557 -0.325376   1.31402 255 255 255
-0.591028  -0.21963   1.35278 255 255 255
-0.190718 -0.254813   1.21302 255 255 255
 0.274296 -0.368938   1.21299 255 255 255
 0.259947 -0.140628     1.248 255 255 255
 0.731796 -0.149282   1.36214 255 255 255
0.677796 -0.56096   1.3445 255 255 255
 -0.311549 -0.0667188    1.21295 255 255 255
-0.167515 0.0876253   1.24011 255 255 255
-0.0924822 -0.0595175    1.29484 255 255 255
-0.667241 -0.164518    1.3624 255 255 255
0.233922  -0.2082  1.26341 255 255 255
0.233179 -0.20683  1.26032 255 255 255
  -0.56622 0.00581744    1.30693 255 255 255
    0.485004 -0.000215766      1.24588 255 255 255
     0.48 -0.160471    1.2229 255 255 255
  0.605154 -0.0756801    1.25029 255 255 255
   0.69476 -0.0460255    1.31062 255 255 255
 0.531441 -0.083427   1.27682 255 255 255
-0.00419523   0.0249483     1.28613 255 255 255
-0.315843 0.0394817   1.18403 255 255 255
 -0.649014 -0.0540899    1.28788 255 255 255
-0.298491 -0.344926   1.21001 255 255 255
-0.545649 -0.331779   1.36443 255 255 255
-0.354074 -0.295016    1.2365 255 255 255
 0.644076 -0.192035   1.31809 255 255 255
-0.168581 -0.162754   1.27783 255 255 255
-0.490865 -0.229565   1.35583 255 255 255
-0.270536 -0.116022   1.22245 255 255 255
 0.176263 -0.297398   1.35639 255 255 255
  0.0832917 -0.00355137     1.20388 255 255 255
-0.652226 -0.233283    1.3696 255 255 255
-0.520113 -0.267346   1.36447 255 255 255
-0.171462 -0.333294    1.3338 255 255 255
-0.0829458  -0.345464    1.36448 255 255 255
-0.659476 -0.321031   1.36307 255 255 255
-0.0655883  -0.197811    1.30384 255 255 255
0.0542489  0.096332   1.29643 255 255 255
 -0.425611 -0.0233576    1.24836 255 255 255
-0.188741 -0.211465   1.28356 255 255 255
0.225401 -0.57854  1.32915 255 255 255
 0.223863 -0.177778     1.302 255 255 255
 -0.667199 -0.0330481    1.28628 255 255 255
-0.702424 -0.197166   1.35049 255 255 255
-0.221076 -0.306673   1.21553 255 255 255
-0.254646 -0.476373   1.36683 255 255 255
-0.0892679 -0.0914847    1.27741 255 255 255
  0.145673 -0.0890877    1.28105 255 255 255
-0.592598 0.0414284   1.23293 255 255 255
-0.135513 -0.159731   1.27714 255 255 255
-0.408828 0.0740056   1.23982 255 255 255
 0.155493 -0.518857    1.3647 255 255 255
  0.14772 -0.119482   1.27985 255 255 255
-0.62572 0.106066   1.3107 255 255 255
-0.232796 -0.492235   1.35914 255 255 255
0.0539743 -0.269873   1.30393 255 255 255
 0.563807 -0.303086   1.33521 255 255 255
-0.607556  0.130859   1.29671 255 255 255
-0.611704 0.0323993   1.33149 255 255 255
  0.544224 -0.0546723    1.28123 255 255 255
0.570675 -0.62855  1.23093 255 255 255
  0.239737 -0.0850876    1.26757 255 255 255
 0.433517 -0.205981   1.27023 255 255 255
  0.173055 -0.0478364     1.3039 255 255 255
 -0.129843 -0.0700928    1.30199 255 255 255
-0.386143 -0.206919   1.31766 255 255 255
 -0.442751 -0.0016449    1.18159 255 255 255
-0.164999  -0.18721    1.2593 255 255 255
    0.63564 -0.00198173     1.31411 255 255 255
-0.639692 0.0855261   1.31662 255 255 255
 -0.335997 -0.0542787    1.22866 255 255 255
  0.276202 -0.0435617    1.28126 255 255 255
 0.486114 0.0857462   1.24951 255 255 255
   0.6081 0.0419478   1.30253 255 255 255
-0.298661 0.0410393   1.24736 255 255 255
 -0.64827 0.0618662   1.31246 255 255 255
-0.234618 -0.125559   1.22209 255 255 255
  0.523498 -0.0194816    1.27041 255 255 255
0.0840573 0.0991979   1.24248 255 255 255
-0.644492 -0.325523   1.36302 255 255 255
  0.739166 -0.0876227    1.28132 255 255 255
-0.134396  -0.21031   1.29035 255 255 255
 0.452606 -0.984345    1.4028 255 255 255
 -0.142447 -0.0948627    1.31168 255 255 255
  0.103699 -0.0787173    1.30917 255 255 255
     -0.2 -0.140135   1.21762 255 255 255
 0.317763 -0.188795   1.21323 255 255 255
-0.206585 -0.192445   1.25357 255 255 255
-0.680153 -0.226278   1.36568 255 255 255
  0.688672 0.00434834    1.31739 255 255 255
 -0.27863 -0.326534   1.21358 255 255 255
-0.0537076  -0.159467    1.27338 255 255 255
0.0636368 -0.249035   1.31089 255 255 255
  0.46642 -0.820945    1.3905 255 255 255
-0.562901 0.0605913   1.34055 255 255 255
-0.251428 0.0877775   1.23013 255 255 255
0.0723108 -0.232384   1.33564 255 255 255
0.0765707 -0.167222   1.29252 255 255 255
-0.560253 0.0420024    1.3397 255 255 255
 -0.459546 -0.0384167    1.23288 255 255 255
-0.00677222    0.120117      1.3128 255 255 255
 0.748549 -0.109568   1.32858 255 255 255
 -0.392778 0.00802838    1.20414 255 255 255
  0.6151 0.132321  1.29911 255 255 255
-0.0331134  0.0108004     1.2565 255 255 255
-0.472796 -0.317268   1.35336 255 255 255
-0.181605 -0.118736   1.18621 255 255 255
 -0.684508 0.00350434    1.26203 255 255 255
0.00290585  -0.336636    1.32614 255 255 255
-0.537433 -0.165284   1.36063 255 255 255
-0.642059 0.0992494   1.30914 255 255 255
 0.101562 0.0343031   1.25666 255 255 255
 0.744613 -0.110365   1.36028 255 255 255
0.0476321 -0.657165   1.34468 255 255 255
  0.76013 -0.167775    1.3458 255 255 255
-0.570525 -0.272224   1.37517 255 255 255
-0.0602991 -0.0870381    1.27388 255 255 255
  0.355411 -0.0733112    1.24754 255 255 255
 -0.34329 0.0240792   1.20973 255 255 255
 0.206223 -0.142719   1.25456 255 255 255
-0.545706 -0.287216   1.36118 255 255 255
 -0.693528 -0.0109115    1.25103 255 255 255
-0.634174 -0.137332   1.35726 255 255 255
-0.584467 -0.372935   1.36515 255 255 255
-0.0278802  0.0612071    1.28568 255 255 255
0.609738 -0.22869  1.38553 255 255 255
0.0478781 -0.372881   1.34888 255 255 255
-0.482786 -0.242498   1.36056 255 255 255
 -0.284142 -0.0494656    1.22926 255 255 255
-0.428576  0.014233   1.23955 255 255 255
 0.201145 -0.249649   1.28641 255 255 255
-0.0115175  0.0629207    1.27896 255 255 255
  0.339523 -0.0297571    1.23978 255 255 255
  0.465623 -0.0293127    1.25739 255 255 255
  0.414019 -0.0998355    1.26361 255 255 255
 0.443188 -0.801464   1.38874 255 255 255
0.0910617 -0.229606   1.31219 255 255 255
-0.0824308  -0.124003    1.26604 255 255 255
 0.310911 0.0981851   1.23557 255 255 255
 -0.580883 -0.0363841    1.27864 255 255 255
-0.0329438  0.0506284    1.28669 255 255 255
 0.13726 -0.53036  1.35777 255 255 255
 0.455685 -0.134066   1.21916 255 255 255
 -0.419897 -0.0572256    1.24512 255 255 255
-0.148035 -0.203248    1.2748 255 255 255
-0.401378 0.0595671   1.22986 255 255 255
  -0.66287 -0.0868548      1.336 255 255 255
 -0.651148 -0.0792568    1.25173 255 255 255
-0.681031 -0.136712   1.36789 255 255 255
-0.0104626  0.0985843    1.29946 255 255 255
  -0.20721 -0.0450636    1.21255 255 255 255
   0.538291 -0.00777713      1.2915 255 255 255
-0.615722  -0.18778   1.36301 255 255 255
-0.449216 0.0373102   1.22824 255 255 255
 0.453008 -0.232039   1.23316 255 255 255
 -0.656333 -0.0944534    1.34338 255 255 255
0.000736036   -0.670916     1.33246 255 255 255
-0.00400161  -0.0573498     1.30382 255 255 255
-0.153584 -0.348019   1.35731 255 255 255
  0.184604 -0.0509073    1.27029 255 255 255
-0.461833 -0.235654   1.35045 255 255 255
-0.225215 -0.517089   1.35854 255 255 255
 -0.476752 -0.0136571    1.25248 255 255 255
  -0.681068 -0.00577214     1.27001 255 255 255
 -0.659811 -0.0832157    1.29934 255 255 255
-0.486724 -0.205839   1.36326 255 255 255
-0.139423 -0.140326   1.30377 255 255 255
 -0.342596 -0.0422828    1.21093 255 255 255
  0.2419 0.130283  1.24147 255 255 255
 0.392471 0.0982351   1.24925 255 255 255
-0.0890089  -0.109476    1.23585 255 255 255
-0.466334 -0.295865   1.35458 255 255 255
0.565932 0.049087  1.29115 255 255 255
 -0.706212 -0.0496005    1.27633 255 255 255
 0.569011 -0.590034   1.34639 255 255 255
-0.685322 0.0344092   1.20678 255 255 255
 -0.59817 -0.183593   1.35706 255 255 255
 0.455406 -0.650719   1.35793 255 255 255
 0.313346 -0.353903   1.21775 255 255 255
-0.156763 -0.263634   1.35048 255 255 255
 0.143561 0.0186505   1.24346 255 255 255
-0.330965  -0.10199   1.19497 255 255 255
 0.618248 0.0177197   1.29424 255 255 255
-0.630451 0.0558386   1.29937 255 255 255
-0.701404 -0.134716   1.23519 255 255 255
