ply
format ascii 1.0
element vertex 1269
property float x
property float y
property float z
property uchar red
property uchar green
property uchar blue
end_header
 2.36042 0.535743  1.47087 255 255 255
 2.35869 0.538574  1.46511 255 255 255
 1.8496 0.89974 1.40297 255 255 255
1.40716 1.40482 1.33296 255 255 255
 2.56743 0.653358  1.52788 255 255 255
 2.33136 0.220499  1.49255 255 255 255
 2.22585 0.120702  1.49772 255 255 255
 2.23042 0.260727  1.45423 255 255 255
1.86625 1.01295 1.41274 255 255 255
1.56319 1.36277 1.24088 255 255 255
2.23256 1.29322 1.46405 255 255 255
 2.46685 0.306296  1.50515 255 255 255
2.07623 1.00557 1.44729 255 255 255
1.78034 1.32628 1.42501 255 255 255
2.15868 1.19928 1.44337 255 255 255
1.81609 1.36528 1.42726 255 255 255
 2.72965 0.714281   1.5361 255 255 255
 2.66888 0.694913   1.5356 255 255 255
 2.65044 0.717312  1.53467 255 255 255
2.00307 1.35101 1.41793 255 255 255
2.63968 0.74262 1.53929 255 255 255
 1.83472 0.952432  1.40977 255 255 255
 2.32768 0.158277   1.4913 255 255 255
  2.5374 0.635256  1.52464 255 255 255
1.43685 1.46664 1.29472 255 255 255
 2.46667 0.380654  1.51522 255 255 255
1.35121 1.24224 1.28867 255 255 255
2.06621 1.31372 1.43107 255 255 255
 1.69412 0.787493  1.39175 255 255 255
1.83931 1.18218 1.41955 255 255 255
2.23679  1.1771 1.46461 255 255 255
2.44598 0.25783 1.50329 255 255 255
 2.48239 0.685798  1.50751 255 255 255
1.72939 1.00599 1.41117 255 255 255
2.20227 0.69382 1.44636 255 255 255
1.51368 1.41421  1.2236 255 255 255
1.70302 1.63421 1.32622 255 255 255
 2.34183 0.189429   1.4937 255 255 255
1.34741 1.23266 1.28812 255 255 255
 1.62806 0.711114  1.38984 255 255 255
 2.42932 0.902042  1.47778 255 255 255
 2.71967 0.586155  1.53132 255 255 255
2.11814 1.35776  1.4355 255 255 255
 2.22993 0.252004  1.44964 255 255 255
 2.37103 0.940315  1.47291 255 255 255
1.76991 1.29299 1.42589 255 255 255
 2.72252 0.600507  1.52929 255 255 255
2.60656 0.60962 1.52351 255 255 255
1.65009 1.41798  1.2458 255 255 255
1.96137 1.19068 1.42441 255 255 255
2.33067 0.87241 1.47083 255 255 255
1.55847 1.73643 1.31036 255 255 255
 2.16153 0.284346  1.45837 255 255 255
1.44466 1.48481 1.29633 255 255 255
1.51002   1.418 1.24141 255 255 255
1.51108 1.41752 1.23946 255 255 255
1.78171 0.76105 1.39387 255 255 255
1.55753 1.15067 1.27486 255 255 255
2.05461 1.36606 1.42867 255 255 255
 1.9339 1.06876 1.41644 255 255 255
1.70407 1.66627 1.32693 255 255 255
 2.08999 0.446053  1.42936 255 255 255
1.35832 1.08786 1.25585 255 255 255
  2.6444 0.520699  1.53392 255 255 255
1.79191 1.34247 1.42581 255 255 255
2.36452 1.21928 1.47853 255 255 255
2.68703 0.74973 1.53441 255 255 255
 2.41575 0.428374  1.50143 255 255 255
1.88801 1.06651 1.42279 255 255 255
 2.3537 0.81573 1.47643 255 255 255
1.59949 1.36337 1.24113 255 255 255
1.53782 1.39121  1.2415 255 255 255
 2.1356 1.01186 1.45994 255 255 255
 1.69807 0.773072  1.40041 255 255 255
 1.4965 1.42468 1.24515 255 255 255
 2.13547 0.232553  1.45509 255 255 255
 1.84028 0.601933  1.38964 255 255 255
 2.43207 0.278773  1.50145 255 255 255
1.94893 1.05234 1.41908 255 255 255
 2.1707 1.26898  1.4449 255 255 255
 2.38158 0.779293  1.48335 255 255 255
 2.34455 0.186122  1.48794 255 255 255
2.36625 1.19128 1.47282 255 255 255
2.51877 1.01099 1.49583 255 255 255
2.14843 1.17229  1.4426 255 255 255
 2.63872 0.630571  1.53333 255 255 255
 2.78137 0.581348  1.52985 255 255 255
1.92056 1.21052 1.41655 255 255 255
 1.66949 0.879695  1.40564 255 255 255
 2.68434 0.734889  1.52812 255 255 255
 2.06924 0.716229   1.4353 255 255 255
1.97393 1.22131 1.42649 255 255 255
2.15281 1.32086 1.43832 255 255 255
1.49717 1.28922 1.26706 255 255 255
 2.13601 0.596252  1.43705 255 255 255
2.45829 0.81454 1.47325 255 255 255
1.48719 1.39488 1.24358 255 255 255
 1.80154 0.479351  1.42707 255 255 255
2.22891 1.30152 1.46931 255 255 255
 2.24268 0.827571  1.37179 255 255 255
 1.73324 0.990209  1.41064 255 255 255
2.47048 1.00961 1.49482 255 255 255
2.43793 0.37313 1.50857 255 255 255
1.73061 1.12128 1.27848 255 255 255
 1.69036 0.937649  1.40176 255 255 255
1.47103  1.0166  1.2677 255 255 255
 2.17998 0.799648  1.44884 255 255 255
 1.92748 0.610246  1.43574 255 255 255
1.67891  1.1246 1.27337 255 255 255
1.65031 1.30031 1.28087 255 255 255
1.40445 1.08851 1.25026 255 255 255
 2.74358 0.772782  1.53007 255 255 255
2.16139 2.15699 1.48848 255 255 255
1.43279 2.43005  1.4125 255 255 255
1.58296 2.12022  1.4264 255 255 255
2.37652 2.02686  1.4074 255 255 255
2.33396 2.01262 1.46745 255 255 255
2.17089 1.42022 1.42574 255 255 255
2.38659 1.81409 1.40158 255 255 255
1.51882 2.36399 1.39627 255 255 255
2.07524 1.91411 1.43262 255 255 255
1.94505 1.83205 1.43026 255 255 255
2.39735  1.9517 1.44239 255 255 255
2.23844 2.22611 1.48195 255 255 255
1.87962 2.13265 1.43843 255 255 255
1.39853 2.34126 1.38954 255 255 255
2.01804 1.71643  1.4176 255 255 255
1.47082 2.52308 1.40292 255 255 255
 1.6938 2.74641 1.43072 255 255 255
1.98494 1.67971 1.41224 255 255 255
2.43485 1.72041 1.36491 255 255 255
1.77286  1.7226 1.33306 255 255 255
1.72674 2.73228 1.43928 255 255 255
1.50154  2.2913 1.35096 255 255 255
1.89226 1.91098 1.43762 255 255 255
1.86455 2.36754 1.43716 255 255 255
1.68883 2.55075 1.44226 255 255 255
1.57084 2.38286 1.39759 255 255 255
1.68941 2.47197 1.43197 255 255 255
2.33342 1.59569 1.44588 255 255 255
2.49232 1.71732 1.35919 255 255 255
2.60691 1.94167 1.46697 255 255 255
1.84514 2.27489 1.45941 255 255 255
1.83099 2.66526 1.45068 255 255 255
2.36193 1.42781 1.47461 255 255 255
1.85725 2.68935 1.44905 255 255 255
2.28766 1.52702  1.4302 255 255 255
2.12309 1.81265 1.44622 255 255 255
1.75268 2.68925 1.45248 255 255 255
1.82774 2.69388 1.44382 255 255 255
2.26884 1.75542 1.45237 255 255 255
1.45183 2.30262 1.33567 255 255 255
1.65924 2.54738 1.42417 255 255 255
2.46928 1.98287  1.4919 255 255 255
1.74912 1.76285 1.35034 255 255 255
2.23694 2.04112 1.47782 255 255 255
1.50748 2.21313 1.34867 255 255 255
1.44447 2.22888 1.32278 255 255 255
2.00502 2.45005 1.41245 255 255 255
1.72276 2.76633 1.44224 255 255 255
1.69649 2.78771 1.44926 255 255 255
2.20272 1.35712 1.45708 255 255 255
2.44042 1.96785 1.48349 255 255 255
2.42775 2.05183 1.48428 255 255 255
2.08091 2.49252 1.48234 255 255 255
1.89299 1.81648 1.41666 255 255 255
2.52169 1.89075 1.41812 255 255 255
2.61479 1.86849 1.39974 255 255 255
2.23806 1.27539 1.46057 255 255 255
 2.0295 2.06831  1.4001 255 255 255
2.05555 2.38552 1.45674 255 255 255
2.40673 1.59993 1.44429 255 255 255
1.97205  2.3007 1.40624 255 255 255
1.64089 2.53019 1.41326 255 255 255
2.15311 1.60912 1.40286 255 255 255
2.00065 2.30188 1.46716 255 255 255
2.40489 1.75206 1.41001 255 255 255
1.53639 2.39127 1.39729 255 255 255
2.11489 1.75398 1.41832 255 255 255
2.40498 1.63412 1.44688 255 255 255
2.35468 1.46849 1.45673 255 255 255
2.25352 2.01165 1.47481 255 255 255
 1.6183 2.61384 1.42483 255 255 255
 1.7526 2.28402 1.35607 255 255 255
 2.0788 1.54089 1.40725 255 255 255
1.76547 2.49455 1.43569 255 255 255
1.82443 2.63617 1.44816 255 255 255
1.49513 2.32749 1.33191 255 255 255
1.91889 2.27693 1.45871 255 255 255
1.53492 2.28562 1.36259 255 255 255
1.67408 1.90812 1.39633 255 255 255
1.87956 2.46884 1.44395 255 255 255
1.48144 2.37029 1.37042 255 255 255
1.48238 2.25958 1.36487 255 255 255
2.61981 1.75109 1.34748 255 255 255
1.75152 2.71821 1.44877 255 255 255
1.51235 2.20667 1.38991 255 255 255
1.65366 1.86352 1.32374 255 255 255
1.86145 2.47411 1.42721 255 255 255
1.47068 2.56398  1.4293 255 255 255
1.84418 2.70624 1.45207 255 255 255
1.48423  2.5802  1.4275 255 255 255
2.31435 1.33675 1.45648 255 255 255
1.88236  2.0471 1.39237 255 255 255
2.33146  1.3377 1.43982 255 255 255
1.61945  2.4479 1.40935 255 255 255
2.62711 1.89764 1.47985 255 255 255
1.76866 2.42516 1.44413 255 255 255
1.83221 2.68913 1.44854 255 255 255
1.71697 2.73994 1.43188 255 255 255
1.72412 2.67339 1.44037 255 255 255
1.98499 2.27037 1.46622 255 255 255
1.38962 2.26056 1.30422 255 255 255
2.25754 1.72337 1.44427 255 255 255
2.40863 1.86521 1.42683 255 255 255
1.55705 2.45063 1.42698 255 255 255
2.24542  1.9833 1.47174 255 255 255
2.23585  1.8073 1.47595 255 255 255
1.63678 2.04092 1.41515 255 255 255
2.49862 1.45702 1.45271 255 255 255
2.14931 1.85697 1.42444 255 255 255
2.63373 1.70091 1.36665 255 255 255
2.28535 2.10517 1.47042 255 255 255
2.21447  1.5404 1.47465 255 255 255
2.36054 1.71335  1.4651 255 255 255
2.33054 2.08145 1.46295 255 255 255
2.04401 2.34868 1.45298 255 255 255
 2.6666 1.75837 1.39522 255 255 255
1.69553 2.53134 1.44048 255 255 255
2.25431 1.67718 1.43894 255 255 255
1.60656 2.50757 1.42534 255 255 255
1.54348 2.54361 1.42256 255 255 255
1.99963 1.48692 1.42361 255 255 255
2.29978 1.77925 1.44305 255 255 255
1.65495 2.46951 1.42658 255 255 255
1.76061 2.64556  1.4412 255 255 255
2.23945 1.20858 1.45532 255 255 255
2.14098 2.41816 1.49102 255 255 255
2.38712 2.21059 1.46644 255 255 255
1.78186 2.67314 1.44561 255 255 255
1.72449 1.80985 1.41182 255 255 255
2.61249 1.99562 1.49022 255 255 255
1.92974 2.31022 1.40897 255 255 255
2.16793 1.48679 1.38508 255 255 255
1.59027 2.39665   1.419 255 255 255
2.34973 2.04868 1.47062 255 255 255
1.40928 2.31067 1.33758 255 255 255
1.58558 2.56634 1.41674 255 255 255
1.92333 1.69421 1.42194 255 255 255
2.63026 1.90247 1.39729 255 255 255
1.51694 2.31051 1.35867 255 255 255
1.51438  2.5766 1.41652 255 255 255
2.21139 1.33313 1.46457 255 255 255
1.61912 2.59025 1.43467 255 255 255
1.99772 1.81393 1.39008 255 255 255
1.47765 2.54379 1.42234 255 255 255
1.33906 2.05678 1.39119 255 255 255
2.16933 1.17708 1.44158 255 255 255
1.72892 2.37314 1.41143 255 255 255
1.64203 2.60881 1.43647 255 255 255
 2.3973 1.33319 1.46421 255 255 255
2.37677 1.76697 1.46188 255 255 255
1.58006 2.67807 1.43369 255 255 255
2.16726 2.09959 1.42568 255 255 255
 2.2818 1.45259 1.46657 255 255 255
1.97166 2.33123 1.42076 255 255 255
2.17084 1.17663 1.44357 255 255 255
 1.4253 2.35865 1.34673 255 255 255
1.55881  2.4686 1.41728 255 255 255
2.11872 1.98127 1.44472 255 255 255
2.11042 1.96538 1.43994 255 255 255
1.69249 1.77158 1.41081 255 255 255
1.65359 2.34467 1.41888 255 255 255
1.59509 2.61131  1.4454 255 255 255
1.63039 2.44719 1.43006 255 255 255
1.34251 2.07278 1.38978 255 255 255
2.27965 2.05634  1.4447 255 255 255
2.11921 1.68453 1.39637 255 255 255
1.62465  2.2766 1.34721 255 255 255
1.81201 2.65522 1.44826 255 255 255
2.18821 1.85969 1.40412 255 255 255
1.51667 2.60874 1.42291 255 255 255
1.50093 2.24437 1.42542 255 255 255
1.61453 2.56333 1.42109 255 255 255
1.82767 2.52478 1.44248 255 255 255
2.57919 1.74019 1.37453 255 255 255
1.5933 2.1179 1.4218 255 255 255
1.96947 1.78205 1.43089 255 255 255
2.18627 1.20901 1.44426 255 255 255
1.64621 2.43474  1.4243 255 255 255
1.96551 1.85993 1.41353 255 255 255
2.54526  1.8785 1.39937 255 255 255
1.78617 2.26486  1.4382 255 255 255
2.19471 2.25858 1.48392 255 255 255
1.53936 2.09539 1.41216 255 255 255
2.15226 1.56422 1.40886 255 255 255
1.43651 2.49357 1.41584 255 255 255
2.48071 1.40055 1.49728 255 255 255
2.40692 2.10942  1.4764 255 255 255
1.88174 2.08479 1.41976 255 255 255
2.49353 1.95665 1.48538 255 255 255
1.72285 1.84676 1.40682 255 255 255
1.63751 2.47134 1.42129 255 255 255
1.45705 2.56282 1.41567 255 255 255
1.85416 2.07878 1.42367 255 255 255
2.08923 2.26397 1.46964 255 255 255
2.38695 1.28906 1.48239 255 255 255
2.01526 2.50671 1.43708 255 255 255
 2.1363 1.63442 1.41187 255 255 255
2.56785 1.69474 1.38813 255 255 255
2.35457 2.23928 1.49107 255 255 255
 2.1332 1.92264 1.43305 255 255 255
2.10347 1.55591 1.37148 255 255 255
1.69095 2.17183 1.43739 255 255 255
1.64295 2.14299  1.4112 255 255 255
2.38809 2.11731 1.47059 255 255 255
1.43647 2.27294 1.32637 255 255 255
1.52855 2.14214 1.30356 255 255 255
1.61756 2.42732  1.4132 255 255 255
1.98779 1.91389 1.42309 255 255 255
1.93513 2.36478 1.43422 255 255 255
1.41612 2.50204 1.41585 255 255 255
1.52777 2.58041 1.42406 255 255 255
1.78977 1.82265 1.41127 255 255 255
1.78871 2.50038 1.44678 255 255 255
2.58764 1.99652 1.49131 255 255 255
 1.8802 2.64354 1.44662 255 255 255
1.44841 2.25512 1.33343 255 255 255
2.10401 1.74115 1.41182 255 255 255
1.77942 2.69523 1.44388 255 255 255
 2.1406 1.54772 1.41664 255 255 255
2.41004 2.18217  1.4804 255 255 255
 2.1436 1.87688 1.42803 255 255 255
1.70474  2.4983 1.42757 255 255 255
2.50841 1.89109 1.47781 255 255 255
1.64358 2.50216 1.42296 255 255 255
1.42698 2.54293 1.40787 255 255 255
1.72243 2.70021 1.43584 255 255 255
1.40548 2.16421 1.28254 255 255 255
1.83492 2.64858 1.44898 255 255 255
2.36059 1.58932 1.45208 255 255 255
1.83435 2.41364 1.43875 255 255 255
1.75708 1.86267 1.40798 255 255 255
1.76945 1.86519 1.41435 255 255 255
2.16992  2.0517  1.4414 255 255 255
1.45108 2.04721 1.40185 255 255 255
2.19332 1.51092 1.40735 255 255 255
2.51122 2.03207 1.47891 255 255 255
2.18897 1.51963 1.41783 255 255 255
2.18825 1.52157 1.41524 255 255 255
1.55144 2.45516 1.41166 255 255 255
2.39515 2.06858 1.48273 255 255 255
1.59197 2.58366 1.42328 255 255 255
1.47411 2.55273 1.42096 255 255 255
1.52256 2.13555 1.29612 255 255 255
1.98544 2.21174 1.45127 255 255 255
1.62657 2.72544 1.43741 255 255 255
1.78767 2.66177  1.4491 255 255 255
1.36394 2.43939 1.41183 255 255 255
1.90219 2.13905 1.44359 255 255 255
1.83763 1.76032 1.41224 255 255 255
2.19052 2.11316 1.42568 255 255 255
1.91365 2.53798 1.45117 255 255 255
2.28825 2.08391 1.47471 255 255 255
 2.3549 1.23718 1.47784 255 255 255
2.32211 2.11526 1.46423 255 255 255
1.90988 2.12851 1.44459 255 255 255
2.44891  2.1751 1.50385 255 255 255
1.49534 2.26902 1.35873 255 255 255
1.84597 1.82029 1.41106 255 255 255
1.85651 2.72011 1.43766 255 255 255
 1.6839 1.95063 1.40213 255 255 255
2.24234 1.84414 1.46706 255 255 255
1.74931 2.27135 1.43013 255 255 255
2.26106 1.50707 1.45445 255 255 255
2.51702 2.07794 1.48664 255 255 255
 1.9908 1.79412 1.40408 255 255 255
2.08847 1.74456 1.39345 255 255 255
2.48807 1.88088 1.47033 255 255 255
1.45273 2.54955 1.40748 255 255 255
1.80623 2.13186 1.43507 255 255 255
2.38441 2.15028 1.46458 255 255 255
1.73831 1.84359 1.40526 255 255 255
1.70076 2.68675 1.42161 255 255 255
1.71859 2.48499 1.43847 255 255 255
1.84658 2.02553 1.41186 255 255 255
2.54977 1.92534 1.48122 255 255 255
1.43348 2.55145 1.41769 255 255 255
1.83474 2.34269 1.40977 255 255 255
2.26252 1.77557  1.4578 255 255 255
2.69095 1.74402   1.391 255 255 255
 1.3641 2.33487 1.32549 255 255 255
1.52327 2.55557 1.41619 255 255 255
2.36474 2.04391 1.47225 255 255 255
1.67252 1.81748   1.319 255 255 255
2.58295 1.98184  1.4902 255 255 255
1.81558 2.63259 1.44612 255 255 255
1.53525 2.64824 1.43043 255 255 255
2.15156 1.86832 1.42891 255 255 255
1.84279 2.47718 1.44243 255 255 255
 2.2623 2.08046 1.47769 255 255 255
1.83084 1.75919 1.39483 255 255 255
2.40022 1.64261 1.45121 255 255 255
1.51196 2.59553 1.42526 255 255 255
2.03976 2.39569    1.46 255 255 255
1.72513  2.7557 1.44808 255 255 255
2.10025 1.62331 1.37585 255 255 255
2.44683 1.40333 1.44762 255 255 255
1.60182   2.337 1.34115 255 255 255
2.26504 1.52792 1.43099 255 255 255
2.11625 1.68583 1.40547 255 255 255
2.29313 1.37134 1.47895 255 255 255
1.71256 2.23637 1.32109 255 255 255
 1.8816 2.68778 1.45193 255 255 255
2.11885 1.58101 1.41073 255 255 255
2.03284 2.23003 1.37977 255 255 255
2.16268 1.62544 1.41617 255 255 255
  1.657 1.90111 1.41669 255 255 255
1.62378 2.13735 1.39641 255 255 255
2.16252 2.02755 1.42404 255 255 255
2.19371 1.19823 1.44044 255 255 255
1.70906 2.39731 1.43221 255 255 255
1.88578 1.73065 1.42232 255 255 255
2.17915 1.50839 1.42304 255 255 255
1.57325 2.56439 1.41883 255 255 255
1.62285  2.5118 1.41716 255 255 255
1.39701 2.13406  1.2919 255 255 255
1.64487  2.5546 1.41616 255 255 255
1.85898 1.89324 1.42073 255 255 255
1.47992 2.50461  1.4238 255 255 255
1.46697 2.24533   1.322 255 255 255
1.42618 2.28564 1.34002 255 255 255
 1.9746 1.95288 1.39599 255 255 255
2.31316 1.62443 1.45005 255 255 255
1.54562 2.21663 1.38129 255 255 255
1.70848 2.44671 1.43644 255 255 255
 1.4901 2.30278  1.3429 255 255 255
1.99642 2.13832 1.41161 255 255 255
1.53102 2.55853 1.42531 255 255 255
2.73465 1.80642 1.39495 255 255 255
2.19127 2.12696 1.42842 255 255 255
1.43713   2.524 1.40525 255 255 255
1.80284 2.67987 1.43879 255 255 255
1.47264 2.26961 1.32255 255 255 255
1.86829 2.70594 1.44833 255 255 255
 1.7036 2.57681 1.44005 255 255 255
1.39979 2.50228 1.40383 255 255 255
1.61285  2.7282 1.44097 255 255 255
1.83335 2.27669 1.44376 255 255 255
1.86481 2.67778 1.44761 255 255 255
2.46378 1.87888 1.47265 255 255 255
1.65359 2.37797 1.40388 255 255 255
2.17079 1.70488 1.43264 255 255 255
1.99853 2.10017 1.44197 255 255 255
2.45582 1.87358  1.4119 255 255 255
1.65804   1.719 1.40645 255 255 255
1.51885 2.56552 1.41842 255 255 255
1.66996 2.04161 1.41957 255 255 255
1.67125 2.11415 1.42108 255 255 255
1.56684 2.04256  1.4117 255 255 255
1.69445 1.89943 1.42046 255 255 255
1.76252 2.70689 1.44455 255 255 255
1.98617 1.69326 1.41681 255 255 255
2.20432 2.10624 1.42285 255 255 255
1.88867 2.35596 1.43945 255 255 255
1.97309   1.687 1.36021 255 255 255
 2.2532 2.02115 1.47495 255 255 255
1.33028 2.07851 1.39355 255 255 255
1.91563 1.98519 1.39062 255 255 255
1.74491 1.82456 1.40293 255 255 255
1.67207 1.92299 1.41338 255 255 255
2.33426 2.10579 1.46213 255 255 255
1.77308 2.66146 1.44312 255 255 255
2.31091 2.11166 1.48156 255 255 255
2.40629 1.80872 1.43558 255 255 255
2.03276 1.62547  1.4314 255 255 255
1.96653  1.8505 1.39483 255 255 255
1.72126 2.76517 1.42641 255 255 255
2.28336 2.28224 1.45437 255 255 255
1.73017 1.79563 1.40809 255 255 255
2.29912 2.08355 1.46763 255 255 255
1.30184 2.44355 1.40737 255 255 255
1.63933 2.15413 1.40076 255 255 255
 1.7453 2.65476 1.43644 255 255 255
1.61747 2.47377 1.41176 255 255 255
1.85311 1.74313 1.41403 255 255 255
1.85414 1.74779 1.40143 255 255 255
1.43341 2.17996 1.29364 255 255 255
1.39311  2.1254 1.29927 255 255 255
1.37122 2.30993 1.35997 255 255 255
1.73671  2.7104 1.43153 255 255 255
1.74997 2.34827 1.40982 255 255 255
1.93339 1.79827 1.42796 255 255 255
1.88602  1.7572 1.42953 255 255 255
 1.7318 2.69508 1.43984 255 255 255
2.00361 2.37636 1.43037 255 255 255
1.46317 2.25526 1.33173 255 255 255
1.43252 2.53423 1.40857 255 255 255
1.74528 1.86529 1.40923 255 255 255
2.27078 1.52135 1.42609 255 255 255
1.87341 2.66321 1.45106 255 255 255
 1.8638 2.08024 1.42001 255 255 255
1.79764 2.15725 1.42429 255 255 255
2.16726 1.91491 1.41404 255 255 255
1.71008 2.52717 1.44123 255 255 255
2.01222 1.67653 1.43478 255 255 255
1.45174 2.26468 1.34406 255 255 255
1.37339 2.10412 1.39841 255 255 255
2.48409 1.73953 1.38023 255 255 255
2.44688 2.08792  1.4907 255 255 255
1.61466 2.71858 1.43891 255 255 255
1.95816 2.52888 1.45178 255 255 255
1.56764 2.43595 1.42017 255 255 255
1.69049 2.57172 1.44023 255 255 255
1.59795 2.27966 1.34643 255 255 255
 2.1834 1.88285 1.43706 255 255 255
1.72495 1.78666 1.40862 255 255 255
2.23692 1.77835 1.47106 255 255 255
2.48369 1.49874 1.43403 255 255 255
2.48706 2.06778 1.47904 255 255 255
2.28525  1.4513 1.48422 255 255 255
2.37446 1.64668 1.45925 255 255 255
2.36635 2.06287  1.4804 255 255 255
1.62615 2.36895 1.41763 255 255 255
2.55193 1.95141 1.48053 255 255 255
1.83698 2.14312 1.43079 255 255 255
 1.9782 2.28729 1.41739 255 255 255
2.32183 1.39687 1.43639 255 255 255
2.32054 1.93206 1.47581 255 255 255
1.99866 1.85346 1.40555 255 255 255
1.46839 2.29189 1.33819 255 255 255
 2.1313 1.78729 1.44839 255 255 255
1.56701 2.55268  1.4283 255 255 255
1.68032 1.96779 1.38798 255 255 255
1.89575 2.31465  1.4467 255 255 255
2.26735 1.72404 1.44847 255 255 255
1.61097 2.29175 1.34046 255 255 255
1.50561  2.2871 1.35896 255 255 255
1.98382  1.7441 1.43103 255 255 255
1.47463 2.27171 1.34381 255 255 255
1.77281 2.26493  1.4167 255 255 255
1.96949 2.25245 1.46295 255 255 255
2.55416 2.03217 1.48994 255 255 255
1.88492 1.81543 1.41332 255 255 255
2.35557  2.1413 1.46699 255 255 255
1.53755 2.52991 1.42395 255 255 255
1.51707 2.64462 1.43289 255 255 255
1.54802 2.53477 1.42746 255 255 255
1.60991  1.9801 1.40284 255 255 255
1.81335 1.88081 1.41724 255 255 255
2.38785 2.12947 1.46579 255 255 255
2.26898 2.18833 1.47537 255 255 255
2.20936 1.31728 1.40778 255 255 255
1.35303 2.46893 1.41099 255 255 255
1.81381 2.67403 1.44685 255 255 255
 1.8271 2.41972 1.43606 255 255 255
2.18755 1.61069 1.41836 255 255 255
1.44393 2.18793 1.28992 255 255 255
1.52645 2.30324 1.35122 255 255 255
1.78043 2.51184 1.45184 255 255 255
2.10871 2.42476 1.47903 255 255 255
2.51434  2.1109  1.5021 255 255 255
2.55613 1.79189 1.39512 255 255 255
1.83819  2.3829 1.42965 255 255 255
2.49076 1.40877 1.50033 255 255 255
1.90369 2.52031 1.44589 255 255 255
2.35764 1.70457 1.47271 255 255 255
 2.0704 2.44014 1.47707 255 255 255
1.86299 2.53315 1.43889 255 255 255
1.90737  1.8565 1.42298 255 255 255
 2.1012 2.35812 1.48496 255 255 255
1.55687 2.39589 1.41468 255 255 255
1.55147 2.43381 1.42215 255 255 255
2.54487 1.78921 1.39221 255 255 255
2.08911 2.47571 1.48753 255 255 255
2.41904 2.10883 1.47607 255 255 255
1.49641  2.2526 1.42242 255 255 255
1.38758 2.51316 1.40497 255 255 255
2.60246 1.93533 1.48777 255 255 255
2.27982  1.6704 1.44593 255 255 255
1.79663 1.75932 1.40516 255 255 255
2.17632 1.61327 1.40545 255 255 255
1.72771 2.05062 1.39656 255 255 255
2.35633 2.05372 1.46024 255 255 255
2.11595 1.90034 1.42429 255 255 255
 1.7239 2.50067 1.44369 255 255 255
1.63476 2.48876    1.43 255 255 255
2.32974 1.59364 1.45868 255 255 255
2.32025 1.72009 1.43816 255 255 255
2.60213 1.94801 1.48705 255 255 255
 1.4845 2.28349 1.34166 255 255 255
2.05207 1.39073 1.43102 255 255 255
2.61186 1.89504 1.40139 255 255 255
1.73132 1.70646  1.3314 255 255 255
1.67652 2.09427 1.42291 255 255 255
 2.3033 2.17015 1.47673 255 255 255
1.47338 2.24614 1.37978 255 255 255
2.39466 2.04963  1.4828 255 255 255
1.55662 2.19448 1.42042 255 255 255
1.72696 2.16185 1.42062 255 255 255
2.56387 1.72464 1.37817 255 255 255
1.86666 2.65937 1.45238 255 255 255
1.88638  2.0878 1.43168 255 255 255
1.64241 2.48151 1.42554 255 255 255
1.83137 2.42867 1.43928 255 255 255
2.07748 1.48191 1.42712 255 255 255
2.57542 1.74443 1.37712 255 255 255
1.50229 2.41589 1.42314 255 255 255
2.16085 2.09054 1.43575 255 255 255
1.76355 2.50501 1.43306 255 255 255
2.24853 1.91953 1.47366 255 255 255
2.18638 2.15814 1.43895 255 255 255
 1.6311 2.39631 1.41735 255 255 255
 1.6373 2.28789 1.43417 255 255 255
1.80793 2.67142 1.43626 255 255 255
1.54918 2.59454 1.43098 255 255 255
2.39361 1.75127 1.45905 255 255 255
2.58041 1.75956 1.36793 255 255 255
1.37163 2.48162 1.41127 255 255 255
2.27496 1.73328 1.45038 255 255 255
2.15805 1.67565 1.43804 255 255 255
2.57476 1.93393  1.4895 255 255 255
 1.7059 2.49138 1.43499 255 255 255
2.27468 1.55377 1.42948 255 255 255
1.91212 1.70868 1.42384 255 255 255
1.49663 2.23584 1.41972 255 255 255
2.34252 1.97908 1.39281 255 255 255
 1.3673 2.13499 1.28097 255 255 255
1.98776 2.26327 1.46206 255 255 255
2.21597 1.19285 1.46245 255 255 255
2.49235 1.87383  1.4629 255 255 255
 2.1842 1.36087 1.45158 255 255 255
2.18802 2.24793 1.48028 255 255 255
1.67467 2.05484  1.4169 255 255 255
2.17328 2.10824 1.41575 255 255 255
1.53648 2.56296 1.43063 255 255 255
2.25249 2.09506  1.4814 255 255 255
2.55665 1.71552 1.38276 255 255 255
2.35256 2.13835  1.4678 255 255 255
1.38478 2.12208 1.29896 255 255 255
2.48736 2.07985 1.49512 255 255 255
1.80761   2.693  1.4366 255 255 255
2.27373   1.684 1.44781 255 255 255
2.15452 1.62347 1.39937 255 255 255
2.35437 2.06049 1.46626 255 255 255
1.59896  2.5872 1.43244 255 255 255
   2.11 2.36245 1.48015 255 255 255
2.59278 1.98171 1.49022 255 255 255
1.83473 2.67953 1.45461 255 255 255
1.54947 1.99769 1.40087 255 255 255
2.10844 2.35473 1.48072 255 255 255
 1.8263  1.7288 1.40357 255 255 255
2.57044 1.72409 1.37633 255 255 255
2.49098  1.7306 1.38065 255 255 255
1.59253 2.55944 1.41308 255 255 255
1.37889 2.48587 1.42436 255 255 255
1.48834 2.21623 1.41779 255 255 255
2.51293 1.72184 1.39409 255 255 255
 1.4453 2.02997 1.39918 255 255 255
1.91398 1.68251 1.42148 255 255 255
2.06061 2.29332  1.4713 255 255 255
1.99088 1.86232 1.38863 255 255 255
1.96808 1.68959 1.37607 255 255 255
2.17986 1.88054 1.41363 255 255 255
2.06762  1.2936 1.42791 255 255 255
1.70759 2.54015 1.44103 255 255 255
2.53491 1.88499 1.39987 255 255 255
2.25327  1.2123 1.46925 255 255 255
2.23362 2.11089 1.47939 255 255 255
2.27644 2.19486 1.47741 255 255 255
2.33318   1.619 1.46027 255 255 255
2.15252 1.20178 1.44428 255 255 255
2.10273 2.41947 1.48586 255 255 255
2.09593 2.32864 1.47221 255 255 255
1.84946 2.06891 1.43144 255 255 255
1.58246 2.02076 1.40774 255 255 255
 1.8237 1.81904 1.41545 255 255 255
2.32551 1.20053 1.47038 255 255 255
2.21065 1.28075 1.43912 255 255 255
1.42284 2.36758 1.39795 255 255 255
1.54709 2.46641 1.41163 255 255 255
2.10612 2.34618  1.4819 255 255 255
2.01695 1.90673  1.4385 255 255 255
1.65114 1.70921 1.40419 255 255 255
2.60617  1.7447 1.37642 255 255 255
2.06504 2.38124 1.42482 255 255 255
1.61383 2.43462  1.4318 255 255 255
2.12897 1.75116 1.42919 255 255 255
1.73873 1.79244  1.4103 255 255 255
1.41579 2.16605 1.28353 255 255 255
1.95908 2.37577 1.43933 255 255 255
2.41753 1.93126 1.47886 255 255 255
1.49832 2.22932 1.42208 255 255 255
1.58433 2.58924 1.41859 255 255 255
2.44857  1.9492 1.48073 255 255 255
2.10239 1.80139 1.44436 255 255 255
2.44001 2.14923 1.49443 255 255 255
1.57768 2.38141 1.41364 255 255 255
 2.6946 1.72725  1.3902 255 255 255
2.51031 1.87607 1.47558 255 255 255
1.80416  2.7929 1.44587 255 255 255
1.95543 1.65398 1.30631 255 255 255
1.40754 2.49292 1.41872 255 255 255
2.44548 1.50973 1.43661 255 255 255
1.43256 2.18356 1.28674 255 255 255
1.82237 2.16981 1.42161 255 255 255
2.04967 1.79899 1.38085 255 255 255
1.69861 2.56493 1.43973 255 255 255
1.55856 2.11634 1.41709 255 255 255
 2.5797 1.91515 1.47944 255 255 255
1.42377 2.15351 1.29304 255 255 255
1.47727 2.25208 1.37308 255 255 255
1.86582 2.51754 1.44153 255 255 255
2.52861 1.78487 1.39431 255 255 255
1.89642 2.32399 1.44655 255 255 255
2.07016  1.6401 1.37203 255 255 255
2.35301 2.26389  1.4868 255 255 255
1.50017 2.09684 1.40671 255 255 255
1.66417 2.36038 1.40757 255 255 255
2.11528 1.99543 1.44894 255 255 255
1.48717 2.26995 1.36412 255 255 255
2.06531 2.40216 1.46317 255 255 255
2.34944 2.06304 1.47684 255 255 255
2.15325  1.5045 1.41037 255 255 255
2.01687 1.49213 1.41946 255 255 255
1.70459 1.89076 1.41828 255 255 255
2.57931 1.68091  1.3896 255 255 255
2.17508 1.27777 1.44019 255 255 255
2.43633 1.87438 1.45441 255 255 255
1.49145 2.30833 1.34354 255 255 255
2.17404 1.28756 1.44092 255 255 255
1.76104 2.32125  1.3517 255 255 255
2.19337 1.27457 1.44885 255 255 255
1.51266 2.54484 1.42635 255 255 255
2.28355  2.2906 1.42561 255 255 255
1.75415 1.78792 1.40999 255 255 255
1.73732 2.43435 1.44114 255 255 255
2.44256 1.73025 1.37996 255 255 255
2.44751 1.78311 1.39024 255 255 255
1.41048  2.5116 1.41228 255 255 255
2.31484 1.54842 1.43407 255 255 255
 2.3406 2.23259  1.4851 255 255 255
2.26947 1.46231 1.48061 255 255 255
2.16385 1.20725 1.44445 255 255 255
1.34765  2.3179 1.35562 255 255 255
1.46544 2.59381 1.41603 255 255 255
1.59879 2.48274 1.42878 255 255 255
1.61979 2.03223 1.41224 255 255 255
2.35555 1.75698 1.47025 255 255 255
2.27479 1.72491 1.44829 255 255 255
1.71239 2.58891 1.44317 255 255 255
1.58201 2.48165  1.4283 255 255 255
2.58831 1.97457 1.48856 255 255 255
1.39397 2.50789 1.40456 255 255 255
-0.0373322    1.85495    1.32842 255 255 255
0.0856069   2.02493   1.32038 255 255 255
-0.15787  1.88684  1.30092 255 255 255
0.138285  1.77991  1.35805 255 255 255
0.0756058   1.82951     1.309 255 255 255
-0.061741   1.82915   1.30774 255 255 255
0.176007   1.8232  1.35375 255 255 255
0.0194477   1.88301   1.30901 255 255 255
-0.0465395    2.08856    1.31714 255 255 255
-0.0461847    2.12254    1.32288 255 255 255
-0.0592367    1.97317    1.31512 255 255 255
-0.00678799     2.14502     1.32627 255 255 255
0.107323  2.07794  1.31932 255 255 255
0.200104  1.97069  1.32186 255 255 255
0.145431  2.09059  1.31884 255 255 255
0.542266  1.67973  1.31202 255 255 255
0.186926  2.04374  1.32436 255 255 255
0.219618  1.68899  1.35408 255 255 255
0.467867  1.57017  1.33954 255 255 255
0.125351  1.98297  1.30392 255 255 255
0.432843   1.5466  1.33357 255 255 255
0.0405331   1.98407   1.31664 255 255 255
0.426254  1.64186   1.3467 255 255 255
0.0372806   1.93388   1.31523 255 255 255
0.0807325   1.99881   1.31832 255 255 255
0.134648  1.97356  1.31147 255 255 255
0.51699 1.75001  1.3259 255 255 255
0.0504876   1.95535    1.3136 255 255 255
0.616243  1.61359   1.3175 255 255 255
0.0312243   1.84116   1.30817 255 255 255
-0.00561305     1.91581     1.30759 255 255 255
0.33719 1.54507 1.34776 255 255 255
0.480678  1.51711  1.29332 255 255 255
0.260991  1.69307  1.35656 255 255 255
-0.0393334    1.89635    1.30801 255 255 255
0.538539  1.63386  1.30738 255 255 255
0.522997  1.61762  1.31005 255 255 255
-0.0543446    2.09442    1.32195 255 255 255
0.0135219   2.11792   1.32496 255 255 255
-0.152404   1.86453     1.305 255 255 255
0.274143    1.513  1.28852 255 255 255
0.570532  1.54149  1.30373 255 255 255
0.236632  1.67136  1.35292 255 255 255
-0.18576  1.95662  1.31273 255 255 255
0.27364 1.52608 1.29449 255 255 255
0.108506   2.0378  1.31673 255 255 255
0.396736  1.67166  1.35547 255 255 255
0.100687  2.00529  1.31888 255 255 255
0.486875   1.6195  1.34956 255 255 255
-0.0549788    2.15075     1.3272 255 255 255
-0.121503   2.09001   1.32201 255 255 255
0.118186  2.02904  1.31903 255 255 255
0.0027171   1.88742   1.30998 255 255 255
0.48329 1.71004 1.32107 255 255 255
0.516105  1.64294  1.30637 255 255 255
0.198286  1.86756  1.36324 255 255 255
0.300198  1.61822   1.3495 255 255 255
-0.121686   1.91323    1.3162 255 255 255
0.405567  1.58921  1.34862 255 255 255
0.172637  1.83947  1.36293 255 255 255
0.520515  1.73205  1.32779 255 255 255
0.529124  1.69201  1.31328 255 255 255
0.431836  1.52649  1.29849 255 255 255
0.001521  1.92159  1.30855 255 255 255
0.0309987   1.75659     1.305 255 255 255
0.113023  1.86937   1.3128 255 255 255
0.468816  1.70386  1.36108 255 255 255
0.034832  1.66745  1.29159 255 255 255
-0.230735    1.9371   1.30586 255 255 255
0.0113855    1.7678   1.30447 255 255 255
0.0797137   1.54729   1.27073 255 255 255
-0.134018    2.0299   1.32042 255 255 255
0.507541   1.7349  1.32189 255 255 255
0.476527  1.66006  1.35588 255 255 255
0.0415155   1.64539   1.28712 255 255 255
-0.0575289    1.99511    1.31956 255 255 255
0.176293  1.72511   1.3568 255 255 255
0.0894544   1.91291   1.31442 255 255 255
0.141255  2.01908  1.31358 255 255 255
0.190299  1.94029  1.33289 255 255 255
0.00540467    1.95995      1.312 255 255 255
0.189863  1.85933  1.36115 255 255 255
-0.0271214    1.91419    1.30583 255 255 255
-0.0464041    2.06707    1.31608 255 255 255
-0.0331343    1.63428    1.28116 255 255 255
0.443771  1.54068  1.30043 255 255 255
-0.167606   1.98072   1.31437 255 255 255
0.015448  1.95973  1.30777 255 255 255
0.409904  1.64173  1.35051 255 255 255
0.186469  1.98741  1.32257 255 255 255
-0.031978   2.14024   1.32527 255 255 255
0.225312  1.67848  1.35312 255 255 255
0.649609  1.56965  1.32778 255 255 255
0.0989902   1.57042   1.27306 255 255 255
0.046333   1.6597  1.28962 255 255 255
-0.0691137    2.12672    1.32474 255 255 255
0.524483  1.71733   1.3243 255 255 255
0.525045  1.67995   1.3122 255 255 255
-0.0242801    1.90271    1.30688 255 255 255
0.185223  1.79249  1.35941 255 255 255
0.131258  1.95273  1.31755 255 255 255
-0.024115   1.67999   1.29576 255 255 255
0.0513716    1.8161   1.30821 255 255 255
-0.0383036    2.06665    1.31959 255 255 255
0.00955138    1.85033     1.3081 255 255 255
-0.207421   1.89914   1.30378 255 255 255
0.16389 1.80496 1.36068 255 255 255
0.240679   1.7867  1.35948 255 255 255
0.182563  1.85145  1.35923 255 255 255
-0.170448   1.96165   1.31429 255 255 255
0.073112  2.19837  1.32882 255 255 255
0.0226304   1.74929   1.30434 255 255 255
0.269558   1.7762   1.3581 255 255 255
0.126836  2.04274  1.32063 255 255 255
0.501302  1.72129  1.32313 255 255 255
-0.021344    2.0857   1.32079 255 255 255
0.193999  1.87604  1.36184 255 255 255
0.140893  2.11602  1.32198 255 255 255
0.0564793   1.59548   1.28083 255 255 255
0.102419  1.93271  1.31524 255 255 255
0.0543179   1.95413   1.31416 255 255 255
-0.0299403    1.88552    1.30313 255 255 255
0.415617  1.67138   1.3512 255 255 255
0.163272  1.86282  1.36768 255 255 255
0.262399  1.52707  1.29232 255 255 255
0.106893  1.77465  1.35373 255 255 255
-0.0432236    2.15487    1.32704 255 255 255
-0.0563169    2.16007    1.32615 255 255 255
0.337453  1.71719  1.35448 255 255 255
-0.0567969    2.09751    1.32096 255 255 255
-0.0567682    2.09762    1.32121 255 255 255
0.043093  2.17694  1.32908 255 255 255
0.495159  1.73596  1.31901 255 255 255
0.042168    2.013  1.31662 255 255 255
0.0976879    1.8809   1.31363 255 255 255
-0.0010141    2.09885    1.32304 255 255 255
0.0867502   1.86849   1.31281 255 255 255
-0.136949   2.05262   1.32105 255 255 255
0.185781  1.72097  1.35545 255 255 255
-0.136014   2.07141   1.32238 255 255 255
0.401062   1.6559  1.35372 255 255 255
-0.0464525    1.97867    1.31464 255 255 255
0.23633  1.6588 1.35056 255 255 255
0.146337  2.03979  1.32237 255 255 255
0.243663  1.77784  1.35699 255 255 255
-0.0928059    2.09645    1.32184 255 255 255
0.43524 1.65659  1.3522 255 255 255
0.403769  1.58602  1.34905 255 255 255
0.166908  1.73101  1.35435 255 255 255
0.140038  1.91091  1.31503 255 255 255
0.181528  1.81221  1.36012 255 255 255
0.318053  1.58298  1.33721 255 255 255
0.546063  1.76043   1.3252 255 255 255
0.0741351   1.96329   1.31529 255 255 255
-0.0601004    2.12945    1.32524 255 255 255
0.340419  1.63956  1.35116 255 255 255
0.369133  1.69977  1.35557 255 255 255
0.140316  2.13795  1.32192 255 255 255
0.109689  2.04513  1.31811 255 255 255
0.107563  1.85447  1.31362 255 255 255
0.526892  1.75227  1.32566 255 255 255
0.133782  2.11335  1.32272 255 255 255
0.0678048   1.86043   1.31265 255 255 255
0.0874104   2.20884   1.33006 255 255 255
0.185715  2.10357  1.32696 255 255 255
0.169451  1.74391  1.35839 255 255 255
0.182297  2.06042   1.3239 255 255 255
0.152877  1.92154  1.31688 255 255 255
0.408703  1.66847   1.3531 255 255 255
0.495991  1.70938  1.31929 255 255 255
0.137741  2.08718  1.32009 255 255 255
0.285066  1.63807  1.35143 255 255 255
-0.0813121    1.96027    1.31359 255 255 255
0.197926  1.69958  1.35562 255 255 255
0.13835 1.99315 1.30569 255 255 255
0.037503  1.86706  1.31124 255 255 255
-0.121259   2.07204    1.3215 255 255 255
-0.0372802    2.15874    1.32735 255 255 255
0.113203  1.85755  1.31617 255 255 255
0.138144  1.76322  1.35888 255 255 255
0.151823   1.9667    1.319 255 255 255
0.559441  1.73143  1.32446 255 255 255
0.322097  1.87068  1.22206 255 255 255
0.0122701   2.12986   1.32593 255 255 255
-0.12751  2.09202  1.32203 255 255 255
0.168359  1.87701   1.3644 255 255 255
0.10829 1.92974 1.31563 255 255 255
0.527485  1.77738  1.32719 255 255 255
0.25645 1.65273 1.35152 255 255 255
0.541386  1.77172  1.32618 255 255 255
-0.0269778    2.14745    1.32575 255 255 255
0.12989 2.03519 1.31925 255 255 255
0.134285  1.76883   1.3584 255 255 255
0.156286  2.13915  1.32327 255 255 255
0.277742  1.70241  1.35458 255 255 255
-0.0114758    2.12776    1.32449 255 255 255
0.472872  1.69771  1.35444 255 255 255
-0.0293086    2.10967    1.32387 255 255 255
-0.0457526    2.17277    1.32815 255 255 255
0.121966  1.93079  1.31517 255 255 255
0.114423  2.00387  1.31634 255 255 255
-0.0166445    2.08077    1.32087 255 255 255
0.335436  1.62203  1.34924 255 255 255
0.510866  1.71052  1.32107 255 255 255
-0.00631876      1.9274     1.30798 255 255 255
0.51148 1.75068 1.32561 255 255 255
0.0159478   1.85749   1.31024 255 255 255
-0.0883473    1.96023    1.31373 255 255 255
-0.0132537    1.91998    1.30762 255 255 255
0.0540295   1.90464   1.31328 255 255 255
0.0646875   2.02094   1.31756 255 255 255
-0.0442821    2.05819    1.31958 255 255 255
0.526297  1.78567   1.3277 255 255 255
0.35771 1.65703 1.34995 255 255 255
-0.0431045    2.11444     1.3226 255 255 255
-0.0652942    2.08843    1.32117 255 255 255
0.170761  2.08895  1.32398 255 255 255
0.320655   1.7231  1.35291 255 255 255
0.0056845   1.94254   1.31022 255 255 255
0.202279  1.95494  1.32242 255 255 255
0.157009  1.86069  1.36682 255 255 255
0.121229  2.04556  1.32207 255 255 255
0.0478919   1.90297   1.31263 255 255 255
0.214397  1.87139  1.36317 255 255 255
-0.0414268    2.10852    1.32317 255 255 255
0.169106  1.76319  1.35762 255 255 255
0.0939672   1.79381   1.36006 255 255 255
0.0510732   1.94612   1.31339 255 255 255
-0.0786725    2.09983    1.32029 255 255 255
6.37848e-05     1.92757     1.31018 255 255 255
0.0014141   2.11527   1.32454 255 255 255
0.0210315   2.16661   1.32699 255 255 255
0.127128  2.07266  1.31991 255 255 255
0.107015  1.90857   1.3148 255 255 255
0.330974  1.63047  1.35132 255 255 255
-0.13333  2.00824  1.31962 255 255 255
0.164411  2.10613  1.32292 255 255 255
-0.130518    2.0281   1.32049 255 255 255
0.159463  1.98719   1.3187 255 255 255
0.376289  1.53426  1.34574 255 255 255
0.362872  1.64177   1.3534 255 255 255
0.322865  1.58565  1.34344 255 255 255
0.319424  1.85228  1.22371 255 255 255
0.120801   1.8015  1.35703 255 255 255
-0.0171341    2.15722    1.32738 255 255 255
-0.059776   2.13991   1.32664 255 255 255
0.54919 1.71279 1.32302 255 255 255
-0.115908   2.10347   1.32337 255 255 255
0.32456 1.86349 1.22434 255 255 255
-0.0925258    2.12037    1.31792 255 255 255
0.140042  1.88237  1.32032 255 255 255
0.0159495   2.10689   1.32412 255 255 255
0.112205  2.05008  1.31963 255 255 255
0.0528752   1.87668   1.31254 255 255 255
0.215801  1.89088  1.33814 255 255 255
0.101968  1.90647  1.31467 255 255 255
0.538283  1.74019  1.32572 255 255 255
0.114493  1.94045  1.31702 255 255 255
0.193448  1.92976  1.33828 255 255 255
-0.0535781    2.10528    1.32367 255 255 255
0.0873254   1.85546   1.31269 255 255 255
 0.4997 1.71495 1.32161 255 255 255
0.125542  1.76964  1.35853 255 255 255
0.40267 1.66648 1.35287 255 255 255
0.0218115    2.1148   1.32285 255 255 255
0.118929  1.76857  1.35897 255 255 255
0.0338721   1.99581   1.31422 255 255 255
-0.0761033    1.96695    1.31519 255 255 255
-0.00524605     2.12422     1.32486 255 255 255
0.168942  2.02959  1.32128 255 255 255
-0.0476922    2.13583    1.32493 255 255 255
-0.0606312    2.15558    1.32546 255 255 255
-0.147818   2.03074   1.31922 255 255 255
0.0886688   1.90509   1.31336 255 255 255
0.0572955   2.03207   1.31755 255 255 255
0.175204  1.77207  1.35802 255 255 255
-0.0174515    2.14149    1.32606 255 255 255
0.215683  1.75289   1.3581 255 255 255
-0.165416   2.05672   1.32123 255 255 255
0.0499631   2.01962   1.31861 255 255 255
0.332583  1.53987  1.34932 255 255 255
-0.122974    2.0281    1.3197 255 255 255
-0.0500719    2.16385    1.32659 255 255 255
0.0204868   1.96468   1.31009 255 255 255
-0.0491113    2.00104    1.31772 255 255 255
0.0606398   2.23094   1.33358 255 255 255
-0.0563412    2.11328    1.32346 255 255 255
0.536618  1.72829  1.32438 255 255 255
-0.0193074    2.11817    1.32339 255 255 255
0.512448   1.7384   1.3245 255 255 255
-0.152378   2.03406   1.31919 255 255 255
0.0957066   1.86703   1.31424 255 255 255
0.310844  1.85911  1.22381 255 255 255
0.292857  1.62163  1.35079 255 255 255
-0.0191222    1.92337    1.30808 255 255 255
0.402652   1.6449  1.35167 255 255 255
0.0522793   2.02632   1.31729 255 255 255
0.174071  1.82992   1.3614 255 255 255
-0.134107   2.09037   1.32262 255 255 255
0.0140857   2.12351   1.32473 255 255 255
-0.15616  2.04631  1.32015 255 255 255
0.356768  1.64422  1.35222 255 255 255
0.0712265   2.03502   1.31877 255 255 255
-0.0276639    2.07305    1.32128 255 255 255
0.112107  1.77428  1.35926 255 255 255
0.502434  1.70559  1.32105 255 255 255
0.0518576     2.015   1.31765 255 255 255
-0.0911165    2.03816    1.31997 255 255 255
0.127818  1.99295   1.3024 255 255 255
-0.0117286    2.07858    1.32033 255 255 255
-0.0211551    1.99811    1.31784 255 255 255
0.0322547   1.93002   1.31188 255 255 255
0.00745335    2.10736    1.32303 255 255 255
0.146467  2.07978  1.32337 255 255 255
0.201669  1.84558  1.36315 255 255 255
-0.00784406     1.93271     1.30929 255 255 255
0.189242  2.05794  1.32502 255 255 255
-0.0155215     1.9267      1.308 255 255 255
0.0460467   1.92987   1.31395 255 255 255
-0.0598859     2.0802    1.32108 255 255 255
0.325239  1.87435  1.22524 255 255 255
0.527413  1.77069  1.32594 255 255 255
0.19367 2.03871 1.32327 255 255 255
0.0140883   1.86919   1.30916 255 255 255
0.555798  1.72124   1.3251 255 255 255
0.11416 1.94482  1.3155 255 255 255
0.501974  1.72234  1.32187 255 255 255
-0.140436    2.0776   1.32343 255 255 255
0.493785  1.70399  1.32123 255 255 255
0.538975  1.74775  1.32607 255 255 255
-0.0175896    2.07299    1.31977 255 255 255
-0.147365   2.04015   1.31986 255 255 255
0.507021  1.75516  1.32377 255 255 255
0.175092  1.73966  1.35669 255 255 255
-0.11554  2.07728  1.32249 255 255 255
0.523918  1.78123   1.3274 255 255 255
-0.0748447    2.13555    1.32532 255 255 255
0.103738  1.99821  1.31723 255 255 255
-0.137309   2.04637   1.32228 255 255 255
0.162057  1.92294  1.32301 255 255 255
-0.0345594    2.13335    1.32568 255 255 255
-0.0844024    2.13282    1.32457 255 255 255
-0.026311   1.99757   1.31744 255 255 255
0.548205  1.72042  1.32397 255 255 255
0.0687158   2.04711   1.31943 255 255 255
0.0394166   2.14405   1.32457 255 255 255
0.136631  1.90489  1.31584 255 255 255
0.421225  1.58531   1.3488 255 255 255
0.496549  1.67475  1.31527 255 255 255
-0.0218111    2.00369    1.31742 255 255 255
0.315341  1.85286  1.22365 255 255 255
0.0404098   2.19511   1.33215 255 255 255
0.0569445   2.02719   1.31701 255 255 255
0.0613029   2.19969   1.33049 255 255 255
0.304096  1.69807  1.38009 255 255 255
-0.0302385    2.09625    1.32255 255 255 255
 1.61689 0.669504  1.34124 255 255 255
 1.32876 0.958577  1.29673 255 255 255
 1.22267 0.771701  1.22205 255 255 255
 1.55069 0.342205  1.37935 255 255 255
 1.67232 0.133837  1.43119 255 255 255
 2.02977 0.776225  1.44197 255 255 255
 1.91129 0.871439  1.40599 255 255 255
 1.64875 0.799492  1.40341 255 255 255
 1.29232 0.999737   1.2715 255 255 255
1.15237 0.79699  1.2672 255 255 255
  1.3791 0.749449  1.25446 255 255 255
1.43448 0.72421 1.26622 255 255 255
 1.08887 0.833037  1.27107 255 255 255
  1.2603 0.882261  1.29986 255 255 255
1.76069 1.12271 1.27631 255 255 255
  1.5224 0.643998  1.25144 255 255 255
 1.75748 0.699005  1.40165 255 255 255
 1.89764 0.211419  1.42205 255 255 255
1.53635 1.09761 1.27572 255 255 255
1.49731 1.09302 1.27838 255 255 255
1.53694 1.29344 1.29465 255 255 255
 1.56777 0.810524  1.38548 255 255 255
 1.31613 0.728324  1.24808 255 255 255
1.36288  1.3088 1.32049 255 255 255
 2.07024 0.693714  1.44974 255 255 255
1.03264  1.0897 1.25339 255 255 255
1.23876 1.20612 1.28545 255 255 255
 1.41295 0.830507  1.25277 255 255 255
 1.92943 0.216066  1.41572 255 255 255
 2.18985 0.481579  1.44627 255 255 255
1.53058 1.26043 1.31832 255 255 255
 1.25416 0.858226  1.30553 255 255 255
 1.21246 0.902357   1.3066 255 255 255
 1.16111 0.824667  1.28552 255 255 255
 1.65851 0.537066   1.3909 255 255 255
 1.69138 0.816333  1.39275 255 255 255
1.59343 1.07416 1.27187 255 255 255
 1.45523 0.279974  1.37467 255 255 255
1.10675 0.91612 1.34045 255 255 255
1.61436 1.07879 1.27082 255 255 255
 1.08647 0.937579  1.33687 255 255 255
1.64081 1.06706 1.27152 255 255 255
 1.24609 0.916524  1.29978 255 255 255
 1.76858 0.125265    1.409 255 255 255
 1.34532 0.656026  1.24597 255 255 255
 1.76898 0.676124  1.39569 255 255 255
1.55771 1.10356 1.27469 255 255 255
 1.7236 0.92202 1.40868 255 255 255
1.50283  1.1298 1.28244 255 255 255
 2.17897 0.571134  1.44972 255 255 255
 1.10582 0.812155  1.26629 255 255 255
 2.05395 0.672578  1.44799 255 255 255
 1.24539 0.772347   1.2687 255 255 255
1.09697 0.95551 1.33915 255 255 255
  1.9441 0.660324  1.43614 255 255 255
 1.79492 0.955096  1.40651 255 255 255
 2.10337 0.509451  1.42684 255 255 255
 2.37171 0.626908  1.47293 255 255 255
 1.60744 0.325595  1.33692 255 255 255
 1.99968 0.315737  1.42798 255 255 255
 1.50021 0.266189  1.38416 255 255 255
 1.94977 0.688415  1.43445 255 255 255
 1.85842 0.532269  1.42282 255 255 255
1.91188 1.02714 1.41483 255 255 255
 1.48168 0.748199  1.27178 255 255 255
 1.61155 0.702658  1.38753 255 255 255
 1.09608 0.792982  1.26545 255 255 255
 1.38129 0.847657  1.25235 255 255 255
1.56705 1.35038 1.23953 255 255 255
 1.31303 0.740506   1.2406 255 255 255
 2.02533 0.546705  1.43422 255 255 255
  1.6048 0.410628  1.38605 255 255 255
 2.31206 0.723276  1.47305 255 255 255
 1.90559 0.375941  1.42762 255 255 255
1.49262 1.11696 1.27244 255 255 255
 1.64198 0.181798  1.40608 255 255 255
  1.6659 0.294574  1.38897 255 255 255
1.21832 0.83058 1.30711 255 255 255
 1.95823 0.231426   1.4036 255 255 255
1.29492 1.33261 1.29586 255 255 255
1.55192 0.39198 1.37869 255 255 255
1.73552 0.90064 1.40569 255 255 255
1.66726 1.26125  1.3122 255 255 255
  1.9631 0.224068  1.43646 255 255 255
 1.76068 0.615455  1.38067 255 255 255
 1.46478 0.716722  1.25744 255 255 255
1.15576 1.09499 1.28333 255 255 255
1.77491 1.12772 1.27778 255 255 255
0.897285  1.07228  1.33421 255 255 255
 1.14432 0.765327  1.25228 255 255 255
  1.7103 0.133318  1.41413 255 255 255
 1.27653 0.636098  1.23698 255 255 255
 2.31257 0.469451  1.45788 255 255 255
 1.71952 0.583616  1.39296 255 255 255
 1.94862 0.489126  1.43388 255 255 255
 1.97711 0.251698  1.43181 255 255 255
 1.68483 0.255835   1.4061 255 255 255
1.36017 1.13542 1.26786 255 255 255
  1.7983 0.426887  1.41387 255 255 255
 2.08214 0.531162  1.43577 255 255 255
 1.6533 1.18228  1.2807 255 255 255
 1.72377 0.169089  1.41004 255 255 255
 1.69576 0.521316  1.39603 255 255 255
0.861799 0.996528  1.34085 255 255 255
 1.04807 0.935922  1.34397 255 255 255
1.90351 0.24221 1.42858 255 255 255
 1.1411 0.93284 1.32599 255 255 255
 1.07893 0.893043  1.33843 255 255 255
1.31052 1.01436 1.27372 255 255 255
 1.62581 0.941061  1.39526 255 255 255
 1.91354 0.167831  1.42105 255 255 255
 1.45792 0.823563  1.25067 255 255 255
1.12667 1.23762 1.34457 255 255 255
 1.04989 0.972625  1.33211 255 255 255
1.17858   1.167  1.2867 255 255 255
1.45844 1.04675 1.24153 255 255 255
 2.30964 0.548594  1.46943 255 255 255
  1.3035 0.628754  1.24478 255 255 255
2.28669  0.4351 1.45858 255 255 255
1.13717 1.08656 1.28301 255 255 255
 1.72339 0.782551  1.40356 255 255 255
 1.13013 0.948068  1.32942 255 255 255
1.93411 0.69913 1.43557 255 255 255
1.13534 1.25553 1.33859 255 255 255
0.934259  1.03608   1.3457 255 255 255
 2.14925 0.639325  1.44125 255 255 255
 1.76361 0.723538  1.39908 255 255 255
 2.20766 0.815674  1.45108 255 255 255
 1.05977 0.900339   1.3292 255 255 255
 1.55805 0.777802  1.39468 255 255 255
 1.67236 0.180288  1.41706 255 255 255
  1.0695 0.886152  1.33705 255 255 255
1.25517 1.32611 1.29464 255 255 255
1.68318 0.96313 1.38331 255 255 255
 2.05323 0.463494  1.42892 255 255 255
1.09583 0.85595  1.3343 255 255 255
1.73282 1.05828 1.26302 255 255 255
1.30671 1.40922  1.3608 255 255 255
0.913455  1.01555  1.34579 255 255 255
 1.72226 0.612309  1.39691 255 255 255
1.33231 1.08231 1.25095 255 255 255
 1.76969 0.404065  1.41341 255 255 255
1.48653 1.12709 1.27707 255 255 255
1.53251 1.36945 1.23993 255 255 255
1.24535 1.30662  1.2934 255 255 255
 1.61931 0.853281  1.40325 255 255 255
0.915206  1.04852  1.34625 255 255 255
 1.4202 1.03369 1.25641 255 255 255
1.48495 0.27426 1.37396 255 255 255
1.11661 0.94535 1.33354 255 255 255
 1.74645 0.120972  1.41198 255 255 255
 1.50795 0.679189  1.25301 255 255 255
 1.68666 0.295423  1.41558 255 255 255
1.85894 1.05759 1.40451 255 255 255
1.74859 1.09261 1.26577 255 255 255
 1.0896 1.24661 1.34969 255 255 255
1.65958 1.05341 1.27069 255 255 255
 1.99089 0.252201  1.43132 255 255 255
1.47096 1.09979 1.26528 255 255 255
