ply
format ascii 1.0
element vertex 1201
property float x
property float y
property float z
property uchar red
property uchar green
property uchar blue
end_header
1.70445 1.33832  1.3097 255 255 255
 2.47506 0.460316  1.52614 255 255 255
 2.78063 0.967308  1.54187 255 255 255
  1.623 1.34507 1.23919 255 255 255
2.60831 1.20743 1.49993 255 255 255
  2.4103 0.692714  1.40859 255 255 255
1.53137 1.60621 1.30382 255 255 255
 2.79287 0.747215  1.52419 255 255 255
1.68849 1.36726  1.3007 255 255 255
1.75012 1.23611 1.40556 255 255 255
 2.32992 0.838364  1.47461 255 255 255
 2.02936 0.633794  1.43781 255 255 255
 2.02889 0.635302  1.43658 255 255 255
1.48705 1.53426 1.32947 255 255 255
2.00334 1.37762 1.41763 255 255 255
 1.98987 0.967061  1.36562 255 255 255
 2.79717 0.791921  1.53253 255 255 255
2.75596 1.10949  1.5397 255 255 255
2.60495 1.02362 1.49878 255 255 255
2.61109 1.02084 1.51228 255 255 255
 2.48117 0.429839   1.5035 255 255 255
1.86557 1.82994  1.4091 255 255 255
2.01249  1.4234 1.41489 255 255 255
1.41433   1.578 1.30332 255 255 255
1.25156 1.42956 1.35961 255 255 255
1.38031 1.51022 1.29897 255 255 255
 1.79484 0.784836  1.40376 255 255 255
 2.88178 0.925646  1.53051 255 255 255
 2.57177 0.489415   1.5278 255 255 255
  2.6017 0.793884  1.53037 255 255 255
1.63573 1.31294 1.26117 255 255 255
2.44132 0.30031 1.49702 255 255 255
  2.0136 0.922092   1.4082 255 255 255
1.86615  1.9042 1.41733 255 255 255
1.36881 1.26033 1.28853 255 255 255
2.45904 1.09432  1.4783 255 255 255
1.84539 1.35671 1.42753 255 255 255
1.50764 1.57884 1.29911 255 255 255
 1.85411 0.741752   1.3529 255 255 255
1.72236 1.35243 1.30991 255 255 255
2.26386 1.49248  1.4708 255 255 255
 1.5411 1.71883 1.57939 255 255 255
2.49963 1.21858 1.48605 255 255 255
2.02251 1.02646 1.40895 255 255 255
 1.3734 1.43253 1.32591 255 255 255
 2.28508 0.643715  1.46132 255 255 255
1.76104  1.2595 1.42503 255 255 255
1.28242  1.3729 1.34956 255 255 255
2.33908 1.21705 1.47539 255 255 255
2.23281 1.29333 1.46365 255 255 255
 2.42791 0.998633  1.48296 255 255 255
 1.77457 0.766636   1.3894 255 255 255
2.00501 1.02218 1.39771 255 255 255
 1.5319 1.36909 1.23864 255 255 255
2.51281 1.06656 1.49098 255 255 255
2.36186  1.4665 1.48792 255 255 255
2.59863  1.0741 1.49085 255 255 255
1.40299 1.52165 1.28441 255 255 255
1.82354 1.02756 1.37447 255 255 255
1.86128 1.80948 1.41367 255 255 255
2.69387 0.62917 1.53516 255 255 255
2.21029  1.2786 1.44022 255 255 255
 2.07908 0.903253  1.44943 255 255 255
1.88933 1.78993 1.42139 255 255 255
 2.82773 0.762325   1.5298 255 255 255
 2.79114 0.706798  1.53375 255 255 255
 2.54428 0.635618  1.51849 255 255 255
 2.51388 0.625705  1.81014 255 255 255
 2.43459 0.710853  1.45657 255 255 255
1.48343 1.27995 1.26753 255 255 255
1.75614 1.03341 1.40129 255 255 255
2.86349 1.01155 1.53549 255 255 255
 2.81632 0.835203  1.53534 255 255 255
2.03827 1.50872  1.4295 255 255 255
2.11899 1.16024 1.44548 255 255 255
2.12925 1.60851 1.39478 255 255 255
2.21282   0.668 1.44912 255 255 255
 2.47738 0.997428   1.4836 255 255 255
 2.69992 0.737378  1.52877 255 255 255
  2.7774 0.677472  1.52925 255 255 255
1.54773  1.6625 1.33215 255 255 255
 2.0153 1.02038  1.4137 255 255 255
1.56489 1.70996 1.36585 255 255 255
 2.70637 0.965499  1.52689 255 255 255
 2.84682 0.939597  1.53003 255 255 255
2.61933  1.2135  1.5037 255 255 255
2.24414 1.55185 1.44466 255 255 255
 2.62695 0.776735  1.53055 255 255 255
 2.21489 0.754957  1.43443 255 255 255
2.16384 1.16883 1.44389 255 255 255
1.89642 1.02523 1.40927 255 255 255
 2.01458 0.808633  1.40387 255 255 255
1.50419 1.61946 1.30409 255 255 255
1.53998 1.10099 1.27336 255 255 255
1.68695 1.42775 1.24925 255 255 255
 2.56277 0.472353  1.52539 255 255 255
1.62072 1.20121 1.27657 255 255 255
2.07823 1.40699 1.42525 255 255 255
 2.10997 0.478243  1.42357 255 255 255
 2.44891 0.946861  1.48235 255 255 255
  2.5275 0.505633  1.52671 255 255 255
2.31523 1.45838 1.47839 255 255 255
 1.4961 1.54178 1.32243 255 255 255
1.60912 1.58594 1.29343 255 255 255
1.79479 1.83353 1.41267 255 255 255
2.37877 1.13066 1.46717 255 255 255
 2.37661 0.304986   1.4821 255 255 255
 2.73482 0.992939  1.53958 255 255 255
 1.9764 1.29608 1.42683 255 255 255
 2.66356 0.877831  1.53005 255 255 255
2.56392 1.16117 1.48952 255 255 255
1.64558 1.33867 1.27701 255 255 255
  2.7526 0.635067  1.52115 255 255 255
1.41751 1.54181 1.29668 255 255 255
 2.21693 0.582462  1.22596 255 255 255
 2.72316 0.799826  1.52053 255 255 255
2.61721 1.04512 1.49522 255 255 255
 2.6769 1.16925 1.49443 255 255 255
2.46351 1.20286  1.4987 255 255 255
  2.4665 0.306568  1.50301 255 255 255
 2.34058 0.477279  1.43271 255 255 255
 1.72773 0.846938   1.3963 255 255 255
2.48116 1.03256  1.4884 255 255 255
1.52486 1.12364 1.27354 255 255 255
1.58599 1.31819  1.2429 255 255 255
1.54416 1.31123 1.24137 255 255 255
 2.48375 0.459653   1.5137 255 255 255
 2.37379 0.667743   1.4851 255 255 255
1.55258 1.11194 1.27349 255 255 255
 2.03365 0.989097  1.42975 255 255 255
 2.90493 0.995809  1.53736 255 255 255
1.95634 1.30855 1.41075 255 255 255
1.64065 1.56738 1.32116 255 255 255
2.89727  1.0049 1.53386 255 255 255
1.27647  1.3964 1.36026 255 255 255
1.43759 1.44385  1.2892 255 255 255
1.44302 1.15174 1.32463 255 255 255
1.60707 1.79358 1.33902 255 255 255
 2.49004 0.951778  1.49005 255 255 255
2.63976 1.04947 1.50354 255 255 255
 2.76052 0.892055  1.52625 255 255 255
 1.7452 1.92493 1.41471 255 255 255
1.49956 1.13627 1.27093 255 255 255
 2.32699 0.457574  1.44999 255 255 255
 2.55659 0.616142  1.52916 255 255 255
2.52864 1.06495 1.49643 255 255 255
1.51226 1.16792 1.27233 255 255 255
2.05497 1.02151 1.42291 255 255 255
1.71092 1.17846 1.27543 255 255 255
 2.56908 0.532939  1.53294 255 255 255
1.79618 1.34818 1.42656 255 255 255
1.38137 1.49594 1.30124 255 255 255
2.08979 1.28803 1.43471 255 255 255
 2.34215 0.632621  1.46779 255 255 255
1.56813 1.17537 1.27625 255 255 255
1.67137 1.35012 1.30136 255 255 255
2.43622  1.0192 1.48585 255 255 255
2.31319 0.89811  1.4385 255 255 255
1.69338 1.30927 1.31405 255 255 255
1.58182 1.66199 1.37607 255 255 255
 2.87509 0.892375  1.53373 255 255 255
1.63909 1.33914 1.27546 255 255 255
1.65637  1.5038 1.31744 255 255 255
1.47356 1.54761 1.29753 255 255 255
1.49588 1.21097 1.27833 255 255 255
1.63115 1.47211 1.24773 255 255 255
1.77618 1.10078 1.08919 255 255 255
2.32616 1.23828 1.46711 255 255 255
1.76005 1.32239 1.40951 255 255 255
 2.41758 0.791129  1.47979 255 255 255
1.78018 1.34783 1.41425 255 255 255
1.68314 1.39568 1.31166 255 255 255
1.62813 1.58721 1.29291 255 255 255
 1.7231 1.93838 1.41384 255 255 255
 2.87614 0.993926  1.53634 255 255 255
  2.2685 0.426559  1.45651 255 255 255
2.45402 1.07597 1.49004 255 255 255
1.33849 1.30556 1.29046 255 255 255
1.51758 1.64654 1.30353 255 255 255
2.37763 1.09598 1.46459 255 255 255
 2.64411 0.860088  1.52342 255 255 255
1.72432   1.724 1.32568 255 255 255
1.59675 1.78362 1.31322 255 255 255
1.73999 1.75815 1.33722 255 255 255
1.54283 1.14887 1.22096 255 255 255
 2.0184 1.33765  1.4278 255 255 255
 2.3824 1.26951 1.48033 255 255 255
 2.17665 0.330984  1.45329 255 255 255
2.40575 1.18541 1.47212 255 255 255
1.50577 1.12178 1.26884 255 255 255
   2.305 0.700691  1.45466 255 255 255
 1.5365 1.69263 1.30813 255 255 255
2.80811 0.76271  1.5267 255 255 255
1.11495 1.94189 2.13227 255 255 255
 2.50327 0.971387   1.4939 255 255 255
 1.88138 0.885673  1.41033 255 255 255
 2.71776 0.829432  1.52718 255 255 255
2.22895 1.32198 1.46092 255 255 255
1.51914 1.11356 1.27599 255 255 255
2.69264 1.10616 1.50765 255 255 255
2.46665  1.1948 1.49241 255 255 255
1.51254 1.13136 1.32749 255 255 255
1.66811 1.43783  1.2441 255 255 255
2.23099 1.60433 1.46716 255 255 255
2.35826 1.29008 1.48252 255 255 255
1.36461 1.49082 1.29862 255 255 255
 2.30165 0.923306  1.45201 255 255 255
1.48942 1.58391 1.30013 255 255 255
1.46167 1.52029 1.29534 255 255 255
1.37486 1.34864 1.31275 255 255 255
2.29239 1.37537 1.44834 255 255 255
 1.73337 0.808877  1.39134 255 255 255
1.48159 1.56583 1.29864 255 255 255
2.76572 1.09471 1.53309 255 255 255
 1.4807 1.14324 1.27208 255 255 255
 2.52892 0.552614  1.51938 255 255 255
1.45436 1.50192 1.29346 255 255 255
1.45014 1.49294 1.29318 255 255 255
2.35845 1.19598 1.47551 255 255 255
 2.35252 0.795271  1.47547 255 255 255
2.09493  1.4193 1.43147 255 255 255
1.48482 1.15365   1.273 255 255 255
 2.0742 1.04193 1.44751 255 255 255
1.46545 1.52952 1.29652 255 255 255
1.46913 1.53859 1.29737 255 255 255
2.28224 0.57894 1.47106 255 255 255
2.72439 1.03098 1.52941 255 255 255
2.87246 0.95503 1.52743 255 255 255
1.64911 1.42333  1.2422 255 255 255
2.03753 1.61938 1.42759 255 255 255
2.50146 1.24476 1.49307 255 255 255
2.23761 1.17704 1.46651 255 255 255
1.89904  1.7552 1.42241 255 255 255
 2.02161 0.685083  1.43401 255 255 255
1.53833 1.62726 1.30663 255 255 255
 2.73051 0.713779  1.53419 255 255 255
2.80959 0.91733  1.5371 255 255 255
1.40434 1.54082 1.28098 255 255 255
2.52715 1.08023 1.49696 255 255 255
2.45921 1.13627 1.48832 255 255 255
1.66246  1.1545 1.28081 255 255 255
2.17026 1.56486 1.41003 255 255 255
 2.66775 0.568597  1.53144 255 255 255
 2.51792 0.593848  1.53702 255 255 255
   2.432 0.933216  1.48857 255 255 255
1.52051 1.59346 1.32649 255 255 255
1.33077 1.50928 1.28617 255 255 255
1.72981 1.73194 1.32838 255 255 255
 1.71796 0.824272    1.396 255 255 255
2.52724 1.02593 1.49407 255 255 255
 2.19966 0.458488  1.44613 255 255 255
 2.80864 0.811938  1.52344 255 255 255
 2.23275 0.510924  1.46483 255 255 255
1.90641  1.7452 1.42228 255 255 255
 1.5453 1.65509 1.30558 255 255 255
 2.58196 0.779767  1.52364 255 255 255
2.01411 1.41708 1.42314 255 255 255
 2.41604 0.750055  1.47524 255 255 255
1.63758 1.47889 1.25093 255 255 255
 2.04555 0.846949  1.38573 255 255 255
 1.7208 1.57315 1.31921 255 255 255
2.21044 1.26251 1.43527 255 255 255
 2.29241 0.718653  1.46794 255 255 255
2.49384 1.25708 1.49766 255 255 255
1.61447 1.47321 1.25079 255 255 255
 2.24671 0.381544  1.45232 255 255 255
 2.45529 0.494503  1.51469 255 255 255
 2.00823 0.990119  1.40331 255 255 255
1.60331 1.80538 1.31862 255 255 255
 2.66759 0.628142  1.53555 255 255 255
1.50107 1.16347 1.26905 255 255 255
1.54311 1.40039 1.23772 255 255 255
 1.73229 0.869845  1.40451 255 255 255
2.43518 1.03183 1.48686 255 255 255
 2.67045 0.639121   1.5175 255 255 255
1.29537 1.44844 1.35812 255 255 255
 2.28526 0.965538  1.46189 255 255 255
1.61574 1.41036 1.24009 255 255 255
1.62175 1.56407 1.30666 255 255 255
 1.6444 1.16036 1.27665 255 255 255
2.01811 1.68834 1.42809 255 255 255
2.33173 0.82396  1.4703 255 255 255
1.83466 1.82062 1.41312 255 255 255
 1.8293 1.02712 1.33887 255 255 255
1.93837 1.25052 1.41791 255 255 255
1.93849 1.25035 1.41989 255 255 255
 2.39272 0.892857  1.48646 255 255 255
1.91419 1.22752 1.42451 255 255 255
2.61952 1.17959 1.50249 255 255 255
 1.66933 0.879702  1.40351 255 255 255
2.39177  1.1683 1.46611 255 255 255
2.34552 1.15022  1.4701 255 255 255
1.98304 1.22335 1.42322 255 255 255
1.90117  1.4916 1.29558 255 255 255
1.51522 1.58602 1.35012 255 255 255
 1.88903 0.995081  1.40476 255 255 255
  1.19072 -0.639771   1.32889 255 255 255
 2.01525 -1.19511  1.51654 255 255 255
0.895009 -0.66913  1.30805 255 255 255
  1.47055 -0.458247   1.41598 255 255 255
  1.42625 -0.883351   1.39794 255 255 255
  1.59777 -0.510088   1.42706 255 255 255
  1.28649 -0.992097    1.4262 255 255 255
  1.82861 -0.567943   1.47263 255 255 255
  1.93487 -0.971943   1.49728 255 255 255
 1.8654 -1.0683 1.44909 255 255 255
 1.77185 -1.35004  1.51216 255 255 255
  1.13049 -0.176471    1.3629 255 255 255
 0.928604 -0.331619   1.35998 255 255 255
  0.797392 -0.0117776    1.37484 255 255 255
 1.95902 -1.04035   1.4625 255 255 255
 1.97432 -0.97542  1.48493 255 255 255
  1.98216 -0.720089   1.49922 255 255 255
 1.87262 -1.37717  1.50969 255 255 255
 1.17769 -0.40668  1.38763 255 255 255
  1.75476 -0.653581   1.45386 255 255 255
 0.967719 -0.872604   1.39238 255 255 255
 0.912038 -0.833711   1.39341 255 255 255
  1.18807 -0.980806   1.43336 255 255 255
  1.45357 -0.219334   1.40443 255 255 255
  1.43717 -0.496169   1.38793 255 255 255
 1.78126 -0.61408  1.45913 255 255 255
  1.8138 -1.24963  1.50277 255 255 255
 1.60404 -1.04655  1.47116 255 255 255
 1.67696 -1.05665  1.48144 255 255 255
  1.37457 -0.735528   1.41652 255 255 255
  1.80976 -0.816447   1.48081 255 255 255
 1.40815 -1.23681  1.46495 255 255 255
  1.19035 -0.841122    1.4127 255 255 255
 1.93521 -1.29962  1.49718 255 255 255
  2.07208 -0.750973   1.50119 255 255 255
 1.44976 -1.12635  1.46307 255 255 255
  1.3905 -1.00517   1.4399 255 255 255
  1.70199 -0.909753   1.46646 255 255 255
 1.99734 -0.81428  1.50514 255 255 255
 0.877671 -0.776208   1.40039 255 255 255
  1.81552 -0.424981   1.40978 255 255 255
  2.10856 -0.808987   1.49414 255 255 255
  1.88641 -0.548455   1.46055 255 255 255
  1.99735 -0.616304   1.50274 255 255 255
  1.31362 -0.465495   1.36102 255 255 255
  1.00741 -0.884817   1.40001 255 255 255
 1.87074 -1.39981  1.51082 255 255 255
  1.11803 -0.660165   1.36124 255 255 255
   1.3889 -0.294371   1.39293 255 255 255
  1.21975 -0.654889   1.36828 255 255 255
 1.62857 -1.01179  1.45852 255 255 255
   0.6622 -0.172041   1.35679 255 255 255
 1.15823 -0.82317  1.41444 255 255 255
   1.1957 0.0674441   1.37314 255 255 255
  1.81931 -0.873805    1.4803 255 255 255
 0.597146 -0.285525   1.34367 255 255 255
 0.838883 -0.222728   1.33139 255 255 255
0.923653 -0.41399  1.35291 255 255 255
 1.68529 -1.01944  1.48349 255 255 255
 1.78803 -0.36931   1.4245 255 255 255
 0.884516 -0.802362   1.39461 255 255 255
  1.61934 -0.704218   1.44869 255 255 255
1.61408 -1.5582 1.46558 255 255 255
 1.68587 -1.65893  1.52566 255 255 255
 2.08483 -1.08249  1.49747 255 255 255
 2.08894 -1.10752  1.49165 255 255 255
 0.895517 0.0410299   1.35149 255 255 255
 1.63986 -1.29031  1.48374 255 255 255
 1.72434 -1.37472   1.4964 255 255 255
 1.68311 -1.43515  1.43546 255 255 255
 1.58069 -1.50825  1.42492 255 255 255
 1.27568 -0.92512  1.42711 255 255 255
  0.932997 -0.0187643    1.34699 255 255 255
  0.933227 -0.0185919     1.3466 255 255 255
 2.02883 -1.00936  1.50002 255 255 255
1.64412 -0.9623 1.46425 255 255 255
  1.55761 -0.957266   1.43063 255 255 255
  1.96068 -0.823937   1.50007 255 255 255
   1.03423 -0.0865257    1.37399 255 255 255
  0.95007 0.0888806   1.29574 255 255 255
 1.96283 -1.30934    1.476 255 255 255
 2.14566 -1.09086  1.49491 255 255 255
  0.951921 -0.0188654    1.36754 255 255 255
    0.9525 -0.0198345    1.36612 255 255 255
  1.13583 -0.638243   1.38246 255 255 255
 2.11244 -1.02938  1.50184 255 255 255
 1.92744 -1.19144  1.50717 255 255 255
  1.09568 -0.159569   1.36216 255 255 255
  1.36041 -0.229182   1.40334 255 255 255
  1.72761 -0.432995   1.42764 255 255 255
 1.77048 -1.16686  1.49135 255 255 255
  1.94196 -0.835489   1.50901 255 255 255
 2.09851 -1.17389  1.49485 255 255 255
 1.94557 -1.17798  1.50669 255 255 255
  1.92636 -0.998585    1.4539 255 255 255
  1.17259 -0.155692   1.36354 255 255 255
  1.68266 -0.488618   1.43512 255 255 255
  2.09822 -0.772335   1.50444 255 255 255
  1.46755 -0.404433   1.39587 255 255 255
 1.15448 0.164421  1.36252 255 255 255
  1.74829 -0.884066     1.481 255 255 255
 1.94587 -1.14389  1.48336 255 255 255
 2.15272 -1.06407  1.50426 255 255 255
  2.06938 -0.735142   1.50036 255 255 255
  1.00499 -0.304611   1.35849 255 255 255
  1.84273 -0.795551   1.48332 255 255 255
  1.05257 -0.112268   1.36264 255 255 255
  2.02516 -0.840256   1.51377 255 255 255
  1.67012 -0.475197   1.43392 255 255 255
 1.29321 -1.12787  1.42655 255 255 255
0.977109 -0.57625  1.38162 255 255 255
  1.06942 -0.577384   1.38332 255 255 255
  1.04761 -0.262502   1.36105 255 255 255
 2.04118 -1.11519  1.49068 255 255 255
0.977721 0.105412  1.29664 255 255 255
  1.91855 -0.881788   1.50357 255 255 255
1.56524 -1.0522 1.45903 255 255 255
 0.865413 -0.757481   1.36844 255 255 255
  1.34753 -0.786318   1.36945 255 255 255
  2.10517 -0.973593   1.50419 255 255 255
  0.771502 -0.0533942    1.36074 255 255 255
  2.12278 -0.707557   1.50657 255 255 255
  1.09801 -0.103918   1.33776 255 255 255
0.982495 -0.45183  1.37684 255 255 255
  1.2314 -0.23699  1.33887 255 255 255
    2.049 -0.739169   1.50198 255 255 255
  1.51322 -0.514128   1.42807 255 255 255
  2.0325 -1.10258  1.49747 255 255 255
   1.0929 -0.488229    1.3847 255 255 255
  1.45616 -0.236716   1.40651 255 255 255
  1.96052 -0.799603   1.50184 255 255 255
1.81507 -1.3767 1.50601 255 255 255
  1.62264 -0.570033    1.3978 255 255 255
  1.25955 -0.427273    1.3836 255 255 255
  1.43719 -0.834458   1.44742 255 255 255
  2.05138 -0.756573   1.49557 255 255 255
  1.04808 -0.592946   1.36548 255 255 255
  2.19433 -0.723157   1.51829 255 255 255
 0.957736 0.0349876    1.3659 255 255 255
  1.18654 -0.216039   1.33953 255 255 255
  1.82843 -0.626891   1.45738 255 255 255
 1.74088 -1.49929  1.40527 255 255 255
1.31836 -0.2209 1.39446 255 255 255
  1.20356 -0.276427   1.36854 255 255 255
  1.64401 -0.443607   1.43043 255 255 255
  1.69571 -0.460564   1.43515 255 255 255
  1.09107 -0.224496   1.35949 255 255 255
 0.541119 -0.411801   1.35495 255 255 255
 1.26324 -0.79871  1.40565 255 255 255
  1.49599 -0.235155   1.39238 255 255 255
  0.733226 -0.0818369    1.36143 255 255 255
  1.32946 -0.628614   1.42237 255 255 255
  1.72863 -0.983069   1.48351 255 255 255
  1.27288 -0.260771   1.38762 255 255 255
  1.22995 -0.488337   1.38965 255 255 255
 1.67137 -1.37301  1.48621 255 255 255
 1.76427 -1.20595   1.4987 255 255 255
  1.9151 -1.20911  1.50654 255 255 255
  1.20368 -0.258399   1.36338 255 255 255
 1.69864 -1.39613   1.4565 255 255 255
 1.65022 -1.46289  1.45545 255 255 255
  0.80188 -0.596896   1.20339 255 255 255
   1.3295 -0.657364   1.41628 255 255 255
  1.4036 -1.00465  1.43195 255 255 255
  1.67765 -0.676416   1.46596 255 255 255
  1.10471 -0.181504   1.36834 255 255 255
 1.86694 -1.07607    1.437 255 255 255
 0.817635 -0.564151    1.3775 255 255 255
 1.89058 -1.05171  1.46911 255 255 255
 0.952247 0.0495642   1.36473 255 255 255
  1.16694 -0.217928   1.32076 255 255 255
  1.60459 -0.559508   1.41569 255 255 255
   1.4231 -0.583541   1.42003 255 255 255
  1.19622 -0.333852   1.37915 255 255 255
 1.88486 -1.31797  1.50957 255 255 255
  1.78424 -0.711578   1.47697 255 255 255
  1.02902 -0.418418   1.37385 255 255 255
 1.10314 0.210021  1.30251 255 255 255
  1.93513 -0.863607   1.49922 255 255 255
 0.867446 -0.580673   1.37549 255 255 255
 1.78062 -1.39648  1.50465 255 255 255
 1.66255 -1.26854  1.48803 255 255 255
 1.18031 0.138647  1.36472 255 255 255
   1.2599 -0.232672   1.35875 255 255 255
   1.5654 -0.707005   1.45243 255 255 255
 0.865124 0.0363841   1.36739 255 255 255
 1.75243 -1.39729  1.43723 255 255 255
  1.14259 0.0122593   1.36659 255 255 255
  1.56625 -0.842211   1.41703 255 255 255
 2.10253 -1.15017  1.48678 255 255 255
  1.43944 -0.382357   1.39758 255 255 255
  2.02135 -0.749475   1.50675 255 255 255
  1.07994 -0.235917   1.36401 255 255 255
  1.08114 -0.237738   1.35857 255 255 255
  0.74471 -0.377171   1.32294 255 255 255
 0.896489 -0.528284   1.35647 255 255 255
  1.17511 -0.725632   1.42144 255 255 255
  1.37142 -0.861545   1.43196 255 255 255
  1.87478 -0.890747   1.50373 255 255 255
 0.937099 0.0383197   1.31698 255 255 255
  1.66486 -0.648967   1.44646 255 255 255
 0.999283 -0.804024   1.40758 255 255 255
  1.02564 -0.952953   1.41222 255 255 255
  2.07095 -0.786206   1.50482 255 255 255
  1.27606 -0.364287   1.38493 255 255 255
  1.12907 -0.142382    1.3602 255 255 255
  1.54576 -0.162317   1.40106 255 255 255
 0.743466 -0.377881   1.35978 255 255 255
  1.28981 -0.669377   1.40986 255 255 255
 0.831048 -0.634846   1.20049 255 255 255
 0.603709 -0.265496   1.33668 255 255 255
  0.756532 -0.0999565    1.36113 255 255 255
 0.537435 -0.298367   1.34344 255 255 255
  1.9011 -0.96484  1.44872 255 255 255
 1.84298 -1.05743  1.47412 255 255 255
  1.15332 -0.734641   1.40776 255 255 255
  1.50099 -0.400945   1.40484 255 255 255
 1.00396 -0.51206  1.38605 255 255 255
  1.15936 -0.631789   1.36282 255 255 255
  1.86543 -0.768619   1.46968 255 255 255
  2.10005 -0.940253   1.49821 255 255 255
  1.45516 -0.822721   1.43198 255 255 255
 1.62132 -1.50842  1.43465 255 255 255
 1.79747 -1.24574      1.5 255 255 255
  1.18245 -0.856549   1.41233 255 255 255
  1.37966 -0.301818   1.40063 255 255 255
  1.26207 -0.971427    1.4412 255 255 255
  1.00659 -0.864817   1.41364 255 255 255
  1.11653 -0.155049    1.3618 255 255 255
  1.24021 -0.244964   1.35493 255 255 255
  1.14511 0.0474254   1.37017 255 255 255
 0.611755 -0.513722   1.35225 255 255 255
  1.39693 -0.129784   1.39209 255 255 255
 0.857035 -0.610643    1.1988 255 255 255
 1.93114 -0.92287  1.50229 255 255 255
 1.55788 -1.23075  1.48229 255 255 255
 2.06585 -1.09735  1.49641 255 255 255
  1.10788 -0.167518   1.36319 255 255 255
  1.41819 -0.846628   1.44081 255 255 255
 0.992468 -0.114648   1.31764 255 255 255
  1.94958 -0.548329   1.47129 255 255 255
 2.00994 -1.11134  1.48632 255 255 255
 0.868229 -0.679225   1.20182 255 255 255
 1.76071 -1.22656  1.50055 255 255 255
  1.61648 -0.199611    1.3943 255 255 255
 1.37372 -1.25994   1.4754 255 255 255
 0.882472 0.0409187     1.369 255 255 255
  1.34542 -0.453769   1.39051 255 255 255
 1.95235 -1.35698  1.51006 255 255 255
  1.81756 -0.364221   1.43811 255 255 255
 1.72801 -1.03397  1.48212 255 255 255
 1.49149 -1.25078  1.48345 255 255 255
  1.77327 -0.888763   1.50111 255 255 255
  2.07873 -0.768937   1.50617 255 255 255
 1.34119 -1.23806  1.45273 255 255 255
 1.63847 -1.01588  1.45515 255 255 255
  1.7687 -1.38021  1.45854 255 255 255
 1.30653 -1.26691  1.47403 255 255 255
 1.43354 -1.10966  1.44185 255 255 255
 1.34449 -1.26336  1.47518 255 255 255
  1.11719 -0.709391   1.36503 255 255 255
 1.29446 -1.23736  1.46342 255 255 255
  1.85375 -0.967092   1.46205 255 255 255
0.955933 0.067838  1.29529 255 255 255
  1.33899 -0.664122   1.42406 255 255 255
 1.65123 -1.65343  1.51799 255 255 255
  1.99077 -0.891214   1.50289 255 255 255
 1.67718 -1.23324  1.49147 255 255 255
1.24245 -0.6862  1.4178 255 255 255
 1.27918 -1.07564  1.38721 255 255 255
   1.0441 -0.879937   1.40576 255 255 255
 1.74643 -1.36687  1.49909 255 255 255
1.70934 -1.3915 1.43634 255 255 255
 1.35551 -1.02326   1.4284 255 255 255
  1.53722 -0.475399   1.42468 255 255 255
 1.61999 -1.63778  1.51517 255 255 255
  1.68629 -0.634864   1.44812 255 255 255
 1.33068 -1.16337  1.43399 255 255 255
 1.75019 -1.41613  1.41377 255 255 255
 2.05845 -1.08843  1.49921 255 255 255
  1.32469 -0.651334   1.41739 255 255 255
  2.0513 -1.07952  1.49967 255 255 255
  1.81959 -0.714274   1.46892 255 255 255
1.38723 -0.9052 1.44533 255 255 255
 0.919378 -0.382134   1.35886 255 255 255
  1.94984 -0.876619    1.5031 255 255 255
 2.03576 -1.11333  1.49325 255 255 255
  1.43305 -0.231827   1.39016 255 255 255
 1.82565 -1.38564  1.50247 255 255 255
  1.14987 -0.893195   1.39544 255 255 255
  1.11798 -0.616876   1.38185 255 255 255
  1.23194 -0.250083   1.35038 255 255 255
  1.2252 0.126412   1.3743 255 255 255
 1.68077 0.282797  1.41816 255 255 255
 1.52256 -1.39037  1.47839 255 255 255
0.464824 -0.32477  1.35257 255 255 255
   1.10153 -0.0760183    1.34065 255 255 255
 1.59301 -1.36797  1.48694 255 255 255
  1.52445 -0.117023   1.40008 255 255 255
  1.58965 -0.853133   1.41984 255 255 255
  1.47623 -0.669568   1.42468 255 255 255
   1.9678 -0.906341   1.50075 255 255 255
  2.01164 -0.792682   1.50415 255 255 255
 2.16278 -1.09011   1.5048 255 255 255
  2.06683 -0.774013    1.5044 255 255 255
  1.60472 -0.827603   1.44519 255 255 255
 1.83836 -1.38536  1.50633 255 255 255
  1.30463 -0.221329    1.3914 255 255 255
 1.77639 -1.38169  1.44435 255 255 255
  1.30175 -0.262522   1.39484 255 255 255
   1.18914 -0.0854731    1.35621 255 255 255
  1.07289 -0.181713   1.35956 255 255 255
 2.07228 -1.11061  1.49804 255 255 255
 0.759564 -0.578991   1.34057 255 255 255
 2.03505 -1.29239  1.52279 255 255 255
  1.66469 -0.583361   1.44757 255 255 255
0.883135 -0.65113  1.37155 255 255 255
 1.71217 -1.39619  1.49604 255 255 255
  1.24855 -0.300612   1.39147 255 255 255
1.02356 -0.2178 1.36278 255 255 255
  1.07348 -0.355843   1.37879 255 255 255
  0.734241 -0.0969784    1.35831 255 255 255
  1.18588 -0.304636   1.38982 255 255 255
1.63151 -1.6439 1.51635 255 255 255
0.821091 -0.64724  1.20137 255 255 255
   1.7079 -0.782237   1.45252 255 255 255
 1.67821 -1.21485  1.49265 255 255 255
  1.45059 -0.701406   1.39684 255 255 255
 0.985366 -0.828723    1.3916 255 255 255
 1.10895 0.123938  1.30144 255 255 255
 1.15504 -1.10068  1.42551 255 255 255
  1.11413 -0.242077   1.34584 255 255 255
 0.971762 -0.499506   1.38174 255 255 255
 0.905992 -0.519298   1.34661 255 255 255
 1.16411 -0.99168  1.42673 255 255 255
 1.67259 -1.41277  1.44169 255 255 255
  1.8038 -1.27683   1.5019 255 255 255
   1.2074 -0.330444   1.39107 255 255 255
 1.99712 -0.84047  1.50196 255 255 255
  1.14267 -0.235164   1.31531 255 255 255
   1.3226 -0.315971   1.38738 255 255 255
   1.699 -1.30838   1.4951 255 255 255
  1.22339 -0.311595   1.38752 255 255 255
  1.21123 -0.251236   1.35688 255 255 255
 1.71363 -1.13663   1.4952 255 255 255
  1.25388 -0.245947   1.35924 255 255 255
 2.06211 -1.11532  1.49986 255 255 255
  1.05338 -0.590018   1.38107 255 255 255
 0.637547 -0.191232    1.3562 255 255 255
  1.46506 -0.185799   1.39907 255 255 255
0.996957 0.125248  1.30199 255 255 255
  1.95675 -0.888548   1.50333 255 255 255
  1.95901 -0.890257   1.50727 255 255 255
 0.988569 -0.551479   1.38452 255 255 255
 0.85094 -0.08308  1.36507 255 255 255
 1.44919 -1.38666   1.4733 255 255 255
  1.2353 0.096815  1.37252 255 255 255
 1.45456 -1.15693  1.47101 255 255 255
  1.30634 -0.258717   1.39388 255 255 255
 1.33322 -1.19734  1.43106 255 255 255
 2.05187 -0.90624  1.50457 255 255 255
  1.22038 0.0247289    1.3722 255 255 255
 1.66385 -1.65506   1.5095 255 255 255
 0.826485 -0.629941   1.18973 255 255 255
  2.02852 -0.846573   1.50103 255 255 255
  1.18434 -0.235135   1.34918 255 255 255
  1.58546 -0.711407   1.44437 255 255 255
  1.28792 -0.946674   1.44181 255 255 255
 0.839848 -0.151493   1.35732 255 255 255
 0.992855 -0.461144   1.38162 255 255 255
  1.45811 -0.676148   1.41308 255 255 255
 0.731092 -0.378858   1.31531 255 255 255
  1.7297 -1.07525  1.47894 255 255 255
  1.17607 -0.879295   1.41272 255 255 255
 2.02456 -1.13898  1.46367 255 255 255
  1.57358 -0.656598    1.4406 255 255 255
  1.00837 -0.157943   1.35999 255 255 255
 0.998102 -0.408017   1.37018 255 255 255
1.79597 -1.2669 1.50109 255 255 255
 1.45236 -1.12365  1.46007 255 255 255
  1.55035 -0.472757   1.42186 255 255 255
 2.02717 -1.17442  1.44302 255 255 255
  1.53816 -0.862785   1.42464 255 255 255
  1.09533 -0.438501   1.36877 255 255 255
  1.01877 0.0903791   1.30857 255 255 255
  1.80594 -0.669912   1.45737 255 255 255
  2.03943 -0.981417   1.50155 255 255 255
  1.21984 -0.715789    1.4074 255 255 255
  1.53006 -0.756368   1.44429 255 255 255
 1.44004 -1.34648  1.47877 255 255 255
 1.43996 -1.34728  1.48027 255 255 255
 1.67171 -1.12684  1.46173 255 255 255
  1.17461 -0.312334   1.35982 255 255 255
  1.12987 -0.618609   1.39002 255 255 255
  1.49533 -0.929491   1.43278 255 255 255
 0.935877 0.0377961   1.34572 255 255 255
 0.990988 -0.680643   1.37851 255 255 255
  1.08325 -0.428035   1.36856 255 255 255
 1.50775 -1.42115  1.59816 255 255 255
 1.49604 -1.34353  1.48298 255 255 255
  0.827468 -0.0669203    1.36296 255 255 255
 0.875302 -0.118184   1.35908 255 255 255
  0.827954 -0.0539237    1.36422 255 255 255
 2.06864 -1.13198  1.49978 255 255 255
  1.78756 -0.710382   1.45722 255 255 255
  1.03464 -0.783394   1.40771 255 255 255
   2.0725 -0.782736    1.5035 255 255 255
 1.34896 -1.18689  1.44591 255 255 255
 0.946712 -0.457376   1.36273 255 255 255
  1.41772 -0.594676   1.42188 255 255 255
 2.14884 -1.07875   1.5053 255 255 255
  1.87085 -0.976544   1.44138 255 255 255
  1.59202 -0.844538   1.43856 255 255 255
 1.09578 -1.06048  1.43135 255 255 255
  1.60634 -0.895005   1.45145 255 255 255
  1.4623 -1.12093  1.46612 255 255 255
  1.42779 -0.839621    1.4391 255 255 255
  1.20004 -0.978584   1.43022 255 255 255
  1.47569 -0.552841   1.42583 255 255 255
  1.05678 -0.639892   1.38242 255 255 255
  1.32437 -0.245752   1.38903 255 255 255
1.69991 -1.4024 1.43969 255 255 255
  1.54179 -0.751333   1.43914 255 255 255
  1.71742 -0.985585    1.4874 255 255 255
  0.85062 -0.789722    1.3886 255 255 255
  1.11523 -0.782525    1.4153 255 255 255
  1.45343 -0.386006   1.39358 255 255 255
  1.8249 -1.23741  1.50137 255 255 255
 1.59589 -0.69802  1.45149 255 255 255
  0.66163 -0.357266   1.35398 255 255 255
 1.72601 -1.04834  1.47552 255 255 255
    1.209 -0.563463   1.38963 255 255 255
 1.76473 -1.40775  1.43409 255 255 255
  1.25694 -0.299171   1.39406 255 255 255
  1.03664 -0.229074   1.35651 255 255 255
  1.36383 -0.196299   1.39489 255 255 255
 1.49161 -1.08758  1.45052 255 255 255
 1.48374 -0.69285  1.42203 255 255 255
  1.51463 -0.646016   1.41803 255 255 255
  1.12307 -0.760743    1.4041 255 255 255
  1.03612 -0.348631   1.36236 255 255 255
 1.84689 -1.05583  1.50073 255 255 255
 0.555126 -0.304699   1.34532 255 255 255
  2.10252 -0.752928   1.50679 255 255 255
  1.12675 -0.854378   1.41126 255 255 255
 1.34092 -1.16375  1.44272 255 255 255
 1.23777 0.111395  1.37425 255 255 255
  1.31461 -0.360453   1.38037 255 255 255
  2.10122 -0.727899    1.5066 255 255 255
 1.51103 -1.20363  1.48054 255 255 255
 0.947153 -0.814393   1.39748 255 255 255
 1.34697 -1.17444  1.45059 255 255 255
 1.36701 -1.07185  1.43944 255 255 255
 2.04917 -1.01728  1.50008 255 255 255
 0.887284 -0.552997   1.36238 255 255 255
   1.1023 -0.493386   1.38052 255 255 255
  1.27157 -0.870231   1.43685 255 255 255
  1.55642 -0.477238   1.42333 255 255 255
1.46298 -1.3705 1.48079 255 255 255
 0.626502 -0.568004   1.34564 255 255 255
 1.54317 -1.09456  1.45545 255 255 255
  1.55707 -0.838063   1.41803 255 255 255
  2.08247 -0.738278   1.50297 255 255 255
  1.74432 -0.723918   1.44525 255 255 255
 0.914234 0.0499708   1.29803 255 255 255
 1.63895 -1.03277  1.47188 255 255 255
  1.74987 -0.667905   1.45448 255 255 255
  1.52672 -0.773303   1.44077 255 255 255
   1.0765 -0.922214   1.41056 255 255 255
  1.85324 -0.580012   1.46482 255 255 255
  1.50611 -0.790861    1.4438 255 255 255
  1.28347 0.0415396   1.37291 255 255 255
 1.42862 -1.15072  1.45289 255 255 255
  1.01739 -0.139212   1.31367 255 255 255
  1.48656 -0.435963   1.41034 255 255 255
 1.23402 -1.14987   1.4302 255 255 255
  1.81698 -0.671733   1.46085 255 255 255
0.953798 -0.30559  1.35815 255 255 255
 0.899227 -0.701341    1.3717 255 255 255
 1.06964 -1.03776  1.43804 255 255 255
  1.23227 -0.321558   1.39562 255 255 255
  1.73657 -0.629584   1.45958 255 255 255
  0.987082 -0.0447412      1.362 255 255 255
1.82589 -1.2571 1.50063 255 255 255
 0.778796 -0.333445   1.35764 255 255 255
  1.49738 -0.813768   1.44996 255 255 255
  1.87979 -0.518873    1.4684 255 255 255
-0.0554554    1.22476    1.28549 255 255 255
-0.196962   1.21342   1.28197 255 255 255
0.525002 0.924736  1.29436 255 255 255
0.0265831   1.23026   1.27202 255 255 255
-0.178191   1.31292    1.2748 255 255 255
0.123363  1.05516  1.27232 255 255 255
0.0190682   1.16192   1.25787 255 255 255
-0.177134   1.40554   1.29223 255 255 255
-0.162932   1.39591   1.26534 255 255 255
-0.129008   1.35758   1.26916 255 255 255
0.636058  1.02455  1.32232 255 255 255
-0.231516   1.18847   1.27209 255 255 255
0.498487 0.985363  1.27508 255 255 255
-0.155413   1.14005   1.24392 255 255 255
0.183929 0.698077  1.31872 255 255 255
0.264747   1.1984  1.24294 255 255 255
 0.23821 0.872601  1.26866 255 255 255
0.0352059   1.55165    1.2702 255 255 255
0.287988  1.24414  1.23695 255 255 255
0.234035 0.632357  1.33093 255 255 255
  0.3534 0.727436  1.30053 255 255 255
-0.230092   1.11247   1.26991 255 255 255
0.209177   1.2715  1.25615 255 255 255
-0.248674   1.20403   1.25286 255 255 255
0.0681062   1.50452   1.27417 255 255 255
0.207227  1.08295  1.27907 255 255 255
0.324168 0.772124  1.29005 255 255 255
-0.259702   1.12347   1.26749 255 255 255
0.00902958    1.03938    1.26949 255 255 255
0.246936 0.968139  1.26807 255 255 255
0.595944 0.815792  1.29745 255 255 255
-0.193198   1.34445     1.253 255 255 255
-0.177916   1.46746    1.2981 255 255 255
0.109752  1.31576  1.27962 255 255 255
0.518451  1.05532  1.28866 255 255 255
0.190555 0.996501  1.26167 255 255 255
0.458895 0.617034  1.30038 255 255 255
 0.59065 0.743561  1.30868 255 255 255
0.533213 0.703117  1.29379 255 255 255
0.148375  0.94399  1.25219 255 255 255
0.393734 0.750056  1.29381 255 255 255
0.349273 0.828468  1.28749 255 255 255
0.281603  1.18366  1.25165 255 255 255
-0.298458   1.12242   1.28035 255 255 255
0.331861 0.816925  1.28049 255 255 255
0.168351 0.868296  1.26733 255 255 255
0.597472 0.769582   1.3031 255 255 255
0.320487  0.70286  1.29693 255 255 255
-0.0286561    1.22207    1.26657 255 255 255
0.281405  1.16763  1.24405 255 255 255
-0.233826   1.13261   1.26643 255 255 255
-0.0604707    1.50515    1.28132 255 255 255
0.141776 0.962348  1.24865 255 255 255
0.0460634   1.16253    1.2662 255 255 255
-0.127424   1.11241   1.27732 255 255 255
0.292783 0.903147   1.2741 255 255 255
0.158461   1.3026  1.27016 255 255 255
0.393843  1.21354  1.24857 255 255 255
 0.33044 0.817183  1.27763 255 255 255
-0.0257949   0.894883     1.2683 255 255 255
-0.115948   1.35626   1.27895 255 255 255
0.315874 0.806379  1.27004 255 255 255
0.00916187    1.23846    1.28004 255 255 255
0.35542 1.22609 1.24407 255 255 255
0.51896 1.08925 1.31056 255 255 255
-0.139964   1.16982   1.27488 255 255 255
0.496323 0.837222  1.29806 255 255 255
0.139178  1.26066   1.2793 255 255 255
0.134828  1.51925  1.26375 255 255 255
-0.420615   1.22795   1.29484 255 255 255
0.411183 0.819004  1.30808 255 255 255
0.410312 0.822305  1.30069 255 255 255
0.206923 0.899472  1.26901 255 255 255
0.490457 0.842616  1.31538 255 255 255
0.324301   0.6203  1.28958 255 255 255
-0.0553914    1.34227    1.28038 255 255 255
-0.216481   1.40189   1.27424 255 255 255
0.445489  1.05672  1.28532 255 255 255
-0.248379   1.41645   1.28157 255 255 255
0.0641099   1.02669   1.25635 255 255 255
-0.229643   1.34425    1.2696 255 255 255
0.412771  1.21863  1.26069 255 255 255
-0.0739048    1.59771    1.27999 255 255 255
-0.218545   1.31688   1.28196 255 255 255
0.343893  1.24926  1.23968 255 255 255
0.353319  1.15389  1.25975 255 255 255
-0.370364   1.26562   1.28652 255 255 255
-0.336497    1.1731   1.27416 255 255 255
-0.178844   1.46927   1.27019 255 255 255
0.349837 0.907016  1.27327 255 255 255
0.125891 0.918019  1.27515 255 255 255
0.603423 0.996717  1.32048 255 255 255
-0.00411222     1.07521     1.27432 255 255 255
0.317978  0.54419  1.33196 255 255 255
0.359003 0.885167  1.26569 255 255 255
0.165684  1.01848  1.25978 255 255 255
-0.0421256    1.59044    1.28165 255 255 255
-0.25497  1.15789  1.26539 255 255 255
-0.238524    1.2612   1.26205 255 255 255
0.226664  1.13558  1.27561 255 255 255
-0.259454   1.09109   1.28494 255 255 255
0.208983  1.31247  1.24423 255 255 255
0.263089 0.614851  1.28865 255 255 255
-0.184036    1.4506    1.2666 255 255 255
-0.218887   1.14136   1.26803 255 255 255
0.572177 0.843422  1.29931 255 255 255
0.187607 0.961776  1.26287 255 255 255
0.227783   1.3035   1.2371 255 255 255
-0.174873   1.48156    1.2725 255 255 255
-0.114411   1.38296   1.28326 255 255 255
-0.394527   1.27948   1.28755 255 255 255
-0.135353   1.38217   1.28498 255 255 255
 0.19865 0.613924  1.33435 255 255 255
0.288148  1.21744  1.22982 255 255 255
-0.193379     1.435   1.27539 255 255 255
-0.215375   1.37401   1.27019 255 255 255
0.315905  0.51362   1.3288 255 255 255
0.120418 0.898026  1.27028 255 255 255
0.164554  1.24139  1.27747 255 255 255
0.321535  0.66469   1.2886 255 255 255
0.266182  1.12531  1.26822 255 255 255
-0.00843147     1.21081     1.26353 255 255 255
0.484311 0.695543  1.30228 255 255 255
0.235286  1.23621  1.25048 255 255 255
-0.0543986    1.49797    1.28303 255 255 255
-0.192083   1.38714   1.28564 255 255 255
0.212623 0.762476  1.27733 255 255 255
0.154113 0.780041  1.27273 255 255 255
0.388966 0.907617  1.26206 255 255 255
-0.221823   1.33291   1.27206 255 255 255
0.395262 0.984884  1.28122 255 255 255
0.570404 0.875539  1.30734 255 255 255
0.209347  1.01257  1.27089 255 255 255
-0.0564442    1.24064    1.27919 255 255 255
0.0112886  0.951942   1.26204 255 255 255
-0.0579286    1.38948    1.27445 255 255 255
0.00664186    1.60384    1.27043 255 255 255
-0.255099   1.13112   1.26425 255 255 255
0.14786 1.15433 1.25675 255 255 255
-0.233026   1.24856   1.27336 255 255 255
0.479226 0.817512  1.27755 255 255 255
0.142952 0.878372  1.27175 255 255 255
-0.239929   1.43302   1.28294 255 255 255
0.0326034   1.16209   1.25619 255 255 255
-0.127309   1.33198   1.26912 255 255 255
-0.128642   1.25214   1.28019 255 255 255
-0.335384   1.37036   1.28421 255 255 255
  0.4465 0.692051  1.30021 255 255 255
0.153114  0.72527  1.27597 255 255 255
-0.0381662    1.53033    1.27708 255 255 255
-0.12325  1.13875  1.27767 255 255 255
0.0651006   1.40725   1.24627 255 255 255
0.361576  1.16978  1.25921 255 255 255
 -0.155 0.99665 1.28479 255 255 255
-0.12448  1.30984  1.27364 255 255 255
0.0553694   1.04201   1.25857 255 255 255
0.0284172    1.4575   1.26448 255 255 255
-0.10979  1.24616  1.27762 255 255 255
-0.230544   1.26165   1.27407 255 255 255
-0.239039   1.28638   1.27318 255 255 255
0.201512  1.06354  1.24891 255 255 255
-0.307579   1.13057   1.27301 255 255 255
0.236982 0.757037  1.28087 255 255 255
 0.64566 0.951977  1.31611 255 255 255
0.124361 0.638181  1.33329 255 255 255
-0.236764   1.45594   1.28057 255 255 255
0.245732  1.26181  1.24069 255 255 255
-0.185165   1.43169   1.28425 255 255 255
0.16592 1.25964 1.26523 255 255 255
0.289173  1.07102  1.28046 255 255 255
0.586775 0.980443  1.31744 255 255 255
-0.292651   1.16844   1.27407 255 255 255
-0.222204   1.30335   1.28051 255 255 255
-0.368113   1.17317   1.28604 255 255 255
0.053891  1.13702  1.27665 255 255 255
-0.211294   1.33095   1.27719 255 255 255
-0.208845   1.32982   1.27282 255 255 255
0.161254 0.749524  1.27777 255 255 255
-0.0409831    1.56214    1.27923 255 255 255
0.428763 0.988082  1.28871 255 255 255
0.0467606  0.886589   1.25559 255 255 255
0.194568  1.12886   1.2757 255 255 255
0.425556 0.911331   1.3036 255 255 255
0.583883 0.993376  1.30974 255 255 255
-0.00396831    0.914495     1.26133 255 255 255
-0.0103293    1.40625    1.27338 255 255 255
0.27314 1.17787 1.23865 255 255 255
-0.364069   1.20127   1.27899 255 255 255
0.329945  1.07962  1.27817 255 255 255
-0.117154   1.30965   1.27995 255 255 255
-0.244767   1.12985   1.27098 255 255 255
0.278666 0.894725  1.26577 255 255 255
-0.235955   1.29842   1.26759 255 255 255
-0.0279563    1.50861    1.27662 255 255 255
0.593519  1.02329    1.317 255 255 255
0.583238 0.980859   1.3132 255 255 255
0.505883 0.652978  1.29692 255 255 255
-0.0457864    1.60301    1.28424 255 255 255
-0.365051   1.18885   1.28254 255 255 255
-0.228034   1.35879   1.27165 255 255 255
-0.112246   1.32887   1.27805 255 255 255
-0.200705   1.37266   1.28451 255 255 255
-0.36521  1.25156  1.28185 255 255 255
0.211693  1.23128  1.25465 255 255 255
0.205621  1.32328  1.24511 255 255 255
0.295331  0.95647    1.278 255 255 255
-0.272629   1.14678   1.26767 255 255 255
0.416925 0.905499  1.27559 255 255 255
0.427562 0.895026  1.30585 255 255 255
0.535008  0.81849  1.29514 255 255 255
-0.256838    1.2305    1.2602 255 255 255
0.371063  1.03062   1.2797 255 255 255
-0.348741    1.1837   1.27852 255 255 255
0.00382652   0.965518    1.26515 255 255 255
0.587055 0.968888  1.31539 255 255 255
 0.39606 0.838122  1.30181 255 255 255
0.433569 0.707425  1.29307 255 255 255
0.0334678   1.18239   1.27318 255 255 255
0.0196074   1.34491   1.26502 255 255 255
-0.130319   1.56247   1.28623 255 255 255
 0.05248 0.870745  1.26182 255 255 255
-0.25227   1.4328  1.28455 255 255 255
0.342986  1.06484   1.2854 255 255 255
0.179899 0.880759  1.26296 255 255 255
-0.198506   1.40225   1.28353 255 255 255
0.32832 1.15948 1.25578 255 255 255
0.419849  1.01878  1.28289 255 255 255
-0.0428708    1.57835    1.27892 255 255 255
-0.222045   1.44998   1.28208 255 255 255
0.111637 0.751637  1.26898 255 255 255
0.655609 0.949842  1.31253 255 255 255
0.651656 0.952585  1.30507 255 255 255
-0.341165   1.25689   1.27038 255 255 255
0.480229 0.912163  1.29126 255 255 255
-0.0636632     1.3587    1.27742 255 255 255
0.181783 0.623876  1.33279 255 255 255
-0.213151    1.4698   1.28332 255 255 255
0.628522  1.03487  1.28961 255 255 255
0.011509 0.782255  1.27169 255 255 255
0.132573   1.4421  1.25115 255 255 255
0.383753 0.908967    1.283 255 255 255
 0.37039 0.837162  1.28645 255 255 255
-0.00142837     1.10346      1.2716 255 255 255
0.417945  0.66742  1.29536 255 255 255
0.507262  1.03109   1.3055 255 255 255
0.146663 0.714852  1.27915 255 255 255
-0.104075   1.32093    1.2733 255 255 255
0.283105  1.15799  1.24848 255 255 255
-0.0253782   0.880783    1.26669 255 255 255
0.470174  1.08811  1.28897 255 255 255
0.376769   1.0458  1.27931 255 255 255
0.218085 0.703612  1.29763 255 255 255
0.344383  1.14019  1.26565 255 255 255
-0.058835   1.32007   1.26769 255 255 255
0.333518  1.01257  1.26841 255 255 255
-0.207785   1.44771    1.2719 255 255 255
0.520223 0.794616  1.29779 255 255 255
-0.232337   1.32851   1.27627 255 255 255
0.518082 0.693605  1.28748 255 255 255
0.345779  1.29272   1.2331 255 255 255
0.180745 0.562688  1.33591 255 255 255
  0.1806 0.563929  1.33436 255 255 255
0.599065 0.925563   1.3015 255 255 255
0.356988 0.752073  1.30358 255 255 255
-0.363792   1.24101   1.27597 255 255 255
-0.0760358    0.98571    1.28108 255 255 255
0.530199  1.08188  1.31595 255 255 255
0.634517  1.04551  1.29458 255 255 255
0.101337  1.06289  1.26368 255 255 255
0.068066 0.999666  1.25627 255 255 255
0.40381  1.0753  1.2845 255 255 255
-0.0593455    1.48305    1.28843 255 255 255
-0.0508794    1.17135    1.26626 255 255 255
0.016684  1.16559  1.25317 255 255 255
0.226087 0.628217  1.29117 255 255 255
0.318437  1.18995  1.24857 255 255 255
-0.148875    1.2905   1.26866 255 255 255
0.240605 0.808308  1.27147 255 255 255
 0.33072 0.876969  1.26439 255 255 255
0.709694 0.916499  1.32485 255 255 255
0.113756  1.17252  1.26982 255 255 255
-0.170579   1.02859   1.28472 255 255 255
-0.241264   1.25055   1.26379 255 255 255
0.441589  1.05583  1.28806 255 255 255
-0.240095   1.16568   1.26643 255 255 255
-0.386008    1.2702   1.28583 255 255 255
0.101734 0.982189  1.25825 255 255 255
-0.151883   1.19932   1.27557 255 255 255
-0.246919   1.13881   1.26908 255 255 255
0.104449  1.49188  1.26775 255 255 255
0.622864 0.821576  1.30519 255 255 255
0.271938  1.04139  1.27447 255 255 255
0.204021  0.92169  1.27149 255 255 255
-0.29347  1.36503  1.28046 255 255 255
-0.260075   1.10665   1.27793 255 255 255
-0.254304   1.20097   1.27335 255 255 255
-0.420909   1.21977   1.29919 255 255 255
0.0890492   1.16546   1.27123 255 255 255
0.303166  1.16896  1.24928 255 255 255
0.141819  1.18592  1.27357 255 255 255
0.385103  1.03556  1.25959 255 255 255
0.264746  1.26427  1.23258 255 255 255
0.120744  0.81086  1.27246 255 255 255
-0.0663842    1.04754    1.27649 255 255 255
0.433701 0.722332  1.30212 255 255 255
 0.43341 0.723464  1.30018 255 255 255
0.0207056   1.24181   1.27942 255 255 255
-0.318686   1.36075    1.2801 255 255 255
0.0126192   1.48508    1.2743 255 255 255
-0.0706663   0.911143    1.26749 255 255 255
0.0351975   1.19754   1.27183 255 255 255
0.236809  1.03092  1.27649 255 255 255
0.408729 0.743801  1.30074 255 255 255
0.212956  1.21979  1.25283 255 255 255
0.0533007   1.01072   1.25413 255 255 255
-0.0656125   0.993231    1.27289 255 255 255
-0.150129   1.38867   1.27329 255 255 255
-0.152834   1.39089   1.27999 255 255 255
0.188936  1.11144  1.27504 255 255 255
0.344201 0.882786  1.27365 255 255 255
0.509933 0.853302  1.30034 255 255 255
0.274334  1.32353  1.22456 255 255 255
0.00253159   0.881386     1.2685 255 255 255
0.141789  1.30009  1.28013 255 255 255
0.346133 0.840508  1.27943 255 255 255
0.44759 0.91468 1.30793 255 255 255
-0.203585   1.07328   1.28225 255 255 255
0.557845 0.712668  1.29993 255 255 255
-0.0482172    1.43922    1.28452 255 255 255
0.651652 0.785193  1.32878 255 255 255
0.388829  0.79524  1.30143 255 255 255
0.246043  1.02946  1.25305 255 255 255
0.569768 0.788935  1.30308 255 255 255
-0.159857   1.08389   1.26507 255 255 255
0.467024 0.550771  1.31607 255 255 255
-0.00318917     1.42462     1.27497 255 255 255
0.163735  1.33541  1.26594 255 255 255
0.224475 0.630644  1.32715 255 255 255
-0.136955   1.25192   1.25971 255 255 255
-0.239526   1.03466   1.29293 255 255 255
-0.0114251   0.880065    1.26716 255 255 255
0.177433  1.19867  1.26451 255 255 255
-0.336769   1.17352   1.27631 255 255 255
0.621554 0.833318  1.30612 255 255 255
0.405527 0.777327  1.30209 255 255 255
-0.132848   1.25059   1.27082 255 255 255
0.176794  1.17333  1.27232 255 255 255
0.0783356   0.90952   1.25176 255 255 255
0.0447735   1.05398   1.26697 255 255 255
  0.4463 0.786667  1.30188 255 255 255
-0.231836   1.43904   1.28329 255 255 255
0.0995326  0.741447    1.2722 255 255 255
0.456422  0.73908  1.30399 255 255 255
0.206339 0.699586  1.30771 255 255 255
0.152893 0.914916  1.26346 255 255 255
-0.199814    1.4854   1.28235 255 255 255
-0.0568956    1.09678    1.27961 255 255 255
-0.0105884    1.22019    1.27239 255 255 255
-0.0140958    1.51305    1.27169 255 255 255
0.350863 0.854131  1.27319 255 255 255
0.350825 0.853953  1.27361 255 255 255
0.525019 0.703439  1.29202 255 255 255
-0.283427    1.3662   1.27824 255 255 255
0.358852  1.08967   1.2799 255 255 255
0.0925319  0.939523   1.25637 255 255 255
0.124829 0.952132  1.25198 255 255 255
0.194716 0.887705  1.27561 255 255 255
-0.166799   1.35441   1.28607 255 255 255
-0.115828   1.29483    1.2748 255 255 255
0.323075 0.697681  1.29644 255 255 255
0.444986 0.666651  1.30051 255 255 255
0.224309  1.23854  1.25177 255 255 255
0.271575  1.15808  1.25142 255 255 255
0.441089 0.792782  1.30273 255 255 255
-0.0265976   0.950392    1.26642 255 255 255
0.305293 0.736719  1.29165 255 255 255
-0.127538   1.41476   1.28401 255 255 255
0.416986  1.05517  1.27912 255 255 255
0.574165 0.852605  1.30934 255 255 255
0.359798 0.474783  1.32372 255 255 255
 0.3609 0.47368 1.32496 255 255 255
0.265759  1.12738  1.27126 255 255 255
0.270584 0.997596  1.27693 255 255 255
0.378614  1.17226  1.25867 255 255 255
0.0203927   1.30227   1.28092 255 255 255
 0.17358 0.964447  1.25796 255 255 255
0.0518987    1.0949    1.2664 255 255 255
-0.345124   1.30719   1.27427 255 255 255
0.339535 0.888593   1.2744 255 255 255
0.463956  1.08066  1.28784 255 255 255
-0.298773    1.3421   1.27918 255 255 255
0.0812662   1.21536   1.26573 255 255 255
-0.243927   1.46101   1.28471 255 255 255
-0.208199   1.50164     1.286 255 255 255
-0.256137   1.44105    1.2872 255 255 255
-0.348018   1.16919    1.2814 255 255 255
-0.329031   1.18928   1.27105 255 255 255
0.399423 0.890654  1.28577 255 255 255
-0.0673489    1.48717     1.2865 255 255 255
0.391626 0.911159  1.28273 255 255 255
0.585877  1.07965  1.32188 255 255 255
0.321982 0.582884  1.32357 255 255 255
0.338908  1.21273  1.24364 255 255 255
-0.0108131    1.32218    1.28148 255 255 255
0.303978 0.576975  1.32855 255 255 255
0.141103  1.06411  1.26855 255 255 255
0.123456  1.04534  1.25392 255 255 255
0.360604  1.28462  1.23891 255 255 255
0.155469  1.17096  1.26278 255 255 255
0.429592 0.714408   1.3023 255 255 255
0.507516 0.842178  1.29953 255 255 255
0.135655  1.40066   1.2491 255 255 255
-0.0438509    1.14727    1.27408 255 255 255
0.301796 0.596071   1.3314 255 255 255
0.0626575   1.24743   1.25014 255 255 255
0.528945  0.79447  1.29747 255 255 255
-0.299723    1.1558   1.27248 255 255 255
0.0709361   1.47099   1.28152 255 255 255
