ply
format ascii 1.0
element vertex 1147
property float x
property float y
property float z
property uchar red
property uchar green
property uchar blue
end_header
 0.641428 -0.932766   1.25888 255 255 255
  0.24387 -0.681623   1.36566 255 255 255
 0.233827 -0.618735   1.35273 255 255 255
 0.355052 -0.469645   1.35574 255 255 255
 1.07546 -1.09633  1.43302 255 255 255
 1.10395 -1.26647   1.4592 255 255 255
0.878542 -1.37709  1.44687 255 255 255
 0.949969 -0.882794   1.39816 255 255 255
 1.09626 -1.09156  1.43867 255 255 255
 1.08089 -1.27135  1.46294 255 255 255
 0.822459 -0.729437   1.19328 255 255 255
 0.622197 -0.927316   1.25913 255 255 255
 1.29032 -1.22884  1.46676 255 255 255
 0.654708 -0.903465    1.2635 255 255 255
  0.94795 -0.856008    1.4003 255 255 255
0.725507 -1.11666  1.31657 255 255 255
  1.43783 -0.899005   1.45593 255 255 255
 0.674552 -0.743928   1.19378 255 255 255
 0.246795 -0.514242   1.35911 255 255 255
 0.968362 -0.773397   1.39867 255 255 255
   1.2731 -0.700528   1.41973 255 255 255
 0.771406 -0.865918   1.25185 255 255 255
 0.345501 -0.451269    1.3549 255 255 255
0.895276 -1.08713  1.32729 255 255 255
0.939341 -1.42294   1.4509 255 255 255
 0.234637 -0.597875   1.33274 255 255 255
 0.537403 -0.147758   1.32858 255 255 255
 0.272028 -0.754165   1.37362 255 255 255
 0.994512 -0.945361   1.39406 255 255 255
 1.07817 -1.15523  1.43598 255 255 255
 0.644379 -0.864055   1.25973 255 255 255
  0.29094 -0.487835    1.3558 255 255 255
 1.15041 -1.21753  1.45585 255 255 255
0.878934  -1.1753  1.31351 255 255 255
 0.880418 -0.332234    1.3607 255 255 255
 0.933807 -0.450646   1.35554 255 255 255
  1.07478 -0.968217   1.42125 255 255 255
 0.956041 -0.278614   1.36338 255 255 255
 0.375603 -0.616741   1.35199 255 255 255
 0.387865 -0.607567   1.35476 255 255 255
 0.849842 -0.941901   1.25316 255 255 255
 0.931678 -0.293828   1.36242 255 255 255
1.14513 -1.2567 1.45126 255 255 255
  1.16621 -0.903649   1.41165 255 255 255
 0.813261 -0.284024   1.36067 255 255 255
 0.594704 -0.899852   1.26146 255 255 255
 0.810203 -0.618881   1.18969 255 255 255
 0.899386 -0.316271   1.36384 255 255 255
 0.567245 -0.415405   1.35613 255 255 255
 0.772222 -0.137804   1.35844 255 255 255
 0.200544 -0.516903   1.35496 255 255 255
 0.937373 -0.694591    1.3841 255 255 255
 0.914011 -0.807236   1.39938 255 255 255
 1.29138 -1.05897  1.44321 255 255 255
 0.627964 -0.141264   1.33757 255 255 255
0.971801  -1.4182  1.45321 255 255 255
 0.927661 -0.819424   1.39681 255 255 255
 0.732699 -0.649498   1.18488 255 255 255
 0.439905 -0.472492   1.35401 255 255 255
 0.680386 -0.546823   1.35141 255 255 255
 0.850893 -0.164205   1.35008 255 255 255
0.671772 -1.09236  1.31653 255 255 255
 0.630684 -0.986946   1.25326 255 255 255
 0.685991 -0.267406    1.3545 255 255 255
 0.944886 -0.761405   1.39859 255 255 255
 0.504762 -0.330867   1.35691 255 255 255
0.808871 -1.39073  1.45031 255 255 255
0.969922 -1.37757  1.45534 255 255 255
  1.24669 -0.709668   1.41951 255 255 255
 1.17157 -1.13244  1.43167 255 255 255
 0.622221 -0.907014    1.2549 255 255 255
 0.188131 -0.455329   1.35544 255 255 255
1.05997 -0.6505  1.3757 255 255 255
  1.55141 -0.713415    1.4349 255 255 255
 1.04133 -1.15348  1.43454 255 255 255
  1.01533 -0.755094   1.40575 255 255 255
 0.908738 -0.708241   1.37189 255 255 255
 0.947192 -0.455361   1.36541 255 255 255
 0.947261 -0.455662   1.36593 255 255 255
 1.16401 -1.10538  1.43139 255 255 255
0.912138 -1.39663  1.45059 255 255 255
 1.07101 -1.07435  1.42347 255 255 255
 1.03029 -1.18632  1.44152 255 255 255
 0.555095 -0.185009   1.32985 255 255 255
  0.34441 -0.635836   1.36114 255 255 255
 0.320687 -0.372717   1.22111 255 255 255
  1.42961 -0.971922   1.45883 255 255 255
 0.742494 -0.708406   1.20787 255 255 255
 1.24817 -1.07039  1.42785 255 255 255
0.775574 -1.13188  1.32272 255 255 255
 0.731781 -0.701837   1.20488 255 255 255
  0.32585 -0.356304   1.22257 255 255 255
 1.35702 -1.01767  1.44449 255 255 255
0.850696 -1.07404  1.32342 255 255 255
 0.324923 -0.450599   1.35176 255 255 255
 1.13483 -1.16863  1.44131 255 255 255
 0.300987 -0.636638   1.34964 255 255 255
 0.653955 -0.152696   1.35759 255 255 255
  1.40539 -0.615689   1.42231 255 255 255
 0.324296 -0.737596   1.36881 255 255 255
 1.13208 -1.05376  1.44341 255 255 255
 1.00092 -1.04251  1.41374 255 255 255
  1.16474 -0.732758    1.4078 255 255 255
  1.07985 -0.502343   1.39033 255 255 255
  0.35494 -0.796928   1.38861 255 255 255
 0.198021 -0.577751   1.32584 255 255 255
  1.04696 -0.441785   1.37852 255 255 255
  1.00517 -0.589546    1.3807 255 255 255
0.289266 -0.60804  1.35545 255 255 255
 0.101559 -0.517856   1.35469 255 255 255
  1.02389 -0.977468   1.40685 255 255 255
  1.09004 -0.336902   1.37517 255 255 255
 0.488298 -0.454879   1.35145 255 255 255
  1.07807 -0.875752    1.4092 255 255 255
 0.380523 -0.584199   1.34937 255 255 255
 0.437222 -0.564241   1.35018 255 255 255
 0.549739 -0.541762    1.3521 255 255 255
 1.31224 -1.04883   1.4381 255 255 255
 0.971713 -0.469096   1.37485 255 255 255
 0.535125 -0.158873   1.33175 255 255 255
  0.54602 -0.626738   1.23207 255 255 255
 0.825997 -0.297238   1.35561 255 255 255
0.637152 -1.08704  1.32155 255 255 255
 0.967053 -0.328387   1.36005 255 255 255
 1.02178 -1.20556  1.45287 255 255 255
 0.783124 -0.127276   1.36254 255 255 255
  0.80388 -0.106683   1.36312 255 255 255
 0.753005 -0.930153   1.25347 255 255 255
0.116066  -0.5898  1.35092 255 255 255
 0.653262 -0.757069   1.19814 255 255 255
 0.784759 -0.910303   1.25281 255 255 255
 1.41849 -1.00605  1.43337 255 255 255
  0.849264 -0.0726924    1.36548 255 255 255
  1.04668 -0.785737   1.40159 255 255 255
 1.06542 -1.12372  1.42941 255 255 255
0.852613 -1.05551   1.3219 255 255 255
 0.485942 -0.189739   1.33078 255 255 255
  0.69728 -0.960902   1.24975 255 255 255
 0.119166 -0.487364   1.35357 255 255 255
0.940783 -1.39621  1.44027 255 255 255
 0.718545 -0.293115   1.35772 255 255 255
0.398903 -0.85791  1.39867 255 255 255
 1.09652 -1.11147  1.42601 255 255 255
 0.261079 -0.611276   1.35834 255 255 255
 0.518253 -0.270595   1.33743 255 255 255
0.554929 -0.55342  1.34842 255 255 255
  1.10434 -0.877477   1.40118 255 255 255
 0.762001 -0.958737   1.25786 255 255 255
 0.518474 -0.157805   1.32773 255 255 255
 0.669355 -0.373751   1.35481 255 255 255
  0.68878 -0.160285   1.35082 255 255 255
 0.275035 -0.469899   1.35721 255 255 255
 0.688455 -0.744336    1.1962 255 255 255
 0.797535 -0.118117   1.36527 255 255 255
  1.05913 -0.903427   1.41248 255 255 255
 1.19726 -1.09235  1.43343 255 255 255
  0.75547 -0.966081   1.25505 255 255 255
 1.07209 -0.88735   1.4014 255 255 255
 0.185783 -0.467875    1.3558 255 255 255
 1.01662 -1.17576  1.44154 255 255 255
0.752347  -1.1492  1.31854 255 255 255
1.23402   -0.54 1.38008 255 255 255
 1.09515 -1.28855  1.46656 255 255 255
 0.734445 -0.298095   1.35843 255 255 255
  1.20011 -0.868993   1.41652 255 255 255
1.03711 -1.2934  1.4626 255 255 255
 0.979894 -0.645399    1.3799 255 255 255
  1.09285 -0.318311   1.36882 255 255 255
  0.57083 -0.530239   1.35369 255 255 255
 0.308085 -0.701539   1.36075 255 255 255
 0.250418 -0.665728    1.3588 255 255 255
 1.07684 -1.11781  1.43228 255 255 255
0.0938795 -0.527763   1.35479 255 255 255
0.954715  -1.3676  1.45829 255 255 255
0.841919 -0.50077  1.35354 255 255 255
   1.4775 -0.961729   1.43662 255 255 255
 0.922581 -0.407563   1.35684 255 255 255
 0.826719 -0.533554   1.33287 255 255 255
 0.834073 -0.533081   1.34542 255 255 255
 0.404923 -0.415398   1.35731 255 255 255
  0.17781 -0.432312   1.35472 255 255 255
  0.65425 -0.721746   1.20137 255 255 255
 0.187829 -0.436092   1.35443 255 255 255
 0.540892 -0.532957    1.3532 255 255 255
 1.14236 -0.74404  1.40353 255 255 255
  1.29107 -0.671483   1.41538 255 255 255
 0.454297 -0.477891    1.3553 255 255 255
 0.719975 -0.282023   1.35819 255 255 255
 0.265753 -0.577365   1.35429 255 255 255
  1.07491 -0.481084    1.3784 255 255 255
  1.07535 -0.482097   1.38389 255 255 255
0.826835 -1.17364  1.29825 255 255 255
 0.255996 -0.595536   1.35351 255 255 255
0.962522 -0.50867  1.37525 255 255 255
0.785641 -1.13819  1.32298 255 255 255
 0.887807 -0.452148   1.35573 255 255 255
0.497507 -0.47214   1.3559 255 255 255
 0.406231 -0.484132   1.35535 255 255 255
 1.01125 -1.03281  1.41049 255 255 255
  1.49562 -0.866498   1.45203 255 255 255
0.692656 -1.17211  1.31931 255 255 255
  1.22958 -0.682186   1.41969 255 255 255
  1.01012 -0.327359   1.36175 255 255 255
0.671094 -1.11575  1.31639 255 255 255
 0.144651 -0.584974   1.35286 255 255 255
 0.413722 -0.557058   1.35116 255 255 255
 0.703134 -0.378239   1.35785 255 255 255
 0.50552 -0.28803   1.3381 255 255 255
 0.304063 -0.497691   1.35694 255 255 255
 0.528983 -0.264315    1.3338 255 255 255
 0.529023 -0.264146   1.33388 255 255 255
  0.49596 -0.556323   1.35292 255 255 255
 1.16197 -1.06297  1.44297 255 255 255
  1.38566 -0.709815   1.41838 255 255 255
 0.563926 -0.639099   1.23101 255 255 255
 0.597985 -0.458402    1.3555 255 255 255
0.923283 -1.47055  1.44543 255 255 255
  0.49264 -0.546578   1.35185 255 255 255
 0.815334 -0.610271   1.19953 255 255 255
 0.555948 -0.633476   1.23258 255 255 255
  0.51175 -0.298498   1.35111 255 255 255
   1.1221 -0.504585    1.3799 255 255 255
 0.659981 -0.545123   1.34938 255 255 255
 0.630483 -0.533184   1.35452 255 255 255
   0.9746 -0.301733   1.36252 255 255 255
 0.315873 -0.569967   1.35377 255 255 255
 1.16117 -1.27812  1.44989 255 255 255
0.820635 -0.51549  1.35327 255 255 255
 1.16811 -1.11767  1.43363 255 255 255
  1.00446 -0.766116   1.41019 255 255 255
 0.526747 -0.129531   1.30425 255 255 255
    1.067 -0.475566   1.37811 255 255 255
 0.114092 -0.443975   1.35356 255 255 255
0.830926  -1.3855  1.45425 255 255 255
  1.1484 -1.14592  1.43396 255 255 255
  1.29952 -0.958819   1.44765 255 255 255
 0.207404 -0.563287   1.32704 255 255 255
 0.987244 -0.866088   1.39024 255 255 255
 0.877684 -0.446351   1.35535 255 255 255
0.680468 -0.25682  1.35462 255 255 255
  1.02623 -0.914189   1.40748 255 255 255
 0.616427 -0.137293   1.33553 255 255 255
0.758986 -1.17318  1.32015 255 255 255
  1.05977 -0.402998    1.3659 255 255 255
0.788107 -1.12576   1.3238 255 255 255
 0.880401 -0.605389   1.37958 255 255 255
  0.19923 -0.441573   1.35511 255 255 255
  0.662458 -0.0576129     1.3374 255 255 255
  0.35846 -0.490987   1.35608 255 255 255
   0.8965 -0.415986   1.35759 255 255 255
 0.162239 -0.522364   1.35483 255 255 255
 1.01954 -0.33159  1.36215 255 255 255
 1.07976 -1.04613  1.42685 255 255 255
 0.406069 -0.426057   1.35659 255 255 255
  1.25504 -0.788957   1.40911 255 255 255
   1.1915 -0.732696   1.40782 255 255 255
  1.29955 -0.764398    1.4118 255 255 255
  0.86423 -0.935463   1.25934 255 255 255
 1.41366 -0.99782  1.43745 255 255 255
0.891918 -1.17238   1.3128 255 255 255
 0.931325 -0.902722   1.39787 255 255 255
  0.45483 -0.468434   1.35624 255 255 255
 0.529131 -0.209565   1.33052 255 255 255
  0.838209 -0.0801515     1.3647 255 255 255
 0.189817 -0.446909   1.35466 255 255 255
  1.06243 -0.393818   1.36689 255 255 255
 0.227528 -0.475638   1.35535 255 255 255
 1.12515 -1.11094   1.4396 255 255 255
   1.1635 -0.343252   1.38327 255 255 255
  1.06931 -0.404529   1.36725 255 255 255
  1.10685 -0.449214   1.37093 255 255 255
  1.20948 -0.723491   1.41635 255 255 255
 1.22822 -1.03513  1.44378 255 255 255
 1.00359 -0.81586  1.40784 255 255 255
  1.00324 -0.332964   1.35052 255 255 255
 0.733435 -0.660656   1.18447 255 255 255
 0.773449 -0.901725   1.25036 255 255 255
 0.566218 -0.286304   1.34551 255 255 255
  1.52521 -0.885567    1.4579 255 255 255
 0.529919 -0.323165   1.35497 255 255 255
   1.0037 -0.651745   1.38745 255 255 255
 1.11564 -1.14977  1.43684 255 255 255
0.731497 -0.63829  1.18586 255 255 255
  1.50088 -0.677765   1.42307 255 255 255
 1.13124 -1.13859  1.43695 255 255 255
 1.08522 -1.11489  1.42689 255 255 255
 0.337609 -0.439769   1.35568 255 255 255
 0.617209 -0.508608   1.35345 255 255 255
  1.05889 -0.472838   1.38293 255 255 255
0.670118 -0.19117  1.35908 255 255 255
 0.508185 -0.206575   1.33097 255 255 255
 1.06777 -1.13872  1.43617 255 255 255
 0.958951 -0.264894   1.36136 255 255 255
  1.27685 -0.779994   1.41011 255 255 255
 0.928983 -0.885329   1.39886 255 255 255
 0.109076 -0.583285   1.34979 255 255 255
  1.37395 -0.603059   1.41419 255 255 255
 0.659726 -0.995213   1.25493 255 255 255
0.800252 -1.13031  1.32637 255 255 255
 0.913103 -0.563564    1.3641 255 255 255
 1.02057 -1.09091  1.42664 255 255 255
 0.994242 -0.333549   1.35788 255 255 255
 1.37131 -1.06296  1.44591 255 255 255
0.713697 -1.16829  1.31706 255 255 255
0.194414 -0.71041  1.34605 255 255 255
 0.738445 -0.654841   1.18448 255 255 255
0.905059 -1.41121  1.45129 255 255 255
  1.59628 -0.786805   1.45459 255 255 255
  0.72467 -0.255723   1.35796 255 255 255
  1.23623 -0.808324   1.41053 255 255 255
0.705708 -1.15406  1.32357 255 255 255
   0.74848 -0.0806438    1.36126 255 255 255
 0.565228 -0.314869   1.34737 255 255 255
 0.677441 -0.904215   1.25946 255 255 255
  0.39086 -0.358841   1.35645 255 255 255
 1.02812 -1.41111  1.45866 255 255 255
  1.09594 -0.632317   1.38253 255 255 255
 1.15845 -1.14733  1.43478 255 255 255
  1.19174 -0.860789   1.41685 255 255 255
0.913921 -1.12975  1.32519 255 255 255
  1.07993 -0.643173   1.38285 255 255 255
  1.30865 -0.954399   1.44511 255 255 255
 0.997813 -0.808711   1.40709 255 255 255
  0.524452 -0.0982302     1.2732 255 255 255
 0.818897 -0.626299   1.18931 255 255 255
 0.811161 -0.925653   1.26579 255 255 255
 0.758731 -0.179434   1.35938 255 255 255
 0.212694 -0.497131   1.35585 255 255 255
 1.42611 -1.20116  1.47679 255 255 255
  1.0858 -1.04143  1.43241 255 255 255
  0.569877 -0.0878035     1.3011 255 255 255
 0.549434 -0.320448   1.35504 255 255 255
  1.27921 -0.786834   1.40502 255 255 255
 0.696248 -0.279395   1.35966 255 255 255
 0.669388 -0.268016   1.35756 255 255 255
 0.723413 -0.182484   1.35989 255 255 255
 0.998157 -0.248702   1.36481 255 255 255
  1.08793 -0.306216   1.36522 255 255 255
0.973026 -1.35518  1.46167 255 255 255
  1.06526 -0.924773   1.41292 255 255 255
 0.470497 -0.196741   1.33165 255 255 255
  0.63168 -0.215256    1.3565 255 255 255
0.669249 -1.12768  1.31607 255 255 255
 0.819074 -0.053242   1.36469 255 255 255
0.713673 -0.48873   1.3551 255 255 255
0.986002 -1.37588  1.45794 255 255 255
1.19141 0.20132 1.36643 255 255 255
 0.720207 -0.437101   1.35532 255 255 255
 0.340207 -0.846273   1.39988 255 255 255
0.338869 -0.10221  1.22173 255 255 255
 0.336479 -0.102232   1.21993 255 255 255
 0.277248 -0.361695   1.19752 255 255 255
0.493095 -1.03286  1.32084 255 255 255
 0.595724 -0.624671   1.19284 255 255 255
 0.333638 -0.937445   1.40289 255 255 255
-0.036001 -0.112681   1.32966 255 255 255
0.0564741 0.0331888    1.2604 255 255 255
 0.737346 -0.355798    1.3327 255 255 255
 0.197975 -0.657287   1.34347 255 255 255
 -0.13966 -0.427871   1.36108 255 255 255
-0.0504542  -0.480357    1.35328 255 255 255
 0.227867 -0.717193   1.36218 255 255 255
0.00828529  -0.421851    1.34588 255 255 255
 0.254197 -0.424819   1.21957 255 255 255
 0.972213 -0.496616   1.37714 255 255 255
  1.05008 -0.645787    1.3821 255 255 255
 0.382261 -0.717773   1.37337 255 255 255
 0.299623 -0.415844   1.31143 255 255 255
0.0875611 -0.201934   1.34556 255 255 255
 0.461567 -0.549445   1.34948 255 255 255
0.0181664  -0.25289   1.33021 255 255 255
 0.397396 -0.781494   1.39271 255 255 255
 0.443957 -0.688182   1.35687 255 255 255
0.00218707  -0.208591    1.34474 255 255 255
0.366401 -0.64431  1.36162 255 255 255
0.442907 -1.11001  1.40999 255 255 255
0.0157413 -0.138834   1.34033 255 255 255
-0.102044 -0.525116    1.3681 255 255 255
-0.00804037   -0.350112     1.34747 255 255 255
 0.192442 -0.135718   1.27666 255 255 255
 0.402161 -0.172503   1.24537 255 255 255
0.0548526   -0.2507   1.34313 255 255 255
0.0762384 -0.484281   1.35614 255 255 255
  1.02625 -0.955278   1.39833 255 255 255
 0.45587 -0.85117  1.38744 255 255 255
0.482159 -1.02584  1.39893 255 255 255
-0.0579393  -0.441758     1.3489 255 255 255
0.984266 -1.00198  1.38549 255 255 255
 0.278001 0.0210763   1.24231 255 255 255
 0.254334 -0.900136   1.35857 255 255 255
 0.223645 -0.577462   1.32341 255 255 255
 0.721824 -0.761755   1.18597 255 255 255
 0.348934 -0.750815    1.3766 255 255 255
0.319439 -1.07598  1.43427 255 255 255
0.479836 -1.13888  1.42118 255 255 255
 0.429087 -0.278938    1.2554 255 255 255
0.0471834 -0.186235   1.34128 255 255 255
 0.496487 -0.064157   1.27369 255 255 255
-0.144868 -0.364802   1.35878 255 255 255
 0.422757 -0.200771   1.25494 255 255 255
-0.0664459  -0.149152    1.31869 255 255 255
 0.310093 -0.723388   1.35439 255 255 255
-0.0420424  -0.622843    1.34226 255 255 255
0.0674187 -0.166038   1.31388 255 255 255
0.374023 -1.11999  1.39872 255 255 255
0.0639051 -0.330226   1.31231 255 255 255
 0.428081 -0.821774   1.38586 255 255 255
  0.01233 -0.318004   1.35315 255 255 255
-0.0905562  -0.221019    1.30979 255 255 255
-0.0973383  -0.444757    1.34028 255 255 255
 0.253829 -0.606197   1.35699 255 255 255
0.0239431 -0.290405   1.34104 255 255 255
0.768477 -1.15534  1.31243 255 255 255
 0.171928 -0.704006   1.33672 255 255 255
 0.472533 -0.447889   1.35468 255 255 255
0.0676148 -0.451355   1.35726 255 255 255
  0.471985 -0.0707391    1.27569 255 255 255
  0.165246 -0.0886821    1.29468 255 255 255
 0.287516 -0.456114   1.34785 255 255 255
 0.715135 -0.956242   1.25139 255 255 255
0.641551 -1.20368  1.30225 255 255 255
-0.109431 -0.520212   1.35169 255 255 255
0.413366 -1.15654  1.41555 255 255 255
-0.0326065  -0.400971    1.35665 255 255 255
 0.318288 -0.757034   1.37299 255 255 255
0.0372361 -0.392313   1.35351 255 255 255
-0.0595474  -0.515373     1.3475 255 255 255
0.262145 0.156625  1.24746 255 255 255
  1.04912 -0.886512   1.41524 255 255 255
  0.452141 -0.0647109     1.2729 255 255 255
0.371266 -1.09403  1.40172 255 255 255
 0.782722 -0.885593   1.25281 255 255 255
-0.309473 -0.309775    1.2133 255 255 255
 0.696494 -0.329075   1.33459 255 255 255
 0.249683 0.0151393   1.24176 255 255 255
 0.249677 0.0150963   1.24184 255 255 255
0.00193598  -0.337238    1.32561 255 255 255
 0.699118 -0.855919   1.24451 255 255 255
-0.0129287 -0.0717972    1.30686 255 255 255
 0.291903 -0.762355   1.37939 255 255 255
  1.24106 -0.674794   1.42102 255 255 255
-0.218447 -0.270108   1.22758 255 255 255
0.282943  0.11972  1.24338 255 255 255
 0.764797 -0.641704   1.19023 255 255 255
 -0.23732 -0.441554   1.35872 255 255 255
 0.791957 -0.947719   1.25081 255 255 255
  1.05403 -0.666856    1.3681 255 255 255
0.683133  -1.1492  1.31783 255 255 255
 0.354342 -0.813622   1.38426 255 255 255
 0.402892 -0.809951    1.3895 255 255 255
 0.804621 -0.858176    1.2631 255 255 255
0.485681 -1.20561  1.41973 255 255 255
 0.551125 -0.157314   1.30703 255 255 255
 0.384587 -0.305662    1.2122 255 255 255
 0.821883 -0.919039   1.26782 255 255 255
  0.07486 -0.649634   1.33917 255 255 255
 0.329401 0.0983498   1.24189 255 255 255
 0.328285 -0.817427   1.38594 255 255 255
0.0316336 -0.337566   1.34964 255 255 255
 0.864706 -0.976623   1.25042 255 255 255
0.335485 -0.48109  1.34481 255 255 255
 0.301902 -0.968091   1.39328 255 255 255
 0.416811 0.0229666   1.23767 255 255 255
 0.856898 -0.901357   1.25896 255 255 255
0.0849183 -0.512845   1.35553 255 255 255
0.756254 -1.20392  1.31293 255 255 255
0.228482 -0.90066  1.35192 255 255 255
 0.102441 -0.260649   1.34722 255 255 255
  0.109567 -0.0606917    1.33456 255 255 255
-0.0331938    -0.2903    1.30086 255 255 255
0.686361 -0.80861  1.21396 255 255 255
0.0451844 -0.431939   1.35169 255 255 255
 0.650026 -0.795009    1.2001 255 255 255
 0.284482 -0.160218   1.21389 255 255 255
0.651018 -0.51564   1.3521 255 255 255
 0.250278 -0.631764   1.35822 255 255 255
 0.353569 -0.203213   1.21426 255 255 255
-0.213001 -0.427375   1.35967 255 255 255
0.0818129 -0.413767   1.35931 255 255 255
-0.135194 -0.344506    1.3594 255 255 255
 0.795463 -0.922567   1.24877 255 255 255
-0.0230063 -0.0892012    1.32715 255 255 255
 0.178336 -0.065402   1.31086 255 255 255
 0.415302 -0.679124   1.36454 255 255 255
0.221681 -0.38263  1.21009 255 255 255
  0.74644 -0.847336   1.25597 255 255 255
-0.164871 -0.308885   1.35898 255 255 255
0.712149 -1.21132   1.3123 255 255 255
0.0566795 -0.276325   1.30651 255 255 255
-0.021279 -0.631703   1.34202 255 255 255
-0.146557 -0.197044   1.26285 255 255 255
 0.416982 -0.699371   1.37274 255 255 255
 0.335639 -0.201151   1.21837 255 255 255
-0.273074  -0.34034   1.21603 255 255 255
0.567775 -1.18829  1.30423 255 255 255
0.324634 -0.14607  1.21755 255 255 255
 -0.21963 -0.446519   1.35727 255 255 255
  0.53747 -0.149088   1.32287 255 255 255
 0.677126 -0.346516   1.36014 255 255 255
 0.677144 -0.345986   1.35893 255 255 255
 0.748351 -0.322596   1.35554 255 255 255
 0.724283 -0.389358   1.36666 255 255 255
 0.685173 -0.641346   1.19316 255 255 255
 1.11516 -0.63031  1.36671 255 255 255
 0.394916 -0.741822   1.37793 255 255 255
 0.267505 -0.623359   1.34956 255 255 255
0.704806 -1.23036  1.31514 255 255 255
-0.0750641  -0.596572    1.37413 255 255 255
 0.255781 -0.394614   1.20703 255 255 255
-0.161575 -0.191182   1.26458 255 255 255
0.367825 -0.76327  1.38984 255 255 255
  0.10895 -0.170626   1.33621 255 255 255
0.473358 -0.93148  1.39409 255 255 255
  0.380281 -0.0689989    1.24162 255 255 255
-0.132218 -0.159173   1.28205 255 255 255
 0.766075 -0.388302   1.35889 255 255 255
-0.0771023  -0.337546    1.35402 255 255 255
 0.350664 -0.390794   1.21407 255 255 255
-0.000858108    -0.612634      1.34911 255 255 255
0.761904 -1.14109  1.32654 255 255 255
  0.91228 -0.557651   1.35504 255 255 255
 0.762189 -0.604997   1.18919 255 255 255
-0.138133 -0.177967   1.27139 255 255 255
 0.44835 -1.07466  1.39761 255 255 255
 0.684074 -0.268178   1.35274 255 255 255
 0.273438 -0.857543   1.38875 255 255 255
0.0827025 -0.261148   1.34157 255 255 255
-0.0159343  -0.673315    1.33344 255 255 255
 0.303253 -0.559592   1.34735 255 255 255
 0.400557 -0.583515    1.3498 255 255 255
  0.470415 -0.0610012     1.2736 255 255 255
0.325306 -0.35839  1.22342 255 255 255
-0.195065 -0.352648   1.35429 255 255 255
0.484879 -0.46582  1.35738 255 255 255
 0.270913 -0.590341   1.35372 255 255 255
0.0195562  -0.63488   1.34731 255 255 255
 0.334383 -0.680365   1.35536 255 255 255
 0.644676 -0.677349   1.20645 255 255 255
0.393348 -0.64725  1.36079 255 255 255
0.169625 -0.44856  1.35689 255 255 255
-0.0567599 -0.0553886    1.30816 255 255 255
 0.555212 -0.185256   1.33007 255 255 255
  0.26286 -0.679909   1.36821 255 255 255
-0.0284774  0.0610602    1.28811 255 255 255
-0.0885414  -0.169584    1.34345 255 255 255
0.318735 -1.08559  1.40233 255 255 255
 0.407518 -0.831513   1.39097 255 255 255
 0.144931 0.0205309   1.23844 255 255 255
 0.335576 -0.384223   1.22116 255 255 255
-0.098506 -0.393703   1.35666 255 255 255
-0.0231623  -0.359511    1.35486 255 255 255
 0.390388 -0.625834   1.36051 255 255 255
 0.0298772 -0.0163874    1.30924 255 255 255
 0.0962414 -0.0367198    1.33669 255 255 255
 0.313898 -0.388915   1.21315 255 255 255
  1.21439 -0.832746   1.40439 255 255 255
  0.71284 -0.676738   1.20647 255 255 255
  1.07894 -0.996496   1.42473 255 255 255
0.487788 -0.41317   1.3574 255 255 255
-0.150421 -0.457834   1.31625 255 255 255
 0.071357 -0.284937    1.3012 255 255 255
  1.11106 -0.609605   1.38961 255 255 255
0.631425 -0.36048  1.34896 255 255 255
-0.226972 -0.286271   1.23194 255 255 255
 0.367011 -0.891595   1.39991 255 255 255
-0.171334 -0.316274   1.36009 255 255 255
 0.733846 -0.951709   1.25205 255 255 255
 0.819318 -0.535068   1.34631 255 255 255
 0.428931 -0.689886   1.37789 255 255 255
 0.706001 -0.703596   1.20262 255 255 255
  0.35016 0.0882112    1.2428 255 255 255
   0.418276 0.000177148     1.24042 255 255 255
-0.0873701  -0.329203    1.35506 255 255 255
 0.148408 -0.684341    1.3383 255 255 255
-0.00114618   -0.649143     1.33395 255 255 255
-0.533272 -0.211463   1.35346 255 255 255
0.371866 -1.04616  1.39384 255 255 255
 0.399896 -0.689055   1.36848 255 255 255
0.0928549 -0.396201   1.35637 255 255 255
-0.162221 -0.250943   1.33382 255 255 255
 0.606744 -0.144708   1.34655 255 255 255
 0.204178 0.0678269   1.24136 255 255 255
-0.0364527  -0.642092    1.34621 255 255 255
 0.171886 0.0815541   1.23879 255 255 255
 0.507112 -0.103678   1.28274 255 255 255
0.758739 -1.16841  1.31389 255 255 255
  1.03888 -0.688493   1.38928 255 255 255
0.479325 -1.06315  1.39042 255 255 255
0.0948671 0.0928043   1.24401 255 255 255
 0.240465 -0.490783   1.35577 255 255 255
0.237297 0.162742  1.24812 255 255 255
0.0289104 -0.182161   1.34174 255 255 255
 0.415678 -0.656221   1.37072 255 255 255
0.0247528  -0.66331   1.33765 255 255 255
  0.448921 -0.0366984    1.26973 255 255 255
0.456941 -1.11723  1.40577 255 255 255
 0.883621 -0.543093   1.35094 255 255 255
 0.918346 -0.580967   1.36451 255 255 255
  0.62775 -0.554065   1.35109 255 255 255
0.0973728 -0.679942   1.33548 255 255 255
0.0470414 -0.356365   1.35321 255 255 255
 0.79411 -0.52757  1.35096 255 255 255
  1.22586 -0.722017   1.41889 255 255 255
  1.05228 -0.839683   1.41513 255 255 255
  1.01229 -0.693493   1.38314 255 255 255
0.757754  -0.7536  1.20649 255 255 255
0.0491443 -0.378252   1.35604 255 255 255
-0.221896 -0.333328   1.22744 255 255 255
0.0446151 -0.660321    1.3365 255 255 255
 0.505099 -0.552133   1.35316 255 255 255
 0.297788 -0.617404   1.35192 255 255 255
 0.30016 0.129661  1.24743 255 255 255
0.0830445 -0.224976   1.34196 255 255 255
-0.226302  -0.29744   1.22239 255 255 255
0.200734 -0.69968  1.35401 255 255 255
 0.633646 -0.944592   1.26394 255 255 255
 -0.14098 -0.202453    1.2894 255 255 255
-0.0388915  -0.271244    1.31442 255 255 255
 0.695084 -0.898108   1.26007 255 255 255
0.657217 -1.13963  1.31327 255 255 255
0.678355 -1.19152  1.31405 255 255 255
 0.297164 -0.176946   1.21743 255 255 255
 0.810411 -0.331314   1.35985 255 255 255
-0.238702 -0.372657   1.37256 255 255 255
0.230637 0.147502  1.24676 255 255 255
  0.74168 -0.896468    1.2443 255 255 255
 0.608638 -0.515235   1.35349 255 255 255
 0.355694 -0.698511    1.3736 255 255 255
-0.0987787  -0.127745     1.2588 255 255 255
0.0111708 -0.623661   1.35036 255 255 255
-0.178902 -0.292182   1.29544 255 255 255
 -0.21234 -0.396025   1.35875 255 255 255
 0.236537 -0.948237   1.35838 255 255 255
  1.06055 -0.899036   1.41019 255 255 255
-0.00281926   -0.467695     1.35848 255 255 255
0.640079 -1.00004  1.24631 255 255 255
 0.832841 -0.892881   1.26518 255 255 255
0.925494 -1.04018  1.31382 255 255 255
 0.469975 -0.896919   1.39568 255 255 255
  0.13119 -0.687774    1.3352 255 255 255
 0.613742 -0.702192   1.23328 255 255 255
0.475484  -0.6704  1.37361 255 255 255
   0.4163 -0.796243   1.38938 255 255 255
0.665816 -1.17548  1.30627 255 255 255
-0.0367279  -0.508994    1.35075 255 255 255
-0.0702356  -0.606349    1.35292 255 255 255
 0.686186 -0.719625   1.20239 255 255 255
 0.363108 -0.679124   1.36929 255 255 255
0.601621 -1.16207  1.30995 255 255 255
-0.0430717  -0.362239     1.3541 255 255 255
0.802226 -1.07056   1.3257 255 255 255
-0.185468 -0.411066   1.35908 255 255 255
 0.570892 -0.530384   1.35338 255 255 255
 0.738984 -0.528701   1.35236 255 255 255
   0.454512 -0.00517266     1.24097 255 255 255
  1.02538 -0.735925   1.39737 255 255 255
-0.174465 -0.399835   1.35629 255 255 255
0.683625  -1.1761  1.30979 255 255 255
 0.265819 -0.577359   1.35406 255 255 255
 0.301404 0.0158463   1.23753 255 255 255
0.0226766 -0.462621   1.35764 255 255 255
 0.749481 -0.871175   1.25691 255 255 255
0.540991  -0.3022  1.34401 255 255 255
-0.0490263  -0.043592    1.28604 255 255 255
 0.412417 -0.647984   1.37099 255 255 255
  1.04711 -0.911741   1.40814 255 255 255
-0.161323  -0.24883   1.29886 255 255 255
 0.633661 -0.613003   1.19661 255 255 255
  0.359255 0.00284384    1.23354 255 255 255
0.42468 -1.0778 1.40056 255 255 255
 0.329169 -0.828681   1.38933 255 255 255
 0.540868 -0.532859   1.35301 255 255 255
 0.348308 -0.841139   1.37472 255 255 255
 0.699694 -0.971165   1.24543 255 255 255
-0.0497466  -0.143996    1.33629 255 255 255
0.783955 -1.13508  1.31735 255 255 255
-0.199802 -0.346716   1.28921 255 255 255
 0.753376 -0.733301   1.20103 255 255 255
8.37829e-05   -0.236751     1.31938 255 255 255
0.973276 -0.54911  1.37714 255 255 255
-0.188869 -0.297683   1.21779 255 255 255
0.369237 -1.10855  1.39479 255 255 255
 1.00869 -1.01946  1.41137 255 255 255
0.272804 -0.65705  1.35539 255 255 255
  0.05001 -0.595338   1.35197 255 255 255
-0.175707  -0.19768   1.29268 255 255 255
 0.206459 -0.282948   1.21418 255 255 255
  1.04248 -0.872081   1.40593 255 255 255
 0.221414 -0.247971   1.21638 255 255 255
 0.626721 -0.974182   1.25035 255 255 255
  0.315621 -0.0519325    1.28168 255 255 255
0.789962 -1.15502  1.31717 255 255 255
  0.473941 -0.0431899    1.26894 255 255 255
0.159928 0.224553  1.24972 255 255 255
0.247127 0.143712  1.24809 255 255 255
-0.00750064   -0.284865      1.3421 255 255 255
  1.00412 -0.695178   1.39532 255 255 255
 0.432944 -0.878503   1.40001 255 255 255
 0.136355 0.0521731    1.2445 255 255 255
-0.211571  -0.29417   1.22568 255 255 255
 0.597466 -0.458889   1.35717 255 255 255
-0.23315 -0.28309  1.22144 255 255 255
 0.825758 -0.912869   1.26588 255 255 255
 0.353793 -0.719431   1.37837 255 255 255
  1.05534 -0.580066   1.37159 255 255 255
 -0.18693 -0.192619   1.29381 255 255 255
0.427715 -1.15688  1.41609 255 255 255
 0.556068 -0.633353   1.23156 255 255 255
0.705493 -1.13301  1.31862 255 255 255
-0.200689 -0.346905   1.32507 255 255 255
-0.222202 -0.389847   1.35687 255 255 255
0.380888 -1.08041  1.40109 255 255 255
 0.027813 -0.191538   1.35096 255 255 255
0.442775 -1.03367  1.40054 255 255 255
0.454291 -1.01454  1.40007 255 255 255
-0.0107903  -0.601567    1.35036 255 255 255
-0.0613523  -0.303383     1.2922 255 255 255
 0.362158 0.0817793   1.24162 255 255 255
-0.0678378  -0.537162    1.35317 255 255 255
 0.645169 -0.950738    1.2588 255 255 255
 0.214387 -0.264801    1.2164 255 255 255
  0.21082 -0.273133   1.21502 255 255 255
0.462671  -1.0836  1.39577 255 255 255
0.702527 -0.91638  1.24912 255 255 255
0.257533 -0.29274    1.211 255 255 255
 0.752089 -0.949407   1.25643 255 255 255
 0.413072 -0.896095   1.39909 255 255 255
 0.696754 -0.767158   1.19827 255 255 255
 0.582714 -0.443523   1.35716 255 255 255
 0.709197 -0.749362   1.19754 255 255 255
 0.660208 -0.997399   1.26025 255 255 255
 0.757677 -0.579543   1.33971 255 255 255
   1.1086 -0.886775    1.3975 255 255 255
 0.369258 -0.740137   1.37654 255 255 255
-0.0142401  -0.534038    1.35501 255 255 255
0.227816 -0.94071  1.36709 255 255 255
 0.559418 -0.120615   1.29987 255 255 255
 0.835185 -0.743787    1.1989 255 255 255
0.0609767 -0.186008   1.34107 255 255 255
 0.831585 -0.479982   1.35475 255 255 255
 0.491562 -0.536373   1.35416 255 255 255
 0.818044 -0.878979   1.26711 255 255 255
0.0398209 -0.531097   1.35462 255 255 255
 0.191555 -0.477913   1.35572 255 255 255
 0.463711 -0.909514   1.39637 255 255 255
0.0150656 -0.469552   1.35624 255 255 255
 0.422908 -0.414657    1.3553 255 255 255
 0.339551 -0.887561   1.39505 255 255 255
  1.04156 -0.736352   1.40148 255 255 255
-0.244859 -0.310115    1.2249 255 255 255
   1.0616 -0.895255   1.41069 255 255 255
  1.04652 -0.897968   1.40673 255 255 255
 0.621621 -0.994618    1.2528 255 255 255
0.377224 -1.13621  1.41292 255 255 255
  0.253346 -0.0140028    1.24021 255 255 255
-0.122307 -0.540121   1.35443 255 255 255
0.235129 0.135481  1.24332 255 255 255
-0.354407 -0.304945   1.21428 255 255 255
0.610278 -1.18868  1.31481 255 255 255
-0.152898 -0.354628   1.35968 255 255 255
 0.364724 -0.725514   1.37787 255 255 255
0.751583  -0.7173  1.20473 255 255 255
 0.835898 -0.722342   1.19001 255 255 255
0.858697 -1.09762  1.31464 255 255 255
0.806006  -0.6891  1.20487 255 255 255
 0.686472 -0.935543   1.24838 255 255 255
  1.19093 -0.874588   1.41463 255 255 255
 0.786744 -0.926211   1.25548 255 255 255
 0.313016 0.0215819   1.24067 255 255 255
-0.0695152  -0.365145    1.35523 255 255 255
0.622588 -1.16566  1.32264 255 255 255
 0.639256 -0.546961   1.34708 255 255 255
0.357527 -1.07229  1.40266 255 255 255
 0.784285 -0.349514   1.35944 255 255 255
-0.0149836  -0.406122    1.35436 255 255 255
 0.505309 -0.595322   1.33591 255 255 255
 0.272623 0.0366664   1.24093 255 255 255
 0.639201 -0.803629   1.20208 255 255 255
 0.349869 -0.198851   1.21275 255 255 255
 0.266698 -0.163332   1.21829 255 255 255
-0.147069 -0.187896   1.25629 255 255 255
-0.277472  -0.37432   1.27312 255 255 255
 0.159491 0.0891131   1.24136 255 255 255
0.0101941 -0.358614   1.35187 255 255 255
0.0562525 -0.407736   1.35728 255 255 255
 0.433163 -0.313647   1.35575 255 255 255
 0.276129 -0.167089   1.21661 255 255 255
0.437611 -1.22256     1.43 255 255 255
 0.754813 -0.658635   1.19239 255 255 255
  1.12034 -0.953684   1.42265 255 255 255
 0.115438 -0.214494    1.3405 255 255 255
0.887934  -0.4522   1.3568 255 255 255
 0.107399 -0.431607   1.35528 255 255 255
 0.259628 -0.157395    1.2213 255 255 255
 -0.2395 -0.30032  1.22465 255 255 255
-0.264079 -0.108451   1.22181 255 255 255
 0.183462 -0.355704   1.21128 255 255 255
 0.685908 -0.334244   1.35785 255 255 255
 0.995473 -0.582005   1.38121 255 255 255
 0.820808 -0.957345   1.23637 255 255 255
 0.298955 0.0241916   1.23367 255 255 255
 0.689208 -0.967983   1.24354 255 255 255
0.00453247  -0.101526    1.33679 255 255 255
 0.812802 -0.647121   1.19601 255 255 255
0.285799 -0.17123  1.21534 255 255 255
 0.86816 -0.81847  1.26255 255 255 255
0.00118513  -0.285608    1.35221 255 255 255
 0.638396 -0.714734   1.20674 255 255 255
  0.68317 -0.359977   1.35781 255 255 255
 0.683261 -0.613012   1.19473 255 255 255
0.576441 -1.18098  1.31617 255 255 255
0.432926 -1.18317  1.41118 255 255 255
  0.64411 -0.363378   1.35426 255 255 255
-0.277253 -0.375271   1.30541 255 255 255
 0.932967 -0.428309   1.34521 255 255 255
 0.669807 -0.891785   1.26142 255 255 255
-0.273726 -0.104259   1.22238 255 255 255
0.867939 -0.88227  1.26468 255 255 255
0.169225 0.088518  1.23138 255 255 255
-0.0432041  -0.602958    1.35201 255 255 255
 0.816344 -0.662432   1.19141 255 255 255
 0.40905 -1.10365  1.40011 255 255 255
 0.189555 -0.447048   1.35476 255 255 255
  0.362486 -0.0181935    1.23956 255 255 255
-0.0511149   -0.15386    1.33904 255 255 255
0.201154 0.218461  1.24106 255 255 255
 0.863756 -0.934836    1.2579 255 255 255
0.578337 -1.15655  1.31817 255 255 255
  0.69002 -0.738688    1.2051 255 255 255
 0.267163 -0.391768   1.20633 255 255 255
 0.686125 -0.288329    1.3518 255 255 255
 0.141594 0.0671293   1.24365 255 255 255
-0.0520661  -0.372446    1.35493 255 255 255
 0.707299 -0.840768   1.25812 255 255 255
 0.722885 -0.234836   1.35945 255 255 255
0.291587  0.12835  1.24599 255 255 255
 0.584092 -0.181909   1.33305 255 255 255
 0.202337 -0.364017   1.20867 255 255 255
  0.508414 -0.0795791    1.27384 255 255 255
0.471833 -1.15261  1.41107 255 255 255
0.630309 -0.79645  1.19725 255 255 255
0.0710243 -0.317561   1.30924 255 255 255
 -0.36629 -0.292926   1.21644 255 255 255
    1.038 -0.652188   1.38971 255 255 255
  0.26101 -0.301987   1.20946 255 255 255
 0.340378 0.0158894   1.23178 255 255 255
0.0150296 -0.656479   1.33985 255 255 255
0.263673 0.121706  1.24294 255 255 255
 0.775991 -0.945408   1.26279 255 255 255
-0.238538 -0.119072   1.22085 255 255 255
 0.237673 -0.413389    1.2111 255 255 255
0.617013 -1.19858  1.31286 255 255 255
 0.149502 -0.651811   1.34742 255 255 255
 -0.28351 -0.100425   1.22329 255 255 255
 0.245826 -0.616154   1.35749 255 255 255
-0.0638723 0.00952032    1.25074 255 255 255
0.0420254 -0.500134   1.35538 255 255 255
 0.798525 -0.910889   1.25823 255 255 255
 0.338204 -0.457159   1.35542 255 255 255
0.352592 -1.11138  1.39206 255 255 255
 0.684115 -0.653648   1.20041 255 255 255
 0.517121 -0.209099   1.33114 255 255 255
 0.517339 -0.208851   1.33013 255 255 255
  0.376156 -0.0272739    1.23928 255 255 255
0.820667 -0.75826  1.20725 255 255 255
0.0106026 -0.286109   1.34987 255 255 255
  0.85818 -0.531445   1.34972 255 255 255
0.0739864 -0.413213    1.3569 255 255 255
  0.32455 -0.210102   1.20966 255 255 255
-0.0474049  -0.415735    1.35679 255 255 255
 0.697845 -0.495453   1.35275 255 255 255
 0.187075 -0.345821   1.21173 255 255 255
 0.667473 -0.641339   1.19002 255 255 255
 0.174619 -0.678668   1.34709 255 255 255
0.238115 -0.35666  1.20658 255 255 255
0.0442834 -0.404168   1.35444 255 255 255
 0.138071 -0.195392   1.33704 255 255 255
0.230113 -0.37563  1.20679 255 255 255
0.0107898 -0.460657   1.35701 255 255 255
-0.0727112  -0.457171    1.32391 255 255 255
 0.319343 0.0255914   1.23635 255 255 255
 0.353155 -0.159122   1.19573 255 255 255
0.214598 -0.28205  1.21371 255 255 255
0.612944 -1.40395  1.44181 255 255 255
0.0823731 -0.322446   1.35054 255 255 255
0.0577281 -0.659803   1.33515 255 255 255
 0.657542 -0.916532   1.26303 255 255 255
 0.434256 -0.812492   1.38647 255 255 255
  0.24609 -0.591585   1.34975 255 255 255
0.431635 -1.14281  1.41167 255 255 255
 0.621599 -0.387856   1.35617 255 255 255
0.844224 -1.05965  1.31583 255 255 255
 0.320474 -0.332181    1.2163 255 255 255
 0.331933 -0.347579   1.22083 255 255 255
0.701271 -1.39477  1.44983 255 255 255
 0.652742 -0.732019   1.20556 255 255 255
 0.748094 -0.973363   1.25866 255 255 255
 0.551955 -0.203245   1.33097 255 255 255
0.775929 -1.12838  1.32155 255 255 255
 0.626852 -0.897041   1.24987 255 255 255
 0.261659 -0.172901   1.21844 255 255 255
 0.331058 -0.902062    1.3957 255 255 255
 0.642641 -0.768004   1.19365 255 255 255
 0.378494 -0.957677   1.39925 255 255 255
-0.356773 -0.297233   1.21553 255 255 255
 -0.17573 -0.554567   1.35582 255 255 255
 0.249721 -0.383984   1.20302 255 255 255
  0.319843 -0.0473822    1.23595 255 255 255
 0.344997 -0.208336    1.2127 255 255 255
 0.574799 -0.350142   1.35714 255 255 255
 0.692757 -0.915145   1.24396 255 255 255
 0.127432 0.0467302   1.24505 255 255 255
0.168375 -0.43879  1.35683 255 255 255
 0.23383 -0.36562  1.20743 255 255 255
  0.75852 -0.555181   1.34272 255 255 255
  0.473582 -0.0258685    1.28015 255 255 255
0.596513 -1.17061  1.30337 255 255 255
 0.258287 -0.722275   1.36772 255 255 255
-0.0176351 -0.0554909    1.26765 255 255 255
 0.257283 -0.311091   1.20944 255 255 255
 0.268967 -0.337643   1.20503 255 255 255
 0.29166 0.156347   1.2493 255 255 255
 0.817856 -0.464977   1.34866 255 255 255
 0.319456 -0.197421   1.20964 255 255 255
0.484211 -1.15386  1.40243 255 255 255
0.286282 0.111968  1.24038 255 255 255
 0.327826 -0.276554   1.20721 255 255 255
 0.528845 -0.208822   1.33156 255 255 255
  0.91988 -0.421048    1.3544 255 255 255
  0.53134 -0.408566   1.35608 255 255 255
 0.292452 -0.358219   1.20499 255 255 255
 0.66081 -1.42691  1.45016 255 255 255
-0.204546 -0.353195   1.23294 255 255 255
0.0305951 -0.424638    1.3535 255 255 255
-0.0190648 -0.0554897    1.30427 255 255 255
 0.351565 -0.222164   1.20876 255 255 255
 0.265042 -0.346827   1.20462 255 255 255
 0.277091 -0.319486   1.20485 255 255 255
0.770946 -1.14844  1.31643 255 255 255
 0.206225 -0.353626   1.20979 255 255 255
-0.294908 -0.403216   1.35543 255 255 255
 0.990368 -0.470558   1.38366 255 255 255
0.389198  -1.0256   1.3983 255 255 255
0.0668836 -0.664859   1.33446 255 255 255
-0.288765 -0.110202    1.2239 255 255 255
 0.761204 -0.905888   1.25617 255 255 255
0.697816 -1.17312  1.30836 255 255 255
 0.379616 -0.894094   1.40011 255 255 255
 0.622871 -0.439846   1.35595 255 255 255
 0.197475 -0.349877   1.20951 255 255 255
0.144211 0.057493  1.24358 255 255 255
 0.468848 -0.974083   1.39426 255 255 255
 0.264154 -0.767289   1.38023 255 255 255
 0.260679 -0.974634   1.38343 255 255 255
 0.283881 -0.328038   1.20461 255 255 255
 0.332625 -0.210899    1.2147 255 255 255
-0.0910947   -0.29308    1.29035 255 255 255
-0.243538 -0.128915   1.22089 255 255 255
 0.273003 -0.328853    1.2046 255 255 255
0.623738 -1.19638  1.31937 255 255 255
0.219831 0.141899  1.24532 255 255 255
 0.232431 0.0633777    1.2382 255 255 255
0.0584197 -0.636685   1.34302 255 255 255
0.497852 -1.08563  1.39091 255 255 255
-0.161356 -0.390198   1.35697 255 255 255
 0.218477 -0.272845   1.21392 255 255 255
  0.28014 -0.385316    1.2044 255 255 255
  1.11001 -0.623679   1.37959 255 255 255
 0.121571 -0.451968    1.3553 255 255 255
 0.365517 0.0891547   1.24204 255 255 255
 0.618796 -0.782196   1.20461 255 255 255
 0.195587 -0.367029   1.20845 255 255 255
 0.647776 -0.893885   1.26178 255 255 255
 0.801013 -0.889344   1.26134 255 255 255
 0.357256 -0.884488   1.39924 255 255 255
 0.737354 -0.643185   1.18562 255 255 255
0.0696393 -0.657946   1.33402 255 255 255
0.697751 -1.20526  1.31315 255 255 255
0.244625 -0.99097  1.37365 255 255 255
0.676433 -1.22529  1.31974 255 255 255
 0.280379 -0.496615   1.35944 255 255 255
 0.621495 -0.575668   1.34561 255 255 255
 0.741595 -0.648674   1.18545 255 255 255
 0.161128 -0.698864    1.3361 255 255 255
 0.316201 -0.919781   1.39877 255 255 255
0.0575442 -0.200011   1.34104 255 255 255
 0.378891 -0.758195   1.38806 255 255 255
 0.674554 -0.601416   1.18791 255 255 255
  0.363963 -0.0393644    1.23936 255 255 255
-0.255867  -0.32041    1.2194 255 255 255
 0.377717 -0.240182   1.29378 255 255 255
  1.14915 -0.881633   1.40768 255 255 255
0.586179 -1.36928  1.44729 255 255 255
 1.10078 -0.92266    1.414 255 255 255
 0.425525 -0.721854   1.37636 255 255 255
0.442696 -1.14206  1.41302 255 255 255
-0.00610611   -0.414455     1.35476 255 255 255
 0.743048 -0.659856    1.1845 255 255 255
-0.0167156  -0.455924    1.35926 255 255 255
 0.784846 -0.827485   1.26036 255 255 255
  1.02971 -0.854075   1.40931 255 255 255
-0.00265686  -0.0342338     1.30199 255 255 255
 0.646294 -0.735277   1.20916 255 255 255
0.00952049  -0.374708    1.35409 255 255 255
 0.262488 -0.793746   1.37928 255 255 255
 0.271386 -0.834216   1.39249 255 255 255
  0.21397 -0.381971   1.20946 255 255 255
   0.10115 -0.0474523    1.33322 255 255 255
-0.230343 -0.462559   1.35719 255 255 255
  1.05873 -0.914553   1.40892 255 255 255
  0.71329 -0.887747   1.24169 255 255 255
0.362248 -1.05913  1.39751 255 255 255
 0.714451 -0.897327   1.24197 255 255 255
-0.0597754  -0.316732    1.29213 255 255 255
 0.711547 -0.856509   1.24094 255 255 255
-0.200891  -0.35136   1.19774 255 255 255
  0.72328 -0.855372   1.24144 255 255 255
0.725221 -0.88685  1.24299 255 255 255
 0.856641 -0.964203   1.26363 255 255 255
0.0760975 -0.663122   1.33439 255 255 255
 0.332682 -0.151087   1.21789 255 255 255
 -0.57334 -0.199817   1.36709 255 255 255
 0.725599 -0.895209   1.24017 255 255 255
0.0166646 -0.374006   1.35355 255 255 255
  0.73833 -0.683416   1.20562 255 255 255
 0.139767 -0.281115   1.33558 255 255 255
0.732078  -1.4001  1.46247 255 255 255
 0.792582 -0.692213    1.2074 255 255 255
 0.312906 -0.357038   1.22373 255 255 255
0.0491301 -0.447437   1.35622 255 255 255
-0.134538 -0.382492   1.35751 255 255 255
 0.49717 -1.31785  1.44364 255 255 255
 0.434032 -0.655982   1.37635 255 255 255
-0.0584151  -0.479178    1.30579 255 255 255
-0.143358 -0.465721   1.35514 255 255 255
 -0.016751 -0.0618923    1.30682 255 255 255
-0.0275385  -0.441095    1.35819 255 255 255
-0.154386 -0.388998    1.3584 255 255 255
0.0777654 -0.498464   1.35705 255 255 255
-0.226235 -0.396892   1.35647 255 255 255
0.0479553 -0.639176   1.34508 255 255 255
 0.108996 -0.598507   1.34763 255 255 255
  -0.19171 -0.0491238    1.23708 255 255 255
0.385518 -0.24829   1.2263 255 255 255
-0.0373051    0.13578    1.29064 255 255 255
0.175893 0.118479  1.24903 255 255 255
-0.0955688   0.133078    1.24727 255 255 255
 0.359406 -0.321201   1.22174 255 255 255
-0.348882  0.251923    1.2469 255 255 255
-0.0389477 -0.0294321    1.27185 255 255 255
 0.742333 -0.357071   1.34068 255 255 255
-0.203105 -0.113246   1.23256 255 255 255
  0.253369 -0.0527763    1.22201 255 255 255
-0.00292624    0.489304     1.31926 255 255 255
 0.0140676 -0.0356448    1.31164 255 255 255
0.0267591  0.144508   1.29463 255 255 255
  0.62545 -0.306142   1.35728 255 255 255
 0.451852 -0.261366   1.26111 255 255 255
  0.356519 -0.0364172    1.23891 255 255 255
0.00620275  -0.429099    1.35953 255 255 255
  0.185196 -0.0143633    1.25123 255 255 255
-0.116002 0.0666881   1.25136 255 255 255
0.306614 0.111059  1.24226 255 255 255
 0.445272 -0.693068   1.37416 255 255 255
 0.221031 -0.119749    1.2517 255 255 255
 0.829141 -0.256458   1.35317 255 255 255
 0.511499 -0.526517   1.34244 255 255 255
 0.119211 -0.234091   1.34059 255 255 255
 0.566419 -0.101274   1.27703 255 255 255
-0.0207073   0.134982    1.30949 255 255 255
-0.299784   0.27063   1.27926 255 255 255
0.0685657  0.164479   1.27427 255 255 255
-0.100439 -0.333198   1.34878 255 255 255
0.0610648 -0.375417   1.35632 255 255 255
 0.719988 -0.397568   1.35888 255 255 255
 0.337682 0.0769865   1.24349 255 255 255
 0.237345 0.0460311   1.23842 255 255 255
 0.749285 -0.180582   1.36884 255 255 255
 0.0119829 -0.0749541    1.31927 255 255 255
 0.30868 -0.66142  1.35519 255 255 255
 0.824214 -0.215007   1.33378 255 255 255
-0.170304 -0.219417   1.29249 255 255 255
-0.167327  -0.25037   1.29586 255 255 255
0.0708324  0.477552    1.3234 255 255 255
 0.0260011 0.00802819    1.22482 255 255 255
-0.548802  0.239008   1.28509 255 255 255
-0.0670567   0.191219     1.2786 255 255 255
0.304323 -0.69134  1.35573 255 255 255
-0.0361392   0.449463    1.31471 255 255 255
 0.585473 -0.508201   1.35017 255 255 255
0.258927 0.037439  1.24198 255 255 255
 0.172642 -0.701024   1.32299 255 255 255
0.250919 0.130873  1.24325 255 255 255
-0.498242  0.280506   1.30189 255 255 255
0.00642764    0.41154    1.31727 255 255 255
-0.566312  0.207061   1.28673 255 255 255
-0.0258654 -0.0397996    1.27528 255 255 255
  0.31804 -0.189399   1.21426 255 255 255
 -0.12471 -0.183486   1.28037 255 255 255
 0.772013 -0.510178   1.35411 255 255 255
 0.816066 -0.473059   1.35556 255 255 255
-0.132948 0.0990176   1.25205 255 255 255
 -0.13306 0.0979057   1.24835 255 255 255
  0.35792 0.0861193   1.23939 255 255 255
-0.0478656  0.0614887    1.28761 255 255 255
 -0.115646 -0.0115056     1.2682 255 255 255
0.0652454 -0.681749   1.33591 255 255 255
-0.0949552 0.00513131    1.27788 255 255 255
 0.399736 -0.882126   1.39903 255 255 255
-0.0371933     -0.194    1.34058 255 255 255
0.0187293  0.244307   1.31879 255 255 255
 0.752389 -0.499153   1.35353 255 255 255
0.335889 -0.20235  1.21645 255 255 255
-0.144891 0.0627214   1.23986 255 255 255
  0.465641 -0.0147624    1.23975 255 255 255
-0.382327 -0.063966   1.23392 255 255 255
 0.0450104 -0.0477851    1.33393 255 255 255
0.0985245  0.106276   1.24457 255 255 255
0.322005 0.116579  1.24553 255 255 255
-0.110793  0.537484   1.32487 255 255 255
-0.26387 0.332451  1.31921 255 255 255
  0.549374 -0.0764097    1.27127 255 255 255
0.00176776   0.510251    1.31877 255 255 255
 0.170854 -0.241539   1.33662 255 255 255
 0.703427 -0.586795   1.34352 255 255 255
-0.150962  0.634259   1.32432 255 255 255
-0.0170675  -0.378302    1.35313 255 255 255
  0.454992 -0.0485845    1.26138 255 255 255
 0.723915 -0.583335   1.34355 255 255 255
-0.456583  0.260586   1.26985 255 255 255
0.0825716 0.0596199   1.25299 255 255 255
0.0904892  -0.38137   1.35478 255 255 255
-0.0525317  0.0185048    1.26358 255 255 255
0.156558 0.151947  1.23053 255 255 255
0.157229 0.152766  1.23131 255 255 255
   0.285198 -0.00280202     1.23637 255 255 255
-0.0338865  0.0111957    1.25718 255 255 255
-0.087524 0.0330918   1.27591 255 255 255
 0.059831 -0.500411   1.35414 255 255 255
 0.148561 -0.202055   1.33711 255 255 255
 0.795337 -0.478893   1.35653 255 255 255
-0.278373  0.194905   1.24783 255 255 255
-0.203583  0.435487    1.3245 255 255 255
0.00996936    0.43299    1.32403 255 255 255
 0.569416 -0.658147    1.2279 255 255 255
0.0318294  0.377166   1.32426 255 255 255
-0.0137323  0.0992266    1.29119 255 255 255
