ply
format ascii 1.0
element vertex 1144
property float x
property float y
property float z
property uchar red
property uchar green
property uchar blue
end_header
 0.239948 -0.752553   1.07728 148 114 77
 0.172606 -0.794178   1.09705 180 164 130
-0.250637 -0.685851   1.11367 57 58 44
 0.228242 -0.466183     1.287 169 158 138
-0.546506 -0.455363   1.15088 160 162 149
-0.387984 -0.664865   1.07088 173 167 153
 0.287004 -0.588924   1.13098 88 79 70
 0.236505 -0.718601   1.09512 173 163 136
-0.151993 -0.729406   1.14182 167 143 107
 0.325294 -0.746057   1.05923 172 150 111
 0.206987 -0.747656   1.11304 194 187 158
-0.133905 -0.735474   1.09805 171 151 124
-0.655292 -0.486377   1.13728 92 96 81
-0.358222 -0.724737   1.04525 110 103 85
-0.243843 -0.384142   1.36844 143 113 87
 0.193811 -0.805271   1.07625 171 140 109
 0.362616 -0.718211   1.01259 153 131 94
-0.623946 -0.481385   1.05554 151 152 144
 0.139579 -0.518736   1.29968 153 147 133
-0.358871 -0.312862    1.3479 155 152 145
0.0859779  -0.80019   1.07572 161 135 100
-0.274604 -0.470949   1.30992 155 131 105
-0.415388 -0.655453   1.05959 146 147 133
0.213107 -0.76471  1.09688 146 110 74
   -0.634 -0.404403   1.16219 138 145 138
-0.0471652  -0.817198    1.06809 155 129 102
  0.38443 -0.644873   1.03016 139 125 98
 -0.68679 -0.474178   1.11576 124 131 115
0.0721236 -0.427607   1.39303 209 199 174
-0.376721 -0.683943   1.05855 87 87 79
 0.187141 -0.780574   1.09636 149 125 91
 -0.37772 -0.257137   1.34306 88 84 73
-0.132061 -0.775629   1.09319 123 117 101
 0.384549 -0.744281  0.971454 147 121 84
 0.235517 -0.557703   1.16486 151 139 115
 0.281199 -0.682716   1.11531 187 180 152
0.0195104  -0.54444   1.31876 88 87 85
 0.210303 -0.723111   1.10943 148 134 108
 0.366328 -0.574749    1.0471 97 82 63
 0.106167 -0.438971   1.40984 188 177 149
 0.130629 -0.322255   1.42141 255 255 251
0.0129545 -0.423299   1.43253 219 212 196
0.0885987  -0.43393   1.38605 200 191 174
 0.316533 -0.714082   1.07169 150 132 96
-0.490505 -0.636702    1.0827 135 128 109
-0.191829 -0.770674   1.10761 117 109 90
 -0.33574 -0.692524   1.04072 159 159 147
-0.463136 -0.514335   1.21076 175 149 124
-0.549292 -0.500441   1.13674 178 172 160
 0.392392 -0.665856   1.02252 144 131 97
 0.354878 -0.765856   1.00504 173 158 117
 -0.18984 -0.766085   1.05268 162 161 143
-0.105675 -0.271178   1.53586 219 197 176
0.0188791 -0.817906    1.0912 178 164 138
-0.376885 -0.691062    1.0564 133 133 121
 0.224897 -0.794188   1.04169 152 126 91
 0.323193 -0.750641   1.04231 173 151 112
 0.201535 -0.756803   1.09659 177 155 114
  0.32734 -0.760641    1.0193 145 117 80
 0.292296 -0.699002    1.0689 154 135 102
  0.23271 -0.796747   1.04191 154 130 94
-0.559168 -0.456571   1.13003 172 174 161
 0.177607 -0.767552   1.10588 151 124 94
0.0590986 -0.583632   1.26695 40 33 25
0.0756734 -0.743396   1.14277 196 177 144
 0.240242 -0.390958    1.3649 190 183 164
-0.0707317   -0.76473     1.1215 174 151 117
-0.0563709  -0.365712    1.53636 110 82 70
-0.523673 -0.543026   1.19356 162 153 144
-0.0695977  -0.760118    1.14488 176 165 135
0.0266685 -0.828646   1.07688 179 172 146
 0.183546 -0.376639   1.40108 193 190 173
 0.239541 -0.495771   1.22701 181 181 169
-0.323261  -0.70819   1.07126 74 70 59
-0.370876 -0.250117   1.34782 173 169 157
0.297843 -0.75874  1.04866 177 154 113
-0.191732 -0.589693   1.20324 247 252 248
-0.187638 -0.741659   1.10786 149 125 99
 0.270158 -0.400779   1.27939 207 203 191
-0.613575 -0.441792   1.21225 96 98 85
-0.291031 -0.479174   1.30864 185 149 125
-0.387176 -0.688181   1.05721 154 155 141
-0.463979 -0.471771   1.18575 241 242 236
-0.199887  -0.77594   1.06513 113 110 91
-0.0565467  -0.741609    1.16539 161 143 107
 0.401213 -0.556804   1.01673 241 248 240
 -0.25343 -0.331936      1.39 160 134 111
-0.15352 -0.79175  1.07622 129 126 111
 0.388795 -0.641675   1.03474 176 169 150
 0.245126 -0.412974   1.27639 205 206 190
-0.0610558  -0.265527    1.56818 179 148 127
 0.260227 -0.798131   1.02081 152 133 101
 0.155494 -0.550794   1.26973 66 59 49
 0.165546 -0.572044   1.24097 122 122 110
-0.306466  -0.68599   1.11137 185 174 152
-0.109764 -0.788335   1.08457 128 121 103
-0.429399 -0.398643   1.27386 128 131 102
-0.159674 -0.322968   1.48423 157 114 82
-0.355627 -0.257259   1.36252 164 160 151
 0.138443 -0.457061   1.37385 183 177 153
0.0240291 -0.388184   1.44112 215 213 200
 0.197938 -0.766032   1.10094 152 123 89
-0.016889 -0.334055   1.56658 146 143 134
-0.144214 -0.312669   1.50408 174 134 109
 0.227605 -0.432638   1.32377 184 172 156
-0.465715  -0.32976   1.81642 78 85 67
-0.0548622  -0.272934    1.53559 131 120 100
-0.257459 -0.683818   1.11567 176 177 163
 0.186996 -0.763653   1.09776 155 122 89
-0.00657964   -0.415743     1.46289 198 196 183
0.0146638 -0.447262    1.4011 211 209 196
 0.414459 -0.564699   1.01963 143 131 107
 0.193155 -0.530679   1.26208 81 78 63
 0.353528 -0.712065   1.04585 180 171 140
 0.048374 -0.297782   1.60463 166 149 131
0.345255  -0.6718  1.06741 119 114 94
-0.757378 -0.510665   1.18658 40 45 39
-0.193904 -0.738065   1.10139 128 113 90
0.0411539 -0.131526   1.64065 211 183 159
-0.0490478  -0.182311    1.60077 197 148 116
-0.125467 -0.233594   1.63064 215 184 156
0.0317545 -0.198058   1.59743 185 159 144
0.335971 -0.27504  1.71371 208 207 202
-0.175191  -0.12485   1.51661 63 62 57
-0.0753698 -0.0504025    1.58396 186 173 154
 0.396742 -0.261385   1.81563 167 166 145
  0.24969 -0.342318   1.73587 86 76 64
-0.166162 -0.221781   1.62309 160 153 135
-0.0672035 -0.0537217    1.59737 107 95 79
 0.117314 -0.103154   1.62324 203 174 144
 -0.134619 -0.0454901    1.55664 66 62 51
 -0.116555 -0.0998607    1.57966 178 171 152
-0.202469 -0.109315   1.59808 79 82 75
-0.261381 -0.352651   1.73314 203 162 140
-0.0544326 -0.0987253    1.60448 245 232 224
-0.0918821  -0.110564    1.58296 174 167 151
-0.061097 -0.268463   1.62152 206 185 158
   0.3776 -0.263419   1.70394 202 195 185
 0.0672541 -0.0835819    1.65571 223 195 171
-0.0251044  -0.270013    1.57738 204 197 189
-0.0861091  -0.269811    1.63888 166 146 121
-0.215077 -0.286698   1.46026 129 103 80
 0.0513343 -0.0908886    1.57379 214 170 143
 -0.121688 -0.0497227    1.56159 83 73 63
-0.0703706 -0.0368451    1.57566 164 153 131
 0.0740246 -0.0906308    1.65994 162 134 112
-0.051131 -0.128105   1.59576 191 169 158
-0.0292555 -0.0864727    1.60247 128 110 98
 -0.39748 -0.281967   1.75073 91 104 86
0.0333103 -0.222095   1.60698 143 136 126
 0.252705 -0.294163   1.72398 139 124 103
-0.448805 -0.336595   1.81594 90 95 75
-0.223633 -0.110083   1.60463 82 83 77
0.0522176 -0.149043   1.60652 175 134 102
-0.221055 -0.210976   1.63566 97 100 83
 0.245563 -0.255855   1.70557 207 199 186
-0.184106 -0.219035   1.64608 245 242 235
0.0874938 -0.127729   1.59978 186 141 110
-0.136152 -0.109324    1.5869 194 187 168
-0.141677 -0.217074   1.53064 197 168 150
-0.182469 -0.275606   1.67496 206 184 163
-0.196595 -0.176009   1.49817 114 109 89
-0.0268081  -0.254236    1.59391 201 190 172
-0.239485 -0.183924   1.61966 164 168 153
 0.220805 -0.277647   1.66534 145 127 107
-0.379605 -0.332156   1.76498 112 109 90
0.0466836 -0.258598   1.52836 250 245 241
 0.326845 -0.173028   1.75995 199 187 161
 0.394478 -0.269927   1.80258 188 187 167
0.0574033 -0.261753   1.64206 247 235 235
 -0.137303 -0.0924837    1.55333 107 99 78
-0.0988128  -0.272491    1.52688 164 145 115
 0.114632 -0.112109   1.65854 195 159 133
-0.0538151  -0.138527    1.59078 206 182 170
-0.0194122  -0.210151    1.59814 226 187 156
-0.087858 -0.313584    1.6498 147 136 108
 -0.160257 -0.0329282    1.57964 65 71 61
    -0.156 -0.0775007      1.582 76 76 66
 -0.200068 -0.0424882    1.52815 72 80 59
-0.0878885 -0.0699681    1.57861 192 183 168
 0.259939 -0.318749   1.68215 97 94 89
 0.226384 -0.235009   1.68967 207 198 183
  0.40752 -0.285389   1.82895 195 191 179
 -0.023956 -0.0945977    1.54806 203 177 154
 0.122643 -0.110948   1.63006 174 152 128
   0.2857 -0.301472   1.74376 206 206 196
-0.0309362  -0.277448    1.52675 221 215 201
-0.114402 -0.198521   1.61349 135 118 88
 0.314991 -0.331288   1.77658 114 119 113
-0.0265706  -0.309152    1.65418 141 143 132
  0.40788 -0.260094   1.82067 197 194 175
0.0481456 -0.185774   1.60807 213 176 150
  0.37879 -0.334917   1.81686 186 187 173
 -0.102854 -0.0922269    1.57848 220 215 196
 -0.077054 -0.0793551    1.58259 80 78 63
0.0638999  -0.19586   1.61698 139 117 96
0.0727239 -0.117791   1.60433 173 136 107
-0.139773  -0.10028   1.58417 187 179 158
-0.158342 -0.154924   1.60061 125 123 102
-0.0907987  -0.115656    1.57484 183 170 162
  0.22688 -0.291693   1.69391 147 126 107
 -0.123991 -0.0701023    1.57294 200 187 170
-0.222845 -0.233714   1.64222 66 67 49
-0.0510741   -0.25747    1.58267 157 136 117
 0.243918 -0.214753   1.69216 183 172 152
 0.262182 -0.362475   1.74933 73 76 65
 -0.145553 -0.0673651    1.58687 87 85 70
 0.101192 -0.118053   1.66476 218 181 155
 0.382881 -0.245051   1.79821 207 196 174
-0.169915  0.194064   1.48813 107 122 83
 -0.584328 -0.0233347    1.10841 40 56 30
0.0733576 -0.143482   1.64835 192 147 118
-0.497859  0.127885   1.33458 53 62 43
  0.045297 -0.0976512    1.64724 196 151 122
-0.0174361  -0.197218     1.5901 198 167 138
 -0.579935 -0.0644071    1.16133 68 70 59
 -0.10605 -0.328918   1.52365 187 171 156
 0.0232747 -0.0796968     1.6459 208 185 167
-0.391994  0.159751   1.39321 117 121 104
0.0603677 -0.170626   1.60682 215 179 145
-0.287347  0.216242   1.44671 207 209 198
-0.0197164    0.01093    1.63358 222 212 200
-0.461686  0.160781   1.34964 232 242 231
0.0671341 -0.221501    1.5711 129 116 107
-0.0473581  -0.179216    1.64961 186 139 111
-0.0496986 -0.0176283    1.57987 161 129 104
 0.113357 -0.053682   1.67901 158 142 127
 0.0431182 -0.0903152    1.60029 188 143 110
-0.496165 0.0698412   1.29336 60 71 57
  0.134652 -0.0396232    1.68271 162 143 126
-0.737376  0.131395   1.40755 85 78 62
-0.358288  0.166638   1.41249 244 236 223
  0.124937 -0.0715601     1.6419 217 200 174
 0.120752 -0.179046   1.65631 99 86 70
-0.000730155    0.0270146      1.55332 176 160 137
-0.0871314  -0.012248    1.58054 196 188 177
-0.0582486  0.0251989    1.58922 106 94 80
-0.197982  0.179987   1.46438 40 50 25
-0.36247 0.183944   1.4187 198 203 196
0.0250687 -0.126208   1.56419 192 149 114
-0.411528  0.163906   1.37979 213 225 201
-0.397692     0.174   1.38632 216 230 207
-0.448213  0.114148   1.33832 205 212 204
  0.0182939 -0.00120696     1.64971 82 72 60
 -0.4621 0.184275  1.34153 211 231 206
-0.272926 -0.346643   1.37077 110 88 64
 0.0891501 -0.0265579    1.59961 161 134 105
-0.435031  0.139744   1.35508 66 85 55
0.00741767  0.0134446     1.5551 110 100 75
-0.0748574  -0.333977    1.53393 193 181 167
-0.0298201  -0.361831      1.542 235 230 227
-0.474592  0.150677   1.30669 220 229 212
 -0.613535 -0.0596449    1.13117 203 203 195
-0.441592  0.136174   1.35192 79 87 74
-0.0223442  0.0446234    1.54872 221 213 200
0.0538552 -0.300112   1.60867 120 101 87
 -0.0698321 -0.00437924     1.58803 205 193 181
0.0721893 -0.244065   1.54272 132 115 107
  0.0965005 -0.00833976     1.65889 157 136 119
0.0193335  -0.22681   1.61181 149 138 132
-0.301449   0.12766    1.4561 112 115 88
-0.485085 0.0594684   1.31205 87 99 75
0.0865783 0.0321515   1.65403 110 92 82
-0.451497  0.178725   1.35033 194 205 201
-0.401186  0.141481    1.3908 233 237 222
-0.722177  0.120815   1.35744 192 180 168
-0.301597  0.218802    1.4355 211 208 199
-0.141904 -0.188785   1.53624 212 198 187
-0.0392917  0.0282468    1.60255 221 203 181
-0.0597305  -0.037361    1.57729 109 98 78
-0.214128  0.237578   1.48727 89 93 76
0.0635492 -0.140937   1.64878 179 133 107
-0.549002 0.0377143   1.23199 72 85 59
-0.0301684  -0.336422    1.55602 157 154 145
-0.431932  0.105816   1.36098 113 106 96
-0.0124084  0.0528078    1.63369 219 216 201
-0.0727315 -0.0435435    1.70778 153 138 115
-0.0841537  -0.121839    1.58961 244 243 238
0.0648157 0.0226394    1.6456 255 254 243
  0.123322 -0.0344687    1.67895 198 172 149
-0.0307491  -0.217265     1.5922 216 181 153
-0.520438 -0.058069   1.20226 193 194 188
-0.415732  0.139358   1.38437 229 235 221
-0.121803 -0.340375   1.50918 190 179 159
   0.05346 -0.0666238    1.59459 206 177 145
-0.410644  0.144401   1.38629 89 101 79
-0.410956  0.155187   1.38202 70 84 58
-0.401279     0.122   1.39692 236 227 222
-0.0875023  -0.116511    1.58441 96 87 80
0.000627744   -0.369415     1.47125 216 213 206
-0.0385333   -0.19117    1.63768 193 156 127
-0.457292  0.113753   1.33151 132 138 136
-0.0150551  -0.225785    1.59827 179 143 117
-0.0692837  -0.147408    1.58502 213 192 171
-0.269812 -0.390827   1.39569 195 175 150
-0.0489758  0.0251613    1.59786 201 180 159
0.0393566 0.0167596   1.56973 196 190 168
  0.0729486 -0.00706276     1.66901 144 137 118
 -0.560115 -0.0697441    1.19259 204 205 197
 0.0790874 -0.0304563    1.60012 211 192 162
-0.156051 -0.181354   1.52188 122 116 104
  -0.630766 -0.00811598     1.12097 60 73 55
-0.380813  0.166087   1.40008 188 197 178
-0.0347961  -0.317646    1.56027 202 197 193
0.00420856  -0.146747    1.64873 179 135 100
-0.446873  0.145562   1.34054 198 206 195
-0.0698342 0.00671993     1.5845 124 107 99
-0.243819 -0.366408   1.37449 156 123 90
-0.492068   0.14769    1.2886 67 75 62
 -0.867066 -0.0402778    1.60032 216 225 220
 -0.0792254 -0.00148962     1.58322 113 103 93
-0.427969  0.185822   1.36311 203 214 197
-0.247201 -0.340504   1.42923 145 108 89
0.0318547  -0.29516   1.64776 232 219 213
 0.109563 -0.186522   1.65132 187 164 146
-0.188359  0.247256   1.50355 201 206 183
0.0682556 -0.189264   1.64282 183 146 119
0.0796688 -0.178987   1.61143 149 125 99
-0.0662075 -0.0307809    1.59017 217 204 187
-0.0840351    -0.2359    1.57944 195 174 147
-0.534858  0.128273   1.23677 47 52 48
  -0.3467 -0.350389   1.34396 164 158 146
-0.284818 -0.294326   1.41201 66 69 48
 0.113658 -0.190412   1.64925 114 94 85
-0.379353  0.219454   1.40749 211 223 213
 0.0312351 -0.0897756    1.66837 192 175 149
-0.0425349  -0.367821    1.53743 91 83 72
0.0726268  -0.26098   1.53794 85 69 56
0.0368239 0.0289961   1.63416 195 188 172
-0.397705  0.133261   1.39554 227 223 214
0.0784201 -0.411992   1.41035 195 178 148
-0.281316 -0.249645   1.45492 105 98 69
-0.396028  0.129734   1.42574 200 207 199
-0.0844983  -0.081858    1.59176 80 78 63
-0.275695 -0.324731   1.41313 113 99 86
 -0.035539 -0.0111538    1.53451 201 179 158
-0.0783822 -0.0661935    1.59011 146 137 122
-0.416189  0.148515   1.38178 183 202 172
-0.352813  0.185364   1.41178 227 233 221
-0.0620345  -0.198766    1.58234 182 141 113
-0.100697 -0.332862   1.52084 209 193 177
-0.528376 -0.301223   1.14609 21 30 9
 0.301832 -0.733295   1.08167 159 130 90
 0.369368 -0.720187   1.00985 160 142 106
-0.489308 -0.658752   1.04198 142 139 124
-0.210321  -0.75212   1.10609 154 147 128
 0.301243 -0.685244   1.04158 159 135 97
-0.426424 -0.694159   1.01887 135 133 118
-0.385063 -0.694189   1.05312 146 136 124
 0.351791 -0.738928   1.01284 176 166 131
  0.41106 -0.694684  0.958888 153 129 91
 -0.36192 -0.712397   1.05222 153 148 128
 -0.38508 -0.682725     1.083 154 149 130
0.00877797  -0.799816    1.10739 183 175 139
-0.254793 -0.701478   1.10559 165 166 152
-0.373532 -0.691475   1.04262 145 137 124
-0.151526 -0.739025   1.11941 165 148 128
 0.367752 -0.673103   1.03841 161 144 114
-0.672572  -0.38184   1.20366 17 18 10
0.0309708 -0.408074   1.43371 126 117 102
-0.221312 -0.455251   1.36507 199 198 193
 0.223891 -0.559724   1.20864 93 85 66
 0.233182 -0.545378   1.20874 83 80 63
-0.172902 -0.725849   1.12479 166 150 124
-0.111256 -0.336184   1.68758 173 137 111
 0.233095 -0.533431   1.20787 166 160 134
-0.0372766  -0.700757    1.19576 175 166 137
 0.299104 -0.760022   1.02522 182 170 132
 0.418506 -0.557631  0.970656 145 114 86
-0.622892 -0.460268     1.161 106 108 94
-0.402428 -0.254381   1.31878 65 67 46
 -0.29099 -0.690672   1.09838 125 122 107
0.225967 -0.45065  1.30576 176 165 147
 0.167819 -0.818088   1.06417 187 179 143
 0.400805 -0.695532  0.987572 146 128 92
-0.130596 -0.582064    1.2391 154 132 111
 0.103401 -0.382666   1.60271 120 117 108
-0.191675 -0.707973   1.12715 169 161 140
-0.267287  -0.73954   1.09166 152 149 134
 0.343939 -0.661899   1.06274 192 186 170
-0.0467115   -0.78239    1.10029 158 125 92
-0.107967 -0.727875   1.15913 199 178 151
 0.281769 -0.578559    1.1293 156 149 133
-0.150023 -0.284711   1.65062 176 134 110
-0.467173 -0.678201  0.990741 85 87 84
-0.537675 -0.324815   1.24831 110 109 105
-0.464474 -0.672378    1.0031 45 46 40
 0.195764 -0.471539   1.30266 196 190 166
-0.413284  -0.32782   1.30029 93 88 69
-0.492535 -0.488846   1.20518 89 83 71
-0.631066 -0.466447   1.04713 145 156 142
-0.099784 -0.766517   1.11226 138 108 80
 0.328347 -0.737878   1.03094 159 137 100
-0.421605 -0.698158   1.03232 129 128 110
 0.225671 -0.685439   1.11666 190 180 153
 0.136055 -0.792243   1.09588 187 164 130
0.000702782   -0.799218     1.09228 140 124 99
 0.213708 -0.420548   1.31278 200 192 169
-0.108317  -0.57012   1.26839 87 75 63
-0.230737 -0.538997   1.30641 53 42 22
-0.364127 -0.576334   1.18866 186 179 161
-0.559511 -0.508532   1.12308 91 91 81
 0.126922 -0.811725   1.07083 151 127 93
-0.103589 -0.787564   1.08931 172 164 143
0.132845 -0.52576  1.30335 165 160 140
-0.447695 -0.556829   1.18947 158 149 132
 0.223937 -0.594131   1.15689 37 37 25
-0.387686 -0.455177   1.29085 165 159 145
-0.553053 -0.527957   1.17847 92 79 63
 0.125714 -0.256806   1.47139 191 174 148
-0.634668 -0.390044   1.19701 39 44 38
-0.0174106  -0.213181     1.5801 179 139 113
 0.101986 -0.406435   1.39121 202 187 168
  0.19921 -0.741275    1.0954 186 179 150
-0.508268 -0.502473   1.17455 69 74 68
 0.245292 -0.690065   1.11853 177 163 134
 0.236139 -0.559244    1.1972 179 170 141
 0.118658 -0.589217   1.22392 79 85 83
0.0979422 -0.236891   1.52107 82 65 45
0.0107702 -0.386279   1.45935 198 194 182
  0.32277 -0.570106    1.1134 154 153 135
-0.229385 -0.739814   1.07852 167 160 141
-0.531961 -0.452769   1.15923 70 73 56
0.0905859 -0.368222   1.41174 172 165 139
 0.171995 -0.324947   1.65304 196 171 141
-0.572635 -0.519858   1.16226 142 138 126
 0.123923 -0.557314   1.27511 70 70 58
 0.170151 -0.585307   1.22121 114 110 98
0.0294836 -0.448592   1.36515 163 151 135
-0.00539592   -0.563426     1.28919 51 56 52
-0.339974 -0.259753   1.37514 143 139 128
-0.119615 -0.340313   1.67861 201 183 159
-0.267289 -0.229766   1.43779 84 83 55
 0.137754 -0.469965   1.35572 160 155 136
-0.196065 -0.239838   1.48938 87 70 50
0.129462 -0.24753  1.64943 93 100 56
-0.0180985  0.0552017    1.60998 224 219 200
  0.17654 -0.165582     1.674 75 74 70
 -0.118053 -0.0788808    1.55255 167 146 127
-0.316221 -0.169443   1.47369 23 24 19
-0.338221 -0.106294   1.46034 78 87 60
 0.144688 0.0281223   1.67756 205 193 177
-0.240801  -0.16723   1.51028 183 184 170
-0.0449949 -0.0491292     1.5981 123 114 97
-0.190771 -0.115677    1.5353 58 60 49
 -0.165899 -0.0582496    1.54607 75 75 67
 -0.283602 -0.0760605    1.48975 22 26 12
-0.251685 0.0402532   1.49932 25 33 18
-0.399925 -0.118379   1.42854 28 36 15
-0.0964564  -0.265433    1.55018 201 175 150
-0.436278  0.146891   1.37001 84 105 66
-0.0754587 -0.0182567     1.5854 204 197 181
-0.509626  0.144144   1.26234 226 231 224
 -0.268736 -0.0160151    1.49255 30 37 21
 0.185398 -0.115661    1.6841 200 191 176
-0.488508 0.0166384   1.35806 73 77 60
-0.253075  0.102472   1.49219 30 31 23
0.0336544 0.0507558   1.62983 218 214 205
-0.303693 -0.120598   1.47961 109 112 83
-0.279256 -0.177645   1.49043 34 34 26
  0.18358 -0.236545   1.66681 210 201 186
-0.430139 -0.156546   1.41397 96 109 56
-0.269401 -0.214441   1.49677 143 142 124
-0.519314  0.107212   1.25979 70 90 65
 -0.133751 -0.0232603    1.55871 90 87 82
 -0.35928 0.0418688   1.43767 35 39 25
-0.105357 -0.036865   1.57541 81 77 65
-0.261898 0.0748769     1.484 81 88 54
 0.0264197 -0.0341211    1.62869 179 172 164
-0.0146543  -0.163649    1.59884 191 141 114
-0.262357 -0.444068   1.39276 167 138 122
-0.219579  0.136889   1.50057 90 97 79
-0.204557  0.104842   1.51348 18 20 15
-0.161441  0.123239   1.53366 79 83 68
-0.354306  0.136733   1.42892 245 238 222
-0.482362  -0.15832   1.38907 80 87 54
 -0.252345 -0.0454468    1.50396 90 80 68
-0.0529494  -0.368847    1.53017 139 106 91
-0.199527 -0.129426   1.60432 37 38 30
-0.0943026  0.0981629    1.57086 54 53 51
 0.351431 -0.190698   1.72087 211 204 176
-0.346144 -0.083566   1.45875 110 113 86
 -0.43973 -0.110775   1.39706 113 125 89
0.0586391  -0.12365   1.65009 207 183 159
-0.0197164    0.01093    1.63358 222 212 200
  0.191284 -0.0468996    1.69394 170 147 129
 -0.160649 -0.0117056    1.55118 33 37 38
-0.396078 -0.061373   1.42349 18 25 18
 0.145337 -0.311074   1.64395 95 102 50
  0.136746 -0.0509655    1.62125 217 197 173
 -0.490835 -0.0301345    1.36671 46 51 29
-0.0734613  0.0935611    1.58089 231 231 221
-0.0968958  0.0232333    1.57217 105 100 97
-0.186525 0.0791849    1.5327 16 17 22
 0.214869 0.0105752   1.71023 214 194 170
 -0.10606 0.0722376   1.56809 113 115 110
-0.172987 0.0421432   1.53266 20 20 18
-0.292849 0.0640016   1.46966 26 34 19
0.0227609 -0.255086   1.60976 185 186 178
0.0998495 -0.274665   1.63666 65 74 47
-0.383712 -0.203827   1.44309 91 97 59
-0.311121 0.0985184   1.45687 81 83 61
 -0.325429 0.00507982    1.46356 111 109 84
-0.254593   -0.1877   1.50423 144 142 129
 -0.264428 -0.0882843    1.49481 32 32 22
-0.434557 0.0498946   1.39118 35 37 26
 0.0135162 -0.0577242    1.62224 151 132 117
  0.279058 -0.0267528    1.72853 210 207 188
-0.541044 -0.466459    1.1548 159 161 150
-0.141023 -0.178216   1.54807 155 146 129
-0.411231 0.0189846   1.42234 25 25 15
  0.238015 -0.0414049    1.71015 220 211 196
 -0.569452 -0.0540051     1.1857 35 38 29
-0.11601 0.120055  1.55696 33 37 23
 0.171491 -0.260948   1.66212 68 68 30
 0.160745 0.0488202   1.68349 202 195 169
-0.455916 0.0964504   1.33315 187 195 180
  0.322981 -0.0308283    1.74729 142 115 94
 0.327336 -0.157639   1.73332 210 201 186
-0.187574  0.153392   1.51807 64 72 48
-0.493109 -0.079239   1.37376 101 106 84
   -0.3755 -0.0597261    1.43479 60 64 50
  0.116779 0.00116997    1.67857 161 130 102
-0.245621 0.0685254   1.50205 26 34 13
 -0.46589 0.0919102   1.36199 18 19 13
-0.42452 -0.18217  1.41683 40 48 11
-0.342659   0.11477   1.43495 65 58 48
 -0.22882 0.0609298   1.50827 89 100 70
-0.137012  -0.11937   1.54413 190 182 163
  -0.45029 -0.0597397    1.39442 33 37 20
-0.445902  0.168007   1.35744 28 37 32
 -0.12509 0.0199948   1.56394 39 37 38
  0.14528 -0.330139   1.64182 194 190 165
-0.212503 0.0640463   1.51512 15 22 6
-0.483903 0.0703928   1.36621 212 217 197
 -0.435504 -0.0616383    1.40031 103 107 74
-0.412918 0.0724912   1.40174 46 50 35
-0.488227 -0.448388   1.20929 170 171 155
-0.271039  0.141318   1.47196 86 102 57
-0.0899084  0.0813702    1.57504 58 51 43
 0.162385 -0.238994   1.66198 54 63 34
 0.168509 0.0111805   1.68211 207 191 166
 0.227438 -0.121555   1.70019 213 200 183
-0.301193 0.0890142   1.46513 83 93 58
-0.445108  0.164611   1.33727 232 242 231
-0.00268314   0.0740637     1.61326 223 220 203
 -0.38575 0.0706141   1.41736 38 42 27
-0.0831401 -0.0361326    1.58263 197 185 163
-0.283885 0.0810571   1.47798 26 36 12
-0.378606 -0.314982   1.33773 115 111 102
-0.367164 -0.123513    1.4463 41 44 25
 -0.0134943 -0.00344829     1.61575 136 127 112
-0.375968 -0.148633   1.44263 97 104 96
-0.487071 0.0543569    1.3079 93 105 81
-0.00973455   0.0882389     1.61097 117 112 92
-0.226238 0.0447721   1.51851 22 31 12
-0.183782 0.0498709   1.53088 14 16 13
-0.228035 0.0999946   1.50479 34 37 26
-0.512383 -0.420687   1.18343 108 111 102
  0.32208 -0.255894    1.6968 209 209 201
 0.0147834 -0.0386811    1.62328 157 159 145
 0.202445 -0.210574   1.67917 209 202 184
 -0.491555 -0.0623191    1.37719 35 43 20
  0.256649 -0.0193735    1.71935 212 209 190
-0.346437 0.0265608   1.44923 100 105 82
 -0.475774 -0.0362197    1.37741 27 30 13
 0.295865 -0.146882   1.71802 221 210 190
-0.238871  0.117075   1.49426 31 37 25
 0.129097 -0.207685   1.65486 78 79 63
-0.204573 0.0496304   1.52106 42 50 27
0.0662235 0.0375518   1.57238 126 104 90
  0.0515818 -0.00171445     1.64183 102 88 79
-0.238302 0.0840687    1.5005 78 87 60
  0.184449 -0.0625023    1.62813 213 200 183
-0.128792  0.131793   1.54883 97 100 79
0.0769838 -0.290916    1.6265 87 94 43
  -0.293658 -0.00181384     1.47973 30 38 17
-0.266619 -0.276098   1.43115 81 64 54
-0.0485728  0.0125257     1.6121 170 146 122
-0.580683 0.0446191   1.16936 47 72 42
 -0.32565 -0.212588    1.4681 76 77 69
-0.294399 0.0391887   1.47529 42 50 29
 -0.500836 -0.0915985    1.36868 23 27 13
 0.204016 -0.237387   1.67547 209 203 189
-0.357978  0.111668   1.42628 240 227 219
  0.244217 -0.0563905    1.71174 219 211 198
 0.318585 -0.157173   1.75366 202 191 171
0.00448206 -0.0810935    1.61703 156 140 127
 -0.10178 -0.134632   1.57303 203 190 182
 -0.433691 -0.0326431    1.40268 36 41 21
-0.446609 0.0378588   1.38649 44 46 35
 0.112875 -0.266285   1.64226 78 90 40
 0.0951873 -0.0261986    1.65638 157 132 102
 -0.327285 -0.0668385     1.4658 66 65 44
-0.119288 0.0769756   1.56179 21 25 24
  -0.239156 -0.00559808     1.50987 27 31 14
  0.0986297 -0.00833373     1.67668 208 190 170
-0.335956  -0.39523   1.34843 118 105 89
-0.712137 -0.432147   2.18193 127 130 113
-0.133451 0.0281354    1.5545 74 72 77
-0.483394  0.156443   1.29636 5 22 6
 -0.169998 0.00711432    1.54184 83 86 77
 -0.17558 0.0598724   1.53521 87 91 76
 -0.41384 0.0403836   1.40657 18 20 9
 0.366832 -0.271277   1.72635 202 195 185
 0.181364 -0.278153   1.66199 177 162 131
-0.387527 0.0854054    1.4135 205 207 193
-0.450252  0.128927    1.3379 117 124 117
-0.155174 0.0202909    1.5456 43 45 42
-0.138474 0.0707951   1.55307 19 22 13
 0.190262 -0.216393   1.67358 106 108 97
  0.199763 0.00539109     1.6989 167 146 125
 0.116029 -0.255485   1.64384 54 62 25
 0.335969 -0.134699   1.73642 206 198 177
-0.263558 0.0534653   1.49146 22 31 10
0.0110082 -0.176237   1.61448 218 185 154
 0.114411 -0.316387   1.63847 73 81 34
 0.313304 0.0129717   1.74165 213 209 198
 0.351395 -0.313574   1.71568 200 197 182
 0.275661 -0.265795   1.67883 215 217 206
-0.425451 0.0904511    1.3902 67 69 55
 -0.118955 0.00921076    1.56268 94 93 89
-0.504406 -0.141841   1.37094 47 61 26
-0.115595 -0.100755    1.5661 163 150 133
-0.387076 0.0173525   1.42611 94 100 88
 0.252468 -0.247095   1.72045 200 201 185
0.06874 0.08615 1.65061 97 92 72
  0.159192 -0.0296097    1.68042 217 204 185
-0.111282 0.0310821   1.56464 40 35 32
 0.109355 0.0258082   1.66581 130 119 99
 0.124944 -0.381892    1.6032 118 118 110
-0.0674875 -0.0847417     1.5865 189 181 168
 0.201615 -0.248697   1.67204 164 151 134
-0.520513 -0.179143   1.36974 36 38 24
 0.166882 -0.168023   1.67031 70 71 66
-0.372813 0.0756263   1.42439 225 227 214
-0.454714 0.0854841   1.37189 219 219 211
-0.151487 0.0576743   1.54544 32 40 17
 -0.371125 -0.0215162    1.43917 31 34 17
-0.171141  0.106579   1.53188 24 27 18
  0.170682 -0.0224363    1.68691 142 135 109
 -0.25402 -0.107466   1.50581 101 102 88
    0.253062 -0.000321353      1.71836 223 204 187
-0.377915  0.109668   1.41532 238 229 222
  -0.5867 -0.490067   1.10054 156 151 132
 0.355955 -0.322348   1.67702 102 105 94
  0.309553 -0.0311892    1.73954 210 188 167
-0.106602 0.0924692   1.56463 34 33 29
-0.0539427  0.0822045    1.59162 118 104 95
 0.063094 -0.132854   1.65219 215 179 157
   0.314746 -0.00574454     1.74248 217 210 200
 0.340856 -0.144127    1.7373 129 118 96
 -0.563279 -0.0812626     1.1789 38 39 31
  0.0965005 -0.00833976     1.65889 157 136 119
-0.314339  0.169302   1.43907 230 231 217
-0.108381 0.0426109   1.56875 90 84 84
 -0.504611 -0.0632508     1.3649 104 112 88
 0.0653824 -0.0849046    1.65845 223 195 171
-0.262827 -0.161105   1.49982 165 166 152
 -0.531463 -0.0473971    1.34831 121 131 107
-0.0642571   0.109347    1.58345 36 31 25
-0.626434 0.0689995   1.10926 77 88 82
-0.32662 0.157157   1.4354 64 66 52
-0.487433 -0.120269   1.38178 39 42 25
 0.109716 -0.392362   1.59836 212 208 196
-0.44842 0.114933  1.33832 205 212 204
-0.17087 0.126401  1.52652 34 42 21
-0.541168 0.0952698   1.23024 84 95 81
  0.256005 0.00995291    1.72151 222 208 195
-0.217171  0.172905   1.49603 39 49 22
-0.153582  0.143905   1.53586 37 45 24
-0.415192  0.124998   1.38892 216 218 207
  0.0375747 -0.00270607     1.63858 206 192 183
   0.0418265 -0.000560191      1.63255 206 192 183
0.0724109 -0.242307    1.6312 255 243 236
-0.489291   0.15375   1.28687 207 215 204
 0.112744 -0.332578   1.62103 195 194 176
 0.291955 -0.320163   1.69568 82 84 79
 -0.19241 -0.281643   1.48516 191 146 125
 -0.587601 -0.0754294    1.16031 50 53 42
-0.357031 0.0143674   1.44277 106 114 91
 0.127869 -0.080562   1.61559 163 146 126
 0.374516 -0.332593   1.72266 187 185 170
-0.243905  0.145815   1.48544 47 62 31
  0.29142 -0.063217   1.72717 218 210 187
 0.0199009 0.00703945    1.62678 172 161 141
  -0.336186 -0.00814668     1.45747 32 35 8
 -0.011472 -0.0242956    1.61347 97 91 77
-0.483948  0.164933    1.3343 41 64 36
  0.121479 0.00889304    1.66825 141 117 93
-0.00553832   -0.327127       1.559 155 155 147
 -0.574569 -0.0923583    1.16136 19 20 12
  -0.42099 -0.0560735    1.41326 32 36 19
 0.198708 -0.013783   1.69792 215 203 181
0.0261667   -0.3181   1.56296 67 68 63
 0.102415 -0.138679   1.66334 190 154 128
-0.109278  0.055847   1.56697 18 25 18
 0.101452 -0.215618   1.64437 63 63 29
-0.311356  0.141117   1.42765 62 53 36
 -0.115893 -0.0125515    1.56454 65 56 47
0.0321486 0.0666093   1.63739 116 115 94
  0.150061 -0.0968266    1.68173 218 206 192
 -0.0926214 -0.00414031     1.58746 96 87 78
 0.233932 -0.246377   1.69389 191 184 168
0.0752344 -0.216158   1.63415 160 132 111
-0.883257 0.0261857   1.64975 92 107 102
-0.099963 -0.178455   1.56082 162 131 111
 -0.31135 0.0244074   1.46976 39 38 18
-0.329803  0.121603   1.44028 222 218 207
-0.102128  -0.15578   1.56967 129 111 91
 0.0695158 -0.0341801    1.60012 204 183 164
 0.212855 -0.338115   1.64585 174 150 126
-0.477245 -0.124281   1.38583 85 94 73
 0.174108 -0.223005    1.6675 94 90 81
 -0.233972 -0.0992746    1.51098 30 33 14
 -0.577703 -0.0753162    1.17728 183 184 176
-0.478105 -0.398957   1.23013 172 173 155
-0.262327  -0.35897   1.41185 188 152 128
-0.0990636 -0.0143127    1.57413 53 46 36
0.0127311 0.0156682   1.64869 176 167 138
-0.363187 0.0721331   1.43047 89 91 80
 0.0750922 -0.0605055    1.64675 187 151 117
-0.343569  0.183159   1.41883 204 206 193
   0.24672 0.00680732    1.71545 183 163 139
 0.0669576 -0.0204114    1.66357 220 213 207
0.0315368 -0.244558   1.61245 152 152 144
 -0.561362 -0.0437296    1.15439 184 195 181
-0.177882 -0.226908   1.50518 129 106 90
  0.317991 -0.0447417    1.74032 143 116 95
-0.388428  0.142752   1.40019 239 239 227
-0.388583  0.144946   1.39976 239 239 227
 0.218694 -0.199476   1.68483 213 205 186
-0.294249 0.0748799   1.46414 76 84 61
-0.324219 -0.172813   1.47161 20 19 14
-0.191443  0.115386   1.51889 64 70 58
0.0789768 0.0365035   1.65101 242 228 215
  -0.211767 0.000811696     1.52352 50 58 37
-0.108482 -0.143362   1.56704 90 81 66
-0.262984 0.0124744   1.49712 14 18 3
-0.126032 0.0427815   1.56248 30 29 25
-0.471705 0.0995526   1.35881 63 71 60
0.335242  -0.3383  1.70717 96 100 86
-0.540315 0.0454472   1.24474 214 228 202
-0.0720943  0.0462856    1.58818 103 91 77
  -0.2324 -0.142226   1.51279 84 71 62
-0.133563 -0.128367   1.55471 116 108 89
 -0.532645 -0.0585055    1.34627 51 61 36
 -0.152998 -0.0945327    1.55185 184 179 160
 -0.090931 -0.0503743    1.58636 121 110 88
-0.162404  0.127536   1.53278 100 105 85
  0.125703 -0.0651826     1.6772 209 198 176
-0.395915 0.0942919   1.40557 194 198 183
-0.526861  0.143805   1.24036 78 82 85
-0.357795 0.0242516   1.44045 34 41 23
-0.37795 0.124869  1.41112 225 218 208
-0.431806 0.0927645   1.38679 85 87 74
  -0.106537 -0.00299116     1.56637 67 60 52
-0.0900457  0.0615342      1.576 95 90 87
-0.109494 -0.321986   1.52415 205 188 172
0.0171912 0.0301852   1.65005 129 121 108
 -0.338534 0.00135106    1.45678 32 33 15
  0.244048 -0.0242087    1.71346 215 200 181
-0.0768187    0.08169    1.58056 73 72 70
-0.443848 0.0887163   1.37788 9 11 0
 0.0388313 -0.0579922    1.63327 174 161 145
 0.224415 -0.105223   1.69995 224 207 177
 -0.527626 -0.0872043    1.35645 29 34 14
-0.146943 0.0813662   1.54866 95 102 86
-0.615228 -0.468909   1.06445 154 159 152
-0.355057  0.180938   1.43582 7 6 4
 0.323689 0.0020463   1.74518 226 220 204
-0.266755 -0.217717   1.49597 160 157 138
-0.233954 0.0738604   1.50537 22 30 6
 0.101443 -0.110888    1.6545 182 140 115
-0.335738 0.0362145   1.45414 74 80 52
-0.0859164  -0.350379    1.52602 168 156 140
 -0.25232 0.0883079   1.49159 22 30 6
-0.0554049 -0.0136086    1.60472 141 114 95
-0.229413 -0.106808   1.51477 75 75 63
-0.329481  0.185731   1.42505 27 25 13
-0.442015  0.143862   1.34922 180 187 180
-0.264433  0.061154   1.49029 35 49 16
  0.147683 -0.0733345    1.68378 178 160 138
  0.278878 -0.0125958    1.72903 184 181 166
0.0913139 -0.248446   1.63627 60 72 22
-0.357272 0.0931945   1.43197 214 214 204
-0.0637497 -0.0247518    1.60903 139 116 100
-0.316445 0.0570926   1.45937 59 67 46
 0.0433145 -0.0329107    1.63675 193 184 177
-0.268936 -0.242353   1.43591 166 140 113
-0.327137  0.176966   1.42963 243 239 228
-0.217119 -0.105072   1.51921 83 83 75
 0.117863 -0.364481   1.61278 34 33 28
 -0.15693 -0.103788   1.53615 62 62 52
-0.492541 0.0774885   1.34804 76 85 56
  0.247472 -0.0910144    1.70805 163 156 140
-0.468577  0.175181    1.3408 69 92 63
    0.30708 -0.00594488      1.7389 184 172 158
-0.203454 -0.285905   1.47372 193 152 134
-0.0986758  0.0840533    1.57148 111 111 103
 -0.445567 0.00254181     1.3919 77 79 68
-0.402308  0.140624   1.39122 233 237 222
-0.204095 -0.155254    1.5207 117 114 99
0.342321 -0.21256  1.70394 188 177 149
0.0809393 -0.067458   1.64958 218 191 164
  0.11985 -0.280238   1.64291 47 59 19
   0.135687 -0.00591111     1.67476 186 156 130
  0.129232 -0.0101346    1.68484 186 156 130
-0.4683 0.11596 1.31902 238 244 240
-0.192941 0.0501883   1.52965 16 18 7
0.0564609 -0.293965   1.61615 180 161 147
 0.343404 -0.204508   1.71629 195 181 154
-0.204182 -0.205419   1.52311 115 111 99
0.0462264 -0.269457   1.60969 254 247 241
-0.46241 0.170837  1.34449 223 236 218
-0.00137469   -0.410257     1.54845 202 195 187
0.335626 -0.11194  1.73983 140 132 113
-0.428152  0.121539   1.35928 185 183 170
-0.145024 0.0424455   1.55141 23 24 16
-0.267195 -0.196646   1.49842 67 78 44
-0.0805466   0.103392    1.57705 55 51 48
-0.0100348 -0.0103935    1.61488 126 118 105
-0.324142  0.184316   1.42866 231 229 217
-0.121482 -0.372071   1.50219 203 196 188
  0.308792 -0.0968995    1.73329 199 189 177
-0.188952 0.0578207    1.5265 67 78 64
-0.273738 0.0799257   1.48058 109 120 80
  0.154451 -0.0350147    1.68806 220 208 192
-0.0212779  -0.421466    1.53607 211 207 195
  -0.481386 -0.00749686     1.25513 197 198 190
0.150275 -0.20571  1.66004 61 59 47
 0.351173 -0.328779   1.80987 78 77 73
-0.329019   0.14838   1.43593 178 183 163
0.0117555 0.0261331   1.62486 167 146 125
-0.379412  0.154546   1.40202 222 224 210
-0.210225 -0.080023   1.52381 81 89 68
-0.308079 -0.375633   1.76874 169 143 126
-0.217705  0.113067   1.50928 17 23 13
-0.146412 -0.380531   1.48306 200 193 187
-0.0104156  -0.102978    1.62129 214 178 154
 -0.38514 0.0262975   1.42396 24 30 20
  0.326686 -0.0235203    1.74501 149 128 109
 -0.39559 0.0122927   1.41931 28 31 20
0.0197816 0.0530455    1.6267 219 215 203
-0.636054 -0.476263   1.04309 84 95 81
-0.284632 -0.360447   1.39512 146 119 100
 -0.468721 -0.0527592    1.38322 32 37 14
 0.0424794 -0.0146031    1.65425 168 154 143
0.0703087 -0.124426   1.65191 180 143 116
 -0.282204 -0.0180954    1.48861 28 26 11
-0.461283  0.108022   1.32983 250 255 255
 -0.533547 -0.0790132    1.34859 114 114 88
-0.275374 0.0597134   1.48466 46 62 25
 -0.160794 0.00781934    1.54579 37 42 35
-0.147248 -0.151553   1.55231 113 112 94
-0.360508 0.0533395   1.43621 36 38 27
-0.20655 0.170061  1.50175 11 21 0
 -0.153633 -0.0973166    1.53696 144 137 129
-0.304716  -0.42371   1.36505 186 180 168
-0.363725 0.0950575   1.42593 93 89 78
  0.302945 -0.0800155    1.73152 173 165 146
-0.102634 0.0913509   1.57002 26 27 22
-0.192065 -0.173209   1.50304 165 160 140
 0.0155632 -0.0598011    1.62606 145 122 108
-0.353927  0.106335   1.43264 52 48 37
   0.122368 -0.00567884     1.68248 229 199 173
 0.200151 -0.283502   1.65604 138 112 85
-0.220498 -0.422931   1.42067 115 115 103
-0.368117  0.121909   1.41973 230 222 219
-0.126365 -0.118519   1.56223 109 96 79
-0.148457 -0.115703   1.53696 126 118 105
  0.044674 -0.0446783    1.63696 192 180 168
-0.0805148 -0.0626424    1.58181 179 163 148
-0.312727 -0.331526   1.37686 67 67 57
 0.267608 -0.311076    1.6678 97 94 89
  -0.050851 -0.00443398     1.61101 170 145 125
 0.367783 -0.322498   1.71624 197 194 179
 -0.49048 0.0390697   1.30535 78 87 58
-0.0673106  -0.146494    1.58241 213 192 171
0.00793961  -0.227082    1.60584 156 144 132
-0.0436909  -0.124561    1.60445 162 138 114
0.242377 -0.27052  1.67103 195 178 162
 -0.565858 -0.0891424    1.18367 208 209 201
-0.394048  0.103772   1.40591 242 240 228
  0.249391 -0.0285093    1.71449 161 148 131
  0.318781 0.00677726    1.74532 182 175 167
-0.539302 -0.171237   1.35745 106 111 81
-0.0254232  0.0537363     1.6059 227 220 201
-0.138887  0.083149   1.55164 27 30 19
 0.125185 -0.289251   1.64447 44 54 19
 -0.363002 0.00797841    1.44174 47 48 32
   -0.42236 -0.00444222     1.40713 28 30 17
 0.191408 -0.301334   1.66462 191 168 136
 -0.37684 -0.115108   1.44146 95 108 90
-0.385925  0.151034   1.39995 89 91 77
-0.480314 0.0835046   1.35587 201 199 184
-0.186989  0.102957   1.52416 116 119 110
0.0118809 0.0331689   1.62576 165 148 130
-0.61207 0.189405  1.15373 193 176 148
0.0586043 -0.219886   1.63128 148 134 121
-0.261267 0.0862653   1.48795 116 126 92
-0.420728 0.0953113    1.3219 208 211 202
-0.494887   0.13649   1.28179 42 53 37
-0.182712 0.0576085   1.53229 14 14 12
-0.360344 0.0905164   1.42945 209 213 199
-0.424402  0.114972   1.38464 232 234 223
 -0.551702 -0.0700209    1.20305 115 117 104
-0.491806  0.141101   1.28437 187 199 185
-0.561017  -0.45728   1.13037 172 174 161
-0.00218954   -0.120996      1.6221 179 134 103
 -0.138654 -0.0865053    1.54597 193 186 170
-0.164602 -0.241007   1.51334 171 141 115
-0.133944 -0.294849   1.51589 206 180 155
 -0.24826 -0.447547   1.39662 138 122 107
-0.296532 0.0215829    1.4765 39 40 22
 0.273452 -0.258752   1.69377 205 196 189
-0.51175 0.167806   1.3126 146 156 145
 -0.105066 -0.0969168    1.56846 105 100 80
 -0.562703 -0.0331574    1.15143 114 117 110
-0.385705 -0.305249   1.32361 173 169 158
 0.249909 -0.145294   1.70529 199 188 160
-0.444379  0.181335   1.35506 32 43 35
 0.177035 -0.129625   1.68085 162 150 134
 0.040983 -0.295813   1.59603 70 59 55
-0.193598 0.0430497   1.52893 43 45 32
  0.333643 -0.0900858    1.74057 223 213 203
-0.400206 -0.273194   1.31347 148 144 135
-0.048077  -0.12284   1.59532 150 128 107
 0.0974395 -0.0608223    1.67194 158 139 122
 0.153104 -0.120351   1.67602 144 131 112
-0.45066 0.127364  1.36457 202 210 195
-0.0562645  0.0982539    1.58862 75 72 63
-0.196249 -0.104357   1.51024 34 35 27
 -0.303063 -0.0756353    1.47844 68 67 49
-0.618041  0.182536   1.14728 104 80 54
-0.352778  0.120645   1.42851 128 120 109
 0.147322 -0.287407   1.65099 92 103 63
-0.355284 -0.258236   1.36203 164 160 151
-0.524601 -0.162263   1.36421 71 79 38
 0.218823 -0.232027   1.67935 207 201 189
0.0124765 -0.209135   1.61069 201 176 156
-0.35307 0.113109  1.43006 236 229 219
0.342824 -0.17315  1.72436 123 115 96
-0.346184   0.10392   1.43524 211 207 198
-0.440301  0.101587   1.37724 231 232 224
-0.234735 -0.170074   1.51162 83 84 70
 -0.159364 -0.0324304     1.5482 67 70 63
-0.426619  0.128588   1.37894 52 55 46
-0.625359  0.194751   1.14631 135 107 83
-0.221615 -0.196979   1.51719 101 95 71
-0.483316 0.0698472   1.31632 200 209 188
-0.083941 0.0573962   1.57716 40 35 32
-0.209708 -0.189101   1.49032 164 162 137
-0.387125  0.133158    1.4031 23 16 10
-0.241302   -0.1698    1.5107 188 189 175
  0.322311 -0.0829125    1.73675 202 192 167
-0.384844 -0.251129   1.33475 144 146 125
-0.302134  0.163946   1.44865 206 204 189
 0.0540394 -0.0163713    1.64263 155 139 126
-0.255064 -0.445134   1.38871 174 155 140
-0.0585225 -0.0553332     1.5927 114 105 88
-0.398624  0.113625    1.4013 202 191 187
-0.438133  0.125021   1.37245 0 4 0
 0.251469 -0.277819   1.66963 177 164 148
-0.307596 -0.301897   1.39256 173 170 163
 0.256367 -0.240687   1.68759 214 212 200
-0.162731 -0.194531   1.54262 59 52 42
-0.169189 -0.393345   1.46526 189 180 181
-0.368941  0.114971   1.41931 146 127 123
-0.418834 0.0891997   1.39327 172 174 160
-0.204715  0.160996   1.50581 37 45 21
 -0.572008 -0.0461479    1.13748 8 21 4
 -0.619279 -0.0710478    1.13217 177 167 158
-0.476945  0.167028   1.33804 75 99 67
-0.0920162  -0.184403    1.55966 196 166 142
-0.405452   0.13426    1.3918 29 32 21
-0.424634 0.0795799   1.39224 198 201 184
-0.0515001 -0.0457012    1.61102 99 97 76
-0.351809  0.143272   1.42395 239 232 222
 0.241686 -0.358642   1.75588 86 73 54
-0.316935 -0.212626   1.47537 78 81 64
-0.390942  0.129134   1.40286 240 233 225
-0.0745196   0.111542    1.57665 27 24 15
-0.360002 -0.319995   1.34815 116 113 106
-0.154193 -0.127193   1.53515 188 179 170
0.0132866 -0.377845   1.56004 201 187 174
0.0796811 -0.114863   1.64519 216 180 154
  -0.459552 -0.00916444     1.38464 154 157 140
 -0.425721 -0.0102456    1.40605 93 95 82
 -0.124866 -0.0466556    1.55702 127 119 108
-0.0731235  -0.364106    1.53032 154 132 121
-0.123271 -0.106794    1.5646 185 172 155
-0.0401599  -0.233146    1.59014 211 179 154
-0.569515  0.180601   1.18048 92 90 77
 0.0699577 0.00452952    1.64656 161 151 141
 -0.190381 -0.0314956     1.5357 56 63 45
-0.310002  0.186743   1.43738 38 34 23
-0.286383 -0.195619   1.49005 38 40 19
  -0.51667 -0.0552009    1.35322 120 130 95
   -0.5371 -0.0470503    1.21512 142 143 137
-0.482276  0.125297   1.30046 56 65 48
-0.50814 0.143145  1.26162 226 231 224
-0.104766 -0.064103   1.57761 147 140 121
-0.441169 -0.378208   1.26821 178 176 161
-0.061632 -0.223896   1.59013 202 182 157
 0.279116 -0.131954   1.64394 216 208 189
 -0.592221 -0.0257663       1.17 63 68 61
-0.622794 0.0416787   1.10811 48 58 49
-0.467113 -0.454509   1.19194 85 100 45
 -0.156186 -0.0760698    1.53559 77 74 69
 0.139985 -0.152578   1.67807 93 83 82
-0.626075 -0.544993   1.22332 158 157 129
  0.36188 -0.178171    1.6938 117 106 84
-0.144916 -0.533852   1.28781 147 144 139
 0.386386 -0.313548   1.72752 205 199 185
  0.41307 -0.290163    1.7332 195 197 183
0.0263711 -0.551491   1.29669 62 61 56
 0.257231 -0.121941    1.6448 161 155 131
 0.449583 -0.121616   1.74629 153 142 124
 0.425405 -0.199757    1.7202 203 196 180
-0.877539 -0.265091   1.29556 217 220 211
 0.430567 -0.286376   1.74006 152 154 141
 0.0568224 -0.0780663    1.58748 186 143 109
-0.538615 -0.448811    1.2752 209 208 190
0.0563811 -0.612823    1.1057 57 72 39
 0.388485 -0.120793   1.70117 205 194 166
-0.884836 -0.124094   1.54138 226 232 222
-0.749305 -0.405359   1.30067 75 72 65
  -0.01767 -0.0804648    1.58002 131 115 102
 0.386769 -0.198446   1.70741 197 189 168
-0.149836 -0.213622   1.52258 193 180 164
 0.327583 -0.094771    1.6719 212 205 189
 0.386958 -0.135629   1.70657 178 159 127
-0.0872458 -0.0132144    1.58109 196 188 177
 0.360742 -0.148481    1.6936 173 155 119
 0.218627 -0.255787   1.67871 207 193 167
  0.38572 -0.272657   1.71571 190 186 174
   0.29809 -0.0725181    1.66819 206 200 184
 0.341004 -0.138009    1.6833 200 190 165
 0.269823 -0.126052   1.73628 209 201 182
  0.43051 -0.352547   1.75619 110 105 86
 0.409443 -0.118372   1.72597 209 196 187
0.00193017   -0.22349    1.60386 193 171 150
0.362638  -0.2312  1.68384 205 202 185
-0.0986044  -0.112182    1.56713 84 71 62
-0.817555 -0.256022   1.30245 31 34 17
 -0.609055 -0.0582967    1.12889 203 203 195
-0.922037 -0.182706   1.52281 172 165 155
-0.216603 -0.191442   1.48273 61 58 39
 0.222022 -0.239633   1.67739 98 86 74
-0.52246 0.137566  1.24529 223 228 222
-0.456783  0.165406    1.2635 19 24 18
 0.493384 -0.205086   1.75982 205 199 187
-0.0299331  -0.127606    1.57824 201 169 146
0.0919325 -0.075817   1.67624 162 141 122
  0.39428 -0.109916    1.7146 160 148 134
0.339425 -0.12382  1.68518 152 145 119
  0.113748 -0.0254467     1.6838 174 139 109
-0.44693 0.151897  1.34331 41 49 36
-0.918259 0.0509898   1.61415 40 55 48
 0.257488 -0.094374   1.70984 213 204 189
-0.0390659 0.00937593    1.62106 212 196 173
 0.431112 -0.222574   1.72518 207 201 179
 0.392969 -0.250797    1.7167 211 200 180
 0.357841 -0.136842   1.69506 217 199 175
 0.239515 -0.262992   1.45613 98 91 81
 -0.880498 -0.0349347    1.64744 195 200 196
  0.165318 -0.0653962    1.71484 215 201 188
 -0.116837 -0.0129901    1.57744 56 52 40
 0.430372 -0.112179   1.73037 151 150 132
 0.381408 -0.293732   1.72017 197 193 181
  0.22681 -0.608452   1.15391 85 73 51
  0.145456 -0.0884449    1.60597 218 202 187
-0.471568  0.161349   1.25425 156 163 156
 0.493286 -0.221162   1.75636 198 194 185
-0.0923229  -0.110039    1.58599 174 167 151
 0.188372 -0.206396   1.69128 91 92 84
 0.227078 -0.534451   1.22172 80 75 53
 -0.11096 0.0375786     1.551 61 60 56
0.0823132 -0.095787   1.64956 221 190 162
 0.464439 -0.305207   1.75622 149 145 134
 -0.0725954 -0.00390759     1.60706 130 113 97
-0.875404 0.0120917   1.65066 74 84 76
-0.691184 -0.502001   1.15599 92 98 84
-0.0555409  -0.581125    1.27021 78 74 65
-0.177259 -0.105636   1.58109 52 53 45
0.0870767 -0.577489   1.24238 124 117 107
 0.196455 -0.133549   1.61935 128 107 88
 0.218138 -0.108995   1.69827 184 153 122
  0.117369 -0.0333986    1.65272 186 162 136
 0.123469 -0.596655     1.179 55 82 89
-0.0885701  -0.100766    1.57994 183 179 167
 0.445879 -0.229673   1.73656 201 195 181
 -0.996591 0.00260956    1.67894 54 64 63
-0.49197  0.14113  1.28448 187 199 185
 0.464653 -0.318434   1.76108 162 162 154
 0.482514 -0.223749   1.75548 201 196 174
  0.305884 -0.0998509    1.75952 219 209 197
-0.831375 -0.198963   1.40319 195 195 183
 0.427031 -0.325312   1.74006 206 202 191
-0.870319  -0.30561   1.28538 59 71 51
 -0.20548 -0.142231   1.60063 68 70 59
    0.2563 -0.0761339    1.64774 206 198 179
 0.166569 -0.165147   1.69559 54 54 46
 0.435907 -0.245922   1.74124 200 196 185
  0.21483 -0.620894   1.17451 80 71 54
-0.121256 -0.297694   1.50533 190 169 142
  0.116534 -0.0835628    1.60546 209 183 158
-0.981858 -0.100114   1.57496 216 224 211
 0.155615 -0.128126   1.67578 174 162 148
  -0.133187 -0.00493194     1.58073 43 44 36
  0.147396 -0.0383107    1.69935 220 208 192
 0.0622567 -0.0756228    1.59195 187 146 114
 -0.117625 -0.0395803     1.5609 130 121 112
-0.021401 -0.297326   1.63661 175 177 166
 0.410224 -0.128189   1.71762 210 195 164
  0.22878 -0.493226   1.27864 193 189 177
-0.872642 -0.183544   1.43564 81 77 66
  0.37032 -0.284036   1.71086 203 200 183
 0.372542 -0.172388   1.69063 146 135 113
 -0.101845 -0.0112773    1.56801 109 102 92
-0.778555 -0.340733   1.25085 61 65 50
0.20371 -0.1915 1.62572 163 155 136
 0.439442 -0.125674   1.73474 149 136 117
  0.264664 -0.0790482    1.65984 162 152 142
 -0.939682 -0.0862885    1.55897 74 92 80
0.377385 -0.11042  1.70601 136 127 110
0.0840405 -0.280835   1.48719 57 49 38
-0.172356 -0.247377    1.5233 180 145 123
 0.197882 -0.337804   1.72853 184 160 134
 0.103352 -0.603047   1.21962 145 146 138
 -0.105105 -0.0455551      1.586 182 171 153
 0.404551 -0.294578   1.72995 198 196 181
-0.00178366   -0.595997     1.23975 120 115 119
-0.124158 -0.194494   1.54459 137 103 93
-0.143757 -0.790346   1.08356 154 151 136
-0.063079 -0.767222   1.11079 157 126 98
 0.255265 -0.824579   1.05484 181 168 136
-0.212641 -0.764822   1.07872 135 122 105
-0.205838 -0.729705   1.11616 136 129 111
 0.409449 -0.673561   1.01441 168 159 120
0.0304712 -0.815502   1.07825 169 162 143
-0.967608 0.0843404   1.45803 190 181 166
-0.300858  0.190634   1.42077 199 190 175
