ply
format ascii 1.0
element vertex 800
property float x
property float y
property float z
property uchar red
property uchar green
property uchar blue
end_header
  0.0248469 -0.00693081   0.0101721 0 255 0
0.893024 0.213905 0.292234 0 255 0
-0.264919 -0.301156   1.60391 255 255 255
 -0.22944 -0.306152    1.6246 255 255 255
-0.0702335  -0.364901    1.68964 255 255 255
-0.186732 -0.335538   1.63365 255 255 255
-0.468048 -0.310391   1.48248 255 255 255
-0.186039 -0.279051   1.64501 255 255 255
-0.354626 -0.318981   1.55251 255 255 255
-0.168034 -0.364121   1.64801 255 255 255
-0.135718 -0.299824   1.66996 255 255 255
-0.420448 -0.335036    1.5181 255 255 255
-0.104833 -0.367704   1.67802 255 255 255
-0.237543 -0.264756   1.62161 255 255 255
-0.513498 -0.309911   1.45977 255 255 255
-0.0748549  -0.331464    1.68484 255 255 255
-0.212435 -0.275772   1.62984 255 255 255
-0.268836 -0.361916   1.60327 255 255 255
 -0.49889 -0.323448   1.47088 255 255 255
-0.518871 -0.326292    1.4585 255 255 255
-0.392814 -0.332057   1.52854 255 255 255
-0.428891 -0.336904   1.51422 255 255 255
-0.227085 -0.265197   1.62542 255 255 255
-0.396376 -0.322261   1.52887 255 255 255
-0.177359 -0.299184   1.64982 255 255 255
-0.127828 -0.180215   1.67598 255 255 255
-0.0398157  -0.163182    1.71471 255 255 255
-0.00425756     -0.2683     1.71073 255 255 255
 0.334908 -0.323163   1.79012 255 255 255
 0.146635 -0.177654   1.77038 255 255 255
-0.106347 -0.123569   1.68636 255 255 255
-0.0919672   -0.21826    1.69444 255 255 255
-0.258349  -0.26499   1.60695 255 255 255
-0.122026 -0.280675   1.67107 255 255 255
-0.171934 -0.116177   1.65517 255 255 255
-0.193452   -0.2575   1.64464 255 255 255
 -0.127813 -0.0537446     1.6694 255 255 255
 -0.175045 -0.0714482    1.65457 255 255 255
-0.00108086   -0.119574     1.72965 255 255 255
-0.0692234  -0.142738     1.7014 255 255 255
-0.0780576  -0.164913    1.69698 255 255 255
-0.225134 -0.242117   1.61389 255 255 255
-0.213071 -0.234992   1.62873 255 255 255
-0.0857832  -0.184595    1.69395 255 255 255
-0.192114 -0.149534   1.64631 255 255 255
0.0978578 -0.239709   1.75396 255 255 255
-0.272132 -0.333936   1.59323 255 255 255
0.00459762  -0.141095    1.73959 255 255 255
-0.152205 -0.128526   1.66694 255 255 255
0.0759815 -0.181843   1.75978 255 255 255
0.0381156 -0.314554   1.72288 255 255 255
 0.332217 -0.309424   1.79157 255 255 255
 -0.132382 -0.0879676     1.6741 255 255 255
-0.119376  -0.20388   1.67618 255 255 255
-0.067812 -0.265846   1.69433 255 255 255
0.333455 -0.35058  1.78979 255 255 255
 0.100329 -0.124925   1.76208 255 255 255
 -0.183874 -0.0951944     1.6538 255 255 255
-0.178216 -0.128452    1.6551 255 255 255
 0.267777 -0.308603   1.77583 255 255 255
0.0102607 -0.240537   1.72019 255 255 255
-0.13944 -0.21399  1.66966 255 255 255
 -0.18709 -0.181464   1.64911 255 255 255
-0.211943  -0.17051   1.63476 255 255 255
0.0606566 -0.249582   1.73984 255 255 255
-0.229996 -0.291963   1.62791 255 255 255
-0.159148 -0.230541   1.65918 255 255 255
0.0421146 -0.109803    1.7446 255 255 255
-0.0543413  -0.152648    1.70487 255 255 255
0.0227362 -0.288012   1.72531 255 255 255
-0.221697 -0.148516   1.62999 255 255 255
0.0817097  -0.16266   1.75601 255 255 255
-0.250741 -0.355282   1.60446 255 255 255
 0.207637 -0.150914   1.79031 255 255 255
-0.0304787  -0.324641    1.70311 255 255 255
0.0949872 -0.112322   1.75538 255 255 255
0.0681177 -0.305518   1.73808 255 255 255
0.319033 -0.29031  1.78974 255 255 255
0.0451387 -0.287298   1.73241 255 255 255
-0.0230506 -0.0970692     1.7232 255 255 255
-0.542255 0.0961319   1.37586 255 255 255
 -0.105259 -0.0590565    1.68692 255 255 255
-0.0120034   -0.22212    1.71924 255 255 255
0.0169538 -0.115235   1.73346 255 255 255
 0.348362 -0.352451   1.79158 255 255 255
 -0.19383 -0.222283   1.64696 255 255 255
-0.213096 -0.289853   1.63223 255 255 255
 -0.209487 -0.0945024    1.63777 255 255 255
-0.175495 -0.180405   1.65317 255 255 255
-0.513498 -0.309911   1.45977 255 255 255
-0.234832  -0.10368   1.62225 255 255 255
-0.392814 -0.332057   1.52854 255 255 255
 0.310899 -0.371076   1.78076 255 255 255
-0.416821 -0.314972   1.51855 255 255 255
-0.0206376  -0.219905    1.71384 255 255 255
-0.00787503   -0.307095     1.71374 255 255 255
-0.396376 -0.322261   1.52887 255 255 255
-0.207305 -0.147849   1.64045 255 255 255
-0.509675  0.128887   1.39291 255 255 255
 -0.15456 -0.362218    1.6543 255 255 255
 0.280297 -0.178114   1.79789 255 255 255
0.0527704 -0.322791   1.72822 255 255 255
-0.521706  0.121596   1.38624 255 255 255
-0.0342596   -0.30843    1.70472 255 255 255
-0.481885  -0.31155   1.47984 255 255 255
0.0627388 -0.323722   1.73422 255 255 255
0.0662245 -0.329854   1.73433 255 255 255
0.0401397 -0.346546   1.72777 255 255 255
-0.177705 -0.218086   1.65078 255 255 255
 0.310082 -0.287907   1.79115 255 255 255
-0.0285373  -0.347204    1.70309 255 255 255
-0.0711363  -0.380911    1.68431 255 255 255
0.0517413 -0.233268   1.73785 255 255 255
-0.0519667  -0.170689    1.70483 255 255 255
 0.273382 -0.399027   1.77295 255 255 255
0.0575534 -0.196887   1.74281 255 255 255
-0.142377  -0.32661   1.65887 255 255 255
  -0.14593 -0.0930456    1.66876 255 255 255
-0.196321 -0.237439   1.63189 255 255 255
-0.164863 -0.172156   1.65528 255 255 255
 -0.25164 -0.217127    1.6134 255 255 255
 0.112901 -0.157656   1.76906 255 255 255
0.000653339   -0.222351     1.70643 255 255 255
-0.0519633  -0.252735    1.69487 255 255 255
 0.186235 -0.144805   1.77711 255 255 255
0.0969287 -0.196259    1.7595 255 255 255
 0.290571 -0.341576   1.78034 255 255 255
-0.0987334 -0.0467901    1.68965 255 255 255
0.00449757  -0.327059    1.71319 255 255 255
-0.281956 -0.358641   1.59636 255 255 255
 0.268896 -0.183934   1.79374 255 255 255
 0.208652 -0.175456   1.78552 255 255 255
-0.186654 -0.265256   1.64365 255 255 255
-0.211943  -0.17051   1.63476 255 255 255
-0.353236 -0.333975   1.55711 255 255 255
-0.0568693  -0.275315    1.69331 255 255 255
0.0561583 -0.282238   1.73535 255 255 255
0.265931 -0.15365  1.78765 255 255 255
 0.406181 -0.200157   1.82035 255 255 255
-0.248224 -0.209721   1.61401 255 255 255
0.0267386  -0.20922   1.73392 255 255 255
 0.273544 -0.160325   1.79714 255 255 255
-0.0880897  -0.049421    1.69456 255 255 255
 0.258063 -0.145965   1.79592 255 255 255
-0.452548 -0.300834   1.49556 255 255 255
-0.0597771 -0.0574384     1.7077 255 255 255
  0.37106 -0.279389   1.80621 255 255 255
 -0.19913 -0.322404   1.63877 255 255 255
-0.290325  0.142919   1.56372 255 255 255
-0.518234 -0.319305   1.46199 255 255 255
 0.370975 -0.355042   1.79496 255 255 255
-0.0347677  -0.105367    1.71213 255 255 255
0.0788142 -0.257753    1.7445 255 255 255
 0.288671 -0.322106   1.78662 255 255 255
 -0.129563 -0.0478207    1.68629 255 255 255
 -0.219256 -0.0919169    1.63312 255 255 255
-0.0617122  -0.311652    1.69671 255 255 255
-0.463175  -0.31206   1.49092 255 255 255
0.0694264 -0.351555   1.73413 255 255 255
0.0825715 -0.138258   1.74667 255 255 255
-0.0426406  -0.210186    1.73527 255 255 255
 -0.12741 -0.253227   1.67646 255 255 255
 0.405529 -0.307554    1.8027 255 255 255
-0.202589 -0.134698   1.63721 255 255 255
-0.0682149 -0.0406644    1.70193 255 255 255
-0.142009 -0.107608     1.674 255 255 255
-0.0539146 -0.0429484    1.71214 255 255 255
-0.14015  -0.0344  1.67001 255 255 255
 0.437062 -0.302414   1.81444 255 255 255
  0.112751 -0.0799885    1.76275 255 255 255
-0.0182269  -0.317355    1.70514 255 255 255
-0.278749 -0.347624   1.59775 255 255 255
-0.125614  -0.03954   1.67693 255 255 255
 0.120942 -0.088275     1.767 255 255 255
-0.0108462 -0.0865116    1.72129 255 255 255
-0.162217 -0.253089   1.65511 255 255 255
-0.235487 -0.201164   1.62279 255 255 255
 0.271913 -0.320009   1.78057 255 255 255
0.0627388 -0.323722   1.73422 255 255 255
  -0.14593 -0.0930456    1.66876 255 255 255
 0.159508 -0.121217   1.77559 255 255 255
-0.0418575  -0.151477    1.70994 255 255 255
-0.00213698   -0.239581     1.71876 255 255 255
-0.0832141   -0.34265    1.68429 255 255 255
 -0.214538 -0.0283711    1.63268 255 255 255
-0.0847098 -0.0650085     1.6978 255 255 255
 0.319536 -0.360992   1.78294 255 255 255
-0.000996421    -0.103189      1.72154 255 255 255
  0.17367 -0.123341   1.78122 255 255 255
 0.362342 -0.359365   1.79435 255 255 255
-0.0696645 -0.0772736    1.70035 255 255 255
-0.00610478   -0.359224     1.71041 255 255 255
-0.0871479  -0.121764    1.69269 255 255 255
 0.280997 -0.329184   1.78264 255 255 255
 -0.101298 -0.0370613    1.68711 255 255 255
-0.040494 -0.294602   1.70161 255 255 255
 0.150285 -0.122342   1.77355 255 255 255
 0.112901 -0.157656   1.76906 255 255 255
-0.511391  0.172284   1.37897 255 255 255
 0.0874122 -0.0968145    1.75492 255 255 255
0.000653339   -0.222351     1.70643 255 255 255
-0.0547624  0.0952333    1.69499 255 255 255
 0.0631238 -0.0748667    1.75321 255 255 255
-0.406151  0.208152   1.44829 255 255 255
-0.0608965    0.13229     1.6852 255 255 255
0.0168354 0.0347812   1.73256 255 255 255
-0.473751  0.208627   1.39586 255 255 255
 -0.0359923 -0.00153027     1.71079 255 255 255
 0.168713 -0.045309   1.78102 255 255 255
 0.0775154 -0.0967875    1.75732 255 255 255
   0.19083 -0.0288129    1.78452 255 255 255
-0.371796  0.217465   1.47207 255 255 255
 0.165963 -0.200492   1.77414 255 255 255
-0.0810331 0.00558738    1.69576 255 255 255
-0.0449432  0.0497286    1.70075 255 255 255
-0.516932  0.145415   1.38265 255 255 255
 0.131251 0.0240643   1.76899 255 255 255
-0.424866  0.213203   1.43189 255 255 255
-0.41027 0.224556  1.43945 255 255 255
 0.090794 0.0465989   1.75561 255 255 255
-0.488268   0.15357   1.40372 255 255 255
0.0609806 0.0195992   1.75009 255 255 255
-0.471236   0.23371   1.38536 255 255 255
  0.138082 -0.0168866    1.77018 255 255 255
-0.531434  0.208443     1.346 255 255 255
-0.461688   0.18152   1.41391 255 255 255
0.0390074 0.0351405   1.74006 255 255 255
-0.513819  0.192858   1.36831 255 255 255
-0.474299  0.177518   1.41505 255 255 255
-0.345384  0.126781   1.52419 255 255 255
0.0788606 -0.353589   1.73362 255 255 255
-0.0599756  0.0150402    1.70357 255 255 255
  0.139924 0.00463989    1.77172 255 255 255
   0.0437 -0.261045   1.73344 255 255 255
-0.317133  0.174771   1.52965 255 255 255
-0.540347  0.087397   1.38314 255 255 255
 0.12883 0.053617  1.76304 255 255 255
-0.53261 0.218925  1.34055 255 255 255
-0.500892  0.166092   1.38959 255 255 255
-0.461823  0.228118   1.39595 255 255 255
-0.418278  0.187895   1.44687 255 255 255
-0.159591  -0.21525   1.65915 255 255 255
-0.0223721  0.0528651    1.71681 255 255 255
-0.0487838 -0.0266968    1.70878 255 255 255
-0.465421  0.145141   1.42488 255 255 255
0.0260842 0.0830814   1.72879 255 255 255
-0.0209014   0.109034     1.7088 255 255 255
0.0930089 0.0213842   1.75482 255 255 255
 0.102748 0.0428833   1.75741 255 255 255
  0.177044 -0.0216045    1.78339 255 255 255
-0.0170465  -0.248203    1.71327 255 255 255
-0.431799  0.186315   1.43863 255 255 255
-0.426859  0.190612   1.44077 255 255 255
-0.425204  0.203688   1.43497 255 255 255
-0.419264   0.16732   1.45478 255 255 255
-0.0788096  -0.121415    1.69925 255 255 255
-0.449961  0.237646   1.39989 255 255 255
-0.497517  0.152073     1.396 255 255 255
-0.00234679   -0.261592     1.72741 255 255 255
-0.048089 0.0604706    1.7057 255 255 255
-0.0341758  0.0503709    1.71222 255 255 255
0.0785326 0.0389452   1.75185 255 255 255
 0.123024 0.0104516   1.77034 255 255 255
0.0293593  0.044786     1.738 255 255 255
-0.394278  0.215713   1.45645 255 255 255
-0.47542 0.187596   1.3987 255 255 255
-0.0593915  0.0275944    1.69717 255 255 255
-0.537683  0.189949   1.35235 255 255 255
-0.0729549  0.0184125    1.69936 255 255 255
0.234223  0.05223  1.79027 255 255 255
-0.438293   0.23639   1.41078 255 255 255
-0.532102  0.100522   1.38343 255 255 255
  0.15288 -0.209765   1.76952 255 255 255
-0.0561629 -0.0174042     1.7078 255 255 255
-0.442806  0.213818   1.41707 255 255 255
 0.157388 -0.213807   1.76615 255 255 255
-0.380247  0.105989   1.50576 255 255 255
0.0693484  0.051421   1.74691 255 255 255
-0.415613  0.178667   1.45298 255 255 255
-0.326163  0.172829   1.52626 255 255 255
-0.308593  0.175447   1.53551 255 255 255
-0.431262  0.196356   1.43507 255 255 255
-0.364358   0.23756   1.47002 255 255 255
 0.219082 -0.380118   1.76898 255 255 255
-0.400154 -0.314477   1.53094 255 255 255
-0.241198 -0.286266   1.61949 255 255 255
 0.173747 -0.283224   1.76593 255 255 255
0.00397291  0.0847544    1.72101 255 255 255
 0.230562 -0.185095   1.78531 255 255 255
 -0.126772 -0.0767211    1.67261 255 255 255
-0.343944 -0.174985   1.56055 255 255 255
 -0.366956 -0.0987268    1.54216 255 255 255
 0.197098 0.0469492   1.78134 255 255 255
-0.261925 -0.177535    1.6111 255 255 255
-0.0298152 -0.0398915    1.71613 255 255 255
-0.205311 -0.118017   1.64454 255 255 255
 -0.175538 -0.0488791    1.65671 255 255 255
 -0.308857 -0.0655905    1.58249 255 255 255
 -0.2699 0.072745  1.59149 255 255 255
-0.430108 -0.109296    1.4989 255 255 255
-0.451049   0.19418    1.4209 255 255 255
 -0.0675398 -0.00204028      1.7019 255 255 255
 -0.290786 0.00594554    1.58463 255 255 255
 0.241967 -0.125509    1.7935 255 255 255
-0.510447 0.0491332   1.40799 255 255 255
-0.267724  0.146021   1.57837 255 255 255
0.0661037 0.0776798   1.73906 255 255 255
 0.198661 0.0935196   1.77534 255 255 255
-0.0614452   0.167413    1.67914 255 255 255
 -0.33077 -0.117794   1.56881 255 255 255
-0.451338  -0.26872     1.498 255 255 255
-0.303946 -0.187255   1.58357 255 255 255
 0.236632 -0.268816    1.7771 255 255 255
-0.460214 -0.151554   1.47921 255 255 255
-0.293072 -0.231837   1.59243 255 255 255
-0.484106 -0.240244   1.47055 255 255 255
  -0.139124 -0.00671257     1.67241 255 255 255
 -0.38385 0.0762841   1.50986 255 255 255
-0.103994 -0.023537   1.69279 255 255 255
-0.27824 0.113639  1.56851 255 255 255
 0.0555301 -0.0249535    1.74704 255 255 255
0.00407108  -0.182156    1.71821 255 255 255
 -0.31446 -0.258189   1.57857 255 255 255
-0.227471  0.185459   1.58504 255 255 255
-0.212881  0.148216   1.60417 255 255 255
-0.162521  0.169148   1.62703 255 255 255
-0.372084  0.184769   1.49532 255 255 255
-0.511824 -0.150127   1.44703 255 255 255
 -0.27382 -0.030046   1.60103 255 255 255
-0.210192 -0.128111   1.63902 255 255 255
-0.0854525   0.138312    1.67361 255 255 255
 -0.375578 -0.0715222    1.54024 255 255 255
 -0.53025 -0.278127   1.44854 255 255 255
  -0.46743 -0.0977356    1.45664 255 255 255
  0.250017 -0.0434594    1.79923 255 255 255
  -0.16859 0.00775304    1.66184 255 255 255
 -0.424626 -0.0429249    1.49197 255 255 255
 0.190392 -0.356619   1.75589 255 255 255
   0.19405 -0.0495298    1.79042 255 255 255
  -0.515733 -0.00356092     1.41899 255 255 255
-0.0608965    0.13229     1.6852 255 255 255
-0.0346587   0.202501    1.67863 255 255 255
-0.0928863  0.0490485    1.68364 255 255 255
-0.19472 0.117947  1.63207 255 255 255
-0.301887 -0.293195   1.58426 255 255 255
-0.410934 -0.241509   1.51881 255 255 255
  0.27755 0.0241417    1.8086 255 255 255
-0.100571  0.107792    1.6737 255 255 255
-0.179804 0.0732613   1.63252 255 255 255
-0.312592  0.101268   1.55069 255 255 255
  0.04596 -0.294101   1.73195 255 255 255
 0.138398 -0.315726   1.75486 255 255 255
 -0.41415 -0.210203   1.51841 255 255 255
-0.329934  0.141474   1.53259 255 255 255
-0.351269 0.0326384   1.54553 255 255 255
-0.277167 -0.201153   1.60287 255 255 255
 -0.287301 -0.0810265     1.5889 255 255 255
-0.457927 0.0861621   1.44952 255 255 255
 0.0394932 -0.0535101    1.74214 255 255 255
  0.348682 -0.0209268    1.81876 255 255 255
-0.146714 -0.195818   1.65974 255 255 255
  -0.4396 0.0507487   1.49128 255 255 255
  0.303005 -0.0374886    1.80742 255 255 255
-0.109888   0.16459   1.65477 255 255 255
 0.222023 -0.297947    1.7746 255 255 255
  0.21589 0.0708535   1.78269 255 255 255
  0.396413 -0.0263264    1.83155 255 255 255
 0.398891 -0.173316   1.82488 255 255 255
-0.190637  0.204353   1.60546 255 255 255
-0.520204 -0.059253   1.42784 255 255 255
 -0.403926 -0.0418792     1.5071 255 255 255
-0.261951  0.106202   1.59376 255 255 255
-0.484273  0.133168   1.41231 255 255 255
-0.454352 -0.181428   1.48277 255 255 255
-0.361253   0.15988   1.50343 255 255 255
-0.000941209     0.127321      1.71399 255 255 255
-0.243172 0.0968841   1.60162 255 255 255
-0.183687  0.221494   1.59947 255 255 255
 -0.478131 -0.0387812    1.45396 255 255 255
-0.457792  0.216796   1.40486 255 255 255
-0.127975 0.0458683    1.6768 255 255 255
 0.189758 -0.378548   1.75313 255 255 255
-0.224451  0.100279   1.60986 255 255 255
-0.505478  0.109572   1.41896 255 255 255
 -0.463294 -0.0415135    1.46141 255 255 255
-0.435439  0.111721   1.46262 255 255 255
-0.390931 -0.256352   1.53433 255 255 255
-0.466322  0.164609   1.41764 255 255 255
-0.283667  0.190506   1.54896 255 255 255
-0.0810224    0.11827    1.68056 255 255 255
  0.2122 -0.27246  1.77579 255 255 255
0.224513 0.026138  1.78287 255 255 255
 0.289721 -0.132347   1.80472 255 255 255
-0.320331  0.130536   1.54397 255 255 255
 -0.54979 -0.189161   1.42314 255 255 255
0.0231247  0.106813   1.72067 255 255 255
-0.408495  0.109525   1.48256 255 255 255
-0.0767867 -0.0244637    1.69956 255 255 255
-0.302705  0.121267   1.56142 255 255 255
-0.330098  0.169662   1.52612 255 255 255
-0.397035 -0.117326   1.52296 255 255 255
0.00784419  0.0135175    1.73398 255 255 255
-0.406074 -0.146236   1.51787 255 255 255
0.0150108   0.12394   1.71734 255 255 255
-0.242137 0.0777305   1.61739 255 255 255
-0.192385 0.0828216   1.63077 255 255 255
-0.239986  0.142895   1.59436 255 255 255
 0.0414149 -0.0302338    1.74197 255 255 255
0.258994 -0.23796   1.7884 255 255 255
-0.346309  0.141277   1.52101 255 255 255
 -0.519146 -0.0401616    1.43257 255 255 255
  0.324004 -0.0119098    1.81207 255 255 255
-0.034236  0.147783   1.69443 255 255 255
-0.372004 0.0583114   1.52582 255 255 255
-0.501861 -0.010951   1.43239 255 255 255
-0.441027  0.183641   1.42751 255 255 255
 0.364882 -0.161132   1.81189 255 255 255
-0.250506  0.162751   1.57916 255 255 255
 0.174339 -0.236079   1.77235 255 255 255
-0.216275 0.0829743   1.61856 255 255 255
 0.112232 0.0653893   1.75422 255 255 255
0.0863861 0.0138287   1.75764 255 255 255
-0.252353  0.124313   1.58998 255 255 255
  0.25244 -0.062839     1.799 255 255 255
-0.124159  0.178534   1.64381 255 255 255
 0.111186 -0.335024   1.74482 255 255 255
-0.317514 0.0236348   1.56719 255 255 255
-0.353165 -0.224931   1.55247 255 255 255
-0.316307 0.0722298   1.55974 255 255 255
 -0.527471 -0.0728936    1.42128 255 255 255
0.259919 -0.26936  1.78428 255 255 255
-0.37714 0.156244  1.49248 255 255 255
  0.309745 -0.0552513    1.80945 255 255 255
 0.400409 -0.163079    1.8222 255 255 255
 0.0281523 -0.0819327    1.73786 255 255 255
-0.100774 -0.144814   1.69215 255 255 255
  -0.461437 -0.00824141     1.46483 255 255 255
-0.470493 0.0726366   1.44378 255 255 255
 0.153868 -0.305679   1.75994 255 255 255
  0.138082 -0.0168866    1.77018 255 255 255
 -0.355209 -0.0525314    1.54957 255 255 255
-0.116034  0.113788   1.66606 255 255 255
-0.258063 0.0175463   1.60771 255 255 255
0.0777953  0.160926   1.73308 255 255 255
  0.33399 0.0661135    1.8061 255 255 255
-0.525344 -0.302356   1.45672 255 255 255
-0.134414  0.055397   1.66079 255 255 255
-0.435471   0.20723   1.42617 255 255 255
-0.523116  0.198899    1.3574 255 255 255
  -0.1784 0.0309408   1.64789 255 255 255
-0.182567 0.0946267   1.63563 255 255 255
-0.438626 0.0751947   1.46942 255 255 255
 0.437062 -0.302414   1.81444 255 255 255
 0.232777 -0.317572   1.77255 255 255 255
-0.409053  0.126343   1.47711 255 255 255
-0.48615 0.168981  1.40059 255 255 255
-0.160322 0.0464995   1.65093 255 255 255
-0.138893  0.106869   1.65646 255 255 255
 0.244904 -0.245092   1.78411 255 255 255
   0.2603 0.0184496   1.79796 255 255 255
 0.157842 -0.292847   1.76116 255 255 255
  0.40858 -0.146503    1.8245 255 255 255
-0.282231 0.0886067   1.58046 255 255 255
0.0374555  -0.19748   1.73382 255 255 255
 0.154379 -0.364175   1.75503 255 255 255
 0.385963 0.0243659   1.82169 255 255 255
-0.453363   0.15738   1.43081 255 255 255
 0.420479 -0.352258   1.80323 255 255 255
-0.446097  0.131904   1.44753 255 255 255
 -0.11996 0.0324701   1.67401 255 255 255
-0.531798 -0.129728   1.42387 255 255 255
-0.116675 -0.102711   1.68238 255 255 255
-0.413602  0.048319   1.49532 255 255 255
 0.308238 -0.275472   1.79277 255 255 255
0.108425 0.118557  1.75663 255 255 255
  0.213244 -0.0222674    1.78756 255 255 255
-0.109138 0.0591911   1.67362 255 255 255
 0.155648 0.0452951   1.77465 255 255 255
-0.143295  0.213356   1.62067 255 255 255
 0.148956 0.0881592   1.76459 255 255 255
-0.0587844  -0.084578    1.70547 255 255 255
-0.502015  0.048876   1.42328 255 255 255
 0.256815 -0.282556   1.78048 255 255 255
-0.548701 -0.171194   1.42278 255 255 255
 0.219356 -0.188119    1.7827 255 255 255
-0.0812985   0.206879    1.66151 255 255 255
-0.395173  0.115232   1.49149 255 255 255
-0.474454  0.126153   1.42468 255 255 255
-0.154492 0.0914392   1.64785 255 255 255
-0.0608277    0.18789    1.67043 255 255 255
 -0.399247 0.00263639    1.51311 255 255 255
-0.174813  0.149853   1.62696 255 255 255
 0.226653 -0.013944   1.79272 255 255 255
-0.276859 -0.104905    1.6049 255 255 255
 0.320139 0.0104432    1.8096 255 255 255
-0.39753 0.153848  1.47868 255 255 255
  0.381838 -0.0265319    1.82513 255 255 255
-0.100184  0.131862   1.66694 255 255 255
-0.0381047    0.11822    1.69848 255 255 255
  0.387543 0.00280714    1.82456 255 255 255
 0.413594 -0.157364   1.82531 255 255 255
  0.139924 0.00463989    1.77172 255 255 255
0.152018 0.109996  1.76173 255 255 255
-0.326592  0.221319   1.50514 255 255 255
-0.104505 0.0722426   1.67739 255 255 255
 -0.530532 -0.0406186    1.41684 255 255 255
-0.286356 -0.168779   1.59674 255 255 255
 -0.555533 -0.0217828    1.39678 255 255 255
-0.0492833   0.150672    1.68575 255 255 255
-0.340697   0.20768    1.5015 255 255 255
  0.13565 -0.369146   1.74709 255 255 255
-0.106777  0.219604   1.64268 255 255 255
-0.515893 -0.106328    1.4378 255 255 255
0.110596 0.128747  1.75227 255 255 255
-0.488268   0.15357   1.40372 255 255 255
-0.172953  0.172881   1.61758 255 255 255
 0.323485 0.0223304   1.81183 255 255 255
-0.221989  0.226447   1.57586 255 255 255
-0.152283  0.193032   1.62751 255 255 255
-0.199305  0.225857   1.58481 255 255 255
-0.432845  0.170514   1.44483 255 255 255
-0.105021  0.208296   1.64627 255 255 255
0.0694459 0.0129859   1.75636 255 255 255
0.0748705 0.0155323   1.74617 255 255 255
 0.106719 -0.277898   1.75182 255 255 255
-0.536082  0.197024   1.35154 255 255 255
 0.354709 -0.361385   1.79401 255 255 255
 -0.38318 0.0442488   1.51731 255 255 255
  0.183761 -0.0866293    1.78548 255 255 255
 0.441783 -0.371913   1.80342 255 255 255
-0.253627  0.195681   1.56531 255 255 255
-0.430496 -0.327969   1.51354 255 255 255
0.0571435   0.13871   1.73354 255 255 255
  0.361714 -0.0635444    1.81733 255 255 255
0.0485386 0.0253559    1.7421 255 255 255
-0.362831 0.0173122   1.53749 255 255 255
0.00995742  -0.011975    1.73182 255 255 255
-0.49446 0.212543  1.37773 255 255 255
 0.388207 -0.160661   1.81962 255 255 255
0.169712 0.024704  1.77667 255 255 255
  -0.44999 -0.0357995    1.47874 255 255 255
 0.191579 0.0668263     1.778 255 255 255
   0.258919 -0.00421227     1.79907 255 255 255
-0.102637  0.198258   1.64563 255 255 255
-0.105001  0.088209   1.67385 255 255 255
 0.141644 -0.245879   1.76395 255 255 255
-0.341984  0.188866   1.50878 255 255 255
 -0.117008 0.00591864    1.67773 255 255 255
0.0643518 0.0967655    1.7488 255 255 255
  0.206344 -0.0969463    1.78642 255 255 255
 0.290632 -0.277066   1.78788 255 255 255
 0.111822 -0.246415   1.75457 255 255 255
 -0.33554 0.0551352   1.55328 255 255 255
-0.347227  0.167678   1.50975 255 255 255
 -0.10291 -0.171437   1.68903 255 255 255
  0.111326 -0.0253068    1.76514 255 255 255
-0.505742 -0.111429   1.44275 255 255 255
 0.226196 -0.253278   1.77981 255 255 255
 -0.253759 -0.0958186     1.6111 255 255 255
-0.108041 0.0466644   1.67615 255 255 255
-0.0965654 0.00334552    1.68928 255 255 255
-0.385668  0.111207   1.49945 255 255 255
  0.113501 -0.0581286    1.76431 255 255 255
 0.313112 0.0189113   1.80669 255 255 255
0.0561583 -0.282238   1.73535 255 255 255
  0.390776 -0.0423139    1.82528 255 255 255
-0.404534   0.19055   1.45804 255 255 255
 0.277722 -0.224432   1.79147 255 255 255
-0.312852  0.113872   1.54247 255 255 255
-0.352717 -0.178528   1.55784 255 255 255
-0.197324  0.160366   1.60983 255 255 255
 0.119871 0.0590779   1.76018 255 255 255
 -0.22694 0.0244862   1.62531 255 255 255
-0.108566 -0.155075   1.68412 255 255 255
-0.283897 0.0398803   1.59019 255 255 255
-0.125605 0.0729444   1.67074 255 255 255
-0.48954 0.141655   1.4085 255 255 255
 0.400725 -0.379726   1.80008 255 255 255
-0.0612991  0.0756906    1.70003 255 255 255
-0.252354  -0.14785   1.61416 255 255 255
-0.137967  -0.13568   1.66812 255 255 255
  -0.55648 -0.0341828    1.39404 255 255 255
 -0.161039 -0.0937808    1.66523 255 255 255
-0.0879336 -0.0405219    1.69738 255 255 255
-0.163384  0.174162   1.62553 255 255 255
-0.0846201   0.216166    1.65449 255 255 255
-0.416414  0.136314    1.4666 255 255 255
-0.383317 0.0557864   1.51397 255 255 255
-0.39597 0.170857  1.47261 255 255 255
-0.452201  0.134492   1.44322 255 255 255
-0.105016 0.0171548   1.67812 255 255 255
-0.0819533  0.0945322     1.6837 255 255 255
 0.062812 0.0555252    1.7443 255 255 255
-0.365133 0.0285675   1.53651 255 255 255
  0.30993 -0.017343   1.80829 255 255 255
-0.0653868   0.118269    1.68639 255 255 255
-0.463745  0.129811   1.43203 255 255 255
 0.0699968 -0.0544003    1.75292 255 255 255
 0.286655 -0.112957   1.80372 255 255 255
 -0.553554 -0.0667769    1.40662 255 255 255
-0.148353   0.11966   1.65032 255 255 255
 -0.52899 -0.290572   1.45143 255 255 255
-0.362666  0.231137   1.47419 255 255 255
 0.397115 0.0115748   1.82467 255 255 255
-0.289815 -0.235743   1.59107 255 255 255
-0.0199419   0.168412    1.69685 255 255 255
0.141324 -0.38105  1.74697 255 255 255
-0.24833 0.112282  1.59722 255 255 255
-0.00880167    0.112738     1.71016 255 255 255
   0.1439 -0.119701   1.77299 255 255 255
-0.360371 0.0694186   1.53203 255 255 255
0.194771 0.126461  1.76918 255 255 255
-0.125415 -0.321679   1.66922 255 255 255
-0.267453  0.129394   1.57811 255 255 255
-0.0354352 0.00680675    1.71318 255 255 255
-0.248937 -0.105249   1.61658 255 255 255
-0.340349  0.239035   1.48636 255 255 255
-0.562906 -0.245555   1.42973 255 255 255
-0.282756 0.0976994   1.57852 255 255 255
   0.348575 -0.00442215     1.81783 255 255 255
 0.128962 -0.284922    1.7554 255 255 255
 -0.3783 0.135349  1.50078 255 255 255
-0.560259 -0.234211   1.42006 255 255 255
-0.0184165  -0.293085    1.70926 255 255 255
 -0.33841 0.0934918   1.53781 255 255 255
 0.0758662 -0.0238979    1.75498 255 255 255
-0.339039  0.229542    1.4928 255 255 255
-0.234832  -0.10368   1.62225 255 255 255
-0.510628  0.117068   1.39557 255 255 255
 0.312774 -0.096049   1.80691 255 255 255
-0.478618  0.223877   1.38492 255 255 255
  0.379252 0.00273842    1.82203 255 255 255
-0.0913811    0.12172    1.67655 255 255 255
-0.471464 0.0324356   1.45088 255 255 255
-0.418278  0.187895   1.44687 255 255 255
-0.428692  0.156378   1.45114 255 255 255
-0.219644 -0.164838     1.624 255 255 255
  0.120336 -0.0667109    1.76761 255 255 255
 0.161668 -0.321873   1.75962 255 255 255
   0.18617 0.00658684    1.78365 255 255 255
-0.203302 0.0834448   1.63004 255 255 255
0.0870141 -0.338465   1.73368 255 255 255
-0.219906 -0.225356   1.62789 255 255 255
-0.0130186   0.104445     1.7105 255 255 255
 0.373416 -0.376143   1.79149 255 255 255
-0.472924  0.219297   1.38919 255 255 255
-0.101067  0.193962   1.65046 255 255 255
 0.408727 -0.120186   1.82691 255 255 255
-0.461508  0.162659   1.42333 255 255 255
-0.147779 0.0730024   1.65689 255 255 255
-0.290979 -0.210942   1.59486 255 255 255
-0.0689355   0.144143    1.67991 255 255 255
 0.0119772 0.00496979    1.73252 255 255 255
-0.335016  0.237608   1.49095 255 255 255
 0.380188 -0.102893   1.82414 255 255 255
-0.197801 0.0924116   1.62441 255 255 255
-0.329254 -0.346328   1.57046 255 255 255
-0.291355  0.119763    1.5644 255 255 255
 0.199105 -0.233232   1.77446 255 255 255
 0.393948 -0.350268   1.79891 255 255 255
-0.344045  0.197854   1.50275 255 255 255
0.0390916 0.0487473   1.73933 255 255 255
-0.394196  0.203684   1.45968 255 255 255
  -0.22688 -0.0736161    1.62812 255 255 255
-0.299335 -0.357095   1.59551 255 255 255
0.0016341  0.169025   1.70699 255 255 255
-0.227631  0.158083   1.59904 255 255 255
-0.410757 0.0586096   1.49213 255 255 255
   0.40026 -0.0178981    1.82657 255 255 255
-0.421878 0.0426068   1.48622 255 255 255
0.0494168 0.0809211   1.73752 255 255 255
-0.396868 -0.339383   1.52838 255 255 255
 -0.495691 -0.0300525    1.43969 255 255 255
 -0.306015 0.00385649    1.57983 255 255 255
 -0.558128 -0.0572057    1.39681 255 255 255
-0.294794 0.0961499   1.57127 255 255 255
-0.167598 0.0315397   1.65265 255 255 255
0.195157 0.106532   1.7734 255 255 255
-0.154636 -0.163607   1.66659 255 255 255
-0.384525 0.0895898   1.50771 255 255 255
-0.210323  0.223201     1.583 255 255 255
-0.384361  0.137377   1.49272 255 255 255
  0.374073 -0.0832053    1.82169 255 255 255
-0.0958317   0.130521     1.6744 255 255 255
 0.0417929 -0.0561831    1.74759 255 255 255
-0.37399  0.15036   1.5012 255 255 255
-0.386748  0.167761   1.48387 255 255 255
-0.129788 -0.124139   1.67848 255 255 255
 0.0772694 -0.0382894    1.75596 255 255 255
-0.0740746  -0.057053    1.69937 255 255 255
 0.435854 -0.360008   1.80368 255 255 255
-0.130162  0.199114   1.63735 255 255 255
 0.168718 -0.182399   1.77403 255 255 255
-0.413939  0.147043   1.46681 255 255 255
  0.315821 -0.0224885    1.80863 255 255 255
 0.391923 0.0171123   1.82572 255 255 255
-0.566271 -0.160896   1.40764 255 255 255
-0.0048283  0.0832236    1.71665 255 255 255
-0.138763  0.121589   1.65344 255 255 255
-0.363605 -0.267585   1.55016 255 255 255
 0.167642 -0.332345   1.76088 255 255 255
-0.389911 0.0369273   1.51625 255 255 255
 -0.44937 0.0238959   1.47057 255 255 255
-0.557751 -0.289926   1.43706 255 255 255
0.243479 -0.34422  1.77447 255 255 255
-0.406964 -0.106896   1.51644 255 255 255
-0.401244  0.199749   1.45741 255 255 255
-0.498873  0.123816   1.40507 255 255 255
-0.193195  0.145833   1.61788 255 255 255
0.0393659 0.0572562   1.73997 255 255 255
-0.277543  0.127113   1.57373 255 255 255
-0.49223  0.13116  1.40932 255 255 255
-0.190955 0.0920817   1.63231 255 255 255
-0.381432  0.132244    1.4975 255 255 255
-0.442634  0.159227   1.43976 255 255 255
-0.541284  0.182433   1.35016 255 255 255
-0.319616 0.0514789   1.56215 255 255 255
 0.336718 -0.291595   1.79289 255 255 255
-0.519745  0.214744   1.35232 255 255 255
-0.0825074   0.158328    1.67052 255 255 255
-0.454866  0.231179   1.40155 255 255 255
 0.232031 -0.142292   1.79237 255 255 255
 -0.20428 0.0748905   1.62942 255 255 255
0.187984 0.110427  1.77302 255 255 255
 0.102675 -0.366011   1.74209 255 255 255
-0.122997  0.218475   1.62944 255 255 255
  0.406952 -0.0948575    1.82612 255 255 255
-0.0361331  -0.131992    1.71732 255 255 255
0.0417394  0.154176   1.72277 255 255 255
-0.00044488  -0.0967043     1.72835 255 255 255
-0.466611   0.17248   1.41471 255 255 255
-0.0402357   0.137341    1.69295 255 255 255
 -0.329611 -0.0641219    1.56688 255 255 255
-0.371209  0.166467   1.49502 255 255 255
0.0671474   0.16815   1.72705 255 255 255
0.00832883   0.163957    1.70435 255 255 255
 0.193374 -0.329514   1.76521 255 255 255
-0.416821 -0.314972   1.51855 255 255 255
-0.551987 -0.151722   1.41579 255 255 255
 0.276812 -0.262525   1.78566 255 255 255
0.0358216 -0.237953   1.73247 255 255 255
-0.372214  0.157963   1.49737 255 255 255
-0.365855  0.147554   1.50437 255 255 255
-0.459161  0.144164   1.43091 255 255 255
-0.254911 -0.181219   1.61271 255 255 255
 -0.167225 -0.0175316    1.65812 255 255 255
-0.443229  0.174198   1.43216 255 255 255
-0.239967 -0.214311   1.62026 255 255 255
-0.0746828  0.0893619     1.6847 255 255 255
-0.404173  0.179935   1.46207 255 255 255
-0.0811963   0.179656    1.66299 255 255 255
-0.262583 -0.180658    1.6118 255 255 255
  0.394891 -0.0865474    1.82347 255 255 255
-0.504941 -0.304893   1.46369 255 255 255
-0.314537  0.215637   1.51768 255 255 255
 0.0890485 -0.0040355     1.7596 255 255 255
-0.0475462 -0.0487511    1.71174 255 255 255
-0.417608  0.158055   1.46067 255 255 255
-0.389717  0.220647   1.45681 255 255 255
-0.454702  0.170078   1.42433 255 255 255
-0.172486 -0.214784   1.65391 255 255 255
-0.387969  0.159887   1.48348 255 255 255
-0.439482  0.130488   1.45125 255 255 255
-0.209162  0.213018   1.58928 255 255 255
-0.487587  0.214952   1.38206 255 255 255
-0.422214  0.180868   1.44798 255 255 255
-0.446071  0.119675   1.45026 255 255 255
-0.36801 0.191838  1.48802 255 255 255
 0.281625 -0.388167    1.7731 255 255 255
-0.34451   -0.226  1.56284 255 255 255
-0.408327  0.174412   1.46163 255 255 255
-0.0612506   0.153502    1.67743 255 255 255
-0.294118  -0.27574   1.59009 255 255 255
 0.117926 -0.124342   1.76499 255 255 255
-0.485369 0.0193948   1.44159 255 255 255
-0.452961 0.0172988    1.4692 255 255 255
-0.126061 -0.109924   1.68134 255 255 255
-0.0275068  -0.266011    1.71107 255 255 255
 0.108583 0.0208956   1.75935 255 255 255
 -0.203511 -0.0153881    1.64271 255 255 255
-0.0776694  -0.347381    1.68523 255 255 255
-0.320237  0.240627   1.50169 255 255 255
-0.311993 -0.208327   1.58331 255 255 255
 0.193646 -0.392268   1.75964 255 255 255
 -0.540862 -0.0310096    1.40223 255 255 255
-0.504067  0.146037   1.39153 255 255 255
 0.190135 -0.170104   1.79795 255 255 255
 0.413975 -0.190034   1.82195 255 255 255
 0.275851 -0.290401   1.78592 255 255 255
  0.383621 -0.0772866    1.82236 255 255 255
 0.278479 -0.273146   1.78658 255 255 255
  0.323824 -0.0999357    1.80673 255 255 255
0.121403 -0.10124  1.76944 255 255 255
 0.279491 -0.117501   1.80358 255 255 255
0.0759815 -0.181843   1.75978 255 255 255
  0.221484 -0.0431708    1.79334 255 255 255
-0.386698  0.202703    1.4688 255 255 255
  0.239182 -0.0175697    1.79375 255 255 255
-0.404173  0.179935   1.46207 255 255 255
-0.190589 -0.166461   1.64668 255 255 255
