ply
format ascii 1.0
element vertex 1177
property float x
property float y
property float z
property uchar red
property uchar green
property uchar blue
end_header
-1.27825  4.94362 0.610901 255 255 255
-0.259511   3.40934  0.726202 255 255 255
-0.0941875    4.55435   0.487924 255 255 255
-0.331254   4.43334  0.502888 255 255 255
0.052727  3.89113  0.57951 255 255 255
-0.942029   3.65448  0.596558 255 255 255
-0.239364   4.16391  0.600615 255 255 255
-0.994186    3.6771  0.615532 255 255 255
-1.63563  4.96436 0.396026 255 255 255
-0.130176   4.38913  0.559151 255 255 255
0.0941179   4.08804  0.595631 255 255 255
-2.27612  4.68398 0.834794 255 255 255
-0.118014    3.4718  0.711161 255 255 255
-0.120627   3.47862  0.718095 255 255 255
-0.661135   4.23645  0.582282 255 255 255
-0.267569   3.43174  0.743639 255 255 255
-1.92233  4.81185 0.719237 255 255 255
0.101634  4.01868 0.568988 255 255 255
-0.702919   2.70552  0.939655 255 255 255
 0.14809  3.98442 0.554358 255 255 255
-0.270146    3.4128  0.736803 255 255 255
0.0108888   3.66958  0.671521 255 255 255
-0.485524   4.46871  0.324652 255 255 255
-1.24886  4.76226 0.622366 255 255 255
  0.1799  3.67747 0.659777 255 255 255
-0.593232   4.62623  0.400656 255 255 255
-0.701569   4.12084   0.60245 255 255 255
-2.32237  4.62877 0.843399 255 255 255
-0.537682   3.11516  0.836531 255 255 255
-0.639255   3.11336  0.894236 255 255 255
-0.0931834    3.93622   0.583762 255 255 255
-0.935337   3.33871   0.55829 255 255 255
-1.93333  4.20202 0.817262 255 255 255
-0.346984   3.71117  0.606267 255 255 255
-0.316453   3.49455  0.732338 255 255 255
-0.196194   4.04166  0.589344 255 255 255
-1.50085  3.82047 0.771805 255 255 255
-0.931649   3.96442  0.445674 255 255 255
-0.102496   3.89706  0.604101 255 255 255
-0.0861039    3.67053   0.670971 255 255 255
0.0469632   3.90538  0.586307 255 255 255
-0.393528   4.06993  0.615388 255 255 255
-1.84222   4.3394 0.793848 255 255 255
-2.04942  4.46443 0.791285 255 255 255
0.0351835   4.02193  0.563704 255 255 255
0.0780312   4.20412  0.607906 255 255 255
-0.768078   4.43693  0.543207 255 255 255
-2.32861  4.58202 0.850674 255 255 255
-0.0556772    4.05298   0.557577 255 255 255
-0.106913   4.12268  0.558188 255 255 255
0.0893683   3.61929  0.653712 255 255 255
-0.578131   4.49743  0.347343 255 255 255
0.159652  4.15361 0.587318 255 255 255
-1.06675  4.79548 0.524029 255 255 255
-1.51733   4.0223 0.768706 255 255 255
-0.0541627    3.74524   0.643247 255 255 255
-0.507323    4.2025  0.580497 255 255 255
-0.15109  3.40262 0.649765 255 255 255
0.186589  3.67102 0.659835 255 255 255
 -1.5468  4.58763 0.658526 255 255 255
-0.12782  4.09301 0.536425 255 255 255
-0.701515   2.67817  0.957636 255 255 255
0.186821  4.11733 0.550494 255 255 255
-1.94853   4.1743 0.822997 255 255 255
-0.12327  4.08982 0.527323 255 255 255
-0.0644341    4.06831   0.551097 255 255 255
-0.140837   3.44026  0.695152 255 255 255
-0.296666   3.39079  0.752281 255 255 255
0.0500836   3.98983  0.572686 255 255 255
-1.66011  4.56421 0.694786 255 255 255
0.106712  4.06739 0.564656 255 255 255
-0.538014   3.50752  0.555632 255 255 255
-1.25168  3.90517 0.665852 255 255 255
-0.0945645    4.17524    0.61718 255 255 255
-2.34253  4.69378 0.856004 255 255 255
0.227676  3.98839  0.53851 255 255 255
-0.118614   3.83896  0.626596 255 255 255
-0.812647   4.69359  0.460322 255 255 255
-0.361929   4.77423  0.351118 255 255 255
-0.12747  3.65731 0.667533 255 255 255
-1.51962  4.50011 0.689368 255 255 255
-0.230464   3.82167  0.614991 255 255 255
-0.731732   3.79376  0.482348 255 255 255
-2.31448  4.49208 0.864288 255 255 255
-0.216342   3.93968   0.60645 255 255 255
-1.17888  5.07923 0.586532 255 255 255
 -0.9964  3.67099 0.608352 255 255 255
-0.94833  3.96107 0.455405 255 255 255
0.176764  4.00409 0.552092 255 255 255
-0.00491953     4.07055    0.584449 255 255 255
-0.136017   3.79823   0.63255 255 255 255
0.148825  4.02612 0.565242 255 255 255
0.096566  3.64515 0.655817 255 255 255
-0.329154   4.08783  0.618185 255 255 255
-0.873924    3.8034  0.650845 255 255 255
-2.28234   4.7478 0.825428 255 255 255
-1.66242  4.30189 0.658792 255 255 255
0.0386181   4.01295   0.57431 255 255 255
-0.802067   4.13417  0.441321 255 255 255
0.0780906   4.05331  0.565771 255 255 255
-0.0763052    4.15606   0.608886 255 255 255
-0.888068   4.03789  0.453373 255 255 255
-0.701788   3.80456  0.667131 255 255 255
0.241996   3.8531 0.579823 255 255 255
-2.08189  4.36122 0.791175 255 255 255
-0.837975   3.30678  0.712661 255 255 255
-0.215039   3.61304   0.64062 255 255 255
0.219439  3.89344 0.563804 255 255 255
-1.52311  4.03493 0.758216 255 255 255
-1.88772  4.36428 0.783189 255 255 255
-1.51338  3.84554 0.746643 255 255 255
0.0963533   4.10013  0.599465 255 255 255
-0.230107   3.84066  0.606302 255 255 255
-1.41887  4.30539 0.634248 255 255 255
0.000194809     4.04252    0.566583 255 255 255
0.122291  3.99614 0.562313 255 255 255
-0.0582755    4.12968   0.605768 255 255 255
-1.84224  4.85129 0.708566 255 255 255
-1.17347  4.13732 0.613671 255 255 255
-0.85823  4.03149 0.436157 255 255 255
-0.147574   4.11846   0.56917 255 255 255
-1.48513  4.28454 0.663435 255 255 255
-0.962592   3.71254  0.671514 255 255 255
 -1.9292  4.18584 0.829073 255 255 255
-1.47081   3.8039 0.801084 255 255 255
-2.23878  4.82835 0.819968 255 255 255
-0.0597137    4.09431   0.556857 255 255 255
0.252135  3.93114 0.551073 255 255 255
-1.40842  4.30269 0.635715 255 255 255
-1.55962  4.64035 0.673332 255 255 255
-0.317194   3.33449  0.670706 255 255 255
-0.838283   5.21877  0.310634 255 255 255
0.0030752   4.23497  0.479519 255 255 255
-1.11275  5.32117 0.572053 255 255 255
-1.93915  4.17225 0.824421 255 255 255
0.0573623     4.187  0.624534 255 255 255
-1.41918  4.04948  0.75911 255 255 255
-0.0191552    3.56967   0.700553 255 255 255
-0.039443   3.93762  0.598518 255 255 255
 -0.6178   3.0429 0.915258 255 255 255
-1.06757  5.22969 0.564968 255 255 255
-0.504184    3.4737  0.756261 255 255 255
-0.686631   4.60307  0.413757 255 255 255
0.237201  3.65164 0.678677 255 255 255
-0.785531   4.54704  0.523548 255 255 255
0.404956  2.23285  1.29629 255 255 255
0.219299   1.5237  1.64023 255 255 255
0.575901  1.76692   1.5677 255 255 255
0.30716 2.38591 1.24869 255 255 255
0.244075  1.61079  1.58553 255 255 255
-0.516245   1.98119   1.30502 255 255 255
0.775725  1.38276  1.71777 255 255 255
0.262397  1.29499  1.76403 255 255 255
-0.853323   1.67167   1.55666 255 255 255
0.340547  1.46752  1.67133 255 255 255
-0.0636501    1.38971     1.6897 255 255 255
0.0713852   1.45718   1.66212 255 255 255
0.559394   2.3172  1.29596 255 255 255
0.41278 2.09076 1.37538 255 255 255
0.93985 1.40244 1.73391 255 255 255
0.422006  1.41802  1.71387 255 255 255
0.732191  1.93276  1.49413 255 255 255
-0.179348   1.21145   1.76372 255 255 255
0.602132  1.54616  1.65066 255 255 255
0.351289   2.0323  1.42368 255 255 255
0.073251  1.20936  1.79047 255 255 255
0.729731  1.90101  1.51483 255 255 255
0.423337   2.2528  1.28139 255 255 255
-0.72381   2.4497  1.14089 255 255 255
0.624229    2.009  1.45344 255 255 255
1.08044 1.32104 1.84748 255 255 255
0.599781  1.49625  1.67067 255 255 255
0.855031  1.35993  1.74362 255 255 255
0.401796  2.05267  1.41488 255 255 255
-0.129224   1.29894   1.74346 255 255 255
0.455003  2.41763  1.24067 255 255 255
-0.0329905    1.95052    1.27296 255 255 255
0.499899  2.13155   1.3766 255 255 255
0.537646  1.47255  1.68022 255 255 255
1.00135 1.45778  1.7531 255 255 255
0.874883  1.63753  1.59368 255 255 255
0.578593  2.15533  1.36899 255 255 255
0.86734 1.39705 1.72396 255 255 255
0.696707  2.07831  1.42639 255 255 255
0.472344  1.82977  1.52782 255 255 255
-0.219207   1.27363   1.75173 255 255 255
-0.820336   1.29127   1.76582 255 255 255
0.435606  2.44743  1.20545 255 255 255
0.466361   2.4501  1.23364 255 255 255
0.352146  2.53086  1.17697 255 255 255
0.421008  1.45535  1.70045 255 255 255
0.337723   2.4707  1.18695 255 255 255
1.07574 1.46716  1.7705 255 255 255
-0.484757   1.05635    1.8569 255 255 255
0.381536    1.385  1.72297 255 255 255
0.807651  2.10074  1.42803 255 255 255
0.404308  1.44042  1.70382 255 255 255
0.620344  1.64566  1.60447 255 255 255
0.827056  2.12993  1.41262 255 255 255
-0.672487    2.3321   1.09211 255 255 255
0.48455 2.58673 1.16288 255 255 255
-0.261337   1.16356   1.79328 255 255 255
0.994153  2.15404  1.42691 255 255 255
0.673435  1.90383  1.50995 255 255 255
0.137869  2.43731  1.17314 255 255 255
0.384758  1.35859  1.73557 255 255 255
0.487576  2.33196  1.28555 255 255 255
0.49415 1.46213 1.68129 255 255 255
0.0412431   2.55358    1.0876 255 255 255
0.305996   1.5133  1.64932 255 255 255
1.04537  1.6295 1.67639 255 255 255
-0.704194   1.92758   1.30447 255 255 255
0.70632  1.8312 1.54147 255 255 255
0.278044   2.4591  1.21141 255 255 255
0.251949  1.23726  1.80003 255 255 255
-0.711757     2.337   1.11272 255 255 255
0.535109  1.44994  1.68314 255 255 255
0.31152 2.17933 1.34587 255 255 255
-0.879358   2.04378   1.38711 255 255 255
0.275989  1.25589  1.79303 255 255 255
0.541455  1.52552  1.65575 255 255 255
0.00660398    1.45002    1.67215 255 255 255
0.696395   1.9506  1.48522 255 255 255
0.572332  1.49352  1.67204 255 255 255
0.673177   2.0783  1.43142 255 255 255
0.564092  2.41087    1.254 255 255 255
0.129399  2.29879  1.28768 255 255 255
0.12545 2.47585  1.1803 255 255 255
-0.221862    2.1098   1.36734 255 255 255
-0.214661   2.50747   1.03465 255 255 255
0.573162  1.51357  1.65578 255 255 255
0.0689742   1.13109    1.8447 255 255 255
-0.300465   2.29066   1.28223 255 255 255
0.100845  2.54081  1.10902 255 255 255
0.995857  2.16834  1.41385 255 255 255
0.352994  2.33524  1.28296 255 255 255
0.180237   1.2815  1.75253 255 255 255
0.607263  1.90509   1.4984 255 255 255
0.537478  1.20298   1.8418 255 255 255
0.0764723   2.47571   1.17969 255 255 255
0.569255  1.52987  1.65338 255 255 255
0.126069   1.5154  1.62807 255 255 255
-0.824574  0.964759    1.9164 255 255 255
0.378776  2.24784  1.29535 255 255 255
0.515408  2.52434  1.19395 255 255 255
1.09324 1.42108 1.78973 255 255 255
0.101285  2.56464  1.09788 255 255 255
-0.60208  1.14372  1.81481 255 255 255
0.346486   2.5424  1.17876 255 255 255
0.0888854   2.47716   1.18341 255 255 255
0.138692  1.36222  1.72391 255 255 255
0.349039  2.46702  1.18598 255 255 255
1.08319 1.48892  1.7612 255 255 255
0.547629  2.33855  1.29205 255 255 255
0.459257  2.51513  1.19583 255 255 255
-0.283705   2.31362   1.27375 255 255 255
0.202059  1.14698  1.82738 255 255 255
-0.0599805    1.13476    1.83014 255 255 255
0.238215  2.56774  1.16375 255 255 255
0.466529  2.37109  1.26504 255 255 255
1.10045 1.34531 1.83087 255 255 255
1.09448 1.33215 1.83583 255 255 255
0.393436  2.54596  1.17665 255 255 255
0.454122  2.40735   1.2476 255 255 255
0.392604  2.60209  1.15153 255 255 255
0.19405 1.41378 1.69416 255 255 255
0.290812  1.26843  1.78251 255 255 255
-0.886407   1.82008   1.49634 255 255 255
1.10526  1.4126 1.79492 255 255 255
0.894157  1.49789  1.68911 255 255 255
0.672675  1.95548  1.48844 255 255 255
0.0241462   1.45627   1.66429 255 255 255
0.755389   2.1371  1.41944 255 255 255
0.598591  1.62946  1.62637 255 255 255
-0.139309   1.19428   1.76045 255 255 255
0.74091 1.87691 1.52966 255 255 255
0.905283  1.56315  1.68293 255 255 255
-0.893094   1.74661   1.52274 255 255 255
0.293651  2.15739  1.34474 255 255 255
1.11048 1.31633  1.8447 255 255 255
0.474721  2.36809  1.26307 255 255 255
0.805481  1.32826  1.79972 255 255 255
0.0370888   1.21218   1.78399 255 255 255
-0.544102   2.05222   1.27207 255 255 255
0.13668 2.32124 1.27334 255 255 255
-0.687278   2.35888   1.11301 255 255 255
0.0617915   2.25451   1.30237 255 255 255
0.764037  2.14245  1.42941 255 255 255
0.0926848   2.57668   1.09079 255 255 255
0.284887  1.32523  2.20545 255 255 255
0.507212  1.13639  1.88339 255 255 255
0.55716 1.52598 1.65906 255 255 255
0.494326  2.28484  1.30245 255 255 255
0.525087  2.39437  1.27071 255 255 255
0.185385  1.12642  1.83769 255 255 255
-0.423671   2.51959   1.17206 255 255 255
-0.552211   1.08843   1.80907 255 255 255
-0.838121  0.990986   1.91085 255 255 255
1.10732 1.51507 1.74511 255 255 255
0.091776  2.56325  1.09602 255 255 255
-0.695994   1.81282   1.34951 255 255 255
0.591668  1.51034   1.6675 255 255 255
-0.198005   1.25394   1.75161 255 255 255
-0.424087   1.84936   1.25998 255 255 255
0.515428  1.44183  1.69039 255 255 255
0.177909  1.13319  1.83779 255 255 255
-0.820297    0.9655   1.93122 255 255 255
0.34718 1.32577 1.74557 255 255 255
0.714959  1.95909  1.47749 255 255 255
1.10087 1.31233 1.84816 255 255 255
1.09887 1.46606 1.76768 255 255 255
-0.425518   1.85705   1.26634 255 255 255
1.11623 1.50293 1.75212 255 255 255
0.103419  2.46589  1.19028 255 255 255
0.766569  2.06056  1.45151 255 255 255
-0.284535   2.25097   1.08842 255 255 255
0.315647  2.46353  1.20911 255 255 255
0.242606  2.26863  1.29652 255 255 255
0.525908  1.47393  1.68091 255 255 255
0.699406    1.923  1.49781 255 255 255
-0.118669   1.30715   1.74168 255 255 255
0.468741  1.23273  1.81512 255 255 255
-0.0997501    1.19074    1.80345 255 255 255
0.221893  1.62551  1.58957 255 255 255
0.220021  2.36359  1.24762 255 255 255
-0.00943928     1.08256      1.8529 255 255 255
0.476394  1.22741  1.81583 255 255 255
-0.217711   1.13817   1.82069 255 255 255
0.588934   1.6269  1.62514 255 255 255
0.509239  1.42634  1.70382 255 255 255
0.987239  1.39051  1.79041 255 255 255
1.07372 1.44369 1.78071 255 255 255
1.12697 1.32944 1.83969 255 255 255
-0.177952   1.23355   1.75462 255 255 255
0.400489  2.53502  1.17333 255 255 255
-0.078275    1.9839    1.2599 255 255 255
1.07748 1.34329 1.83394 255 255 255
1.16272 1.34817 1.81989 255 255 255
0.405597  1.42375  1.71373 255 255 255
1.08625 1.39752 1.80138 255 255 255
0.782601  2.13298  1.41645 255 255 255
1.08935 1.45098  1.7793 255 255 255
0.885233  1.46005  1.69602 255 255 255
0.302446  1.23401  1.79338 255 255 255
0.172595  1.08818   1.8566 255 255 255
1.01072 1.47762 1.74536 255 255 255
0.471796  1.21126  1.81435 255 255 255
0.396578  1.32989  1.75154 255 255 255
0.233159   1.7442  1.51595 255 255 255
0.444125  1.88372  1.50064 255 255 255
-0.0642617    3.12545   0.919939 255 255 255
-1.30634  2.62819  1.03519 255 255 255
-0.276029   3.08053  0.921447 255 255 255
0.158577  3.24562  0.84484 255 255 255
-1.26594  2.64285  1.02657 255 255 255
0.272596  3.18504 0.868076 255 255 255
-1.01127   3.2598 0.695596 255 255 255
0.177768  3.10908  0.91383 255 255 255
0.244641  2.99716 0.948291 255 255 255
0.236222  3.16048 0.883099 255 255 255
0.240333  2.84077  1.02134 255 255 255
0.244013  2.85612  1.01294 255 255 255
0.176904  2.97689 0.988909 255 255 255
0.215125  2.92007  0.98731 255 255 255
0.220618  3.10936 0.896627 255 255 255
0.160509   2.8471  1.03457 255 255 255
0.131454  2.85004  1.03298 255 255 255
0.191589  2.86506  1.02593 255 255 255
0.169759  3.20238 0.876222 255 255 255
0.135112  3.31179 0.805593 255 255 255
0.140511  3.64371 0.677611 255 255 255
 0.14811  3.03564 0.952483 255 255 255
-1.23797   2.5906  1.06519 255 255 255
0.267191  3.15428 0.873854 255 255 255
0.181783   3.0342  0.94859 255 255 255
-1.08374  2.72136 0.973456 255 255 255
0.174179  2.93537  0.99767 255 255 255
 0.19659  2.99385 0.959285 255 255 255
0.237454  2.88716 0.998409 255 255 255
-1.24352  2.55825  1.07633 255 255 255
-1.27357  2.63352  1.02667 255 255 255
-0.709566   2.67102  0.995828 255 255 255
0.0916133   3.20333  0.877532 255 255 255
0.177036  3.15099 0.891378 255 255 255
0.249074  3.08646 0.905007 255 255 255
-1.29659  2.63855  1.03068 255 255 255
-0.452466   3.26627  0.849434 255 255 255
0.226125  2.95656 0.965587 255 255 255
0.226129  2.95656  0.96556 255 255 255
0.181911  2.95851 0.972877 255 255 255
-0.449083   3.31143  0.860753 255 255 255
 0.16575  3.04599 0.954947 255 255 255
0.213865  2.87191  1.01646 255 255 255
0.0755671   3.28057     0.844 255 255 255
-0.814262   3.32229  0.807445 255 255 255
0.0520326    3.3242  0.825529 255 255 255
0.112755   3.2405 0.849962 255 255 255
0.0842424   3.55482  0.712265 255 255 255
0.181114  3.57217 0.712602 255 255 255
-0.483633   3.23205   0.86831 255 255 255
-0.447892   3.41101  0.772503 255 255 255
0.191501  2.96288 0.973123 255 255 255
0.211618  2.94232 0.978168 255 255 255
0.230707  3.53745 0.726827 255 255 255
-0.724531   2.66912  0.990527 255 255 255
-0.725765   2.65833   0.99758 255 255 255
0.0996997   3.58291  0.700328 255 255 255
0.0721306    3.6413  0.680287 255 255 255
0.153491  3.06211 0.948314 255 255 255
0.217984  3.55502 0.718943 255 255 255
0.207456  3.13002 0.889235 255 255 255
0.231289  3.02006 0.938134 255 255 255
0.237797   3.1821 0.867045 255 255 255
-0.726914   2.68374  0.988343 255 255 255
0.206918  3.05881 0.922759 255 255 255
-0.495031   3.24031   0.86277 255 255 255
0.212341  3.17626 0.865324 255 255 255
0.119844  3.31884 0.810366 255 255 255
0.197178  3.03745  0.93626 255 255 255
-0.732788   2.72956  0.967953 255 255 255
0.105547  3.15457 0.898265 255 255 255
0.196778  2.82663  1.04636 255 255 255
0.0987781    3.2527  0.851194 255 255 255
-0.705672   2.71687   0.96255 255 255 255
0.0927563   3.29764  0.829392 255 255 255
0.224707  3.03315 0.934211 255 255 255
-0.451992   2.98663  0.965181 255 255 255
 -0.7021  2.68223 0.993255 255 255 255
0.0792685   3.32217  0.821505 255 255 255
-0.46345  3.13242 0.902942 255 255 255
0.0976451   3.64583  0.678432 255 255 255
0.158546  3.13665 0.892519 255 255 255
-0.737335   2.67644  0.987618 255 255 255
-0.728226    2.7474  0.960449 255 255 255
-0.929343   3.28862  0.765493 255 255 255
-0.484898   3.24152  0.863353 255 255 255
 0.05782  3.48061 0.757932 255 255 255
0.219127  3.20587  0.84898 255 255 255
-0.700048   2.71788  0.969266 255 255 255
0.169759  3.68357 0.631611 255 255 255
 -0.4745  3.29224 0.844447 255 255 255
0.252332  4.36084 0.577301 255 255 255
-0.351698   4.71905  0.384557 255 255 255
 0.07335  4.81944 0.440478 255 255 255
-0.397056   4.97088  0.339243 255 255 255
-0.679405   4.42188  0.586946 255 255 255
-0.226173    4.5277  0.436146 255 255 255
-0.156358   5.20915  0.379196 255 255 255
0.517238  4.27091 0.530956 255 255 255
 -0.3124  5.38834 0.397256 255 255 255
-0.639272   4.01468    0.7462 255 255 255
-0.981966   5.65634  0.350724 255 255 255
 -1.0501  5.33166 0.557903 255 255 255
-0.199834   4.68361  0.348767 255 255 255
-0.260266   4.32575   0.53836 255 255 255
0.307441  4.51403 0.556594 255 255 255
-0.305531   3.97934   0.58035 255 255 255
-0.493048   4.86865  0.243354 255 255 255
0.238541  4.68375  0.41055 255 255 255
-0.0960885    3.99501   0.587173 255 255 255
-0.134256   5.44822  0.197128 255 255 255
-0.532654    5.6773  0.407261 255 255 255
-0.080978   4.18494  0.566447 255 255 255
0.200451  4.58087 0.501452 255 255 255
-0.453819   5.68863  0.451919 255 255 255
-0.494616   3.61263  0.710962 255 255 255
-0.57313   5.0895 0.409894 255 255 255
0.227806  4.14501 0.602489 255 255 255
-0.49535  4.60953 0.395949 255 255 255
-0.149326   5.14212  0.373243 255 255 255
-0.36574  3.48013 0.730026 255 255 255
-0.0254339    5.68529   0.222725 255 255 255
-0.0405686    4.85833   0.460018 255 255 255
-0.158432   5.53481   0.20053 255 255 255
-0.624372   5.73681  0.410372 255 255 255
-0.796874   5.68432  0.425321 255 255 255
-1.48493  4.88487  0.59025 255 255 255
-0.242711   3.55746  0.677403 255 255 255
-0.727547   5.34446  0.435921 255 255 255
0.0440261   4.92919   0.36188 255 255 255
-0.23836  3.72564 0.618612 255 255 255
-0.49697  4.14456 0.568107 255 255 255
0.401218   4.2313 0.574739 255 255 255
-0.112038   4.65676  0.416491 255 255 255
-0.151605   4.43596   0.52187 255 255 255
-0.145565   5.07227  0.337123 255 255 255
-0.107304   5.63616  0.188837 255 255 255
-0.454894   3.98646  0.656785 255 255 255
 0.61141  4.45676 0.457143 255 255 255
-0.191881   4.92683  0.355795 255 255 255
-0.212207   5.17263  0.287187 255 255 255
0.0565542   4.04548  0.582003 255 255 255
-0.46314  3.51371 0.731789 255 255 255
-0.798881   5.19337  0.295121 255 255 255
-0.490735   5.09886  0.430333 255 255 255
-0.856124   5.60676  0.437684 255 255 255
-0.667246   4.93474  0.328158 255 255 255
-0.905966   5.41448  0.495467 255 255 255
-0.20828  5.13095 0.424704 255 255 255
0.157103  4.18194 0.577869 255 255 255
-0.0132467    4.25192    0.58113 255 255 255
-0.609798   5.56936  0.439724 255 255 255
-1.38665  5.67543 0.584384 255 255 255
-0.582046   4.24178  0.579489 255 255 255
 0.30881  4.29641 0.610147 255 255 255
0.286204  4.77503 0.367759 255 255 255
0.121601  5.20356 0.243213 255 255 255
0.270651  5.35411 0.192293 255 255 255
-0.770622   5.62076  0.447994 255 255 255
-0.0723165     5.8186   0.434169 255 255 255
0.346558  3.97925 0.580402 255 255 255
-1.22348   5.4039 0.563233 255 255 255
0.166079  5.39551 0.155015 255 255 255
-1.19857  5.20405 0.519458 255 255 255
0.131151  4.38712 0.552985 255 255 255
-0.792569   5.54888  0.416208 255 255 255
-1.11053  5.27583 0.505131 255 255 255
-0.29419  4.46567 0.446777 255 255 255
-0.150073   4.99295  0.352468 255 255 255
-0.839403   4.69459  0.445958 255 255 255
-0.197723    4.4008  0.535832 255 255 255
-0.714776   5.67916  0.454361 255 255 255
-0.426841   5.33775  0.399315 255 255 255
-0.172239   5.02342  0.292354 255 255 255
-0.100333   4.72513  0.420474 255 255 255
-1.60775  5.57693 0.641615 255 255 255
-0.504435   5.65432  0.411283 255 255 255
 0.35328  3.93397 0.565286 255 255 255
0.476574  4.41708 0.539868 255 255 255
-0.555335   5.47173  0.443871 255 255 255
-0.423595   4.43685  0.476374 255 255 255
-0.581611    4.9497  0.302261 255 255 255
-0.00905364     4.90245    0.286103 255 255 255
-0.676775   5.52349   0.45861 255 255 255
0.611977  4.36484 0.509177 255 255 255
-0.12065  4.07626 0.543589 255 255 255
0.350483  4.25513 0.631131 255 255 255
0.119591  3.93054 0.565113 255 255 255
-0.319206   5.00776  0.430814 255 255 255
0.171429   4.2303 0.590253 255 255 255
-0.137837   4.32519  0.481637 255 255 255
-0.531747   5.42694  0.459332 255 255 255
-0.109047   5.80566  0.377761 255 255 255
-0.0337115      3.678   0.670664 255 255 255
-0.281828   4.89314  0.283687 255 255 255
-0.63374  4.77398 0.315694 255 255 255
0.558424  4.31478 0.506872 255 255 255
-0.188787   5.86946  0.453503 255 255 255
-0.782899   5.74661  0.458724 255 255 255
-0.110137   4.79465  0.394182 255 255 255
-0.305695    5.2656  0.388802 255 255 255
0.181493  4.32513 0.582448 255 255 255
-0.354163   5.22689  0.421545 255 255 255
-0.362349   5.80145   0.44015 255 255 255
-1.34783  5.46956 0.525392 255 255 255
-0.67945  5.22429 0.261067 255 255 255
-0.621791   4.97828  0.298277 255 255 255
0.0483151    4.2334  0.529271 255 255 255
-0.246333   4.72241  0.349241 255 255 255
0.623534  4.17529 0.555228 255 255 255
-0.376084    5.0597   0.45318 255 255 255
-0.573671   3.79107  0.677919 255 255 255
-0.801748   5.44428  0.496992 255 255 255
0.0211776   4.18796  0.530754 255 255 255
0.183137  4.45334 0.511754 255 255 255
-0.335195   5.73994  0.416036 255 255 255
0.449147  4.20124  0.53402 255 255 255
 0.31197  4.09671 0.535131 255 255 255
-0.06095  5.61146 0.191056 255 255 255
-0.449843    3.7117  0.683457 255 255 255
-0.337111   5.65088  0.374612 255 255 255
-0.568944   5.73748  0.432311 255 255 255
-0.924661   5.63377  0.445046 255 255 255
0.564537  4.43749 0.541487 255 255 255
0.281452  3.99113  0.56749 255 255 255
-0.0898986    5.39643   0.206958 255 255 255
0.227497  5.25707 0.195007 255 255 255
-0.144797   4.93978  0.374238 255 255 255
-0.695297   5.63267  0.429186 255 255 255
-0.130889   4.75591  0.355386 255 255 255
0.443722   4.5031 0.543909 255 255 255
-0.409785   5.16226  0.429845 255 255 255
-0.383021   4.04747  0.634235 255 255 255
0.529849  4.34029 0.552338 255 255 255
-0.392683   5.52736  0.412278 255 255 255
-0.45028   5.2021 0.453619 255 255 255
-0.0763458    4.09174   0.547892 255 255 255
0.378456  4.02393 0.569683 255 255 255
0.300234   4.3735 0.575989 255 255 255
-0.711947   5.33422  0.402109 255 255 255
0.0313524   3.85488  0.588006 255 255 255
-0.778108   5.58025  0.464188 255 255 255
-0.163038   5.04852  0.342665 255 255 255
-0.305426   5.83423  0.430686 255 255 255
-0.188048   4.98284  0.303572 255 255 255
-0.402644   5.24979  0.428741 255 255 255
-0.514036   4.30557  0.562277 255 255 255
-0.374008   4.61503  0.383186 255 255 255
-0.950958   4.68349  0.504064 255 255 255
 -1.3063  5.57739 0.555641 255 255 255
-0.290919   4.68337   0.37427 255 255 255
0.664634  4.28152 0.544984 255 255 255
0.0628129   5.30024  0.221942 255 255 255
0.0381451   4.55857  0.516797 255 255 255
-0.656322   4.91056  0.310474 255 255 255
0.513524  4.18885 0.510948 255 255 255
-0.17183  3.80399 0.617245 255 255 255
-0.346782   5.54764  0.381958 255 255 255
0.0533654   4.40458    0.5616 255 255 255
-0.0604584    4.96699   0.375874 255 255 255
0.553656  4.14271 0.545898 255 255 255
-0.0963236    5.84728   0.420347 255 255 255
0.147516  5.27016 0.262042 255 255 255
0.481091   4.5078 0.524325 255 255 255
0.0601021   5.33577  0.237176 255 255 255
-0.813905   5.73725  0.437476 255 255 255
-0.555059   5.32306  0.404704 255 255 255
0.452631   4.1048 0.531414 255 255 255
0.0948325   5.46384  0.273431 255 255 255
0.541158   4.1972 0.524904 255 255 255
-0.688583   4.55102  0.401096 255 255 255
-0.127574   5.29613  0.292537 255 255 255
-0.888292   5.68026  0.386576 255 255 255
-0.933131   5.42471  0.492347 255 255 255
-0.505004    5.2683  0.387783 255 255 255
-0.0455629    5.33348   0.226265 255 255 255
0.0807686   3.74939  0.604943 255 255 255
0.0769464   3.74536   0.61753 255 255 255
0.0741892    3.8869  0.573157 255 255 255
-0.721283   5.64876  0.405295 255 255 255
-0.0987741    4.43141   0.528371 255 255 255
-0.0865928    5.34739   0.236933 255 255 255
-0.194166   5.88521  0.442931 255 255 255
0.581057  4.24294 0.525615 255 255 255
-0.0202079    3.86641   0.603415 255 255 255
-0.740459   5.48736    0.4605 255 255 255
-0.806961   5.59266  0.432778 255 255 255
-0.10681  5.89028 0.410307 255 255 255
0.263602  4.80503 0.362316 255 255 255
 0.34505  4.58532 0.485517 255 255 255
-0.685743   4.90213  0.294423 255 255 255
-0.461745   4.76761   0.35227 255 255 255
-0.481276    5.4501  0.433406 255 255 255
0.419077  4.36552 0.501327 255 255 255
0.103813  4.44477 0.521572 255 255 255
-0.481325   5.05403  0.382603 255 255 255
-0.112394   5.86768  0.396009 255 255 255
-0.101401    3.9429  0.566475 255 255 255
0.147095    4.685  0.27449 255 255 255
-0.411375   5.00292  0.431529 255 255 255
-0.737229   4.57495  0.426731 255 255 255
-0.472811   5.06443  0.458484 255 255 255
0.203039  4.87424 0.257828 255 255 255
0.00596831    4.40737   0.492126 255 255 255
-0.0174889    5.34575   0.221017 255 255 255
0.665185   4.1519 0.582182 255 255 255
-1.05743  5.41514 0.488449 255 255 255
-0.287336    4.1113  0.597921 255 255 255
-0.491606    5.3589  0.405899 255 255 255
0.420816  4.19105 0.528683 255 255 255
0.604682  4.24196 0.527522 255 255 255
-1.10547  4.67316 0.562396 255 255 255
0.057871  4.09231 0.590254 255 255 255
0.164253  4.05893 0.551115 255 255 255
-0.474052   4.00888  0.624973 255 255 255
-0.428062   5.27214  0.421688 255 255 255
0.568646  4.08032 0.551387 255 255 255
0.366562  4.63165  0.41587 255 255 255
-0.345829   5.67855  0.387558 255 255 255
-1.66066  5.71816 0.665664 255 255 255
-0.238691   4.08413  0.570157 255 255 255
-1.33398  5.61751 0.596769 255 255 255
-0.0813286     4.5822   0.488831 255 255 255
-1.09385  5.33906 0.499026 255 255 255
-0.000912853      3.97073      0.59439 255 255 255
0.631069  4.41314 0.506764 255 255 255
-0.0373257    5.18594   0.337559 255 255 255
-0.884287   5.70732  0.442458 255 255 255
-1.02192  5.39697 0.488113 255 255 255
 -1.2208  5.44513 0.532611 255 255 255
-1.52475  5.49722 0.605613 255 255 255
 -1.5675  5.57756 0.624475 255 255 255
-0.860012   5.70282  0.356715 255 255 255
0.339143  4.12747 0.525433 255 255 255
-0.489589   5.52185  0.448191 255 255 255
0.546852  4.16741  0.53543 255 255 255
-0.445916   5.01749  0.294374 255 255 255
0.515842  4.12397 0.538381 255 255 255
-1.42904  5.64134 0.562651 255 255 255
-0.301539   3.42699  0.767879 255 255 255
0.150817  4.60987 0.495707 255 255 255
-0.744837   4.92475  0.335636 255 255 255
0.186383   4.0863 0.552236 255 255 255
-0.174892   5.08771  0.349165 255 255 255
0.389752  4.27832 0.605727 255 255 255
-0.0566308    4.89971   0.410443 255 255 255
0.437111  4.44025  0.59954 255 255 255
-0.270693   3.87092  0.610874 255 255 255
 -0.3687  5.27008 0.388571 255 255 255
0.152687  3.89234 0.574686 255 255 255
-0.418591    5.0681  0.447156 255 255 255
-0.425293   5.24254  0.412146 255 255 255
-0.63112  5.29888 0.388867 255 255 255
0.303109  3.87785 0.582867 255 255 255
-0.202551   4.60942  0.420949 255 255 255
-0.400783   5.03051  0.421513 255 255 255
-0.147957   5.33247  0.283369 255 255 255
0.160151   3.7699 0.602764 255 255 255
 0.17174  4.02826 0.579811 255 255 255
0.422754  4.38378 0.572461 255 255 255
0.255226  4.33774 0.597148 255 255 255
-0.365919    5.7635  0.428923 255 255 255
-0.0109617    4.37253   0.451307 255 255 255
0.429964  4.31027 0.608447 255 255 255
0.480013  4.41659 0.574573 255 255 255
0.169256  3.93632 0.529968 255 255 255
0.339983  3.94575 0.558862 255 255 255
-0.146761   4.40498  0.543795 255 255 255
0.626538   4.3834 0.479541 255 255 255
-0.181458   5.00027  0.357773 255 255 255
0.662211  4.19791 0.559535 255 255 255
-0.0179603    4.92606   0.361425 255 255 255
0.393743  4.47426 0.526274 255 255 255
-0.0947294    4.83061   0.448287 255 255 255
-0.445445   4.99725  0.412049 255 255 255
0.497666  4.10238 0.538709 255 255 255
0.044474  3.78578 0.572518 255 255 255
-0.00501121     4.36708    0.363299 255 255 255
-0.112673   4.17457  0.583526 255 255 255
-0.0264583    5.75054   0.362961 255 255 255
-0.150702   4.78101  0.392829 255 255 255
-1.64637  5.64978  0.63877 255 255 255
-0.0097791    5.27504   0.259639 255 255 255
-0.00545866     4.00834    0.574932 255 255 255
0.237178  3.93069 0.553139 255 255 255
0.432228  4.37456 0.595164 255 255 255
0.477776  4.09081 0.536924 255 255 255
-0.399952   3.51428   0.67939 255 255 255
-0.255305   3.65523  0.661021 255 255 255
-0.0662928    4.02271   0.564956 255 255 255
 0.11876  5.35046 0.277168 255 255 255
-0.625595   3.77049  0.682533 255 255 255
-0.0621809    5.20367   0.353524 255 255 255
-0.161874   4.87169   0.39237 255 255 255
-0.186867   4.33584  0.551194 255 255 255
-0.0677016    4.72815   0.457654 255 255 255
0.237508  3.96912  0.52273 255 255 255
-1.01369  4.69549 0.543456 255 255 255
-0.922786   3.82452  0.704715 255 255 255
-0.464734   4.18039   0.55128 255 255 255
-1.33409  5.64627 0.588544 255 255 255
-0.568652   4.93219  0.349771 255 255 255
-0.383133   4.86628  0.324605 255 255 255
0.301186  4.12081 0.524972 255 255 255
0.126517  4.36894 0.560499 255 255 255
-0.631771   5.45954  0.459496 255 255 255
0.501089  4.05545   0.5438 255 255 255
-0.213505   4.90606  0.315005 255 255 255
0.314335  4.51264 0.541938 255 255 255
-0.600481   4.55511  0.377433 255 255 255
0.369336  4.10077  0.53903 255 255 255
-1.34963  5.62616 0.557171 255 255 255
-0.538646    5.6302  0.387409 255 255 255
-0.017166   3.60197  0.705334 255 255 255
0.702725  4.32271 0.520783 255 255 255
0.434837  4.09574 0.537751 255 255 255
-0.166324   5.30533  0.303723 255 255 255
-0.591083   5.04184  0.351154 255 255 255
-1.16361  5.42412  0.50487 255 255 255
-0.448432   5.53342  0.431786 255 255 255
-0.249744    3.8089  0.621498 255 255 255
0.384358  4.53252 0.551003 255 255 255
0.288794   4.4809 0.544055 255 255 255
-0.696718   5.48987  0.449893 255 255 255
-1.12984   5.6071 0.537001 255 255 255
0.428732  4.02985 0.542241 255 255 255
-0.842868   5.41187  0.495286 255 255 255
-0.227582   5.21155  0.320132 255 255 255
-0.00915248     4.89082     0.42811 255 255 255
-0.305576   3.73334  0.645399 255 255 255
-0.56207  5.48148 0.438843 255 255 255
-0.168105    4.8486  0.390045 255 255 255
-0.229132   4.16267   0.57957 255 255 255
-0.496277   5.31604  0.371987 255 255 255
-0.385354     5.786   0.40648 255 255 255
-0.580291   5.60686  0.418311 255 255 255
0.0686731   4.43982  0.536011 255 255 255
-0.625883    4.8666  0.263335 255 255 255
-0.581983   5.44392  0.452019 255 255 255
0.117892  5.31699 0.231176 255 255 255
  -1.217  5.12599 0.529722 255 255 255
-0.492661   3.66991  0.699113 255 255 255
-0.614876   4.23196  0.559652 255 255 255
-1.36514  4.71999 0.612236 255 255 255
-1.43376  5.51619 0.585924 255 255 255
-0.143862   4.69323  0.424601 255 255 255
-0.177013   4.01428   0.56561 255 255 255
0.291176  4.28518 0.598403 255 255 255
-0.428639    4.9859  0.355072 255 255 255
-1.42486  5.54151 0.599818 255 255 255
-0.750953   5.46238  0.472599 255 255 255
0.303344  3.77576 0.627445 255 255 255
0.354186  4.52363  0.54983 255 255 255
0.359033  3.95985 0.562271 255 255 255
-0.320272   5.28475  0.397661 255 255 255
-0.0744315     4.8577   0.428031 255 255 255
-0.423267   5.09303  0.440905 255 255 255
-0.0945845    4.54826   0.531828 255 255 255
-0.154328   4.71835  0.426224 255 255 255
0.535488  4.08904 0.535703 255 255 255
-0.664168   5.69062  0.445018 255 255 255
-0.438219   4.52907  0.468218 255 255 255
0.356232  4.15729 0.540684 255 255 255
0.468099  3.99557  0.55419 255 255 255
0.0446227   4.13117  0.547543 255 255 255
-0.162249    3.5264  0.694712 255 255 255
0.331309  4.56216 0.492457 255 255 255
0.589116  4.09569 0.542506 255 255 255
-0.0777706    4.61878   0.469911 255 255 255
0.122362  5.32252  0.28185 255 255 255
0.477149  4.36934 0.564309 255 255 255
0.452598  4.27453 0.584875 255 255 255
-0.0897438    4.14091   0.595821 255 255 255
0.0290272   4.89257  0.407691 255 255 255
-0.46857  4.43575 0.452101 255 255 255
0.138265  4.23008 0.577045 255 255 255
-0.384694   3.35925  0.814434 255 255 255
-0.170624   5.02548  0.391719 255 255 255
-0.432797   4.07076  0.616699 255 255 255
-0.48354  5.33687 0.379041 255 255 255
 0.48667  4.17544 0.503957 255 255 255
-0.671972   5.21555  0.274562 255 255 255
-0.0791643    4.25908   0.467816 255 255 255
0.0409206   4.24472  0.556605 255 255 255
0.241804  4.64847  0.48006 255 255 255
-0.369705    4.0213  0.617783 255 255 255
0.102627  3.92249 0.556674 255 255 255
-0.44086  5.63282 0.442654 255 255 255
-0.048397   3.62598  0.694621 255 255 255
0.128974  5.37247  0.25739 255 255 255
-0.208255   5.87128  0.422554 255 255 255
-0.0977846    4.69886   0.449906 255 255 255
-0.851801   4.60282  0.475547 255 255 255
-0.902698   4.60594   0.49309 255 255 255
-0.0211227    3.92097   0.595544 255 255 255
-0.364434   3.47161  0.698146 255 255 255
0.474714  4.27961 0.612905 255 255 255
-0.0965154     4.8354   0.411391 255 255 255
-0.507891   4.54202  0.504209 255 255 255
0.247386  4.04486 0.543838 255 255 255
-0.325164   3.64426  0.705332 255 255 255
-0.191853   5.83871  0.421976 255 255 255
0.087369  5.47785 0.224916 255 255 255
0.260075  4.65882 0.493108 255 255 255
0.213899  4.68677 0.329662 255 255 255
0.191287   5.2313 0.300338 255 255 255
0.214128  4.57599  0.49468 255 255 255
-0.0295184    4.45221   0.516181 255 255 255
-0.972412   5.62325  0.464394 255 255 255
-0.568356   5.59053  0.411972 255 255 255
0.249919  4.57354 0.501378 255 255 255
0.588686  4.16525 0.548762 255 255 255
-0.460369   5.11896  0.449824 255 255 255
0.423831  4.16611 0.519975 255 255 255
0.358566  4.25219 0.616672 255 255 255
-0.153716   4.78979  0.358666 255 255 255
-0.00216779      4.4888    0.512396 255 255 255
-0.145822   4.72757  0.375138 255 255 255
0.635056  4.45013 0.494483 255 255 255
 0.64951  4.16327 0.578883 255 255 255
0.350552  4.35102 0.600022 255 255 255
0.227829  4.50754 0.525705 255 255 255
0.249733  4.21173 0.615834 255 255 255
0.212472  4.21086 0.593909 255 255 255
0.307085  3.75496 0.633214 255 255 255
-0.565799   5.33669  0.384026 255 255 255
0.319955  4.04438 0.559899 255 255 255
-0.548299   3.51892  0.717897 255 255 255
-0.679705   5.35063  0.461063 255 255 255
-0.103651   4.94591  0.385985 255 255 255
0.140897  4.03104 0.559058 255 255 255
-0.395976   4.14515  0.585023 255 255 255
0.317535  4.00088 0.547355 255 255 255
-0.0497619    4.98934   0.380873 255 255 255
-1.29228  5.41336 0.505389 255 255 255
0.355974   4.4174 0.560335 255 255 255
-0.827038   4.48023  0.512895 255 255 255
-0.583622   4.87742  0.258965 255 255 255
-0.321916   3.45042  0.691066 255 255 255
-0.287047   3.78575  0.640725 255 255 255
0.127777    4.203  0.74519 255 255 255
-0.0345706    5.11437   0.292346 255 255 255
0.570535  4.19553 0.532999 255 255 255
-0.610133   5.12898  0.383364 255 255 255
-0.762499    5.3889  0.488387 255 255 255
-0.237783   4.06106   0.57217 255 255 255
-0.239312   4.05841  0.577041 255 255 255
0.275647  4.01703 0.562455 255 255 255
0.342044  4.06228 0.544312 255 255 255
-0.501018   5.54858  0.441082 255 255 255
-0.409847   5.45058  0.445252 255 255 255
-0.231559   4.94935  0.256886 255 255 255
0.0373599   4.27048  0.587363 255 255 255
-0.670732    5.3085  0.379308 255 255 255
-0.699518   5.46253  0.481314 255 255 255
0.610711  4.15204 0.543041 255 255 255
-0.0422952     4.4295   0.453294 255 255 255
0.240701   4.1014 0.527162 255 255 255
-0.269473   5.84091  0.426675 255 255 255
-0.322179   5.41473  0.330985 255 255 255
-0.31676   3.6745 0.604297 255 255 255
-0.283511    5.8513  0.417955 255 255 255
-0.439902   4.81832  0.344665 255 255 255
0.417234  4.08566 0.535891 255 255 255
-0.0276921     3.6907   0.666348 255 255 255
-0.327385   3.67303  0.702242 255 255 255
 -1.2811  5.31571 0.555764 255 255 255
0.252179  4.12579 0.527944 255 255 255
0.474188  4.43698 0.572296 255 255 255
-1.20781  5.03849 0.561381 255 255 255
-0.164917   4.74531  0.363787 255 255 255
-0.457592   4.84026  0.283342 255 255 255
-0.115481   3.75284  0.613034 255 255 255
0.739525  4.21417 0.558217 255 255 255
0.0800398   3.79916  0.592335 255 255 255
0.553108  4.24764 0.552012 255 255 255
0.153496   4.9252 0.423208 255 255 255
-0.0786753    3.78993   0.622314 255 255 255
-1.12698   4.6669 0.605112 255 255 255
-0.459382   4.83746  0.329186 255 255 255
-0.878518   4.52274  0.510808 255 255 255
0.044887  4.23828 0.587442 255 255 255
0.390642  4.19464 0.551743 255 255 255
-1.00021  5.62503 0.453227 255 255 255
-1.27469  5.35117 0.511882 255 255 255
-1.32246  5.41364 0.409747 255 255 255
0.478797  4.14072 0.524751 255 255 255
0.350417  4.64399 0.406772 255 255 255
0.570843  4.21705 0.514605 255 255 255
-0.131254   3.82699  0.635003 255 255 255
0.379638  4.06561 0.556818 255 255 255
-0.911001   5.66221  0.445464 255 255 255
0.449696  4.30659 0.608592 255 255 255
-0.564414   4.18224  0.572747 255 255 255
 0.68978  4.30279 0.534182 255 255 255
0.590237   4.1864 0.536575 255 255 255
0.507256  4.24918 0.598899 255 255 255
 0.12017  5.23484 0.222287 255 255 255
 0.41709  4.47227 0.570459 255 255 255
-0.20083  5.87302 0.393224 255 255 255
-0.000554351      4.41794     0.453483 255 255 255
-0.772401   5.72848   0.42828 255 255 255
0.388723   4.2931 0.610619 255 255 255
 0.13713  3.93226 0.552988 255 255 255
-1.11149  5.35344 0.505887 255 255 255
-0.516903   5.51223  0.445848 255 255 255
-0.0885996    5.86585   0.425063 255 255 255
0.123619  3.75805 0.591629 255 255 255
-0.64664  4.56107  0.39829 255 255 255
-0.270795   5.38465  0.308888 255 255 255
-0.0519739    3.60624   0.676451 255 255 255
0.206833   3.9409  0.53966 255 255 255
0.220197  5.34585 0.190816 255 255 255
-0.431888   4.60943  0.382086 255 255 255
0.271223  4.08735 0.539159 255 255 255
-0.089215    4.9187  0.395357 255 255 255
-1.23419  5.07082 0.557216 255 255 255
0.0968437   5.29176  0.217771 255 255 255
0.411105  4.07387 0.529343 255 255 255
0.0628084   3.96877  0.560606 255 255 255
0.180859  4.36471 0.537865 255 255 255
0.169725  4.35676 0.566444 255 255 255
0.0169158   5.64211  0.194307 255 255 255
0.479958  4.07133 0.543632 255 255 255
0.714139  4.29234 0.520189 255 255 255
-0.352614   3.57468  0.703959 255 255 255
0.225487  3.85125 0.599187 255 255 255
0.352744  4.04511 0.561058 255 255 255
0.391862  4.01017 0.605004 255 255 255
-0.822172   5.02886  0.299634 255 255 255
-0.524551   4.82335    0.2714 255 255 255
0.121197  3.69741 0.619233 255 255 255
-0.656723   5.49263  0.461769 255 255 255
-1.31705  5.41303 0.447349 255 255 255
0.0667895   5.48969  0.333484 255 255 255
-0.208026   4.15424  0.534279 255 255 255
 -1.1909  5.15321 0.519535 255 255 255
-1.59812  5.57703 0.606461 255 255 255
-0.180467   3.87081  0.600397 255 255 255
 0.29479  4.51776 0.534743 255 255 255
 0.45368  4.21944 0.525884 255 255 255
0.303353  4.55512 0.533301 255 255 255
-0.0623369     4.2292   0.579866 255 255 255
-0.346054    4.3036  0.546242 255 255 255
-0.122294   5.42116   0.20007 255 255 255
0.401041  4.80898 0.278327 255 255 255
-0.794706   5.75855  0.423127 255 255 255
0.363024  4.66019 0.402254 255 255 255
-0.20097  5.10826 0.391964 255 255 255
-0.128077   4.57184  0.327455 255 255 255
-0.24358  3.93971 0.497508 255 255 255
-0.402295   4.12906  0.580221 255 255 255
  0.3721  3.95102 0.571189 255 255 255
0.255786  5.31787 0.200797 255 255 255
-0.637102   5.75232  0.365521 255 255 255
0.164838  4.28286 0.593474 255 255 255
 0.37521    4.157 0.535106 255 255 255
-0.853616   4.63781   0.48837 255 255 255
 0.29349  4.09897 0.525424 255 255 255
-0.379522   5.78277  0.428437 255 255 255
-0.157437   5.87747   0.42981 255 255 255
0.251312  3.87515 0.513328 255 255 255
0.305219  4.24441 0.602979 255 255 255
-0.515564    3.8124  0.658059 255 255 255
-1.3882 5.41787  0.3709 255 255 255
-0.0395369    5.31443   0.223288 255 255 255
-0.0934564    3.71439   0.638735 255 255 255
0.618887  4.11719 0.557065 255 255 255
0.370133  4.12441 0.512723 255 255 255
 0.17644  3.95408 0.552611 255 255 255
-0.389154   5.53793  0.422074 255 255 255
0.195937  3.87699 0.578352 255 255 255
-0.238619   3.96294  0.487563 255 255 255
0.530249  4.04894 0.557321 255 255 255
0.0324246   4.11656  0.543132 255 255 255
0.0441552   4.24194  0.509721 255 255 255
-0.0419603     4.4376   0.489131 255 255 255
-0.707591   4.96027  0.303482 255 255 255
-0.405339   4.99586  0.464486 255 255 255
-0.538731   3.51886  0.564531 255 255 255
-0.305699   5.02773  0.442626 255 255 255
0.0722616   4.09686   0.59521 255 255 255
0.416135  4.41427 0.577373 255 255 255
-0.219402   4.03681  0.605596 255 255 255
-0.86765  3.82823  0.64442 255 255 255
0.252097  4.01005 0.544695 255 255 255
0.607965  4.22053  0.48513 255 255 255
-0.203615   5.55423  0.222522 255 255 255
0.0571282   4.11147  0.608336 255 255 255
-0.0623532    3.98191   0.578516 255 255 255
0.267068  4.37605 0.566238 255 255 255
-0.560853   5.35893   0.45488 255 255 255
-0.512452   4.42616  0.300224 255 255 255
0.724579  4.29422 0.527681 255 255 255
-0.436864   4.46971  0.496375 255 255 255
0.316905  4.15014 0.548295 255 255 255
-1.48824  5.55007 0.628546 255 255 255
0.324279  4.26045 0.609316 255 255 255
-0.114818   3.70057  0.644258 255 255 255
0.0716065   4.19623   0.61585 255 255 255
-0.33665  5.06163 0.421372 255 255 255
-0.152443   4.63829  0.388326 255 255 255
-0.245928   4.22744  0.564141 255 255 255
-0.25558  4.89418 0.330691 255 255 255
0.159997  3.75289 0.588072 255 255 255
0.0684757   3.94436  0.560165 255 255 255
0.492288  4.10308  0.53485 255 255 255
-0.602091   4.20573  0.569134 255 255 255
-0.0479995    5.62091   0.187784 255 255 255
0.423997  4.48507 0.579834 255 255 255
-0.628446   5.60817  0.397877 255 255 255
0.00351889    5.72524   0.350171 255 255 255
0.444151  4.13985  0.52716 255 255 255
0.484956  4.15429 0.523047 255 255 255
-0.512516   5.52809   0.43159 255 255 255
0.359869  4.30491 0.595708 255 255 255
-1.16197  5.38972 0.524567 255 255 255
-0.863563   4.63391  0.475407 255 255 255
0.572961  4.14285 0.542469 255 255 255
0.0319231   4.89655  0.424663 255 255 255
0.00723591     3.9204   0.583359 255 255 255
0.413257  4.03944 0.567089 255 255 255
0.0923454   3.58502  0.683088 255 255 255
0.000266497     4.47169     0.52622 255 255 255
0.353262  4.47386 0.558257 255 255 255
0.492309  4.22994 0.555061 255 255 255
0.0495799    4.1321  0.633625 255 255 255
-0.17916  4.86794  0.36265 255 255 255
0.0693305   3.85491    0.5723 255 255 255
-0.0602173    5.12912    0.32348 255 255 255
0.317969   4.1151 0.522249 255 255 255
-0.58393  5.01392 0.347713 255 255 255
-0.425831   4.94109    0.3173 255 255 255
-0.735046   5.73391  0.433006 255 255 255
-0.252467   3.44462  0.731803 255 255 255
0.547023  4.04696 0.555782 255 255 255
-0.119502   4.98826  0.403329 255 255 255
-0.116846    5.8804   0.43798 255 255 255
-0.163922   4.76744   0.35095 255 255 255
-0.462912   4.50395  0.495586 255 255 255
0.330103   4.3488 0.589757 255 255 255
0.132066  3.89593 0.555454 255 255 255
0.483511  4.01045 0.551514 255 255 255
-0.0916261    4.04859   0.547513 255 255 255
-0.0719575    5.33706   0.229461 255 255 255
0.408367  4.51417 0.562282 255 255 255
-0.354522   4.16322  0.588035 255 255 255
0.244397   4.4164  0.55823 255 255 255
-0.0805384    5.35616   0.233592 255 255 255
-0.26497  4.09908 0.596155 255 255 255
-0.568492   3.53465  0.739859 255 255 255
-0.0298467    5.63282   0.200412 255 255 255
-0.768264   4.49205  0.497884 255 255 255
0.316253     4.16 0.567992 255 255 255
0.273643  3.78446  0.61393 255 255 255
0.537004  4.06701  0.55236 255 255 255
0.402328  4.48504 0.562359 255 255 255
0.00161977    5.63975   0.196365 255 255 255
-0.0281975    4.30144   0.567382 255 255 255
-0.068127   4.60208  0.484752 255 255 255
-0.724428   5.37907  0.474243 255 255 255
-0.604646   5.59038   0.41554 255 255 255
0.0216402    5.3403  0.221753 255 255 255
0.110825  4.20384 0.593658 255 255 255
0.232751  4.44951 0.506062 255 255 255
-0.621387   5.14447  0.432948 255 255 255
0.513891  4.03312 0.495386 255 255 255
-0.283537   4.06713  0.584383 255 255 255
-0.108637   4.63133  0.487814 255 255 255
0.382513  4.44102 0.572371 255 255 255
-0.140529   3.92618  0.592936 255 255 255
0.262345  3.91562 0.546892 255 255 255
-0.106459   3.74316  0.632022 255 255 255
0.109025  5.41193 0.220082 255 255 255
-0.17805  3.71064  0.63687 255 255 255
0.428866  4.07447 0.534028 255 255 255
-0.0130984    3.82641   0.674078 255 255 255
 -1.2571  5.02068 0.538115 255 255 255
0.373063  4.31491 0.594735 255 255 255
0.226296  4.04143 0.545292 255 255 255
-0.177214   3.71206  0.636529 255 255 255
-0.251125   3.90043  0.591296 255 255 255
0.140839  4.49434 0.490269 255 255 255
0.172324  4.07762 0.543909 255 255 255
0.0129834   4.43374  0.521988 255 255 255
-1.43392  5.11151 0.548564 255 255 255
-0.120968    5.6051  0.192129 255 255 255
-0.219623   3.82022  0.605884 255 255 255
-0.189739   4.75163  0.363846 255 255 255
0.352648  4.25804 0.593229 255 255 255
0.514568  4.04945 0.555518 255 255 255
0.459874  4.12086 0.522836 255 255 255
-0.519744   3.49189  0.502564 255 255 255
0.251186  4.36975 0.560467 255 255 255
0.437362  4.03642 0.549629 255 255 255
0.158058  3.88943 0.559095 255 255 255
-0.431813   5.46275  0.444361 255 255 255
0.307239  3.93762 0.555825 255 255 255
-0.0288115    5.32619    0.21492 255 255 255
-1.17187   5.2177 0.512649 255 255 255
 0.39089  4.42689 0.579316 255 255 255
-0.0473827    5.32334   0.219653 255 255 255
0.0530722   4.39547  0.555441 255 255 255
0.313309  4.22066 0.608542 255 255 255
0.311352  4.75127 0.317181 255 255 255
-0.798488   5.04379  0.310334 255 255 255
0.467417  4.31212 0.601548 255 255 255
-1.37914   5.1617 0.523347 255 255 255
0.419996  4.44011  0.55309 255 255 255
-0.761492    5.6395  0.403362 255 255 255
-0.993026   5.61431  0.464911 255 255 255
-0.392334   4.12408  0.608024 255 255 255
-0.54532  3.70316 0.670327 255 255 255
-0.272317   3.73676  0.633044 255 255 255
-0.445758   4.62472     0.389 255 255 255
-0.488009   4.04472  0.604308 255 255 255
0.150468  5.21262 0.265327 255 255 255
-0.727715   5.50498   0.46322 255 255 255
-0.508715   5.06012  0.440631 255 255 255
-0.448443   5.06999  0.432774 255 255 255
-1.27467  5.61214 0.566024 255 255 255
-0.456614   4.16961  0.529666 255 255 255
-0.229006   3.94048  0.549213 255 255 255
-0.845563   5.39544  0.482696 255 255 255
0.580383  4.15755 0.539258 255 255 255
-0.661255   3.98965  0.616929 255 255 255
-0.0930416    5.50817    0.19441 255 255 255
