ply
format ascii 1.0
element vertex 1156
property float x
property float y
property float z
property uchar red
property uchar green
property uchar blue
end_header
0.700893  4.25795 0.442774 255 255 255
-0.356284   4.97421  0.437008 255 255 255
-0.650357   4.42681  0.360622 255 255 255
0.0828771   5.41606  0.282896 255 255 255
-0.924054   4.64176  0.404837 255 255 255
0.514438  4.12722 0.475202 255 255 255
-0.103019   4.94297  0.406767 255 255 255
-0.171087   5.99564  0.507208 255 255 255
0.0510672   4.04803  0.539777 255 255 255
-0.824463   5.54805  0.531329 255 255 255
-0.584177   5.19879  0.461872 255 255 255
0.271328  4.54026 0.481185 255 255 255
-1.44145  5.44587 0.392698 255 255 255
0.280842  4.23929 0.577947 255 255 255
0.724614  4.35365 0.414768 255 255 255
0.443883  4.05157 0.489614 255 255 255
-0.623418   4.99244  0.392119 255 255 255
-0.0370781    3.90233   0.571877 255 255 255
-0.129321   4.90373  0.418215 255 255 255
-0.834113   4.53835  0.503918 255 255 255
0.217538  4.49953 0.498672 255 255 255
-0.457271   4.99223  0.374885 255 255 255
0.396114  4.38094 0.536693 255 255 255
-0.346134   3.26912  0.801886 255 255 255
-0.661621   5.16214  0.291403 255 255 255
-0.267077   6.04701  0.510996 255 255 255
-0.0463072    4.32532   0.584495 255 255 255
-1.43163  5.13538  0.55487 255 255 255
-1.50923  5.15192 0.559476 255 255 255
-0.622464   5.42935  0.509554 255 255 255
0.659109  4.18565 0.459004 255 255 255
-0.617162   5.03714  0.391028 255 255 255
-0.208618   5.02759   0.40373 255 255 255
0.368786  4.17362 0.497076 255 255 255
 -1.3046   5.3077 0.530774 255 255 255
0.0505739   5.48805  0.369186 255 255 255
-1.05504  5.54382 0.531047 255 255 255
-0.738596   4.60224  0.417751 255 255 255
-0.0630395    4.33323   0.385885 255 255 255
-0.646221   5.69985  0.496114 255 255 255
 -0.5425  4.47558 0.529968 255 255 255
-0.455221   5.76022  0.509369 255 255 255
0.240733  4.54054 0.499867 255 255 255
0.0750249   5.22221  0.227557 255 255 255
-0.113866   3.43467  0.723179 255 255 255
0.207282  5.32966 0.197639 255 255 255
0.401012  3.99959 0.507383 255 255 255
-0.113104   4.61957  0.477826 255 255 255
0.621542   4.0875 0.482728 255 255 255
-0.154064   4.64168  0.473531 255 255 255
-1.23928   5.2263  0.54602 255 255 255
-0.509332   4.58658  0.387876 255 255 255
-1.87584   5.8437 0.647625 255 255 255
0.0671556   3.97703  0.539194 255 255 255
0.0960553   4.13151  0.579239 255 255 255
-1.49578  5.70636 0.571385 255 255 255
0.503731  3.98949 0.500389 255 255 255
-0.126389     4.895  0.442321 255 255 255
0.406199  4.09328 0.483024 255 255 255
0.217975  3.95622 0.503915 255 255 255
-0.612585   3.43981  0.805229 255 255 255
-0.628733   4.91633  0.323091 255 255 255
-0.334333   5.16322  0.470598 255 255 255
-1.41322  5.36567 0.556797 255 255 255
-0.788477   3.53613  0.652597 255 255 255
0.423696  4.09279 0.483116 255 255 255
0.104175  3.82208 0.561667 255 255 255
-0.34451  5.03578 0.482976 255 255 255
0.188033  4.42148 0.543271 255 255 255
-0.709798   5.83075   0.49708 255 255 255
0.304689   4.1141  0.48715 255 255 255
0.417172  4.03803 0.497478 255 255 255
0.0662578   3.63588  0.632962 255 255 255
0.423555  3.89068 0.492424 255 255 255
0.00479894    3.48337   0.690793 255 255 255
0.255602   4.9136 0.442666 255 255 255
-0.477175   5.50608   0.50146 255 255 255
 0.51498  4.01801 0.498229 255 255 255
-0.318626   6.01272  0.522203 255 255 255
-1.47212  5.20657 0.492875 255 255 255
-0.340016   3.74799   0.60721 255 255 255
-0.423045   4.75122  0.347498 255 255 255
-0.0797179    5.64182   0.231897 255 255 255
0.343799  4.27873 0.550274 255 255 255
0.0894245   5.35749   0.21554 255 255 255
0.0867916   3.92534  0.534249 255 255 255
0.442606  4.06994  0.48749 255 255 255
-0.138359   3.68928  0.642539 255 255 255
-0.0219966    3.53316   0.661589 255 255 255
 0.18239  4.90102 0.448214 255 255 255
0.357517  4.51323 0.531644 255 255 255
0.0729735   3.58236    0.6412 255 255 255
0.743252   4.3632 0.399208 255 255 255
0.251649  4.42335 0.534163 255 255 255
-0.790016     5.406  0.521001 255 255 255
0.0745198   3.95362   0.53632 255 255 255
0.330378  4.13065 0.481262 255 255 255
0.284596  4.49564 0.509924 255 255 255
-0.135962   4.98047  0.424931 255 255 255
-0.0451778    3.48491   0.660867 255 255 255
0.514177  4.03864 0.487908 255 255 255
0.518522  4.25405 0.507492 255 255 255
0.387716  4.42413    0.535 255 255 255
0.252693  4.55325 0.498209 255 255 255
-0.00939415      4.3432    0.307567 255 255 255
0.207865   4.4381 0.521931 255 255 255
0.105074  3.95451 0.524239 255 255 255
0.0410937   4.10066  0.532547 255 255 255
-0.992913   5.66036  0.217505 255 255 255
0.625746  4.12495 0.479121 255 255 255
-0.412042   5.26916  0.483484 255 255 255
-1.63464  5.00788 0.563699 255 255 255
-0.41213  5.80017 0.433265 255 255 255
 0.41732  4.49611 0.512778 255 255 255
0.274596   4.5526 0.498556 255 255 255
-0.958263   5.00847  0.427616 255 255 255
-0.942374   4.51783  0.500333 255 255 255
-0.050998   3.55409  0.658806 255 255 255
0.487372   4.2008 0.465334 255 255 255
0.452739  3.95405 0.483733 255 255 255
0.772485  4.27871 0.451471 255 255 255
-0.423017   5.00692  0.495873 255 255 255
-0.199212    3.7817  0.605433 255 255 255
0.0602729   5.36086  0.248623 255 255 255
-0.228003   5.89679  0.509986 255 255 255
-0.323589   3.59708  0.699013 255 255 255
0.231468  4.90451 0.437758 255 255 255
-0.0962241    4.94915   0.398611 255 255 255
0.015604  4.32303 0.564781 255 255 255
-0.249652   3.69739  0.672539 255 255 255
0.736317  4.38465 0.410821 255 255 255
0.376385  4.41679 0.519329 255 255 255
0.0397762   3.49467  0.712334 255 255 255
-0.20223   4.4374 0.526371 255 255 255
 0.45835  4.81027 0.193333 255 255 255
 0.51219  4.93144 0.258398 255 255 255
-0.951353   4.61704  0.485106 255 255 255
0.473369  4.00098 0.479813 255 255 255
-0.600756   5.49434  0.514017 255 255 255
0.0452558   4.33859  0.564962 255 255 255
-1.17049  4.18729 0.548276 255 255 255
0.583199  4.07723 0.478889 255 255 255
-0.114309   3.40334  0.741373 255 255 255
0.0447986     5.585  0.176121 255 255 255
0.027916  4.37622 0.411905 255 255 255
0.108474  3.55881 0.655724 255 255 255
0.140254  4.37345 0.554427 255 255 255
-0.143096   4.50625  0.498053 255 255 255
-0.0792037    4.65464   0.461406 255 255 255
-0.872383    5.1268  0.331358 255 255 255
0.769136  4.19412 0.473073 255 255 255
-0.116805   4.01635   0.55698 255 255 255
0.163351  3.95333 0.522286 255 255 255
-0.595423   3.67482  0.711627 255 255 255
-0.519486   4.74987  0.370816 255 255 255
-0.0451747    5.61148   0.187838 255 255 255
-0.0403578    5.59727   0.187337 255 255 255
-0.346633   4.21195  0.592534 255 255 255
-0.131055    5.6231  0.198196 255 255 255
-1.40158  5.35645 0.567766 255 255 255
-0.471768   5.51031  0.507377 255 255 255
0.000293963      5.3424    0.205402 255 255 255
-0.089527   5.48582  0.194902 255 255 255
0.0995406   4.03619  0.547515 255 255 255
-0.593412   5.98381  0.469274 255 255 255
-0.0969199    5.48814   0.244093 255 255 255
-0.263855   5.26302  0.351137 255 255 255
0.264609  4.56868 0.486867 255 255 255
-0.142733   4.15966  0.589506 255 255 255
-0.106486   5.55257  0.187608 255 255 255
-0.0495645    5.83926   0.493427 255 255 255
0.443391   4.3644 0.535564 255 255 255
0.620072  4.14582 0.476717 255 255 255
-0.644806   5.94348   0.49431 255 255 255
-0.518425   4.01268  0.624788 255 255 255
0.725407  4.20884 0.471679 255 255 255
0.0179759   5.49399  0.186674 255 255 255
0.246673  3.78074 0.569454 255 255 255
0.0445491   4.38654    0.5467 255 255 255
0.0988163   4.39604  0.551849 255 255 255
-0.84359  4.68912 0.475853 255 255 255
0.178459  3.73628 0.585067 255 255 255
-0.627628   4.82101  0.242088 255 255 255
-0.119249   3.34676  0.747052 255 255 255
0.503316  4.01201 0.494295 255 255 255
-1.35005  5.32098 0.519181 255 255 255
-0.00853058     4.39101     0.35964 255 255 255
-0.144127   5.58179  0.238674 255 255 255
 0.122459   5.44582 0.0361371 255 255 255
0.0202153   5.35729  0.214455 255 255 255
-0.0508907    5.37419   0.223513 255 255 255
0.322768  4.50182 0.515209 255 255 255
0.029593   4.0973 0.528741 255 255 255
 0.44905  4.48521 0.519582 255 255 255
-0.0484271    5.40991   0.202133 255 255 255
 -1.0473  5.42716 0.551857 255 255 255
-0.299409   4.85259  0.350763 255 255 255
0.219734  3.82168 0.538491 255 255 255
0.238818  3.90466 0.513674 255 255 255
0.493683  4.74481 0.476655 255 255 255
-0.181965   6.05832  0.540628 255 255 255
0.254306  4.60513 0.480112 255 255 255
0.0399413   5.40112  0.198889 255 255 255
-0.583574   5.54171  0.516579 255 255 255
0.435578   3.9009 0.516833 255 255 255
0.292908  4.95752  0.30791 255 255 255
0.295415  4.82307 0.264096 255 255 255
-0.429503   5.76846  0.511703 255 255 255
0.741622  4.17019 0.446753 255 255 255
0.141156  4.45826 0.519073 255 255 255
0.189741  4.19816 0.577104 255 255 255
-0.100114   4.09572  0.536574 255 255 255
0.0319113   5.42769  0.198237 255 255 255
-0.439391    5.0189   0.48191 255 255 255
-0.184031   4.77941  0.348215 255 255 255
0.419376  4.48167 0.515619 255 255 255
0.0909611   4.47284  0.506217 255 255 255
0.208997  4.41444  0.53218 255 255 255
0.339594  3.93734 0.526663 255 255 255
  0.0128  5.56403 0.182239 255 255 255
-0.00931242     3.77311    0.615165 255 255 255
0.0925179   4.22477  0.573092 255 255 255
-0.259286   4.04797  0.611511 255 255 255
-0.15077  3.38935 0.647673 255 255 255
-1.74642  5.72888 0.506828 255 255 255
-0.168677    3.9321  0.590387 255 255 255
-0.912033   5.02864  0.329838 255 255 255
0.308785  4.16768  0.53416 255 255 255
0.375132  3.97457 0.495237 255 255 255
-0.187271   4.17142  0.517252 255 255 255
0.439284  4.28661 0.556236 255 255 255
-0.0830419    4.07997   0.531972 255 255 255
0.377066  3.86863 0.537001 255 255 255
0.725917  4.24105 0.456886 255 255 255
-0.435349    4.6445   0.39525 255 255 255
0.375208  4.45734 0.519912 255 255 255
0.246181   4.3123 0.555868 255 255 255
0.0648609   3.65038  0.627498 255 255 255
0.257173   3.7483  0.58422 255 255 255
-1.28865  5.08154 0.611017 255 255 255
 -1.2455  5.08019 0.567844 255 255 255
0.459469  3.98027 0.484744 255 255 255
0.521795  3.96991 0.504015 255 255 255
-0.29113  5.41203 0.359531 255 255 255
0.307265  5.05677 0.289802 255 255 255
0.528766  4.02885 0.487635 255 255 255
-0.598351   5.10477  0.505822 255 255 255
-0.839033   4.34548  0.471345 255 255 255
0.31356 3.78141 0.56264 255 255 255
0.339224  3.81584 0.557362 255 255 255
-0.906377   4.14282  0.452969 255 255 255
0.381636  4.41512 0.529977 255 255 255
0.194074  4.42008 0.548236 255 255 255
-0.720796   5.85434   0.50559 255 255 255
-0.613899   3.58984  0.777277 255 255 255
-0.550319   3.52482  0.536697 255 255 255
-0.0166643    3.73128   0.635596 255 255 255
0.0600709   3.63489  0.633934 255 255 255
-0.292579   4.92633  0.383631 255 255 255
0.0206884   4.53555   0.51445 255 255 255
0.374153  4.37152 0.549969 255 255 255
-1.23836  4.73956 0.565783 255 255 255
-0.0446659    3.82931   0.595424 255 255 255
0.119568  5.28238 0.198606 255 255 255
0.311659  4.40481 0.530938 255 255 255
-0.0940663    3.68578   0.648141 255 255 255
-1.59756  5.52617 0.667534 255 255 255
0.0642021   5.37129  0.223271 255 255 255
 0.18924   3.7519 0.578931 255 255 255
0.424839    4.204 0.478721 255 255 255
0.0683814   5.38423  0.214237 255 255 255
-0.694762   5.63435  0.440469 255 255 255
0.418289  4.02454 0.492614 255 255 255
-0.118971   4.99223  0.431125 255 255 255
0.300795  3.90586 0.524563 255 255 255
-0.720109   5.30288  0.299918 255 255 255
0.231791  3.69236  0.60127 255 255 255
0.417134  4.04063 0.498978 255 255 255
-0.477516   5.19614  0.378144 255 255 255
0.0698669   3.88185  0.539757 255 255 255
0.0288061   3.95683  0.568721 255 255 255
-0.365392    3.4435  0.710963 255 255 255
0.555617  4.03918 0.480343 255 255 255
0.266717   4.6671 0.511998 255 255 255
0.139497  3.75161 0.576082 255 255 255
0.770588  4.18705 0.471631 255 255 255
-0.0756807    3.79296   0.612869 255 255 255
0.280955  5.35229 0.235371 255 255 255
 0.39847  4.52829 0.491468 255 255 255
0.533193  4.01594 0.487799 255 255 255
0.472351  3.91168 0.505707 255 255 255
-0.223264   5.47872  0.255933 255 255 255
-0.130629   3.46632  0.696686 255 255 255
-0.342982   5.02426  0.478959 255 255 255
0.0497184   3.64063  0.633651 255 255 255
0.104285  4.51133 0.497454 255 255 255
0.500074  4.80976 0.293569 255 255 255
-0.359897   4.13947  0.601632 255 255 255
0.237738  4.41587 0.535684 255 255 255
-0.810395   5.67951  0.495664 255 255 255
0.00972773    4.33538   0.344377 255 255 255
0.0726182   4.16077  0.594938 255 255 255
-0.215721   5.25057  0.318849 255 255 255
0.0297989   5.52802  0.423668 255 255 255
-1.64419  5.61552 0.694956 255 255 255
0.0125598   4.36014  0.310657 255 255 255
0.473204  3.93411  0.49948 255 255 255
-0.262996   5.93488  0.509236 255 255 255
0.0471078   5.41975  0.204334 255 255 255
-0.719685   5.00056   0.31581 255 255 255
0.558043   4.2219 0.459827 255 255 255
0.302249  4.85368 0.443443 255 255 255
-0.245139   3.38073  0.743911 255 255 255
0.122328   5.1909 0.270038 255 255 255
0.324147   3.7671 0.576825 255 255 255
-0.282875   4.17842  0.549182 255 255 255
0.260779  4.41231 0.530349 255 255 255
-0.05584  3.87967 0.593941 255 255 255
0.485591  3.92985 0.505492 255 255 255
-0.659836    3.7718  0.724567 255 255 255
0.0664727   3.54907  0.666211 255 255 255
0.205543  3.76594  0.57819 255 255 255
0.543243  4.00246 0.478811 255 255 255
-0.152262   3.32894   0.64196 255 255 255
-0.0003455    4.38832   0.366708 255 255 255
0.267429  4.21293 0.576117 255 255 255
-1.59586  5.00611 0.558915 255 255 255
-0.386031   3.63805  0.622291 255 255 255
0.213612  4.24714 0.579567 255 255 255
-0.0895114    4.33185   0.393462 255 255 255
0.243427  4.00918 0.504011 255 255 255
-0.77951  5.21216  0.29268 255 255 255
-0.970756   4.63169   0.52294 255 255 255
-0.916431   4.88324  0.323231 255 255 255
-0.25626  3.95232 0.420249 255 255 255
-0.0478013    4.08411   0.534233 255 255 255
0.494726  3.97312 0.495807 255 255 255
0.374827  4.43333 0.524553 255 255 255
-1.88904  5.76869 0.537547 255 255 255
0.190003  4.28775 0.560716 255 255 255
-0.479208   5.12652  0.480038 255 255 255
0.442146  3.98087 0.490363 255 255 255
0.394557   4.2246 0.520639 255 255 255
-1.33907   4.6013  0.59019 255 255 255
0.189488   3.7059 0.594635 255 255 255
 0.15638  3.66743 0.612571 255 255 255
0.345477  3.78904 0.557615 255 255 255
-0.182541   4.89536  0.348704 255 255 255
-1.82401  5.80614 0.544375 255 255 255
-0.515655   5.21542  0.494911 255 255 255
0.289397  4.33756 0.555364 255 255 255
0.018009  4.33653 0.352084 255 255 255
-1.29827   5.1704 0.526872 255 255 255
0.173266  3.88669 0.512586 255 255 255
0.120873  5.24224 0.192588 255 255 255
0.0553446   5.31835  0.244697 255 255 255
0.372227  3.92943 0.525665 255 255 255
0.00476465    5.02469   0.295973 255 255 255
0.241808  4.18922 0.587535 255 255 255
-0.0457335    3.84481   0.608456 255 255 255
0.315381  4.06166 0.497471 255 255 255
 -1.1091  5.47283 0.537226 255 255 255
-0.881496   5.80526  0.336033 255 255 255
0.391186  4.36104 0.530602 255 255 255
0.396338  4.37389 0.527867 255 255 255
0.352335  4.45714 0.513913 255 255 255
0.512787   4.3733 0.514015 255 255 255
-0.317493   4.54722  0.520875 255 255 255
-0.040629   5.28003  0.229008 255 255 255
-1.66546  5.59424 0.698552 255 255 255
-0.741399   5.16503  0.302691 255 255 255
0.334014  3.86825 0.531928 255 255 255
  0.3487  3.89504 0.523909 255 255 255
-0.538606   3.50754  0.488082 255 255 255
0.494015  4.01706 0.482667 255 255 255
-0.69177  5.01981 0.307103 255 255 255
-0.220842   5.50762  0.242247 255 255 255
-0.0739951    4.60043   0.274698 255 255 255
0.0834859   4.44855  0.517529 255 255 255
0.740495  4.20698 0.456695 255 255 255
-0.802999   5.93469  0.488942 255 255 255
0.417162   4.5097 0.512663 255 255 255
-0.525135   5.27874  0.419396 255 255 255
-0.686998   5.94622  0.472982 255 255 255
 0.35941  4.54953 0.505429 255 255 255
-0.564899   4.19973  0.346779 255 255 255
-0.824484   5.07628  0.317122 255 255 255
0.325647  4.28236 0.556798 255 255 255
0.335939  4.19369 0.542452 255 255 255
-0.142667   4.68951  0.429693 255 255 255
 0.07749  4.55819 0.489265 255 255 255
0.423285   3.9785 0.500266 255 255 255
-0.564774   3.85223   0.65365 255 255 255
 0.72545  4.29966 0.423932 255 255 255
-0.29064  4.79698 0.352588 255 255 255
0.179597  4.13533 0.537777 255 255 255
0.200341  4.51099 0.498325 255 255 255
0.121113  4.38876 0.552635 255 255 255
0.00301955    4.37903   0.392034 255 255 255
0.373372  3.99172 0.509209 255 255 255
-1.89374  5.75842 0.525523 255 255 255
-0.139623   4.93783  0.412294 255 255 255
0.431985  4.15505 0.470942 255 255 255
0.197013   4.4822 0.489639 255 255 255
0.124727  5.24702 0.132606 255 255 255
0.736837  4.36692  0.38731 255 255 255
0.256823  3.92732 0.497368 255 255 255
-0.194791   5.00717   0.30817 255 255 255
-0.0926642    4.59413   0.491767 255 255 255
-0.168532   4.82063   0.32721 255 255 255
0.428297  4.01103 0.483021 255 255 255
-0.0979129    4.09448   0.533975 255 255 255
0.279744   3.7958 0.561336 255 255 255
0.411492  4.34313 0.542607 255 255 255
0.258618  3.83209 0.552984 255 255 255
0.0251816    4.1834  0.515554 255 255 255
0.338135  3.90933 0.510721 255 255 255
0.479243  3.91954  0.50711 255 255 255
-0.796988   5.25921  0.289705 255 255 255
-0.224229   3.86896  0.586354 255 255 255
-0.413378   5.77584  0.505022 255 255 255
-0.0844916    3.98756   0.546254 255 255 255
-0.648257   5.15656   0.49999 255 255 255
0.062255  4.43351 0.535852 255 255 255
-0.937718   5.72455  0.438615 255 255 255
-0.514263   5.53919  0.491178 255 255 255
-1.69395  5.78052 0.628354 255 255 255
-0.879053   5.59808  0.535229 255 255 255
-0.627523   4.48354  0.539332 255 255 255
-0.439759   4.15364  0.583488 255 255 255
-0.00126541     3.47385    0.684787 255 255 255
0.113085   3.9912 0.532727 255 255 255
0.117509  3.99523  0.52414 255 255 255
-0.287313   4.18528  0.585098 255 255 255
-0.18227   4.8283 0.369648 255 255 255
0.511219   4.1695 0.453232 255 255 255
0.495166  4.13705 0.475414 255 255 255
-0.172398   4.83405  0.328068 255 255 255
-1.47669    4.839 0.519089 255 255 255
0.746155  4.27137 0.453762 255 255 255
0.358981  3.88534 0.516898 255 255 255
-0.11638  3.68499 0.649115 255 255 255
-0.530886   3.83514  0.664086 255 255 255
0.245316  4.23966 0.560005 255 255 255
0.146781  5.00177 0.297753 255 255 255
-0.298993   5.39656  0.327042 255 255 255
-0.779278     3.461  0.683097 255 255 255
0.328117  4.04183 0.503752 255 255 255
-0.825144   5.08904  0.309825 255 255 255
0.0170378   4.34399  0.359273 255 255 255
-1.78781  5.81861 0.650449 255 255 255
0.384436   3.9026 0.528221 255 255 255
-0.163671   4.43912  0.265958 255 255 255
-0.233214   3.52761    0.6593 255 255 255
0.556008  4.05052 0.491915 255 255 255
0.755837  4.27569 0.446003 255 255 255
-0.201597   4.97219  0.292926 255 255 255
0.435162  4.04809 0.480447 255 255 255
-0.620756   4.15159  0.608458 255 255 255
 0.71044  4.44267 0.346461 255 255 255
-0.150298   4.98324  0.426626 255 255 255
 -1.3068  5.15653 0.517459 255 255 255
0.102458  5.36199 0.212664 255 255 255
-0.337291   4.86774  0.339121 255 255 255
0.429792  4.15949 0.455407 255 255 255
-0.169619   4.70606  0.398853 255 255 255
0.015138  4.54236 0.521738 255 255 255
0.234446  3.87954 0.565311 255 255 255
0.0636187    4.0472  0.544941 255 255 255
-0.578621   4.55568  0.389237 255 255 255
0.313525  4.79983 0.309899 255 255 255
0.266401  4.09217 0.498437 255 255 255
0.173159  4.62346 0.480068 255 255 255
-0.678013   5.48877  0.519664 255 255 255
0.741746   4.2142  0.46621 255 255 255
0.337814  3.77822 0.562816 255 255 255
0.321705  4.52184 0.511515 255 255 255
0.458652  4.41342 0.518198 255 255 255
0.542852  4.07822 0.468002 255 255 255
-0.451279   5.10065  0.484049 255 255 255
-0.235382   3.96575  0.490298 255 255 255
-0.415383   4.02979  0.657479 255 255 255
-0.264257   4.40045  0.303432 255 255 255
-0.239254   3.36906  0.735785 255 255 255
0.636794  4.29381 0.405991 255 255 255
0.237739  3.82388 0.538518 255 255 255
0.285712  4.16352 0.502776 255 255 255
0.229628  4.37617  0.54472 255 255 255
-0.14021  4.19837  0.61044 255 255 255
-0.233354   3.83233  0.604935 255 255 255
0.101997  4.38566 0.549345 255 255 255
0.521112  4.26103 0.486702 255 255 255
-0.183921    4.4788  0.522129 255 255 255
0.358758  3.96006 0.505826 255 255 255
-0.768773   4.96128  0.319088 255 255 255
-0.686382   5.28659  0.477585 255 255 255
0.135945  4.36359 0.552557 255 255 255
0.270584  5.23541 0.242799 255 255 255
-0.165952   5.99365  0.525188 255 255 255
0.722481   4.3268 0.408366 255 255 255
-0.433083   4.42998  0.423745 255 255 255
-0.064807   4.07535  0.534761 255 255 255
0.0862724   4.36237  0.556472 255 255 255
-0.210231   5.52457  0.269141 255 255 255
-1.23686  4.85854 0.547007 255 255 255
0.377009  4.33252 0.540643 255 255 255
-0.336049   4.07895   0.62481 255 255 255
-0.40453  4.67835 0.352949 255 255 255
-0.45798  5.19199 0.494767 255 255 255
0.127644  3.96243 0.516039 255 255 255
 0.20409  4.27164 0.565673 255 255 255
0.219859  3.89689 0.532617 255 255 255
-0.146135   4.70374  0.427899 255 255 255
-0.0360628    3.72524   0.645214 255 255 255
-0.293399   4.95837  0.507215 255 255 255
-0.554427   3.46301  0.493163 255 255 255
0.0250503   4.23621  0.499144 255 255 255
-1.83351  5.81022 0.661879 255 255 255
0.0936313   5.28747  0.179365 255 255 255
0.235878  4.58375 0.506729 255 255 255
-0.775951   4.07976  0.443054 255 255 255
0.282714  4.73121 0.273966 255 255 255
0.361683  4.38464 0.532921 255 255 255
 0.22257  4.21016 0.577147 255 255 255
-0.510896   3.66369  0.685419 255 255 255
0.733537  4.40269 0.408906 255 255 255
 0.19476  4.45214 0.510682 255 255 255
-0.212634   4.86248  0.465006 255 255 255
0.764818  4.32725  0.42213 255 255 255
 0.4071 4.16686 0.49665 255 255 255
0.434615  4.80708 0.182738 255 255 255
-0.262594   3.86029   0.55195 255 255 255
0.0980564   4.22796  0.575551 255 255 255
0.463629  4.43318 0.508648 255 255 255
-0.580675    5.7393  0.503508 255 255 255
-0.582132   4.93255  0.309778 255 255 255
0.535795  4.07851  0.45968 255 255 255
-0.88874   4.1452 0.448137 255 255 255
-0.0443005    4.61207    0.29502 255 255 255
-1.54844  4.87061 0.520572 255 255 255
-0.933659   5.38419  0.567071 255 255 255
-0.154813   4.71476  0.360423 255 255 255
-0.257127   3.96855  0.476283 255 255 255
0.736136  4.25663 0.450786 255 255 255
-0.124869   4.18634  0.596918 255 255 255
-0.14761  4.16212 0.573568 255 255 255
-0.154123   3.39398  0.701706 255 255 255
0.170535  4.63025 0.484658 255 255 255
 0.35926  4.00553 0.494997 255 255 255
-0.199387   5.87055  0.498147 255 255 255
-0.300909   4.00801  0.604333 255 255 255
-0.887819   4.45835  0.504139 255 255 255
0.0403251   4.43325   0.54809 255 255 255
0.0882266   3.66317  0.610947 255 255 255
0.0735367   5.32236  0.219791 255 255 255
0.233601  4.51639 0.515529 255 255 255
0.116544   5.3449 0.299858 255 255 255
-1.38899  4.88357 0.611539 255 255 255
-0.0950669    5.22915   0.387929 255 255 255
0.408541   4.4563 0.524818 255 255 255
-0.276969   5.36811  0.374258 255 255 255
0.511246  4.80678 0.280601 255 255 255
0.200191  4.50041 0.497942 255 255 255
0.0707996   5.18926   0.25711 255 255 255
0.0361576   4.12545  0.527546 255 255 255
-0.577828   4.22423   0.55513 255 255 255
0.432638  3.99385 0.491314 255 255 255
-0.732556   5.54023  0.523562 255 255 255
 0.16361  4.42707 0.536126 255 255 255
0.0502763   4.83126  0.255368 255 255 255
-0.137598   3.38131  0.724463 255 255 255
-0.194674   3.72918  0.636376 255 255 255
-0.782092   5.78977  0.453617 255 255 255
-0.202913   6.05607  0.530156 255 255 255
-0.0470673     3.5234    0.64969 255 255 255
0.227646  4.10628 0.487139 255 255 255
0.237968  4.47567  0.50376 255 255 255
0.264562  5.35223 0.174945 255 255 255
-0.123132   4.22646    0.6027 255 255 255
-0.586001   4.81271   0.35207 255 255 255
-0.0308177    4.23353   0.508095 255 255 255
-0.959492   4.30982  0.577952 255 255 255
-0.191636    5.4409   0.21768 255 255 255
-1.02008  5.66441 0.523151 255 255 255
-0.0975179    4.05441   0.553897 255 255 255
0.370388  4.57027 0.524248 255 255 255
-0.545825   3.19132  0.791594 255 255 255
-0.177813    4.7932  0.388931 255 255 255
-0.560496   5.58048  0.500268 255 255 255
-1.14486  5.46727 0.553065 255 255 255
0.366593  3.93883  0.51206 255 255 255
-0.132976   4.91972  0.422634 255 255 255
0.0897539   4.20474  0.588209 255 255 255
0.191772  4.28508 0.574183 255 255 255
0.0017272   4.40133  0.538949 255 255 255
0.202767  4.49352 0.495286 255 255 255
-0.700563    4.5783  0.419551 255 255 255
0.325446  4.45385 0.520681 255 255 255
-0.649599   4.06452  0.653796 255 255 255
0.221163  5.29836 0.202577 255 255 255
0.47686 4.26254 0.54682 255 255 255
0.310171  3.97453 0.498278 255 255 255
-0.606618   5.53072  0.507368 255 255 255
0.113273  4.04491 0.542342 255 255 255
-0.373489   3.44667  0.781891 255 255 255
-0.311402   4.02222  0.607646 255 255 255
-0.169443   4.71791  0.414824 255 255 255
-0.0823422       5.01   0.363865 255 255 255
-0.71063  4.58479  0.41814 255 255 255
0.470994  4.24524 0.471435 255 255 255
-0.55628  4.89968 0.292254 255 255 255
0.127171  3.96692 0.540089 255 255 255
0.0457635   4.20915  0.584339 255 255 255
0.141196   4.9371 0.323441 255 255 255
0.201152  4.90341 0.443797 255 255 255
0.395489  4.32485 0.550436 255 255 255
-0.822751   5.27614  0.270043 255 255 255
0.376725  4.28563 0.544619 255 255 255
0.300771  4.26952 0.558573 255 255 255
-0.351361   5.16563  0.471362 255 255 255
-0.146965   4.96046  0.411701 255 255 255
0.452007  4.04627 0.470908 255 255 255
0.297359  4.11723  0.47267 255 255 255
-0.176895     4.864  0.347311 255 255 255
-0.388634    4.4461  0.511234 255 255 255
0.453195  4.77977 0.242585 255 255 255
-0.892322     4.541  0.414322 255 255 255
-0.578332   3.67588  0.730996 255 255 255
0.501605  4.04313 0.461561 255 255 255
-0.907825   4.35038  0.580098 255 255 255
0.0595534   4.39673  0.553079 255 255 255
-0.540437   5.06877  0.500992 255 255 255
0.356607  4.27113 0.547157 255 255 255
-0.583217   4.49041  0.538807 255 255 255
0.270785  4.01467 0.528246 255 255 255
0.048796 0.430384  2.21374 255 255 255
-0.199123  0.458614    2.1634 255 255 255
-0.385937 -0.463293   2.50938 255 255 255
-0.0576526   0.401416     2.2454 255 255 255
0.0766182 -0.112524   2.41122 255 255 255
-0.660683 -0.360881   2.41065 255 255 255
 -0.426614 -0.0693799    2.36012 255 255 255
-0.0225908  0.0977696    2.35246 255 255 255
    0.286763 -0.000103771      2.45862 255 255 255
-0.481025  0.350208   2.26584 255 255 255
0.0867323  0.341249   2.29217 255 255 255
-0.239763  0.326608   2.22903 255 255 255
0.138452 0.183672   2.3723 255 255 255
-0.261654  0.247123   2.22228 255 255 255
-0.706422  0.342437   2.14342 255 255 255
-0.478517  0.574329   2.07335 255 255 255
-0.0270619  0.0284361     2.3812 255 255 255
-0.0528876   0.316934    2.24395 255 255 255
-0.176454 -0.101405   2.40348 255 255 255
-0.0135431 -0.0735977    2.34557 255 255 255
 -0.338146 -0.0448694    2.34981 255 255 255
0.239846  -0.5046  2.61537 255 255 255
-0.173659  0.215169   2.27694 255 255 255
-0.0904863 -0.0942711    2.42349 255 255 255
 0.591418 -0.220325   2.58503 255 255 255
0.246293 0.117586  2.38741 255 255 255
-0.138602  0.422567   2.21839 255 255 255
-0.487209  0.217973   2.24714 255 255 255
 0.461051 -0.502108   2.65964 255 255 255
-0.578994  0.484402   2.10519 255 255 255
 -0.265109 -0.0811925    2.37719 255 255 255
-0.437582 -0.160392   2.41104 255 255 255
-0.113088  0.342413   2.22767 255 255 255
-0.663552 0.0400571   2.26674 255 255 255
-0.330953  0.217821   2.26473 255 255 255
-0.264441  0.123114   2.28509 255 255 255
-0.159082  0.312054   2.24899 255 255 255
-0.697704 -0.225967     2.388 255 255 255
0.0459692 -0.657927   2.73226 255 255 255
-0.650209   0.40729    2.1375 255 255 255
 -0.829491 0.00257457    2.25545 255 255 255
-0.373285 -0.428579   2.51561 255 255 255
-0.213074  0.237953   2.25663 255 255 255
  0.119249 -0.0938087    2.47546 255 255 255
0.0203955   0.13125   2.31819 255 255 255
0.371899 0.106944  2.43802 255 255 255
 0.231324 -0.278802   2.54897 255 255 255
  0.44555 0.0181025   2.48721 255 255 255
-0.443707  0.248543   2.22748 255 255 255
0.490223 -0.33473  2.60654 255 255 255
-0.120729  0.296689   2.27869 255 255 255
 0.136776 -0.231318   2.49721 255 255 255
   0.42251 -0.0389966    2.50159 255 255 255
 0.12498 0.155121  2.37689 255 255 255
-0.351367    -0.063   2.34656 255 255 255
  0.457176 -0.0379121    2.50947 255 255 255
-0.378987 0.0506319   2.32877 255 255 255
-0.0347252  -0.420027    2.55114 255 255 255
-0.612798 0.0561499   2.27621 255 255 255
0.489505 0.111839  2.45834 255 255 255
0.0621052 -0.444518   2.58895 255 255 255
-0.372867  0.315219   2.23349 255 255 255
-0.0321768 -0.0104852    2.37757 255 255 255
-0.15325  0.27873  2.27119 255 255 255
 -0.470687 -0.0370923    2.33767 255 255 255
 -0.064705 0.00164152     2.3779 255 255 255
0.0119098 -0.434631   2.57036 255 255 255
 0.105033 0.0824086   2.38463 255 255 255
 0.569528 -0.150431   2.58271 255 255 255
-0.0608439  -0.492445    2.59008 255 255 255
0.140545 -0.54183  2.63331 255 255 255
 0.311282 -0.639735   2.74517 255 255 255
 0.493421 -0.136172   2.55042 255 255 255
-0.0116687   0.238608    2.27537 255 255 255
-0.138468  0.173317   2.31644 255 255 255
-0.419426  0.150843   2.28737 255 255 255
-0.630279   0.36738   2.12788 255 255 255
0.204195 0.368021  2.29634 255 255 255
-0.326071  0.388259   2.19566 255 255 255
  0.55991 -0.176239   2.56838 255 255 255
 0.285082 -0.462711   2.63399 255 255 255
  0.31558 0.0236332   2.46516 255 255 255
 0.313506 0.0224847   2.46774 255 255 255
-0.444627  0.412527   2.17352 255 255 255
-0.286669  0.188427   2.28217 255 255 255
  0.395424 -0.0798817    2.52496 255 255 255
 0.404975 -0.208948   2.56749 255 255 255
-0.162761 -0.144011   2.42991 255 255 255
 0.477765 0.0882197   2.46949 255 255 255
-0.246112 -0.556309   2.63848 255 255 255
-0.742853   -0.2427   2.36482 255 255 255
 0.0551556 -0.0484658    2.40063 255 255 255
-0.293691   0.35074   2.22901 255 255 255
0.472793 -0.22426  2.57938 255 255 255
 -0.812963 -0.0828214    2.29095 255 255 255
-0.347984   -0.4564    2.5379 255 255 255
 0.511852 -0.385954   2.62012 255 255 255
-0.378246  0.230563   2.25923 255 255 255
-0.197279 -0.181958   2.39714 255 255 255
 0.447193 -0.394234   2.60103 255 255 255
-0.097636  0.024044    2.3624 255 255 255
-0.212797  0.150797   2.30981 255 255 255
-0.189405 -0.398084   2.52723 255 255 255
-0.147966 -0.517872   2.57459 255 255 255
 0.208559 -0.300798   2.54975 255 255 255
-0.283321 -0.292962   2.42511 255 255 255
-0.715174  0.121783   2.23979 255 255 255
-0.758024  0.334208   2.13373 255 255 255
-0.122285 -0.497959   2.56403 255 255 255
-0.0481538  -0.427289      2.564 255 255 255
-0.519845  0.151027   2.25231 255 255 255
 0.257793 -0.664675   2.74087 255 255 255
-0.124126 -0.188192   2.44662 255 255 255
-0.244191  0.146134   2.31665 255 255 255
-0.395837 -0.108564   2.38396 255 255 255
 0.431507 -0.600497   2.74612 255 255 255
 -0.203105 -0.0982281     2.3915 255 255 255
-0.40463 0.223499  2.25497 255 255 255
0.0636135  0.249631   2.32057 255 255 255
-0.620659  0.467397   2.13367 255 255 255
0.00799567  -0.149306    2.44012 255 255 255
 0.273098 -0.545706   2.65894 255 255 255
 0.730298 0.0369644   2.51818 255 255 255
-0.0578592  -0.460798    2.58326 255 255 255
 0.502426 0.0590613   2.47149 255 255 255
-0.319024 -0.521227   2.54916 255 255 255
-0.617648 0.0159204   2.27884 255 255 255
-0.00260768   -0.310647      2.4526 255 255 255
 0.446368 -0.447851   2.64704 255 255 255
  0.33145 -0.215422   2.52625 255 255 255
0.0755065  0.420384   2.24105 255 255 255
0.382256 -0.54856  2.69099 255 255 255
 0.266575 -0.281667   2.56664 255 255 255
-0.0908873   0.118679    2.34911 255 255 255
  0.624676 -0.0369427    2.55338 255 255 255
-0.256318 -0.564463   2.58599 255 255 255
-0.0988446   0.160765    2.30201 255 255 255
-0.752096  0.313007   2.14103 255 255 255
 0.452046 -0.426042   2.62751 255 255 255
-0.816755 -0.133168   2.32169 255 255 255
0.0172348  0.380595   2.22592 255 255 255
-0.18333 0.240754   2.2793 255 255 255
-0.547241    0.0319   2.27415 255 255 255
-0.437563  0.327149    2.1401 255 255 255
-0.109922  0.275394   2.29018 255 255 255
-0.304615 -0.392173   2.47684 255 255 255
 -0.150157 -0.0230261    2.39254 255 255 255
-0.819652 -0.226129   2.34817 255 255 255
-0.192834  0.422229   2.20819 255 255 255
-0.115444  -0.16183   2.43733 255 255 255
-0.575684 -0.309535   2.43703 255 255 255
-0.871635 -0.180622   2.32843 255 255 255
-0.447916   0.23458   2.25015 255 255 255
-0.166919  0.120396    2.3077 255 255 255
-0.651269 0.0735333   2.27202 255 255 255
 0.347397 -0.542974   2.68444 255 255 255
-0.0624642  -0.215134    2.42635 255 255 255
-0.755064   0.12477   2.16686 255 255 255
-0.521144  0.438729   2.16545 255 255 255
-0.764579  0.150666   2.17919 255 255 255
 -0.47098 -0.239853   2.41429 255 255 255
-0.266073  0.422201   2.21101 255 255 255
-0.739445  0.331818   2.13106 255 255 255
 0.120657 -0.613232    2.6932 255 255 255
-0.301329 -0.481393   2.53396 255 255 255
 0.679055 0.0767279   2.51668 255 255 255
 0.445003 0.0371912   2.45118 255 255 255
  -0.4972 -0.185743   2.39575 255 255 255
-0.538389 -0.197415   2.38881 255 255 255
0.0436289 -0.527997   2.61842 255 255 255
0.378933 0.319158  2.31288 255 255 255
 0.416216 -0.527038   2.67611 255 255 255
-0.249104 0.0449273   2.34929 255 255 255
-0.613057  0.296187   2.14865 255 255 255
 0.192619 -0.108998   2.50407 255 255 255
-0.0799408   0.357889    2.25659 255 255 255
-0.565191   0.25033   2.22105 255 255 255
 0.379074 -0.481077   2.65822 255 255 255
0.105477 0.466207  2.25044 255 255 255
 0.332317 -0.519629   2.66107 255 255 255
0.317314 -0.31375   2.5966 255 255 255
-0.75415 0.236074  2.14851 255 255 255
-0.297935   0.37035   2.18723 255 255 255
0.179489 0.390046    2.257 255 255 255
  0.207223 -0.0505405    2.47609 255 255 255
-0.0598812  -0.517455    2.59384 255 255 255
 0.206347 -0.146842    2.4965 255 255 255
 0.208238 -0.147724   2.48817 255 255 255
-0.0823497  -0.460396    2.56786 255 255 255
0.0447675 -0.165135     2.419 255 255 255
 -0.705903 0.00492856    2.23154 255 255 255
 -0.3128 0.230126  2.28149 255 255 255
-0.29063 0.428349  2.19758 255 255 255
0.374859 0.276922  2.34099 255 255 255
-0.772561  -0.30453    2.3867 255 255 255
0.440024 0.234647  2.40123 255 255 255
 -0.55154 -0.337635   2.44409 255 255 255
 -0.10385 -0.226342   2.41007 255 255 255
-0.101802 -0.106592   2.40815 255 255 255
-0.550034  0.453137   2.14288 255 255 255
0.403027 0.176676  2.41582 255 255 255
 0.0668572 -0.0269245    2.39694 255 255 255
 0.240528 -0.548868   2.65711 255 255 255
 0.251012 0.0231578   2.45844 255 255 255
 0.389198 -0.151614   2.52384 255 255 255
-0.699209 -0.107428   2.33422 255 255 255
 0.684421 0.0424683   2.52573 255 255 255
-0.495799 -0.226201    2.4135 255 255 255
0.133104 0.327465  2.31417 255 255 255
0.200159 -0.51731  2.61631 255 255 255
-0.407163  0.391045   2.18153 255 255 255
  0.11268 -0.220195    2.5191 255 255 255
-0.642592   0.38338   2.11242 255 255 255
 0.036741 -0.381052   2.55252 255 255 255
  0.532688 -0.0446604    2.53499 255 255 255
-0.304791 -0.546852   2.56592 255 255 255
-0.176118  0.378096   2.21759 255 255 255
0.00771257 -0.0073594    2.37631 255 255 255
 0.0105822 -0.0108598    2.36085 255 255 255
0.0215263  0.404106   2.21031 255 255 255
 -0.659284 -0.0460373    2.27167 255 255 255
  0.376486 -0.0842967    2.52497 255 255 255
0.393335  0.11695  2.44067 255 255 255
-0.130529  0.348615   2.20882 255 255 255
 0.531887 -0.110037   2.55182 255 255 255
-0.567849 -0.108578   2.35584 255 255 255
-0.556022 -0.227546   2.39286 255 255 255
-0.808109  0.236547    2.1582 255 255 255
-0.0267091  -0.190839    2.48009 255 255 255
0.076304 -0.53208  2.62507 255 255 255
  0.65858 -0.134785   2.61153 255 255 255
-0.491473  -0.48539   2.50069 255 255 255
-0.520652  0.452702   2.14651 255 255 255
-0.822226 -0.183526   2.33098 255 255 255
-0.448178  0.189338    2.2115 255 255 255
 0.29031 0.329716   2.3365 255 255 255
   0.3274 -0.190796   2.52739 255 255 255
-0.0975251  -0.486211    2.56963 255 255 255
 0.741536 0.0716457   2.52006 255 255 255
-0.106252  0.245141   2.29438 255 255 255
-0.528309 -0.431018   2.48393 255 255 255
-0.109202  0.113465   2.34391 255 255 255
0.440552 -0.48421  2.65225 255 255 255
0.199302  0.10301  2.38365 255 255 255
-0.246992 -0.188583   2.39339 255 255 255
0.0717882 -0.650914    2.7192 255 255 255
  0.103297 -0.0170714    2.40048 255 255 255
-0.147468 -0.486973   2.59668 255 255 255
 0.461035 -0.299094   2.58656 255 255 255
 0.277125 -0.319523   2.53904 255 255 255
0.584498 0.196752  2.41763 255 255 255
0.296132 0.049084  2.45678 255 255 255
 -0.526977 -0.0480873     2.3058 255 255 255
0.054129 0.395094  2.15529 255 255 255
-0.143764  0.228233   2.27096 255 255 255
0.487137 0.240332  2.40005 255 255 255
0.549781 -0.38714  2.60396 255 255 255
0.00830499   0.045293    2.39582 255 255 255
-0.603197  0.266389   2.18743 255 255 255
-0.245135  0.139072   2.31908 255 255 255
0.379028 0.120318  2.43839 255 255 255
-0.56981  0.45475  2.13936 255 255 255
 0.107989 -0.251381   2.51898 255 255 255
 0.0856547 -0.0384918    2.39115 255 255 255
-0.409948 -0.527938   2.53482 255 255 255
 0.539002 -0.400548   2.62825 255 255 255
 -0.27405 0.0382646   2.32144 255 255 255
 0.118961 -0.130388   2.45009 255 255 255
0.336231 0.104437  2.43421 255 255 255
 0.288184 -0.608494   2.73561 255 255 255
-0.0779041  -0.203911    2.42163 255 255 255
 -0.117687 -0.0311463     2.4059 255 255 255
-0.142461 -0.453094   2.56408 255 255 255
-0.358316 -0.475942   2.52413 255 255 255
-0.735318 -0.282054   2.39658 255 255 255
 0.337312 -0.556098   2.70195 255 255 255
 0.450348 -0.561936   2.69385 255 255 255
  0.223192 -0.0379887    2.46923 255 255 255
-0.149957 -0.185322   2.39478 255 255 255
 0.337524 0.0755679   2.45102 255 255 255
-0.620713   0.27995   2.15029 255 255 255
0.337081 0.025282  2.46621 255 255 255
-0.590234 0.0224273   2.28082 255 255 255
-0.910324 -0.104323   2.28284 255 255 255
-0.335101 -0.394818   2.51007 255 255 255
-0.696582 0.0397957   2.22802 255 255 255
-0.576128 -0.350435   2.43213 255 255 255
0.348963 0.301107  2.31335 255 255 255
0.0936273 -0.447664   2.58887 255 255 255
-0.0930062  0.0753791     2.3597 255 255 255
 0.445234 -0.519179   2.67531 255 255 255
0.0675941 0.0941246   2.39057 255 255 255
-0.720589  0.168074   2.17941 255 255 255
 0.327751 -0.571206   2.67456 255 255 255
-0.226086 -0.152735   2.39394 255 255 255
-0.418362 -0.302411   2.45473 255 255 255
 -0.380717 -0.0425151    2.36194 255 255 255
0.282255 0.308813  2.34558 255 255 255
-0.328107 -0.576999   2.58087 255 255 255
0.0620952 0.0132718   2.38449 255 255 255
0.0606218 0.0152659   2.39295 255 255 255
 0.379129 -0.622684   2.75568 255 255 255
0.504116 0.133746  2.45428 255 255 255
-0.320212  0.243738   2.26512 255 255 255
-0.0621001  -0.500238    2.58338 255 255 255
 -0.485291 -0.0962921    2.33507 255 255 255
 0.307973 0.0586995   2.45045 255 255 255
-0.100044  0.259886   2.29383 255 255 255
-0.895065 -0.166234   2.31718 255 255 255
 0.542152 -0.169708   2.57494 255 255 255
 0.283937 -0.432965   2.62134 255 255 255
  0.30519 -0.454421   2.63446 255 255 255
 0.42666 0.235953  2.40445 255 255 255
-0.416383  -0.12235   2.38454 255 255 255
 0.383995 -0.092978    2.5349 255 255 255
 0.326481 -0.452564   2.63474 255 255 255
 -0.332548 -0.0865784    2.34263 255 255 255
0.309531 0.033067  2.45669 255 255 255
 0.444307 -0.590601   2.70239 255 255 255
-0.0104171  -0.541485    2.61852 255 255 255
0.351548 0.132445  2.42007 255 255 255
 0.347527 -0.335933   2.59716 255 255 255
-0.725173  0.355993   2.08897 255 255 255
-0.0768877   0.371975    2.24094 255 255 255
0.0966353  0.270329   2.28983 255 255 255
-0.640078 0.0732042   2.27144 255 255 255
 0.418947 -0.586012   2.69053 255 255 255
 0.322545 0.0808928    2.4382 255 255 255
-0.649101 -0.342341   2.40859 255 255 255
-0.144382 -0.467007    2.5673 255 255 255
-0.144437  0.242536   2.27563 255 255 255
-0.179073  0.291461   2.26632 255 255 255
0.146149 0.159698  2.38327 255 255 255
 0.708427 0.0247782   2.51472 255 255 255
 -0.193505 -0.0759502    2.39186 255 255 255
 0.422787 -0.445467   2.64844 255 255 255
-0.14596 -0.17212  2.44269 255 255 255
-0.259699 -0.288818   2.44941 255 255 255
-0.457063 -0.133152   2.38822 255 255 255
  0.675606 -0.0140745    2.54295 255 255 255
  0.33675 -0.460427   2.64034 255 255 255
-0.440294 -0.412861   2.49772 255 255 255
 0.458636 -0.461192   2.64194 255 255 255
-0.143638 -0.283331   2.43189 255 255 255
  0.263952 0.00936563    2.45673 255 255 255
  0.681514 -0.0316997    2.55374 255 255 255
 0.205703 -0.572974   2.65117 255 255 255
-0.151407 0.0630047   2.31387 255 255 255
-0.159401 0.0260687   2.31326 255 255 255
-0.332727  -0.48128   2.53726 255 255 255
 -0.67683 0.0523259   2.27086 255 255 255
-0.0106217   0.364133    2.27497 255 255 255
0.345197 0.276173  2.31489 255 255 255
-0.347124 -0.405363   2.46375 255 255 255
  0.280739 -0.0890632    2.45189 255 255 255
-0.703466  0.184575   2.19261 255 255 255
0.240985 0.180826  2.33618 255 255 255
-0.752863  0.296553   2.15069 255 255 255
-0.571822  0.439817   2.13397 255 255 255
-0.741987  0.303037   2.15156 255 255 255
-0.0730947  0.0396523    2.38257 255 255 255
-0.218434  0.120046   2.30852 255 255 255
 -0.833204 -0.0421817     2.2725 255 255 255
-0.739001  0.298881   2.16439 255 255 255
  0.51606 -0.313577    2.6155 255 255 255
 0.378407 -0.106178   2.52322 255 255 255
0.564791 0.179014  2.35386 255 255 255
 0.453165 -0.197083   2.56686 255 255 255
  0.437371 -0.0241025    2.50465 255 255 255
 -0.875758 -0.0531667    2.26889 255 255 255
 0.266789 -0.465153   2.63472 255 255 255
 0.675841 0.0477704   2.52186 255 255 255
 0.287753 0.0561186   2.44567 255 255 255
 -0.685228 -0.0372817    2.27949 255 255 255
-0.570638  0.414217   2.12301 255 255 255
 0.130403 -0.573646   2.63359 255 255 255
0.394819 0.184641  2.41513 255 255 255
-0.128541 -0.544939   2.63096 255 255 255
 -0.90039 -0.111906   2.28713 255 255 255
0.0589997  0.110158   2.37879 255 255 255
    0.319577 -0.000392326      2.46054 255 255 255
-0.848319  0.175122    2.1675 255 255 255
-0.545301 0.0422786   2.27881 255 255 255
 0.146485 -0.409363   2.58742 255 255 255
   0.316714 -0.00111126     2.46571 255 255 255
-0.797968 -0.064996   2.28791 255 255 255
0.0165926  0.497131   2.22586 255 255 255
-0.823036 -0.044474   2.27319 255 255 255
-0.300393  0.488286   2.17136 255 255 255
0.470585 0.260561  2.40218 255 255 255
-0.207792  -0.56459   2.59036 255 255 255
   0.51397 -0.0763223     2.5394 255 255 255
-0.678298 -0.161254   2.35542 255 255 255
  0.27409 -0.400202   2.61229 255 255 255
-0.00897119   -0.284399     2.48396 255 255 255
-0.296712 -0.455697   2.53481 255 255 255
-0.0288463   0.301157    2.28367 255 255 255
 0.377617 -0.105985   2.52527 255 255 255
  0.438401 -0.0722503    2.50084 255 255 255
 0.344795 -0.140292     2.524 255 255 255
 -0.783014 -0.0242203     2.2697 255 255 255
-0.595744 0.0430656   2.26697 255 255 255
  0.274409 -0.0708744    2.45651 255 255 255
-0.762372  0.106026   2.20751 255 255 255
 -0.893842 -0.0889159    2.28256 255 255 255
 0.282469 0.0644638   2.44291 255 255 255
-0.620725  0.302506   2.15055 255 255 255
 0.159683 -0.178109   2.47488 255 255 255
  0.443815 -0.0531015    2.49923 255 255 255
    0.267076 -0.000949654      2.47075 255 255 255
-0.588714  0.377789   2.16091 255 255 255
  0.41975 -0.485169   2.66329 255 255 255
-0.208678 -0.319875   2.48286 255 255 255
-0.177539 -0.531288   2.61738 255 255 255
 0.265592 0.0435459   2.44947 255 255 255
-0.685923  0.392805   2.09811 255 255 255
-0.903516 -0.242632   2.33691 255 255 255
-0.667793 -0.185013   2.37684 255 255 255
-0.119612 -0.404858    2.5468 255 255 255
-0.123416  0.273987   2.27904 255 255 255
 0.625132 -0.181465    2.5424 255 255 255
0.211535 0.293925  2.29789 255 255 255
0.692137 0.081678  2.50973 255 255 255
  0.41967 -0.174403   2.55791 255 255 255
  0.409869 -0.0245509       2.51 255 255 255
 0.296527 -0.238994   2.55623 255 255 255
0.132126 0.338819  2.30896 255 255 255
-0.53384 0.417175  2.16605 255 255 255
0.000450989   0.0199533     2.36374 255 255 255
-0.666086 0.0630418   2.26841 255 255 255
 0.194685 -0.500429   2.61702 255 255 255
-0.387619 -0.520889   2.54143 255 255 255
0.493758 -0.18985  2.58491 255 255 255
-0.248159 -0.475616   2.57082 255 255 255
 0.432188 -0.434609   2.63585 255 255 255
 0.348077 -0.461867   2.64166 255 255 255
-0.658377  0.424127   2.13692 255 255 255
-0.123498  0.448036   2.22579 255 255 255
0.168923 0.375208  2.30007 255 255 255
-0.0856172 -0.0990857    2.40273 255 255 255
 -0.874749 -0.0100311    2.24804 255 255 255
 0.616333 -0.248339   2.61559 255 255 255
-0.286391  0.146705   2.30346 255 255 255
 0.275543 -0.297212   2.57691 255 255 255
0.160361 0.108043  2.37757 255 255 255
-0.515843 -0.237733   2.38022 255 255 255
 0.352375 -0.405256   2.63156 255 255 255
-0.493279 -0.328751   2.43468 255 255 255
-0.340026  0.259826   2.25842 255 255 255
0.147771 0.185076  2.37272 255 255 255
 0.490912 -0.181747   2.58666 255 255 255
-0.259728 -0.187695   2.38143 255 255 255
-0.822831 -0.294542   2.37647 255 255 255
-0.167502 -0.457934    2.5628 255 255 255
-0.385031  0.230849   2.25044 255 255 255
 0.16589 -0.25814  2.52599 255 255 255
-0.0637069  0.0516086    2.37608 255 255 255
-0.371884 -0.397003   2.47107 255 255 255
  -1.12584 -0.0105421    2.09239 255 255 255
-0.117455 -0.079542   2.39352 255 255 255
-0.665129 -0.168547   2.35345 255 255 255
-0.630379 -0.430196   2.46577 255 255 255
-0.920817 -0.206313   2.31792 255 255 255
-0.257766 -0.556845   2.57632 255 255 255
-0.531978 -0.395866   2.47122 255 255 255
-0.78742 0.100754  2.18704 255 255 255
-0.379465  -0.30136    2.4559 255 255 255
-0.56574 0.397094  2.17014 255 255 255
    0.2467 -0.0135023    2.46166 255 255 255
-0.656132 -0.166441   2.35857 255 255 255
 0.372919 -0.221876   2.56805 255 255 255
-0.488003  0.381602   2.17752 255 255 255
 -0.647222 -0.0529491    2.27988 255 255 255
 0.590394 -0.106258   2.53965 255 255 255
-0.733619 -0.343843   2.41924 255 255 255
 0.458986 -0.370726   2.59836 255 255 255
 0.0613878 -0.0139099    2.39028 255 255 255
 0.309293 -0.595772   2.73167 255 255 255
-0.261165  0.163362   2.30653 255 255 255
-0.866568 -0.107176   2.29736 255 255 255
-0.392281 -0.533556   2.54352 255 255 255
-0.62899 0.325529  2.14521 255 255 255
 0.313445 -0.438804   2.63196 255 255 255
 0.238423 -0.457242   2.61269 255 255 255
-0.756487  0.157954   2.18005 255 255 255
0.0601469  0.403437   2.15657 255 255 255
-0.349424  0.384105   2.15818 255 255 255
 0.416094 -0.251917   2.56922 255 255 255
0.117809 0.326751  2.31394 255 255 255
 0.464473 -0.227005   2.57285 255 255 255
-0.48157  0.18994  2.20828 255 255 255
-0.145465 -0.521616   2.56658 255 255 255
-0.0125314  -0.563812    2.62378 255 255 255
  0.704082 -0.0646466    2.57178 255 255 255
-0.429298 -0.286907   2.44563 255 255 255
-0.326418  -0.54659   2.55854 255 255 255
-0.0772424  -0.494712    2.58437 255 255 255
 0.424789 -0.515371   2.67364 255 255 255
 -1.01186 0.0256603   2.16191 255 255 255
0.0767451 0.0900901   2.39553 255 255 255
0.00512329  0.0037835    2.36208 255 255 255
0.496407 0.249257  2.39852 255 255 255
 0.553198 -0.194127   2.58027 255 255 255
-0.514411 0.0672188   2.29966 255 255 255
 0.523946 -0.103353   2.55055 255 255 255
-0.876207 -0.271546   2.35942 255 255 255
-0.423671 -0.397231   2.47253 255 255 255
0.210363 0.241703  2.36252 255 255 255
-0.850994 -0.183634     2.329 255 255 255
-0.0169536   0.306973    2.28571 255 255 255
-0.147978  0.294935    2.2788 255 255 255
-0.759911  0.294311   2.13757 255 255 255
-0.0793185  -0.106808    2.40715 255 255 255
-0.853428  0.173249   2.15933 255 255 255
 0.267985 -0.204622   2.54429 255 255 255
 0.500262 -0.195654   2.58824 255 255 255
 0.371556 0.0710268   2.45333 255 255 255
-0.562267 -0.251072   2.41227 255 255 255
 0.336526 0.0926267   2.43814 255 255 255
 -0.24701 -0.487473   2.55249 255 255 255
-0.323954 -0.071771   2.33726 255 255 255
