ply
format ascii 1.0
element vertex 1137
property float x
property float y
property float z
property uchar red
property uchar green
property uchar blue
end_header
  0.520704 -0.0969432    2.47672 255 255 255
-0.296239  0.357231   2.18327 255 255 255
-0.604447 -0.438394   2.32741 255 255 255
-0.627154  0.449234   2.10551 255 255 255
  0.648301 -0.0872781    2.56096 255 255 255
-0.55613 0.406777  2.12997 255 255 255
 0.598597 -0.100385   2.50888 255 255 255
-0.522583 -0.227713   2.29883 255 255 255
   0.08825 -0.0382418    2.35058 255 255 255
 0.317728 -0.573611   2.57805 255 255 255
-0.173079 -0.423332   2.47778 255 255 255
-0.346287 -0.363707   2.38185 255 255 255
-0.269957 -0.177551     2.334 255 255 255
-0.603024 -0.382395   2.31132 255 255 255
 0.296557 -0.380081   2.53158 255 255 255
-0.617745 -0.152038   2.24841 255 255 255
  -0.3407 0.0175921   2.30685 255 255 255
0.385229   0.2028  2.28409 255 255 255
 0.439921 0.0418216   2.40087 255 255 255
-0.335098 -0.381695    2.3554 255 255 255
-0.387048 -0.153806   2.28793 255 255 255
 -0.53575 -0.318124    2.3217 255 255 255
-0.458008  0.424494   2.14229 255 255 255
 0.118467 -0.408002   2.48943 255 255 255
-0.637153 -0.394096    2.3012 255 255 255
0.0442053  0.239264   2.27437 255 255 255
-0.517416 -0.354866   2.32167 255 255 255
0.325961 -0.54259  2.57596 255 255 255
-0.827552 -0.114621   2.20547 255 255 255
-0.623579  0.124986    2.2089 255 255 255
-0.679249 -0.193425   2.23986 255 255 255
 0.591084 -0.112513   2.50916 255 255 255
 0.314085 0.0433261   2.41574 255 255 255
 -0.132786 -0.0453172     2.3218 255 255 255
-0.556244 -0.400679   2.32324 255 255 255
 0.196023 -0.528195   2.53493 255 255 255
0.124622 0.374955  2.19626 255 255 255
 0.354943 -0.269277   2.51306 255 255 255
-0.623566  -0.14052   2.25262 255 255 255
-0.47652 0.444071  2.13103 255 255 255
-0.666162 -0.118113   2.23824 255 255 255
-0.416677 -0.286947   2.34205 255 255 255
-0.248572  0.374895   2.18135 255 255 255
-0.364585   -0.2158   2.31323 255 255 255
-0.146753 -0.157556   2.35866 255 255 255
   0.52006 -0.0854094    2.47256 255 255 255
-0.268525  0.195885    2.2425 255 255 255
-0.440309  -0.47163   2.38637 255 255 255
0.0743965  -0.14104   2.38188 255 255 255
 -0.138582 -0.0816039    2.38968 255 255 255
-0.669117 -0.276787   2.24893 255 255 255
-0.689287 -0.195766    2.2518 255 255 255
-0.689296 -0.195829   2.25179 255 255 255
0.263243 0.407965  2.14727 255 255 255
-0.474773 -0.203748    2.3033 255 255 255
-0.183174  0.398696   2.19041 255 255 255
0.0951928 -0.568709   2.53123 255 255 255
0.364745 0.164114  2.39025 255 255 255
-0.670334 0.0710695   2.18582 255 255 255
-0.185811  0.419044   2.18592 255 255 255
-0.224109  0.154935    2.2832 255 255 255
-0.0219129  -0.251472      2.417 255 255 255
  0.556688 -0.0626799    2.46401 255 255 255
 0.324308 -0.287755   2.48568 255 255 255
 0.284574 -0.197873   2.51505 255 255 255
-0.687687 -0.134825   2.22988 255 255 255
 0.765033 -0.412523   2.70064 255 255 255
-0.693821 -0.209351   2.28427 255 255 255
-0.558804  0.387724   2.13403 255 255 255
 0.146083 0.0839072    2.3415 255 255 255
-0.520107 0.0143207   2.26632 255 255 255
   0.242232 -0.00950478     2.42308 255 255 255
-0.505739 -0.367279   2.32839 255 255 255
-0.691088 -0.229552   2.24037 255 255 255
0.0106312   0.45788   2.13553 255 255 255
-0.229419  0.419137   2.17794 255 255 255
-0.463469 -0.360035   2.33537 255 255 255
 0.733851 0.0368792   2.50731 255 255 255
  0.44187 0.0209445   2.45242 255 255 255
0.703394 -0.36826  2.65265 255 255 255
-0.524754 -0.386321   2.31693 255 255 255
 0.291826 0.0605055   2.40522 255 255 255
-0.133802 -0.362762    2.4233 255 255 255
0.295152 0.286667  2.23933 255 255 255
-0.730126  0.103586   2.20515 255 255 255
 0.643859 -0.060253   2.47137 255 255 255
0.375698 0.195941  2.29891 255 255 255
-0.0388793   0.230298      2.182 255 255 255
 0.381373 -0.403731   2.61741 255 255 255
0.190819 0.277876  2.19533 255 255 255
0.669069 0.020545  2.50379 255 255 255
-0.0165777  0.0499442    2.36583 255 255 255
-0.253201  0.382005   2.19813 255 255 255
 0.329243 -0.416757   2.61255 255 255 255
-0.492512  0.456308   2.12431 255 255 255
 0.27594 0.323227  2.32609 255 255 255
-0.160814 -0.410375   2.38344 255 255 255
0.00580067  0.0446737    2.37673 255 255 255
0.398706 0.218342  2.38675 255 255 255
-0.458421 -0.264877   2.32338 255 255 255
 0.360943 0.0451221   2.43037 255 255 255
 0.369138 -0.273443   2.49408 255 255 255
-0.0285232   0.336403     2.2432 255 255 255
-0.424941  0.302173   2.13433 255 255 255
-0.21491 0.294838  2.18068 255 255 255
-0.164584  0.278357   2.23679 255 255 255
-0.173793    0.4026   2.17007 255 255 255
-0.259312  0.323126   2.20046 255 255 255
-0.839832 -0.247854    2.2367 255 255 255
 0.107272 0.0584819   2.33929 255 255 255
 0.351387 -0.280388   2.56486 255 255 255
-0.550961 -0.163516   2.27495 255 255 255
0.136299 0.434529  2.15493 255 255 255
 -0.43661 -0.248207   2.33457 255 255 255
 0.449121 0.0501652    2.3953 255 255 255
0.312122 0.367718  2.17337 255 255 255
-0.311038 -0.370128     2.388 255 255 255
0.0705266 -0.540077   2.52181 255 255 255
  0.56087 -0.334467   2.56397 255 255 255
-0.529054 -0.358754   2.32888 255 255 255
  0.611132 -0.0412291    2.51097 255 255 255
-0.613885 -0.113714   2.25344 255 255 255
0.304893 0.333869  2.21247 255 255 255
-0.570521  0.240822   2.19427 255 255 255
0.0287466  0.405192    2.1288 255 255 255
0.275687 0.041208  2.39287 255 255 255
-0.504583 -0.412584   2.34399 255 255 255
0.260649 0.021531  2.40647 255 255 255
 0.457635 -0.281462   2.57379 255 255 255
-0.351995  0.221768   2.22082 255 255 255
-0.211424  0.153974   2.26698 255 255 255
0.330642 0.146041  2.33335 255 255 255
-0.427586 -0.317704   2.35037 255 255 255
-0.159922 -0.349024   2.46759 255 255 255
 0.399447 -0.102447   2.46569 255 255 255
-0.666934 -0.184821   2.24763 255 255 255
0.171741 0.040436  2.33372 255 255 255
-0.468065 -0.221697   2.32456 255 255 255
-0.469905 -0.415764   2.34762 255 255 255
 0.276242 -0.574614   2.57208 255 255 255
 -0.69297 -0.207759   2.25376 255 255 255
-0.509533 -0.314359   2.32538 255 255 255
-0.537883 -0.189789   2.28555 255 255 255
  0.399023 -0.0296837    2.44437 255 255 255
-0.279676  0.155522   2.25293 255 255 255
-0.360999 -0.276983   2.34662 255 255 255
-0.521195  -0.30893   2.31452 255 255 255
-0.417524 -0.310066   2.37615 255 255 255
 0.417234 -0.465155   2.56499 255 255 255
-0.685064 0.0662013   2.20721 255 255 255
-0.528393  0.427204   2.12969 255 255 255
-0.521722 -0.294207   2.31773 255 255 255
  0.620762 -0.0789195    2.55338 255 255 255
-0.331994  -0.45002    2.4083 255 255 255
-0.403866 -0.354035   2.34724 255 255 255
 -0.66274 -0.202155   2.26409 255 255 255
-0.299666  0.164392   2.25209 255 255 255
  0.653918 -0.0538896    2.52394 255 255 255
0.241678 0.472604   2.1126 255 255 255
-0.451448 -0.469079   2.38245 255 255 255
 0.473633 -0.240638   2.52166 255 255 255
-0.461551 -0.196106   2.32432 255 255 255
  0.686099 -0.0543494    2.46015 255 255 255
-0.582775 -0.105897   2.25904 255 255 255
-0.408226 0.0975403   2.21814 255 255 255
-0.569316 -0.338022   2.31622 255 255 255
-0.0269048    0.32831    2.24393 255 255 255
-0.353797 -0.337713    2.3701 255 255 255
 -0.88463 -0.188062   2.20972 255 255 255
 0.535271 -0.120099   2.49014 255 255 255
-0.699842  0.106984   2.19494 255 255 255
-0.498831  0.449309    2.1244 255 255 255
 0.485428 -0.197616   2.51885 255 255 255
-0.487749 -0.290278   2.32774 255 255 255
-0.622293 -0.326441   2.31484 255 255 255
-0.598136 -0.339497   2.30603 255 255 255
-0.697506 -0.212624   2.23568 255 255 255
-0.460892  -0.15979   2.29567 255 255 255
 0.631647 -0.339989   2.60444 255 255 255
  0.511634 -0.0886673    2.49859 255 255 255
-0.588756 -0.401159   2.31949 255 255 255
-0.496075 -0.214547   2.30206 255 255 255
  -0.29865 -0.0154263    2.27418 255 255 255
-0.133113 -0.175512   2.41721 255 255 255
-0.655892  0.424791   2.10703 255 255 255
-0.0411563  -0.483364    2.47456 255 255 255
  0.614546 -0.0112565    2.43339 255 255 255
   0.5088 -0.371969   2.59447 255 255 255
-0.531608 -0.193586   2.28735 255 255 255
-0.562033 -0.270084   2.29955 255 255 255
0.122328 0.402658  2.27409 255 255 255
0.0678579  0.478061   2.24196 255 255 255
-0.511116 -0.357591   2.33724 255 255 255
-0.511113 -0.357576   2.33724 255 255 255
-0.498642 -0.239248   2.31636 255 255 255
 0.18973 0.375315  2.13057 255 255 255
 0.494134 -0.161794   2.49356 255 255 255
 0.460583 -0.307074    2.5684 255 255 255
-0.585133  -0.29458   2.30183 255 255 255
  -0.52596 0.00816292    2.26429 255 255 255
  0.224794 -0.0497652    2.41174 255 255 255
 0.452134 -0.251717   2.52876 255 255 255
-0.602534 -0.322333    2.3053 255 255 255
-0.152668  0.348118   2.13494 255 255 255
 0.476554 -0.371549   2.59518 255 255 255
 -0.632335 -0.0563727     2.2052 255 255 255
-0.157882 -0.512949   2.45571 255 255 255
-0.671743 -0.386866   2.28699 255 255 255
-0.729316 -0.240275   2.22479 255 255 255
-0.26283 0.348549  2.20227 255 255 255
-0.60425 0.469753  2.09582 255 255 255
-0.628856 -0.316847   2.29658 255 255 255
-0.281493  0.349181   2.19204 255 255 255
-0.636001  -0.31247   2.26296 255 255 255
-0.407896 -0.349634   2.35922 255 255 255
0.256553 0.321925  2.21669 255 255 255
-0.651191 -0.235067   2.28729 255 255 255
-0.230867  0.362915   2.19305 255 255 255
-0.240174 0.0205525   2.27145 255 255 255
0.00958795   0.183977    2.25043 255 255 255
 0.261035 -0.307975    2.4542 255 255 255
-0.611965 -0.294853   2.29504 255 255 255
-0.171736 -0.558724   2.46915 255 255 255
-0.347331 0.0104256   2.30638 255 255 255
-0.435439  0.419598    2.1453 255 255 255
  0.265768 -0.0118139    2.41378 255 255 255
-0.605761  0.113807   2.21907 255 255 255
-0.588541 -0.379894   2.31455 255 255 255
-0.447609  0.218487   2.20981 255 255 255
-0.403865 -0.310016   2.35346 255 255 255
  0.206712 -0.0837394    2.41915 255 255 255
0.438777 0.235525  2.27004 255 255 255
 0.10693 0.282017  2.28923 255 255 255
0.00819508   0.476416    2.13278 255 255 255
-0.516294   0.35957   2.15558 255 255 255
-0.378303 -0.156288   2.29314 255 255 255
-0.593054  0.460169   2.10177 255 255 255
 -0.550883 -0.0552484    2.26814 255 255 255
  0.21682 -0.544069   2.54267 255 255 255
 0.486288 -0.303679   2.54462 255 255 255
0.125696 0.123967  2.34095 255 255 255
0.179756 -0.55314  2.53831 255 255 255
 -0.835349 -0.0954098    2.19574 255 255 255
  0.26065 -0.437945   2.60646 255 255 255
0.0988878  0.107424   2.35533 255 255 255
-0.647639 -0.243615   2.28692 255 255 255
0.815254 -0.37967   2.6853 255 255 255
 0.35852 0.171704  2.39015 255 255 255
 0.458969 0.0225706   2.45412 255 255 255
-0.0262951   0.214699     2.1791 255 255 255
  0.629542 -0.0660372    2.47474 255 255 255
-0.422341 -0.164638   2.29178 255 255 255
-0.597738 -0.168223   2.25921 255 255 255
0.388142  -0.3907  2.51561 255 255 255
0.0689717  0.074532   2.34704 255 255 255
0.255458 0.457536  2.12757 255 255 255
-0.694009 -0.414358   2.29283 255 255 255
 0.351369 -0.419436   2.62166 255 255 255
-0.665578  -0.17585   2.25214 255 255 255
-0.402018  0.133195   2.25739 255 255 255
 0.439508 0.0087033   2.46595 255 255 255
-0.580058  -0.28511   2.31536 255 255 255
-0.232305  0.132617   2.26634 255 255 255
-0.0697705  0.0706139    2.30526 255 255 255
-0.421486 -0.357376   2.35612 255 255 255
-0.520067 -0.340915   2.33118 255 255 255
0.265643 0.414264  2.14047 255 255 255
-0.693172 -0.182963   2.28176 255 255 255
0.0828925 -0.497999   2.51118 255 255 255
0.33539 0.36385 2.18167 255 255 255
 0.091208 0.0880743   2.36251 255 255 255
 0.482295 -0.296136   2.54338 255 255 255
-0.389672  0.156218   2.24946 255 255 255
 0.706477 -0.349649   2.63296 255 255 255
0.235846 0.477647  2.11359 255 255 255
-0.452445  0.416506   2.14158 255 255 255
-0.0820855    0.06888    2.30764 255 255 255
-0.534515 -0.243516    2.3015 255 255 255
0.0306367  0.141056   2.27133 255 255 255
-0.714645 -0.289442    2.2895 255 255 255
-0.300541 -0.259686   2.32442 255 255 255
 -0.619961 -0.0998826    2.24152 255 255 255
 0.338567 -0.360532   2.59417 255 255 255
-0.540573  0.391303   2.13775 255 255 255
-0.188687  0.333731   2.14882 255 255 255
  0.57703 -0.374752   2.61603 255 255 255
0.495921 0.147839  2.32933 255 255 255
-0.516896 -0.179642   2.29513 255 255 255
0.349736 -0.11547  2.46984 255 255 255
0.345229 0.302809  2.33123 255 255 255
0.200532 0.349301  2.15677 255 255 255
-0.698099 -0.439725   2.29264 255 255 255
-0.28778 0.389518   2.1785 255 255 255
 0.354659 0.0527086   2.42745 255 255 255
 0.418709 -0.268036    2.5031 255 255 255
 0.156388 0.0985586   2.33856 255 255 255
  0.217199 -0.0430573    2.41646 255 255 255
 0.24847 0.236953  2.34369 255 255 255
0.195062 0.456565  2.13794 255 255 255
-0.419489 -0.195185   2.28024 255 255 255
-0.428446 -0.302702   2.34462 255 255 255
-0.539758 0.0972551    2.1772 255 255 255
 0.300638 -0.200495   2.51537 255 255 255
0.0915538  0.102131   2.34444 255 255 255
-0.454971 -0.437168   2.37311 255 255 255
-0.622553  -0.23543   2.28072 255 255 255
-0.676069 -0.411938   2.30748 255 255 255
 0.149318 0.0907849   2.31777 255 255 255
-0.503653 -0.180108   2.30416 255 255 255
-0.598249 -0.301873   2.28146 255 255 255
 0.567523 -0.277734   2.56004 255 255 255
-0.583899 -0.326576   2.29319 255 255 255
 0.431606 0.0580603   2.38743 255 255 255
-0.113421 0.0193818   2.31066 255 255 255
 0.441675 -0.154149   2.51352 255 255 255
 0.317386 -0.324066   2.48603 255 255 255
  0.389898 -0.0491991    2.46069 255 255 255
  0.571024 -0.0573235     2.5301 255 255 255
-0.53071 -0.34427  2.32075 255 255 255
 0.657566 -0.017618   2.42981 255 255 255
 0.428092 -0.203698   2.50936 255 255 255
 0.444259 -0.280471   2.51407 255 255 255
 -0.51064 -0.322658   2.32498 255 255 255
-0.023957 -0.389277   2.40624 255 255 255
0.341163 0.100883  2.40931 255 255 255
-0.530403   -0.2875   2.31103 255 255 255
-0.530399 -0.287474   2.31103 255 255 255
 0.455742 -0.313137   2.54057 255 255 255
-0.554389 -0.327133   2.30626 255 255 255
 -0.42382 -0.375954    2.3465 255 255 255
-0.531672 -0.432834   2.34576 255 255 255
0.0836259  0.287529   2.28078 255 255 255
-0.668212 -0.293252   2.24404 255 255 255
-0.331158 -0.349126   2.37701 255 255 255
-0.372715 -0.267651     2.343 255 255 255
 0.688121 -0.122111   2.57998 255 255 255
  0.50103 -0.286695   2.54038 255 255 255
-0.172086 -0.347739   2.46375 255 255 255
-0.212523  0.176434   2.27293 255 255 255
-0.688669 -0.119665   2.23357 255 255 255
 0.303274 -0.575576   2.57771 255 255 255
0.136064 0.426956  2.16101 255 255 255
 0.361599 -0.504483    2.5767 255 255 255
-0.634437 -0.229841   2.28964 255 255 255
0.316901 -0.55218  2.57716 255 255 255
-0.245569  0.139899   2.25794 255 255 255
-0.280389  0.415671   2.16414 255 255 255
-0.243432  0.400032   2.16442 255 255 255
-0.577101  0.237033   2.19015 255 255 255
-0.533132 -0.160675   2.29106 255 255 255
-0.321285 -0.510787   2.42437 255 255 255
-0.573806 -0.221185   2.27739 255 255 255
0.130611 0.400791  2.18083 255 255 255
-0.589817 -0.409362   2.31792 255 255 255
  0.301307 -0.0233474    2.40419 255 255 255
-0.529061 -0.399732   2.32868 255 255 255
-0.528633 -0.185281    2.2847 255 255 255
-0.629909 -0.438285   2.31953 255 255 255
   0.17944 -0.0958655    2.46005 255 255 255
0.526769 0.215714  2.42074 255 255 255
-0.551539  0.371375   2.14298 255 255 255
-0.482322  0.397748   2.14462 255 255 255
-0.469146 -0.434596   2.35198 255 255 255
 0.347662 -0.258094    2.5529 255 255 255
 -0.578365 -0.0549149    2.19289 255 255 255
 0.261167 -0.464525   2.54077 255 255 255
 0.486229 -0.260328   2.55508 255 255 255
 0.398445 -0.508176   2.58095 255 255 255
  0.206999 -0.0597667    2.41874 255 255 255
-0.713768 -0.439328   2.28542 255 255 255
 0.0835644 -0.0570716    2.34542 255 255 255
 -0.335301 0.00329856    2.28304 255 255 255
-0.484158 -0.210848   2.31435 255 255 255
 -0.17901 -0.373749   2.38025 255 255 255
-0.218349  0.322193    2.1553 255 255 255
  0.57977 -0.121377   2.50445 255 255 255
  -0.4948 -0.172909   2.29417 255 255 255
-0.399339  0.302878   2.18506 255 255 255
-0.0653449   -0.45209    2.46596 255 255 255
 0.19884 0.449748   2.1427 255 255 255
  0.28758 0.0689612   2.40317 255 255 255
-0.521825   0.42343   2.12892 255 255 255
0.185179 0.202255  2.30312 255 255 255
-0.486428 -0.160292   2.29154 255 255 255
 0.334045 -0.529458   2.57171 255 255 255
 0.138406 -0.125432   2.46106 255 255 255
-0.237935   0.14233   2.28336 255 255 255
 -0.470726 -0.0666159    2.28267 255 255 255
    0.2314 -0.0208512     2.4264 255 255 255
0.129773 0.295998  2.25228 255 255 255
-0.571836  -0.32166   2.29803 255 255 255
-0.0341469  -0.166179    2.43626 255 255 255
 0.816734 -0.391334   2.69677 255 255 255
-0.553814 -0.427312   2.34775 255 255 255
0.098345 0.279537  2.28891 255 255 255
 0.678121 -0.318333   2.59951 255 255 255
-0.469169 0.0642279   2.23394 255 255 255
-0.360687 -0.274541   2.33282 255 255 255
 0.534534 -0.115971   2.52494 255 255 255
 -0.03815 0.0567452   2.31891 255 255 255
0.0381005  0.244235   2.28064 255 255 255
0.318309  0.10774   2.4007 255 255 255
 -0.61837 -0.211752   2.24619 255 255 255
 0.475989 -0.275829   2.52484 255 255 255
 0.378361 -0.476817   2.56993 255 255 255
 0.520554 -0.295919   2.54522 255 255 255
 0.606187 -0.341085   2.61556 255 255 255
  0.419469 -0.0573094    2.43663 255 255 255
0.292901 0.439781  2.13595 255 255 255
-0.405274 0.0168592   2.28937 255 255 255
0.338186 -0.26005  2.55453 255 255 255
-0.755375 -0.100349   2.25743 255 255 255
 0.377252 0.0425288   2.43527 255 255 255
0.310814 0.382377  2.17091 255 255 255
-0.404077  0.313598   2.11712 255 255 255
-0.471447 -0.321685   2.33943 255 255 255
 0.21139 0.297017  2.24648 255 255 255
0.147557  0.14442  2.33771 255 255 255
-0.697186 -0.123073   2.23123 255 255 255
0.0998639 0.0530679   2.33801 255 255 255
 0.48639 0.107274  2.43946 255 255 255
-0.500545  0.183113    2.1636 255 255 255
 0.365158 -0.397576   2.54581 255 255 255
0.201093 -0.46745  2.51971 255 255 255
-0.411062  -0.18694   2.28834 255 255 255
0.0729788  0.419912   2.22632 255 255 255
 0.727766 -0.359571   2.64715 255 255 255
 0.479498 -0.356586   2.55082 255 255 255
 0.592285 -0.346284    2.6184 255 255 255
-0.673538 -0.378784   2.28882 255 255 255
0.186151 0.482228  2.11763 255 255 255
0.00743685  0.0353407    2.33176 255 255 255
-0.208952 -0.472827   2.43858 255 255 255
0.342054 -0.26731  2.56065 255 255 255
0.206983  0.38106  2.13763 255 255 255
-0.547853  0.411989   2.13018 255 255 255
 0.816664 -0.409941   2.69803 255 255 255
-0.183948  0.159472   2.28347 255 255 255
-0.21559 0.393993  2.17205 255 255 255
-0.546886 -0.191109   2.27817 255 255 255
 0.601664 -0.299904   2.56974 255 255 255
0.115082 0.284156  2.29083 255 255 255
 -0.41758 -0.397431    2.3793 255 255 255
-0.599444 -0.300644   2.31096 255 255 255
-0.448706 -0.162971   2.32504 255 255 255
-0.783486 -0.161972   2.22387 255 255 255
-0.439546  -0.37836   2.35962 255 255 255
 0.762681 -0.309215   2.57697 255 255 255
0.624234 0.121615  2.34388 255 255 255
 0.517517 -0.390013   2.55055 255 255 255
-0.232819  0.116092   2.29298 255 255 255
-0.627858 -0.349952   2.28863 255 255 255
-0.619741   -0.2886   2.29221 255 255 255
 0.314724 -0.383691   2.60539 255 255 255
  0.63716 -0.349347   2.61061 255 255 255
 0.281094 -0.379282    2.5754 255 255 255
-0.493015 -0.415043   2.35344 255 255 255
 0.796229 -0.395189   2.70407 255 255 255
-0.629464 -0.319324   2.31156 255 255 255
-0.371303  0.190611   2.24239 255 255 255
 0.623978 -0.282162    2.5846 255 255 255
 -0.139969 -0.0521842    2.32379 255 255 255
 0.385281 -0.208241   2.54936 255 255 255
-0.114069  0.245933   2.25298 255 255 255
-0.484513 -0.165931   2.29833 255 255 255
-0.452127 -0.300188   2.33869 255 255 255
-0.294771  0.448757   2.17325 255 255 255
-0.182945   0.17185   2.27891 255 255 255
0.408967 0.202863  2.29787 255 255 255
0.242596 0.286531  2.33512 255 255 255
-0.47456 0.410051  2.14601 255 255 255
  -0.5056 -0.306506   2.32455 255 255 255
-0.277658 -0.467198   2.42129 255 255 255
0.0240104 0.0603885   2.36698 255 255 255
-0.411334 -0.194933   2.28314 255 255 255
-0.266764  0.344502   2.19577 255 255 255
-0.224385  0.163733   2.25952 255 255 255
0.284582 0.337829  2.32848 255 255 255
   0.36414 -0.0885449    2.46551 255 255 255
-0.0150862  -0.417938    2.46331 255 255 255
 -0.434384 -0.0326081    2.25504 255 255 255
 0.439947 -0.287069   2.51396 255 255 255
-0.414435 -0.127212   2.30181 255 255 255
0.285297 0.367402  2.18625 255 255 255
-0.442031  0.426741   2.14205 255 255 255
 0.485251 -0.206046   2.52564 255 255 255
  0.44999 -0.283378   2.53229 255 255 255
-0.0545646   0.325467    2.22289 255 255 255
 0.291571 -0.166465   2.46683 255 255 255
-0.22776 0.126826  2.29175 255 255 255
-0.458465  0.167603   2.14944 255 255 255
 0.402609 -0.589809   2.59891 255 255 255
-0.646833 -0.220122   2.28002 255 255 255
 0.525824 -0.320422   2.54938 255 255 255
-0.482323 -0.216898   2.29848 255 255 255
0.147867 0.213938  2.21908 255 255 255
-0.481378 -0.340858   2.33692 255 255 255
 -0.53003 -0.301299   2.32236 255 255 255
 0.357948 -0.511017     2.573 255 255 255
-0.277452  0.147914   2.25631 255 255 255
-0.165794 -0.391705   2.42242 255 255 255
-0.444465 -0.458804   2.37881 255 255 255
-0.689516 -0.362432   2.31019 255 255 255
0.452674 0.229694  2.39929 255 255 255
0.306366 0.467429  2.10342 255 255 255
-0.486517 -0.439792   2.35382 255 255 255
0.152627 0.133592  2.33951 255 255 255
  0.649387 -0.0613205    2.52546 255 255 255
0.264096 0.318194  2.21706 255 255 255
 0.293769 0.0821829     2.403 255 255 255
 0.141485 -0.382586   2.48877 255 255 255
-0.275429 -0.521361   2.43928 255 255 255
0.350839 0.103602  2.41304 255 255 255
0.0883258  0.280987   2.25915 255 255 255
 -0.341172 0.00273232    2.27649 255 255 255
  0.410991 -0.0317252    2.46088 255 255 255
-0.895677 -0.281051   2.23469 255 255 255
-0.687191 -0.425156   2.29853 255 255 255
-0.280976   0.36882   2.17829 255 255 255
-0.44333  -0.4823  2.38848 255 255 255
 0.483651 -0.109547   2.47637 255 255 255
 0.646146 -0.071189   2.55692 255 255 255
 -0.108426 -0.0694332    2.38644 255 255 255
-0.245944  0.221737   2.22313 255 255 255
-0.535854 -0.142142   2.27185 255 255 255
-0.544863 -0.140678   2.28543 255 255 255
-0.507385  0.235155    2.2016 255 255 255
0.0837294 -0.538345   2.52339 255 255 255
-0.530217 -0.127601   2.28691 255 255 255
-0.540164  0.391578   2.12716 255 255 255
-0.711105  -0.25146   2.23203 255 255 255
 -0.596811 -0.0928199     2.2503 255 255 255
-0.242055 -0.560526   2.46138 255 255 255
0.329588 -0.36458  2.59035 255 255 255
-0.244958  0.359893   2.19893 255 255 255
 0.373622 -0.380702   2.54311 255 255 255
-0.554561 -0.298246   2.30627 255 255 255
-0.0396043   0.333324     2.2394 255 255 255
-0.0692201   -0.52958    2.48512 255 255 255
-0.487695 -0.189601   2.31217 255 255 255
-0.497377 -0.372488   2.34224 255 255 255
 0.582877 -0.112758   2.45008 255 255 255
-0.627472 -0.445725   2.32209 255 255 255
-0.404415 -0.376211   2.36749 255 255 255
-0.28392 0.373786  2.18095 255 255 255
-0.287094 -0.488898     2.424 255 255 255
  0.211866 -0.0423388    2.44251 255 255 255
0.0486834 -0.335482   2.51286 255 255 255
 0.332091 -0.382591    2.6048 255 255 255
   0.23296 -0.0574939    2.41158 255 255 255
0.609413 0.140051    2.334 255 255 255
 0.768089 0.0283468   2.51811 255 255 255
 -0.47974 -0.197431   2.31677 255 255 255
-0.570823 -0.104562   2.26367 255 255 255
  0.602438 -0.0377829    2.45174 255 255 255
 0.152609 -0.395954   2.49565 255 255 255
 0.491207 -0.318717   2.53309 255 255 255
 -0.59026 -0.352083   2.30966 255 255 255
-0.424721  0.402788    2.1549 255 255 255
-0.27836 0.338095   2.2018 255 255 255
-0.249051  0.133008    2.2603 255 255 255
 0.490016 -0.167506   2.49522 255 255 255
0.0738326   0.29504    2.2759 255 255 255
-0.512581  0.348461   2.15853 255 255 255
-0.271747  0.421103   2.16481 255 255 255
-0.245451 -0.298275   2.35624 255 255 255
-0.355514 -0.268544   2.34674 255 255 255
-0.157011 -0.549059   2.47066 255 255 255
0.363142 -0.14072  2.47601 255 255 255
  0.18864 -0.476442   2.52004 255 255 255
 0.349944 -0.496629   2.56968 255 255 255
 0.305046 -0.336817   2.58639 255 255 255
0.0322622  0.467557   2.13996 255 255 255
-0.620944 -0.342768    2.3129 255 255 255
-0.477007  -0.36387   2.33582 255 255 255
-0.0660891 -0.0802263    2.35451 255 255 255
  0.61662 -0.305928   2.59564 255 255 255
-0.570763 -0.148446   2.27776 255 255 255
-0.194763  0.171079   2.26013 255 255 255
0.274008 -0.52437   2.5579 255 255 255
0.279332  0.43115  2.13333 255 255 255
-0.559031  0.418143   2.12833 255 255 255
-0.51398 0.205785  2.17225 255 255 255
0.0612354  0.252889    2.2608 255 255 255
-0.200305  0.417816   2.16499 255 255 255
0.0896498  0.119613   2.34717 255 255 255
  0.280322 -0.0178416    2.41979 255 255 255
-0.263923 -0.125549   2.32009 255 255 255
-0.582041 -0.435544   2.35167 255 255 255
-0.515865 -0.162985   2.28264 255 255 255
-0.22582 0.312675  2.15584 255 255 255
 0.401355 -0.500913   2.57758 255 255 255
-0.434789 -0.345798   2.35305 255 255 255
 0.170458 -0.166207   2.43963 255 255 255
-0.407563 -0.266316    2.3556 255 255 255
 0.490563 -0.312225   2.53141 255 255 255
-0.719364 -0.184309   2.24127 255 255 255
 -0.44585 -0.342247   2.35022 255 255 255
-0.0881765   0.262005    2.25268 255 255 255
-0.423507 -0.414315   2.37896 255 255 255
-0.50438 -0.46323  2.36842 255 255 255
-0.520589 0.0310849      2.26 255 255 255
-0.407867   0.48035   2.12357 255 255 255
 -0.725411 -0.0839745    2.21365 255 255 255
 0.448691 -0.111862   2.48859 255 255 255
 0.335776 -0.475914   2.55806 255 255 255
 0.689639 0.0178397   2.50611 255 255 255
-0.390926  0.288431   2.18546 255 255 255
-0.584015 -0.338338   2.31489 255 255 255
 -0.159687 -0.0629297    2.37185 255 255 255
 0.402088 -0.490178   2.57889 255 255 255
 0.622224 -0.336184   2.61039 255 255 255
-0.406725 -0.272908   2.35103 255 255 255
-0.546166 -0.186618   2.28052 255 255 255
-0.695894 -0.192218     2.248 255 255 255
-0.49102 -0.19471  2.30829 255 255 255
-0.509677 -0.339292   2.32791 255 255 255
-0.0128459   -0.30664    2.42091 255 255 255
-0.00747218   -0.369458     2.40952 255 255 255
-0.104285  0.230157   2.26487 255 255 255
-0.634025 -0.403717   2.31346 255 255 255
-0.664441 -0.366535    2.2935 255 255 255
-0.289885 -0.143065   2.29159 255 255 255
-0.204247   0.15395   2.25991 255 255 255
-0.138642 -0.346094    2.3797 255 255 255
-0.441701  0.115717   2.17052 255 255 255
0.0319466 -0.570976   2.51776 255 255 255
 0.377177 -0.436921   2.56081 255 255 255
-0.469542 -0.425376    2.3636 255 255 255
-0.224183  0.318412   2.15717 255 255 255
0.146544 0.229667  2.29117 255 255 255
-0.566949 -0.179913   2.28853 255 255 255
 -0.25886 -0.522556   2.44127 255 255 255
-0.584375 -0.306588   2.29004 255 255 255
-0.390822   0.20899   2.23052 255 255 255
 -0.0837194 -0.00202714     2.30277 255 255 255
 0.216446 -0.448511   2.51855 255 255 255
 0.283422 -0.438058   2.62003 255 255 255
0.0762544 -0.520282   2.51412 255 255 255
 0.414751 -0.219825   2.51534 255 255 255
 0.208531 -0.458464   2.51946 255 255 255
 0.567897 -0.118431   2.49757 255 255 255
0.0477019 -0.225457   2.43738 255 255 255
0.0397607  0.424273    2.2189 255 255 255
-0.206207   0.44933   2.14721 255 255 255
 -0.36474 -0.444715   2.38846 255 255 255
-0.0651722   0.389611    2.23098 255 255 255
0.0722816 -0.118866   2.35339 255 255 255
-0.639088 -0.351604   2.30681 255 255 255
 -0.411186 -0.0741545    2.27835 255 255 255
-0.0276407  0.0832122    2.30659 255 255 255
  0.274911 -0.0140228    2.41496 255 255 255
-0.457568  0.341232   2.16023 255 255 255
0.078693 0.327155  2.27815 255 255 255
-0.243808  0.313847   2.20189 255 255 255
0.129323  0.16658  2.33845 255 255 255
-0.265274  0.235513   2.19389 255 255 255
-0.71072 0.337893  2.09295 255 255 255
-0.493093   0.57681    2.0465 255 255 255
-0.0311623  0.0159193    2.32589 255 255 255
-0.0602437   0.302149    2.24238 255 255 255
-0.166045 -0.102407   2.32675 255 255 255
-0.0172459 -0.0809778    2.30021 255 255 255
 -0.327928 -0.0452392    2.28694 255 255 255
-0.174429  0.198647   2.23473 255 255 255
-0.0900005  -0.100735    2.34906 255 255 255
 0.578285 -0.232843    2.5369 255 255 255
0.0132473  0.314805    2.2066 255 255 255
0.235223 0.102186  2.36109 255 255 255
-0.146387  0.412659   2.20391 255 255 255
-0.482038  0.206253   2.19361 255 255 255
   0.4444 -0.500626   2.57753 255 255 255
-0.593664  0.484226    2.0724 255 255 255
 -0.259283 -0.0855915    2.30777 255 255 255
-0.420654 -0.161224   2.33075 255 255 255
-0.11852 0.328563   2.2077 255 255 255
-0.649591   0.03382   2.19365 255 255 255
-0.330766   0.20538    2.2281 255 255 255
-0.26278 0.112287  2.24041 255 255 255
-0.164188  0.298188   2.22281 255 255 255
-0.676989 -0.221745   2.29056 255 255 255
-0.654584  0.402888   2.09019 255 255 255
  -0.812077 -0.00107418     2.17021 255 255 255
-0.351664  -0.41144    2.3926 255 255 255
-0.215769  0.224031   2.22277 255 255 255
 0.110156 -0.102715   2.40753 255 255 255
0.0150051  0.117269   2.28549 255 255 255
  0.36078 0.0907023   2.41085 255 255 255
 0.218334 -0.280693   2.47376 255 255 255
 0.433372 0.0024367   2.45336 255 255 255
-0.442228  0.237185   2.18284 255 255 255
 0.474126 -0.340936   2.54223 255 255 255
-0.125155  0.280969   2.24731 255 255 255
 0.134311 -0.231201   2.41247 255 255 255
  0.408985 -0.0533705    2.46104 255 255 255
 0.11594 0.138386  2.33986 255 255 255
 -0.342004 -0.0671318    2.27825 255 255 255
-0.771715  0.389153   2.05905 255 255 255
  0.444013 -0.0526542    2.47028 255 255 255
-0.370416 0.0425839   2.26552 255 255 255
-0.0347689  -0.408308    2.44761 255 255 255
-0.599246  0.048746   2.20482 255 255 255
 0.480881 0.0953914   2.43751 255 255 255
0.0571649 -0.432938   2.48421 255 255 255
-0.373389  0.302473   2.19329 255 255 255
-0.0319589 -0.0193103    2.31895 255 255 255
-0.157068  0.263505    2.2388 255 255 255
-0.459315 -0.041377    2.2667 255 255 255
 -0.0629306 -0.00673069      2.3163 255 255 255
0.00949426   -0.42276    2.46593 255 255 255
0.0992362 0.0684426   2.33954 255 255 255
 0.553208 -0.165716   2.53877 255 255 255
-0.0581786  -0.474993    2.47275 255 255 255
 0.132228 -0.527055   2.52526 255 255 255
 0.478206 -0.149632   2.50341 255 255 255
-0.0192949   0.224306     2.2546 255 255 255
-0.140057  0.157634   2.27094 255 255 255
-0.411662  0.138354   2.22779 255 255 255
-0.638769  0.364195   2.08891 255 255 255
0.196818  0.35653   2.2939 255 255 255
-0.332034  0.378795   2.16984 255 255 255
 0.543129 -0.190049   2.53268 255 255 255
 0.270834 -0.456342   2.54046 255 255 255
  0.302643 0.00865556     2.4235 255 255 255
  0.301358 0.00751478     2.4242 255 255 255
-0.452245  0.405703   2.14389 255 255 255
-0.285235  0.176207   2.23858 255 255 255
  0.380607 -0.0929689    2.47682 255 255 255
 0.389033 -0.217536   2.50562 255 255 255
 -0.15232 -0.144418   2.34172 255 255 255
 0.467922 0.0716808   2.44431 255 255 255
 0.0475232 -0.0583357    2.34846 255 255 255
-0.29543 0.338037  2.19465 255 255 255
  0.45789 -0.232966   2.51753 255 255 255
 -0.78753 -0.083324   2.19416 255 255 255
-0.326833 -0.437121   2.41005 255 255 255
 0.495955 -0.391161   2.55432 255 255 255
-0.375286  0.217183   2.21114 255 255 255
-0.187998 -0.181234   2.31672 255 255 255
 0.431393 -0.397566   2.53457 255 255 255
-0.0955704  0.0144429    2.30437 255 255 255
-0.210456  0.138237   2.26176 255 255 255
-0.179697 -0.384794    2.4153 255 255 255
-0.140163 -0.497859   2.45448 255 255 255
  0.456299 -0.0131547     2.4764 255 255 255
 0.196328 -0.301142   2.47195 255 255 255
-0.268538 -0.285868   2.32984 255 255 255
-0.703677  0.113595   2.16939 255 255 255
-0.764047  0.331137   2.08104 255 255 255
-0.116601 -0.480025   2.44947 255 255 255
-0.0468799  -0.414306    2.45484 255 255 255
-0.515763  0.140334   2.20033 255 255 255
-0.121078  -0.18905   2.36271 255 255 255
-0.241077  0.131524   2.26186 255 255 255
 -0.38482 -0.109526    2.3071 255 255 255
-0.197639 -0.103343   2.31707 255 255 255
-0.401187  0.210662   2.20595 255 255 255
0.0557153  0.233348   2.29457 255 255 255
-0.632197  0.465342   2.09308 255 255 255
0.00320243  -0.154044     2.3714 255 255 255
 0.259597 -0.534734   2.55721 255 255 255
 0.731614 0.0195374   2.50519 255 255 255
-0.403254  0.181934   2.20469 255 255 255
 -0.05542 -0.445138   2.46751 255 255 255
 0.493002 0.0428884   2.44798 255 255 255
-0.300469 -0.498889   2.42205 255 255 255
 -0.61208 0.0110218   2.21642 255 255 255
0.000195523   -0.305957     2.36754 255 255 255
 0.429489 -0.447732   2.56653 255 255 255
 0.319987 -0.221599   2.46096 255 255 255
-0.0435972  -0.211745     2.3904 255 255 255
0.0672033  0.411931   2.24133 255 255 255
 0.252535 -0.283991   2.48997 255 255 255
-0.0901184   0.105462    2.29765 255 255 255
  0.615196 -0.0537407    2.51767 255 255 255
-0.240526  -0.53924   2.45316 255 255 255
0.170327 0.165401  2.34302 255 255 255
-0.102796  0.146109   2.26434 255 255 255
-0.756549  0.309175   2.08745 255 255 255
 0.435646 -0.427625   2.55352 255 255 255
-0.789934 -0.132552   2.22104 255 255 255
0.00820488   0.371244    2.22382 255 255 255
-0.185522  0.225447   2.24149 255 255 255
-0.537855  0.026234   2.21008 255 255 255
-0.44974 0.321269  2.12035 255 255 255
-0.114049  0.259155   2.25619 255 255 255
-0.284032   -0.3778   2.36127 255 255 255
 -0.147318 -0.0325717    2.32186 255 255 255
-0.789801 -0.221395   2.24068 255 255 255
 0.338865 0.0917386   2.41701 255 255 255
-0.197985  0.409907   2.18597 255 255 255
-0.113212 -0.164314   2.35687 255 255 255
-0.550067 -0.300091   2.32731 255 255 255
-0.839156 -0.177317   2.21763 255 255 255
-0.443743  0.222092   2.19901 255 255 255
-0.167789  0.106784   2.26193 255 255 255
-0.636444 0.0655868   2.19798 255 255 255
-0.658869  0.436805   2.09861 255 255 255
-0.0585043  -0.214234    2.34743 255 255 255
-0.761345  0.123561   2.11714 255 255 255
-0.523454   0.43351   2.12535 255 255 255
-0.761055  0.145582   2.11733 255 255 255
-0.449451 -0.235031   2.31384 255 255 255
-0.272224  0.412014   2.18678 255 255 255
-0.745879   0.32875    2.0807 255 255 255
 -0.28445 -0.461936   2.41229 255 255 255
 0.676685 0.0592457    2.4978 255 255 255
 0.434294 0.0219046   2.42775 255 255 255
-0.478131 -0.183077   2.30355 255 255 255
-0.515494 -0.194804   2.29118 255 255 255
0.0402818 -0.510947   2.50407 255 255 255
0.375159 0.309604   2.3232 255 255 255
 0.399412 -0.521951   2.58418 255 255 255
-0.243326 0.0334253   2.28375 255 255 255
-0.617461   0.29054   2.10709 255 255 255
  0.18094 -0.118158   2.43614 255 255 255
-0.0841258   0.342253     2.2316 255 255 255
-0.56128 0.240152  2.16758 255 255 255
 0.362644 -0.476655   2.56729 255 255 255
0.0980392  0.459191   2.25216 255 255 255
  0.31702 -0.511887    2.5647 255 255 255
 0.301909 -0.315485   2.51664 255 255 255
-0.756281  0.231734   2.09372 255 255 255
-0.304412  0.360215   2.16434 255 255 255
0.172006 0.381778  2.26316 255 255 255
  0.195274 -0.0623369     2.4183 255 255 255
-0.0573318  -0.498818    2.47618 255 255 255
 0.194116 -0.154508    2.4331 255 255 255
0.200889 -0.15369  2.41923 255 255 255
 0.363589 -0.304623   2.49406 255 255 255
-0.0788614  -0.444858    2.45481 255 255 255
0.0427599  -0.16851   2.35334 255 255 255
  -0.695777 0.000850232     2.16406 255 255 255
-0.310074  0.215137   2.23223 255 255 255
-0.295188  0.416521   2.17069 255 255 255
0.369199 0.264687  2.34295 255 255 255
-0.740175  -0.29571   2.27263 255 255 255
0.433981 0.219695   2.3925 255 255 255
-0.523807 -0.326478   2.32966 255 255 255
-0.0990648  -0.224986    2.33327 255 255 255
-0.101448 -0.112248    2.3377 255 255 255
-0.559037  0.449806   2.10818 255 255 255
-0.441378  0.309612   2.13191 255 255 255
0.394207 0.160649  2.39881 255 255 255
  0.058777 -0.0377599    2.34707 255 255 255
 0.228132 -0.536514   2.55244 255 255 255
  0.241177 0.00926967    2.40771 255 255 255
0.374362 -0.16219  2.47342 255 255 255
-0.672338 -0.106755   2.23518 255 255 255
 0.681304 0.0248534   2.50473 255 255 255
-0.475498 -0.222967   2.32169 255 255 255
0.124973 0.312515  2.29852 255 255 255
 0.189103 -0.506731   2.52017 255 255 255
-0.413038  0.382891   2.15194 255 255 255
 0.104135 -0.222467   2.43814 255 255 255
-0.652734  0.381765   2.07433 255 255 255
0.0325471 -0.372959   2.45536 255 255 255
-0.737365 -0.170625   2.27629 255 255 255
  0.520398 -0.0602174    2.49571 255 255 255
-0.286494 -0.522661   2.43511 255 255 255
-0.18313 0.367092  2.19932 255 255 255
0.00164787 -0.0183652    2.32629 255 255 255
 0.0068476 -0.0205365    2.31398 255 255 255
0.0121393   0.39685   2.21315 255 255 255
 -0.645078 -0.0494574    2.19818 255 255 255
 0.502829 -0.364062   2.53705 255 255 255
  0.361721 -0.0969119    2.47242 255 255 255
0.382669 0.100664  2.41523 255 255 255
-0.136951  0.335846   2.19229 255 255 255
-0.438282  0.354417   2.13526 255 255 255
 0.518473 -0.124134   2.50744 255 255 255
-0.544288 -0.111087   2.26183 255 255 255
-0.532195 -0.223257   2.29302 255 255 255
-0.810847  0.232905   2.09866 255 255 255
-0.028395 -0.192601   2.39527 255 255 255
0.0711969 -0.515677   2.51228 255 255 255
0.643198 -0.15257  2.57129 255 255 255
-0.464551 -0.465159   2.37514 255 255 255
-0.529575  0.448976   2.11396 255 255 255
-0.794393 -0.180779   2.22776 255 255 255
-0.45107 0.179758  2.17629 255 255 255
0.283399 0.316622  2.33155 255 255 255
0.312623 -0.19879  2.46923 255 255 255
-0.0931589  -0.469097    2.45527 255 255 255
 0.744327 0.0542962   2.50863 255 255 255
-0.107825  0.229677   2.25752 255 255 255
-0.499465 -0.413791   2.35985 255 255 255
-0.107741   0.10069   2.29181 255 255 255
 0.423907 -0.482632   2.56999 255 255 255
 0.188462 0.0878165   2.35283 255 255 255
-0.239602 -0.188583   2.31583 255 255 255
 0.577726 -0.330292   2.56653 255 255 255
 0.0972397 -0.0275981    2.35085 255 255 255
-0.129923 -0.464698   2.44948 255 255 255
 0.447587 -0.304576   2.51499 255 255 255
 0.269006 -0.319196   2.45788 255 255 255
 0.565621 -0.289042   2.56171 255 255 255
0.584376 0.182666  2.41769 255 255 255
 0.284286 0.0334754    2.4151 255 255 255
-0.513032 -0.052679   2.23322 255 255 255
0.0439461  0.383121   2.12611 255 255 255
-0.147786  0.213664   2.23892 255 255 255
0.483316 0.226209  2.39623 255 255 255
0.535536 -0.39443  2.54715 255 255 255
0.00311525  0.0315833    2.33965 255 255 255
-0.602853  0.258421   2.13862 255 255 255
-0.241785  0.124614   2.26343 255 255 255
0.368186 0.103875  2.41201 255 255 255
-0.579047  0.451831   2.10342 255 255 255
0.0996035 -0.252044   2.43811 255 255 255
 0.0766788 -0.0489067    2.34526 255 255 255
-0.386223 -0.504796   2.40527 255 255 255
 0.523423 -0.406179   2.56302 255 255 255
-0.269113 0.0279097   2.26249 255 255 255
 0.108406 -0.137119   2.39304 255 255 255
 0.324724 0.0881969    2.4042 255 255 255
-0.073194 -0.203272   2.34258 255 255 255
 -0.116082 -0.0406625    2.33398 255 255 255
-0.134798 -0.436533   2.44586 255 255 255
-0.338042 -0.456378   2.40086 255 255 255
-0.713865 -0.275834    2.2947 255 255 255
 0.433275 -0.556599   2.60073 255 255 255
  0.210922 -0.0503657    2.41542 255 255 255
-0.143799 -0.185361   2.31982 255 255 255
 0.325372 0.0594834   2.41614 255 255 255
-0.627107  0.274862   2.11085 255 255 255
0.324154 0.010182  2.42672 255 255 255
-0.577063 0.0172379   2.20928 255 255 255
-0.887396 -0.104612   2.18499 255 255 255
-0.316014 -0.380091    2.3911 255 255 255
 -0.68912 0.0352245   2.16426 255 255 255
-0.548722 -0.338965      2.32 255 255 255
0.343596 0.290492  2.32037 255 255 255
 0.086944 -0.437012   2.48792 255 255 255
-0.088965 0.0637348   2.29868 255 255 255
 0.428221 -0.515687   2.58675 255 255 255
0.0600754 0.0785582   2.34259 255 255 255
-0.717993  0.162412   2.12174 255 255 255
 0.312828 -0.560947   2.57418 255 255 255
  -0.2165 -0.153282   2.31517 255 255 255
-0.396908 -0.293656   2.34585 255 255 255
 -0.367273 -0.0490126     2.2827 255 255 255
0.274675 0.294671  2.33691 255 255 255
-0.307496 -0.550127   2.44383 255 255 255
 0.0578955 0.00229037    2.33415 255 255 255
 0.0529286 0.00276133    2.34346 255 255 255
0.496581  0.11732  2.43611 255 255 255
-0.318739  0.229479   2.22007 255 255 255
  0.423135 -0.0778852    2.46701 255 255 255
-0.0596857  -0.482812    2.46851 255 255 255
 -0.469999 -0.0992367    2.25706 255 255 255
  0.29558 0.0430308   2.41229 255 255 255
-0.103793  0.244219   2.26698 255 255 255
-0.865293 -0.163923   2.20964 255 255 255
 0.526939 -0.183564   2.52416 255 255 255
 0.269668 -0.428182   2.53126 255 255 255
0.290369 -0.44909  2.54282 255 255 255
0.420036 0.220617  2.39346 255 255 255
-0.399447 -0.124483   2.29614 255 255 255
 0.370754 -0.104673   2.47631 255 255 255
 0.31117 -0.44811  2.54535 255 255 255
 -0.323545 -0.0910743     2.2732 255 255 255
 0.296809 0.0179944   2.41687 255 255 255
  0.42738 -0.583817   2.60655 255 255 255
-0.0104284  -0.522035    2.49853 255 255 255
 0.34087 0.116282  2.39604 255 255 255
 0.331733 -0.337758   2.52075 255 255 255
-0.738731  0.356524   2.04849 255 255 255
-0.0817692   0.357064    2.21949 255 255 255
0.0877589  0.256243   2.27645 255 255 255
-0.624181 0.0645337   2.19699 255 255 255
 0.40247 -0.57877  2.59542 255 255 255
 0.310601 0.0650078   2.40541 255 255 255
-0.620611 -0.331725   2.29828 255 255 255
-0.134397 -0.449186   2.44532 255 255 255
 0.350643 -0.338901   2.49131 255 255 255
-0.148187  0.227479   2.24231 255 255 255
 0.523773 -0.380832   2.53266 255 255 255
-0.180603  0.276724   2.23209 255 255 255
0.136753 0.142747  2.34678 255 255 255
 0.707868 0.0074496   2.49957 255 255 255
 -0.188435 -0.0823392    2.31791 255 255 255
 0.405879 -0.444394   2.56494 255 255 255
-0.141588 -0.173628   2.35774 255 255 255
-0.248749 -0.282543   2.35446 255 255 255
-0.439484 -0.132952   2.30027 255 255 255
   0.67002 -0.0314871    2.51575 255 255 255
 0.321201 -0.455847   2.55038 255 255 255
-0.415362 -0.396604   2.37519 255 255 255
 0.442121 -0.461487   2.56458 255 255 255
-0.135066 -0.278074   2.34341 255 255 255
    0.25252 -0.00475031     2.41176 255 255 255
  0.675419 -0.0491106    2.52419 255 255 255
 0.194764 -0.558771   2.54523 255 255 255
-0.150545 0.0526762   2.26685 255 255 255
-0.159151 0.0169236    2.2672 255 255 255
-0.313293 -0.461123   2.41175 255 255 255
-0.661862 0.0456691   2.19547 255 255 255
-0.0177618   0.349959    2.25627 255 255 255
0.339149 0.264976  2.32084 255 255 255
 -0.32652 -0.391207    2.3513 255 255 255
 0.268953 -0.100113   2.40811 255 255 255
-0.700535  0.178568   2.13433 255 255 255
0.230945 0.166548  2.32438 255 255 255
-0.755505  0.291976   2.09507 255 255 255
-0.577092  0.435397   2.09378 255 255 255
-0.745754  0.299012   2.09747 255 255 255
-0.0747844  0.0267576    2.32222 255 255 255
-0.217007  0.106585   2.25818 255 255 255
 -0.813727 -0.0446036    2.18365 255 255 255
-0.739699  0.293219    2.1071 255 255 255
 0.499809 -0.320937   2.55092 255 255 255
 0.363623 -0.118069   2.47151 255 255 255
 0.439454 -0.208592   2.51872 255 255 255
  0.420244 -0.0402865    2.47203 255 255 255
 -0.856386 -0.0552799    2.17813 255 255 255
 0.253089 -0.457945   2.53887 255 255 255
 0.672452 0.0302733   2.50095 255 255 255
 0.340269 -0.463806   2.55601 255 255 255
 0.276255 0.0405087   2.40568 255 255 255
  -0.66895 -0.0409378    2.20148 255 255 255
-0.581239  0.412008   2.09083 255 255 255
 0.122648 -0.557432   2.52522 255 255 255
0.385936 0.168494   2.3975 255 255 255
-0.876606 -0.111684   2.18837 255 255 255
0.0514442 0.0946681   2.33465 255 255 255
  0.306522 -0.0145662    2.42077 255 255 255
-0.580813  0.635568   2.03632 255 255 255
-0.845993  0.171057   2.10009 255 255 255
-0.533713 0.0347912   2.21222 255 255 255
  0.13714 -0.402077   2.49215 255 255 255
  0.304323 -0.0154136    2.42325 255 255 255
 -0.775674 -0.0664789    2.19608 255 255 255
0.0082645  0.491653   2.22567 255 255 255
 -0.803151 -0.0469236    2.18441 255 255 255
-0.306649  0.478185   2.13619 255 255 255
0.466323 0.246176  2.39637 255 255 255
-0.195368 -0.540224   2.46059 255 255 255
  0.500749 -0.0909604    2.49694 255 255 255
-0.651332 -0.156554   2.24518 255 255 255
 0.259971 -0.396647   2.52353 255 255 255
-0.0121212  -0.281684    2.40186 255 255 255
-0.279602 -0.437412    2.4124 255 255 255
-0.0333287   0.284713    2.25645 255 255 255
-0.508795  0.227832   2.18257 255 255 255
  0.36443 -0.117312   2.46914 255 255 255
  0.425005 -0.0858537    2.46227 255 255 255
 0.329973 -0.150462   2.46845 255 255 255
  -0.76465 -0.0272469     2.1849 255 255 255
-0.467664 -0.442748   2.35052 255 255 255
-0.583972 0.0362338   2.19961 255 255 255
-0.596015  0.650868   2.02737 255 255 255
  0.261222 -0.0823812    2.41299 255 255 255
-0.7543 0.10055 2.13962 255 255 255
 -0.871947 -0.0898906    2.18702 255 255 255
 0.271356 0.0487371   2.40238 255 255 255
-0.625364  0.297057   2.10824 255 255 255
 0.148758 -0.183751    2.4131 255 255 255
  0.430667 -0.0672359    2.46169 255 255 255
  0.254249 -0.0150389    2.42165 255 255 255
-0.591174  0.370153   2.11684 255 255 255
 0.402823 -0.482083    2.5752 255 255 255
-0.199305 -0.311765   2.38197 255 255 255
-0.155913 -0.504252   2.45829 255 255 255
 0.253292 0.0283526   2.40659 255 255 255
-0.698806  0.392952   2.05945 255 255 255
-0.872855 -0.237127    2.2257 255 255 255
-0.647874 -0.182387   2.28284 255 255 255
-0.113931 -0.391879   2.43525 255 255 255
-0.125567  0.258635    2.2455 255 255 255
 0.615992 -0.196037   2.50992 255 255 255
0.203028 0.281404  2.29479 255 255 255
 0.691382 0.0644193   2.49441 255 255 255
0.406065 -0.18366  2.49436 255 255 255
  0.395746 -0.0396235    2.46599 255 255 255
0.281827 -0.24404  2.48587 255 255 255
0.124072  0.32432   2.2949 255 255 255
-0.540972   0.41114   2.12808 255 255 255
-0.00191274  0.00945318     2.31369 255 255 255
  -0.6504 0.0554512   2.19311 255 255 255
 0.183753 -0.490129   2.51964 255 255 255
 -0.36471 -0.497936   2.41119 255 255 255
 0.478654 -0.200439   2.52336 255 255 255
 0.415549 -0.434805   2.55727 255 255 255
 0.332312 -0.457625   2.55252 255 255 255
-0.662852  0.420399   2.08803 255 255 255
-0.131154  0.438239   2.21112 255 255 255
-0.427008  0.325567   2.13803 255 255 255
0.161317 0.362717  2.29309 255 255 255
-0.0859152  -0.106299    2.35454 255 255 255
 -0.857593 -0.0128505    2.16066 255 255 255
 0.602517 -0.260406   2.56119 255 255 255
-0.282447  0.132826    2.2493 255 255 255
 0.261239 -0.298904   2.49821 255 255 255
 0.150138 0.0927525   2.34412 255 255 255
-0.509182 -0.241076   2.31458 255 255 255
  0.33628 -0.403537   2.54537 255 255 255
-0.33863 0.245799  2.21376 255 255 255
0.138491 0.168024  2.33978 255 255 255
 0.475844 -0.192368   2.52397 255 255 255
-0.250238 -0.186958    2.3045 255 255 255
-0.789545 -0.286243   2.26119 255 255 255
-0.382714   0.21802   2.20427 255 255 255
 0.155066 -0.259722   2.44995 255 255 255
-0.0661062  0.0382948    2.31868 255 255 255
-0.348968  -0.38235   2.35457 255 255 255
 -0.116757 -0.0863962    2.32597 255 255 255
-0.640439 -0.167039   2.25701 255 255 255
-0.597375 -0.413206   2.33996 255 255 255
-0.892441 -0.202443    2.2102 255 255 255
-0.242407 -0.532544   2.44648 255 255 255
-0.501243  -0.37962   2.34154 255 255 255
-0.782034 0.0963191   2.12155 255 255 255
-0.360362 -0.292962   2.34948 255 255 255
-0.571549  0.389874   2.13004 255 255 255
  0.237055 -0.0259417    2.40868 255 255 255
-0.631089 -0.165031   2.26124 255 255 255
0.362105 -0.22719  2.48817 255 255 255
-0.492704  0.373858   2.14138 255 255 255
 -0.63232 -0.056289   2.20521 255 255 255
 0.579777 -0.121345   2.50445 255 255 255
-0.699166 -0.332326   2.29895 255 255 255
  0.44316 -0.375186   2.53372 255 255 255
 0.0534362 -0.0251594     2.3418 255 255 255
-0.256985  0.150717   2.25539 255 255 255
-0.841151 -0.107527   2.19816 255 255 255
-0.369144 -0.509874   2.41259 255 255 255
-0.641848  0.321943   2.10998 255 255 255
  0.29835 -0.434446   2.54182 255 255 255
 0.225709 -0.450309   2.52078 255 255 255
-0.753025  0.152669   2.11874 255 255 255
0.0500524  0.391275   2.12609 255 255 255
-0.358418   0.37788   2.13965 255 255 255
0.400249 -0.25932  2.50832 255 255 255
0.109755 0.311525  2.29675 255 255 255
 0.450443 -0.235532   2.50882 255 255 255
-0.483684  0.180112   2.17111 255 255 255
