ply
format ascii 1.0
element vertex 1157
property float x
property float y
property float z
property uchar red
property uchar green
property uchar blue
end_header
0.441482  2.55017  1.16782 255 255 255
0.476854  2.54716   1.1712 255 255 255
0.219573  2.53327  1.17539 255 255 255
-0.50675  2.34227  1.21961 255 255 255
0.519609  2.37037  1.28131 255 255 255
0.368695  2.63759  1.11515 255 255 255
0.532691  2.47839  1.22879 255 255 255
0.567471  2.55861  1.16851 255 255 255
0.435042  2.52099  1.19051 255 255 255
0.00727815    2.20928    1.31651 255 255 255
0.334938  2.34138   1.2786 255 255 255
0.560622  2.65242  1.12374 255 255 255
0.369362  2.20799  1.33146 255 255 255
0.375317  2.53499  1.18033 255 255 255
0.147934  2.30322  1.27702 255 255 255
0.41012 2.52631 1.18209 255 255 255
0.435516  2.65505  1.11785 255 255 255
-0.336276   2.62196   1.03517 255 255 255
-0.0370769    2.15996    1.16393 255 255 255
0.442816  2.58837  1.14664 255 255 255
0.237381   2.5579  1.15493 255 255 255
0.247374  2.55297  1.15197 255 255 255
0.16737 2.36529 1.25057 255 255 255
0.207011  2.35295  1.25263 255 255 255
0.340046  2.44529  1.17852 255 255 255
-0.736223   2.00762   1.33178 255 255 255
0.46042 2.33177  1.2848 255 255 255
0.261803  2.64419  1.11954 255 255 255
0.455628  2.27024  1.31402 255 255 255
0.408722  1.96116  1.44564 255 255 255
0.417389  2.53495  1.18501 255 255 255
0.392689  2.59609  1.15261 255 255 255
-0.669424   2.35115   1.08741 255 255 255
-0.517472   2.32488    1.2241 255 255 255
0.315305  2.50026  1.19508 255 255 255
0.453808  2.34943  1.27286 255 255 255
0.409561  2.26399  1.29445 255 255 255
-0.873718   1.79502   1.47461 255 255 255
-0.871848   1.84971   1.45933 255 255 255
-0.630692    1.8648   1.28945 255 255 255
0.457733  2.30562  1.29598 255 255 255
0.44459 2.39319 1.25549 255 255 255
0.438342  2.58913  1.14746 255 255 255
0.474817  2.31915  1.32698 255 255 255
0.429836   2.5106  1.19552 255 255 255
0.163054  2.28064  1.28624 255 255 255
0.0779529   2.57281   1.08407 255 255 255
0.448483    2.323  1.27798 255 255 255
-0.940462   2.08014   1.21224 255 255 255
0.456156  2.28924  1.30474 255 255 255
-0.889862   1.72989   1.51062 255 255 255
0.287968  2.15473  1.33945 255 255 255
0.14706 2.31786 1.27086 255 255 255
0.248206  2.51596  1.15086 255 255 255
0.041893  2.55655  1.08501 255 255 255
-0.875914   1.73349     1.509 255 255 255
-0.842284   1.92698   1.41877 255 255 255
-0.888357   1.79916   1.47622 255 255 255
0.320727  2.48424  1.19961 255 255 255
-0.85639   1.8787  1.44444 255 255 255
-0.205621   2.08399   1.36127 255 255 255
0.372623  2.60046  1.14118 255 255 255
0.350282  2.43588  1.17152 255 255 255
-0.888353   1.80952    1.4712 255 255 255
0.297154  2.45245  1.20941 255 255 255
0.383204  2.59848  1.14247 255 255 255
-0.858911   2.05256   1.36505 255 255 255
0.386583   2.5193  1.18052 255 255 255
0.468984   2.4432  1.21884 255 255 255
-0.299093    1.1477   1.79951 255 255 255
-0.251723   1.32889   1.63098 255 255 255
-1.18629  1.07813  1.79878 255 255 255
-1.0156 1.14838 1.84384 255 255 255
-0.650613   1.33068   1.70606 255 255 255
-0.230243   1.40052   1.58991 255 255 255
-0.719616   1.74046    1.4845 255 255 255
-0.685233    1.6908   1.50754 255 255 255
-0.984033   1.23572   1.76244 255 255 255
-0.518965   1.04486   1.85893 255 255 255
-0.456458   1.74938   1.47236 255 255 255
-0.121812   1.53181   1.60911 255 255 255
-0.354778  0.996393   1.88973 255 255 255
-1.0372  1.6187 1.51843 255 255 255
-0.226133   1.35366   1.70002 255 255 255
-0.614952   1.69621   1.50895 255 255 255
-0.0734568    1.25946    1.76263 255 255 255
-0.839627   1.97827   1.21696 255 255 255
-0.662794   1.57479   1.56372 255 255 255
-0.907089   1.23565   1.78388 255 255 255
-1.01992  1.10662  1.83705 255 255 255
-0.603653   1.78224   1.30085 255 255 255
-1.15875   1.2914  1.74076 255 255 255
0.345216  1.80231  1.42597 255 255 255
-1.33988  1.27837  1.75288 255 255 255
-0.759587   1.65459   1.52349 255 255 255
-0.64714  1.70127   1.4888 255 255 255
-0.0572983    1.29441    1.72747 255 255 255
-0.633299   1.58898   1.56267 255 255 255
-1.40601  1.69784  1.49764 255 255 255
-0.508115   1.01538   1.86996 255 255 255
-1.02085  1.59946  1.55611 255 255 255
-0.0256025    1.59932    1.59472 255 255 255
-0.955219   1.21902   1.77985 255 255 255
-0.600098   1.01482   1.86561 255 255 255
-0.195515   1.40641   1.63648 255 255 255
-1.35022  2.52935  1.13985 255 255 255
-0.0999378    1.09351    1.86261 255 255 255
-0.43617  2.27081  1.17948 255 255 255
-0.320454   1.10914   1.84084 255 255 255
-0.0688357    1.71057    1.38386 255 255 255
-0.357276   1.14586   1.79352 255 255 255
-0.499071   1.10549   1.82712 255 255 255
-1.09596  1.84331  1.44016 255 255 255
-0.851723   1.98337   1.21748 255 255 255
-1.37493  1.60493  1.53561 255 255 255
-0.0558275    1.18581    1.81443 255 255 255
-0.067751   1.27903   1.73766 255 255 255
-0.472704   1.08559   1.83764 255 255 255
-1.01271  1.16693   1.8129 255 255 255
-0.0451094    1.56959    1.59859 255 255 255
-0.715781    2.0268   1.32936 255 255 255
0.370038   2.1405  1.20665 255 255 255
-0.611514  0.980919   1.88748 255 255 255
0.410994  1.75849  1.47756 255 255 255
-0.554957   1.66434   1.51106 255 255 255
-0.0984123    1.18273    1.80867 255 255 255
-1.03246  1.07209  1.86615 255 255 255
-0.615395  0.996317   1.86907 255 255 255
-0.370385   1.30374   1.59064 255 255 255
-0.182305   1.25967   1.77444 255 255 255
-0.571618   1.00866    1.8723 255 255 255
-0.878647   2.02513   1.19233 255 255 255
-1.40553  2.49792  1.16307 255 255 255
-1.0745 1.53551  1.5567 255 255 255
-1.01935  1.07406  1.86547 255 255 255
0.372803   2.1873  1.30126 255 255 255
-0.434067   1.05535    1.8602 255 255 255
-0.976036   1.19185   1.79346 255 255 255
0.00384789     1.4665    1.65809 255 255 255
-0.467782   1.07214    1.8458 255 255 255
-0.583245   1.71527   1.49603 255 255 255
-0.288857   1.80008   1.42653 255 255 255
-0.631638  0.997195   1.86934 255 255 255
-0.490056   1.03558   1.86614 255 255 255
-0.90325  1.16507  1.80767 255 255 255
-0.518861   1.00882    1.8781 255 255 255
-0.145727   1.46029   1.59968 255 255 255
-1.40215  2.51689  1.14002 255 255 255
-1.27537  1.27366  1.73054 255 255 255
-1.3325 1.23519 1.76284 255 255 255
-1.09327  1.53432   1.5487 255 255 255
0.317785   2.2072  1.21737 255 255 255
-0.0568731    1.51791    1.53636 255 255 255
-0.988842   1.23523   1.76842 255 255 255
-0.924255   1.09573   1.86263 255 255 255
0.0150288   1.44864   1.67494 255 255 255
-0.459011    1.0919   1.83644 255 255 255
-0.348801      2.31   1.17061 255 255 255
-1.02862  1.05414  1.88196 255 255 255
-0.601272  0.992889   1.86702 255 255 255
-0.561974   1.70766    1.4867 255 255 255
-1.0499 1.08186 1.85809 255 255 255
-1.02316  1.97256  1.21226 255 255 255
0.333261  2.12293  1.25691 255 255 255
-0.646218   1.69744    1.5024 255 255 255
-0.447458   1.72436   1.49737 255 255 255
-0.187889   1.40058   1.66146 255 255 255
-1.00524   1.0468  1.88364 255 255 255
-0.584381  0.999333   1.86802 255 255 255
-0.662531   1.71433   1.49684 255 255 255
-0.488017   0.97779   1.90305 255 255 255
-0.77633  1.97493  1.35456 255 255 255
-0.438229   1.11111   1.80898 255 255 255
-0.154772   1.40313   1.53853 255 255 255
-0.251874   1.33038   1.71338 255 255 255
-1.38227   1.6216   1.5263 255 255 255
0.375943  1.81318  1.43259 255 255 255
-1.51031   1.7289  1.49975 255 255 255
-0.303046  0.971586   1.91197 255 255 255
-0.538573   1.69507   1.50938 255 255 255
-0.620739  0.973226   1.89567 255 255 255
0.32723 2.16369 1.23762 255 255 255
-0.308946   1.85559   1.39633 255 255 255
-0.587847  0.995854    1.8837 255 255 255
-0.284839    2.1238   1.22084 255 255 255
-1.41092  1.31442  1.72511 255 255 255
-0.0578412    1.55461    1.49913 255 255 255
-0.795762   1.66522    1.5122 255 255 255
-0.500849   1.12545   1.81449 255 255 255
-0.782857   1.30005   1.72946 255 255 255
-0.586809   1.68716   1.49994 255 255 255
-0.30149  1.81961  1.42567 255 255 255
0.395935  2.01285  1.25623 255 255 255
-1.42366   1.3331  1.72518 255 255 255
-0.804409   1.07762   1.84381 255 255 255
0.249844  1.75368  1.45323 255 255 255
-0.0229851    1.31308    1.72888 255 255 255
-1.43092  2.58328  1.09869 255 255 255
-0.780449   2.12616   1.14798 255 255 255
0.389188  1.85755  1.40167 255 255 255
-1.21146  1.16053  1.78395 255 255 255
-1.19384  1.05926  1.88199 255 255 255
-1.21242  1.16855  1.77728 255 255 255
-1.06808  1.53422  1.54337 255 255 255
-0.752235   1.76919   1.47044 255 255 255
-1.38773  1.46505  1.64574 255 255 255
-0.482941   1.08794   1.83696 255 255 255
0.398048  1.85786  1.37637 255 255 255
-0.819986   1.83667    1.4265 255 255 255
0.512378  2.05173  1.29808 255 255 255
-0.120649   1.42063   1.68903 255 255 255
-0.330233   1.80392   1.41447 255 255 255
0.397053  2.08189  1.22886 255 255 255
-0.0305278    1.22478    1.79409 255 255 255
-1.05528  1.66231  1.51026 255 255 255
-0.441797   1.73059   1.47323 255 255 255
-1.05168  1.55506  1.55023 255 255 255
-0.786479   1.83574   1.42765 255 255 255
-0.272165   1.91726   1.39175 255 255 255
0.232578  1.75253  1.45211 255 255 255
-1.37267  1.14575  1.85138 255 255 255
0.013609  1.47134   1.6568 255 255 255
-0.000124147      1.33314      1.73044 255 255 255
-1.29542  1.18038  1.78535 255 255 255
0.359929  1.97539  1.34165 255 255 255
-0.815371   1.08766   1.84056 255 255 255
0.396702  1.85239  1.39569 255 255 255
0.268508  1.93688  1.31413 255 255 255
-0.460223   1.71915   1.47974 255 255 255
-0.517284   1.01111   1.86832 255 255 255
-1.1421 1.29968 1.74835 255 255 255
-0.803016   1.81237   1.43161 255 255 255
0.412562  2.23575  1.20342 255 255 255
0.307877   2.2281  1.21093 255 255 255
-0.538908   1.77847   1.28408 255 255 255
-0.504121    1.7382   1.46605 255 255 255
0.373273  1.93421  1.35713 255 255 255
0.242468  1.74205  1.45851 255 255 255
-0.72848   1.6619  1.51628 255 255 255
-0.56391  1.01654  1.85954 255 255 255
-0.994141    1.5705   1.56728 255 255 255
-0.308471   1.26082   1.69036 255 255 255
-0.494863   1.11472   1.81922 255 255 255
0.367839  1.94784  1.35738 255 255 255
-0.596681   1.69874   1.49637 255 255 255
-0.140436   1.12083   1.83653 255 255 255
0.0119739   1.46004   1.66273 255 255 255
-0.812594   1.81424   1.43143 255 255 255
-0.823875   1.08693   1.44893 255 255 255
-0.415655   2.29943   1.15386 255 255 255
-0.972194   1.24421   1.76589 255 255 255
-0.88413  1.27769  1.74509 255 255 255
-0.822333   1.22436    1.7816 255 255 255
-0.294124  0.965997    1.9155 255 255 255
0.400528  1.87538  1.48789 255 255 255
-0.833371   1.53336   1.53237 255 255 255
-0.776099   1.84091   1.42675 255 255 255
-0.684795   1.69609   1.49615 255 255 255
-0.30315  1.28068  1.71357 255 255 255
-1.09847   1.9678  1.22232 255 255 255
-0.774334   1.85073   1.41332 255 255 255
-0.338603   2.26982   1.18627 255 255 255
-0.811318    2.0641   1.17913 255 255 255
-0.339028   2.16609   1.24196 255 255 255
-0.10105  1.15795  1.82298 255 255 255
0.521133  2.03654  1.28388 255 255 255
-0.795513   1.68235   1.50707 255 255 255
-0.491899     1.041   1.86207 255 255 255
0.406491  1.83161  1.43011 255 255 255
-0.4795 1.72428 1.48926 255 255 255
0.382442  1.83638  1.42365 255 255 255
-0.0795359     1.5895    1.44999 255 255 255
-0.163236   1.00741   1.90184 255 255 255
0.339395  2.11784  1.24693 255 255 255
0.51767 2.03794 1.30093 255 255 255
-0.424179   1.19552   1.77367 255 255 255
-0.301587     1.853   1.40173 255 255 255
0.368003  1.97278  1.34191 255 255 255
-0.10524  1.50274  1.62673 255 255 255
-0.339776   2.22435   1.20583 255 255 255
0.348625  2.26971  1.29435 255 255 255
-0.744679   2.00657   1.32562 255 255 255
-0.0925191    2.22846    1.21481 255 255 255
0.428207  1.83382  1.40922 255 255 255
-0.775823   1.90046   1.39247 255 255 255
0.418601   1.8138  1.44285 255 255 255
-0.212734   1.09559   1.84383 255 255 255
-0.117824   1.49423   1.63037 255 255 255
-0.224966   1.97047   1.33269 255 255 255
-0.308733   1.10154   1.84458 255 255 255
-1.05309  2.05191  1.18008 255 255 255
0.395949  1.85293  1.41479 255 255 255
-0.559831   1.73631   1.33343 255 255 255
-0.784135   1.90624   1.21299 255 255 255
0.339829  2.15708   1.2159 255 255 255
-0.916592   2.11207   1.15082 255 255 255
0.323633  2.18858  1.23603 255 255 255
-0.583131 -0.144702   2.38206 255 255 255
 0.127942 -0.366806   2.58029 255 255 255
-0.552635 -0.354733   2.44847 255 255 255
-0.462204 -0.249759   2.41061 255 255 255
-0.367875 -0.303479   2.44621 255 255 255
-0.600333 -0.289276   2.41729 255 255 255
-0.547527 -0.165311   2.38708 255 255 255
-0.720671 -0.200767   2.34459 255 255 255
-0.488752 -0.339349   2.45561 255 255 255
-0.412604 -0.353616   2.48262 255 255 255
-0.598065 -0.174797   2.38227 255 255 255
0.351938 -0.36338  2.62695 255 255 255
-0.471026 -0.243263   2.40482 255 255 255
-0.718104 -0.340771   2.42962 255 255 255
-0.445946 -0.426428   2.49923 255 255 255
-0.357776 -0.340606    2.4796 255 255 255
-0.454112  -0.35621   2.46838 255 255 255
-0.313471 -0.414157   2.53371 255 255 255
-0.609904 -0.274198   2.40668 255 255 255
-0.384328   -0.3623   2.49463 255 255 255
-0.497066  -0.30257   2.43907 255 255 255
-0.436562  -0.33371   2.46394 255 255 255
-0.504668 -0.336963   2.45239 255 255 255
-0.645581 -0.232237   2.37996 255 255 255
-0.536912  -0.16923   2.39304 255 255 255
-0.703634 -0.167662   2.35646 255 255 255
-0.528094 -0.135793   2.31978 255 255 255
-0.467762 -0.353193   2.47024 255 255 255
-0.450628  -0.40059   2.48632 255 255 255
-0.483648 -0.355733   2.46626 255 255 255
-0.782558 -0.341337   2.48546 255 255 255
-0.443356  -0.32525   2.45824 255 255 255
-0.460955 -0.348306   2.46625 255 255 255
-0.452935 -0.320677   2.45451 255 255 255
 -0.54003 -0.119343   2.37903 255 255 255
 -0.49479 -0.309565   2.44149 255 255 255
   -0.546 -0.152361   2.39105 255 255 255
0.277137 -0.33698  2.54374 255 255 255
-0.521636  -0.15635   2.39443 255 255 255
-0.668857 -0.283371   2.40013 255 255 255
-0.543013 -0.266604    2.4236 255 255 255
-0.932279   2.02323   1.24509 255 255 255
-0.865934   1.69353   1.47855 255 255 255
-1.41695  2.23965  1.24923 255 255 255
-1.0899 1.69542 1.48323 255 255 255
-1.3786 1.77013 1.51319 255 255 255
-1.02826  1.76693  1.47389 255 255 255
-0.811087   1.67674   1.49316 255 255 255
-0.526506   1.78568   1.31117 255 255 255
-0.877582   1.87048   1.37193 255 255 255
-0.715956   1.72433   1.47902 255 255 255
-0.332897   1.27792   1.74245 255 255 255
-1.27472  1.74414   1.5184 255 255 255
-1.09175  1.49535  1.59897 255 255 255
-0.446669   1.88834   1.27128 255 255 255
-0.684609    1.5433   1.57347 255 255 255
-0.693555  0.938336   1.29078 255 255 255
-0.756997   1.86752   1.38293 255 255 255
-1.01713  2.31316 0.979655 255 255 255
-0.691652    1.4187   1.65569 255 255 255
-0.899907   2.15503   1.13784 255 255 255
-1.06654   1.7991  1.44423 255 255 255
-0.613818   2.49557   1.01559 255 255 255
-1.00707  1.83178  1.29812 255 255 255
-0.94697  2.20645  1.10546 255 255 255
-1.04586   1.6116   1.5478 255 255 255
-1.06519  1.48491  1.61847 255 255 255
-0.785697   2.11233   1.02362 255 255 255
-1.3769 1.58834 1.52863 255 255 255
-0.74797  1.73069   1.4854 255 255 255
-0.577923   2.45994   1.06099 255 255 255
-0.833378    2.1213   1.02019 255 255 255
-0.862208   1.68543   1.51159 255 255 255
-1.29384  2.55535  1.11251 255 255 255
-0.637326   2.46673   1.02717 255 255 255
-1.00687  1.96685   1.2211 255 255 255
-0.897742   1.48859   1.61542 255 255 255
-0.851044   1.98142   1.21751 255 255 255
-1.34653  2.52031  1.13615 255 255 255
-0.547443   1.79386   1.28336 255 255 255
-1.53287  2.08347  1.42073 255 255 255
-0.584103   2.47913   1.02352 255 255 255
-1.04381   2.3821 0.975234 255 255 255
-1.22033  2.01033  1.36396 255 255 255
-0.366961   2.33697   1.16998 255 255 255
-1.43359  1.73635  1.48709 255 255 255
-0.747831     1.862   1.41484 255 255 255
-0.959369   1.84564   1.31831 255 255 255
-0.237735     1.277   1.73893 255 255 255
-1.2333 1.53994 1.61931 255 255 255
-1.03466  2.32074  1.00313 255 255 255
-1.50824  1.77138  1.48425 255 255 255
-0.750297   1.86361   1.39627 255 255 255
-1.05441  2.38957 0.955007 255 255 255
-1.02681   1.9834  1.21449 255 255 255
-0.956907   1.73744   1.47803 255 255 255
-1.40427  1.73973  1.50036 255 255 255
-0.17265  1.25305  1.78024 255 255 255
-0.506292   1.25485   1.72603 255 255 255
-1.41472  2.63532   1.0901 255 255 255
-1.23459  1.52412  1.61284 255 255 255
-0.856418   2.08535   1.06779 255 255 255
-0.765198   1.74268   1.48032 255 255 255
-0.849183   2.13617   1.12983 255 255 255
-0.738139   1.78435   1.43741 255 255 255
-0.778408   1.81657   1.42859 255 255 255
-1.38473  2.51569  1.14148 255 255 255
-0.244009   1.28783   1.72093 255 255 255
-1.53446  1.77168  1.52915 255 255 255
-0.822528   1.78329   1.44782 255 255 255
-1.36453  2.52556  1.13704 255 255 255
-0.891386   1.82284   1.41115 255 255 255
-1.0548 1.84187 1.27229 255 255 255
-0.875752    2.1086   1.03812 255 255 255
-0.713501   1.66003   1.51651 255 255 255
-0.45804  1.68302   1.5031 255 255 255
-0.746684   1.80351   1.43224 255 255 255
-0.993711   1.85252   1.29126 255 255 255
-0.800739   2.08394   1.05976 255 255 255
-0.628072   1.66466   1.51677 255 255 255
-1.62804  2.31647  1.31175 255 255 255
-0.836974   1.49259   1.59084 255 255 255
-0.740594   1.93557   1.37984 255 255 255
-0.468351   1.63999   1.55284 255 255 255
-0.683433   1.57949   1.55958 255 255 255
-0.610105   1.68378   1.48655 255 255 255
-1.53704  1.80836   1.4749 255 255 255
-1.52055  1.76337  1.53777 255 255 255
-0.819269   2.05966   1.07379 255 255 255
-0.619229   1.73867   1.32748 255 255 255
-1.58005  2.01025  1.42279 255 255 255
-1.48456  1.78052  1.49492 255 255 255
-0.522425   1.78852   1.28567 255 255 255
-0.688997   1.42892   1.63226 255 255 255
-1.52228  1.79522  1.47705 255 255 255
-0.193424   1.36591   1.70338 255 255 255
-0.525226   1.78354   1.31726 255 255 255
-0.837491   2.06964   1.07111 255 255 255
-1.5138 2.05905 1.43067 255 255 255
-0.82159   2.1259  1.03381 255 255 255
-0.787202   2.09961   1.00179 255 255 255
-1.42431  1.35237  1.74332 255 255 255
-0.492756   1.24599   1.74976 255 255 255
-0.343381   2.28694   1.17698 255 255 255
-1.46703  1.77277  1.51973 255 255 255
-0.281761    1.2423   1.73212 255 255 255
-1.03202  1.64551  1.52546 255 255 255
-0.552971   2.48782   1.02731 255 255 255
-1.53336  1.82628  1.46253 255 255 255
-1.00189  1.58833  1.55812 255 255 255
-1.1618 1.93972 1.40088 255 255 255
-0.496827   1.24804     1.729 255 255 255
-0.8714  1.4934 1.57113 255 255 255
-0.312542   1.85305    1.4124 255 255 255
-0.23193  1.33696  1.71464 255 255 255
-0.534179    2.5048   1.06829 255 255 255
-0.989318   1.55579   1.57933 255 255 255
-1.05327  1.85812  1.25402 255 255 255
-0.091072   2.25652   1.21105 255 255 255
-1.16098  1.97329  1.38832 255 255 255
-1.07957   1.8259  1.44195 255 255 255
-0.738498   1.84072   1.42383 255 255 255
-0.981185   1.25006   1.76412 255 255 255
-0.725916   2.11427   1.29184 255 255 255
-0.746046    2.0997   1.26684 255 255 255
-0.612193   1.76984    1.3115 255 255 255
-0.526168   2.13302   1.12935 255 255 255
-0.762652   1.87127   1.40763 255 255 255
-1.5612 1.84522 1.46494 255 255 255
-1.15816  1.95105  1.39346 255 255 255
-0.374865   1.63897   1.52816 255 255 255
-0.728341   2.13153   1.25705 255 255 255
-0.100909   1.90399   1.27099 255 255 255
-1.04556  2.43301 0.950174 255 255 255
-0.663889   1.28762   1.72035 255 255 255
-0.466238   2.16621   1.13368 255 255 255
-0.856836   1.81528    1.3313 255 255 255
-0.982737   1.72506     1.467 255 255 255
-1.01888   2.3981 0.970748 255 255 255
-0.807668    2.1368   1.14442 255 255 255
-0.846057   1.83207   1.35604 255 255 255
-0.762691   1.85453   1.41346 255 255 255
-0.547668    1.6198   1.53893 255 255 255
-0.601321   2.46114  0.983499 255 255 255
-1.08645  1.94454  1.23129 255 255 255
-1.19844  2.04017  1.35883 255 255 255
-0.610636   1.75232   1.32442 255 255 255
-0.902218   1.86345   1.37179 255 255 255
-0.964981   1.84579   1.30455 255 255 255
-0.868853   1.81079   1.43586 255 255 255
-0.873682   1.79829   1.43855 255 255 255
-1.02612  2.39479 0.978492 255 255 255
-0.965592   1.52061   1.59658 255 255 255
-0.723313   1.97178   1.35795 255 255 255
-0.702594   1.66357   1.51798 255 255 255
-0.773082   1.32322   1.71718 255 255 255
-0.930657   2.17938   1.12104 255 255 255
-0.333302    2.2616   1.19352 255 255 255
-0.598311   1.79928   1.41016 255 255 255
-0.598591   1.74165   1.33773 255 255 255
-1.51229  1.80501  1.47244 255 255 255
-0.581635   1.39697   1.65726 255 255 255
-0.735475   1.82498   1.42686 255 255 255
-0.820893   2.01954   1.20468 255 255 255
-1.13304  1.94431  1.38748 255 255 255
-0.46322  1.64743  1.51939 255 255 255
-0.719337   1.94564   1.37411 255 255 255
-0.584291   1.34521   1.69765 255 255 255
-0.807332   1.26758   1.75538 255 255 255
-0.776037    1.8405   1.41864 255 255 255
-0.871186   2.13935   1.02349 255 255 255
-1.12775  1.98456  1.38685 255 255 255
-0.742288   1.38055   1.68506 255 255 255
-0.651974   1.66572   1.51424 255 255 255
-1.18306  1.27906   1.7567 255 255 255
-0.880792   1.83946   1.41256 255 255 255
-0.753804   1.92728   1.37869 255 255 255
-0.879732   1.99905   1.20218 255 255 255
-0.748971   1.67136   1.51228 255 255 255
-1.41037  2.64671  1.07559 255 255 255
-0.640372   1.82229   1.28602 255 255 255
-0.431825    1.6184   1.54295 255 255 255
-0.76313  1.89687  1.39717 255 255 255
-0.76096  2.11299  1.04793 255 255 255
-0.97928  1.84353  1.30436 255 255 255
-0.847239   1.46157   1.62824 255 255 255
-1.25381  1.46516  1.66785 255 255 255
-1.3975 1.65215 1.52892 255 255 255
-0.88838  1.81632  1.41968 255 255 255
-0.744951   1.85639   1.41869 255 255 255
-0.617861   1.76432   1.31443 255 255 255
-0.620385   1.79956   1.29739 255 255 255
-1.54966  1.78242  1.49645 255 255 255
-1.4978 2.20465  1.3143 255 255 255
-0.801838   2.05389   1.08458 255 255 255
-1.04854  1.66328  1.52227 255 255 255
-1.2894 1.28628 1.73239 255 255 255
-0.770633   1.66345   1.51635 255 255 255
-1.52014   2.3691  1.37535 255 255 255
-1.54577  1.82619  1.46826 255 255 255
-1.54195  1.76824  1.53268 255 255 255
-0.857022   2.25353  0.976873 255 255 255
-0.874347   1.47693   1.55279 255 255 255
-1.35698  2.67402  1.04442 255 255 255
-0.87539  1.86087  1.37242 255 255 255
-1.0479 1.84267 1.26544 255 255 255
-0.762232   1.74363   1.47449 255 255 255
-1.51526  2.07826  1.41879 255 255 255
-0.692153   1.66935   1.50857 255 255 255
-1.53413   2.1933  1.36839 255 255 255
-0.772702   1.77747   1.45699 255 255 255
-0.73932   1.8846  1.40287 255 255 255
-1.38747  2.23635  1.29233 255 255 255
-1.09291  1.97649  1.21379 255 255 255
-0.760302   1.62815   1.53425 255 255 255
-0.593979   1.78387    1.3892 255 255 255
-0.752287   2.11964   1.04175 255 255 255
-0.737334   2.23587  0.985975 255 255 255
-1.18744  2.01001  1.38108 255 255 255
-1.03215  2.39513 0.970441 255 255 255
-0.64128  2.22319  1.09063 255 255 255
-1.37874  2.23735  1.28619 255 255 255
-0.710631 -0.190807   2.43777 255 255 255
-0.57612 -0.38753  2.50365 255 255 255
-0.627684 -0.364191   2.48482 255 255 255
-0.874231 -0.117923   2.31195 255 255 255
-0.831672 -0.251113   2.37947 255 255 255
-1.04493 0.334615  1.91844 255 255 255
-0.601744 -0.351568   2.49351 255 255 255
-0.844692 -0.162584    2.3402 255 255 255
 -0.840133 -0.0825013    2.32098 255 255 255
  -0.80953 -0.0929906    2.34996 255 255 255
-0.809995 -0.148387   2.36069 255 255 255
-0.822421 -0.044155    2.3277 255 255 255
 -0.60171 -0.369534   2.49236 255 255 255
-0.990057 0.0179026   2.17258 255 255 255
-0.544581 -0.455054   2.51247 255 255 255
-0.565959 -0.413036   2.50322 255 255 255
-0.730399  -0.17227   2.41782 255 255 255
-1.05891 0.351268  1.88207 255 255 255
-0.611256 -0.387993   2.48561 255 255 255
-0.717745 -0.262269   2.43394 255 255 255
-0.732282 -0.236585   2.42529 255 255 255
-0.815865 -0.256288   2.38922 255 255 255
  -0.74604 -0.0573456    2.31302 255 255 255
-0.901372 -0.151966    2.3095 255 255 255
-1.00612 0.244537  2.02583 255 255 255
 -0.83933 -0.110697   2.33092 255 255 255
-0.701114 -0.206705   2.44576 255 255 255
-0.506327  -0.47068   2.52598 255 255 255
-0.805003  -0.17063   2.36996 255 255 255
-0.719663 -0.238026   2.43148 255 255 255
-0.839486 -0.130209   2.32075 255 255 255
-0.616479 -0.374424   2.48354 255 255 255
-1.05259 0.362737  1.87832 255 255 255
-0.627835 -0.296789   2.48086 255 255 255
-0.662713 -0.289095   2.46743 255 255 255
-0.607714 -0.380349   2.49142 255 255 255
-0.998573 0.0604481   2.14338 255 255 255
-0.597985 -0.273034   2.40426 255 255 255
-0.560283 -0.384459   2.50864 255 255 255
-0.585669 -0.414843   2.49657 255 255 255
  -0.9642 0.0376268    2.1794 255 255 255
-0.651768 -0.290185   2.46978 255 255 255
-0.896111 -0.175153   2.32515 255 255 255
-0.551661 -0.402092   2.51142 255 255 255
-0.898504 -0.105923   2.29162 255 255 255
-0.837688 -0.223742   2.36416 255 255 255
-0.900228 -0.166013   2.31753 255 255 255
-0.806118 -0.185108   2.36805 255 255 255
-0.583168 -0.408036   2.49816 255 255 255
-0.569953  -0.41714   2.50282 255 255 255
-0.768967 -0.239407   2.40015 255 255 255
-0.860124 -0.250004   2.40866 255 255 255
-0.767906 -0.183819   2.39991 255 255 255
-0.689131 -0.334856   2.45006 255 255 255
-0.898667 -0.143186   2.30775 255 255 255
-0.478814 -0.469903   2.50533 255 255 255
  -1.05219 -0.0607844    2.17658 255 255 255
-0.637171 -0.305485   2.47888 255 255 255
-0.766669 -0.165049   2.39909 255 255 255
-0.540534  -0.41753   2.51325 255 255 255
-0.707307  -0.32382   2.44189 255 255 255
-0.847222 -0.178092   2.34348 255 255 255
-1.02191 0.212255  2.01775 255 255 255
-0.557947 -0.440478   2.50659 255 255 255
-0.866483 -0.175682   2.33518 255 255 255
-0.864388 -0.164556   2.33355 255 255 255
-0.842026 -0.122414   2.31797 255 255 255
-0.834301 -0.230566   2.36939 255 255 255
-0.722492 -0.273837   2.43133 255 255 255
-0.890019 -0.166509    2.3197 255 255 255
-0.641752 -0.287029   2.47464 255 255 255
 -0.826066 -0.0555406    2.32609 255 255 255
-0.548045 -0.427488   2.50941 255 255 255
-0.657253 -0.282948   2.46835 255 255 255
-0.540819 -0.411545   2.51422 255 255 255
-0.861065 -0.189951    2.3592 255 255 255
-0.676813 -0.252234   2.45646 255 255 255
-0.594576 -0.414753   2.49139 255 255 255
-0.902645 -0.145737   2.34526 255 255 255
 -0.851408 -0.0627883     2.3072 255 255 255
-0.723901 -0.221662   2.42732 255 255 255
-0.825876 -0.221022   2.36762 255 255 255
-0.671109 -0.257309   2.45824 255 255 255
 -0.828245 -0.0449301    2.32477 255 255 255
-0.834439  -0.21833   2.36301 255 255 255
-0.730422 -0.232624   2.42546 255 255 255
-0.690959 -0.314321   2.44942 255 255 255
-0.833124 -0.181519   2.35039 255 255 255
-0.878895 -0.138948   2.31396 255 255 255
-0.621554 -0.320033   2.48814 255 255 255
-0.728332 -0.216789   2.42481 255 255 255
-0.832595 -0.133556    2.3416 255 255 255
 -0.840796 -0.0243852    2.30493 255 255 255
 -0.838789 -0.0922953    2.32742 255 255 255
 -0.833347 -0.0901447    2.33166 255 255 255
 -0.75832 -0.212681   2.40789 255 255 255
-0.745016 -0.196753    2.4126 255 255 255
-0.612716 -0.325102   2.49119 255 255 255
-0.901922 -0.150785   2.34979 255 255 255
 -0.79443 -0.187905   2.38097 255 255 255
-0.756789 -0.149917   2.39909 255 255 255
-0.669487 -0.285949    2.4615 255 255 255
-0.662196 -0.273658   2.46421 255 255 255
-0.738887 -0.210638   2.41838 255 255 255
-0.844085 -0.135535   2.33196 255 255 255
-0.630174 -0.301626   2.47993 255 255 255
 -0.852858 -0.0491037    2.30259 255 255 255
 -0.824095 -0.0408242    2.32461 255 255 255
-0.738624 -0.183047   2.41454 255 255 255
-0.769018 -0.172355    2.3986 255 255 255
-0.690141 -0.209095   2.45074 255 255 255
 -0.81743 -0.114765   2.35047 255 255 255
 -0.86055 -0.177707   2.35093 255 255 255
-0.851851 -0.113509   2.32138 255 255 255
-0.852972 -0.137052   2.32613 255 255 255
 -0.836484 -0.0472857    2.31546 255 255 255
-0.837514 -0.110416   2.33196 255 255 255
 -0.863907 -0.0826366    2.30188 255 255 255
-0.738774 -0.172038   2.41328 255 255 255
0.0521805 0.0119919   2.40971 255 255 255
 0.531102 -0.221321   2.62891 255 255 255
 0.33349 0.325692  2.28804 255 255 255
0.233365 0.359709  2.25871 255 255 255
-0.467483 0.0316175   2.36049 255 255 255
-0.131538 0.0775351   2.37662 255 255 255
-0.228199   0.32949   2.21438 255 255 255
0.168689 0.438041  2.22268 255 255 255
  0.230224 -0.0597752    2.49248 255 255 255
  0.304961 -0.0601352    2.42669 255 255 255
 0.414312 0.0976347   2.44071 255 255 255
 -0.176296 -0.0874059    2.44806 255 255 255
-0.265675  0.383082   2.23794 255 255 255
0.216321 0.209035  2.33089 255 255 255
0.097489 -0.28196    2.519 255 255 255
 0.266859 -0.137491   2.54628 255 255 255
0.156471   0.3351  2.29215 255 255 255
-0.128879  0.418786    2.2025 255 255 255
-0.504045  -0.24284   2.41956 255 255 255
-0.237089 -0.122921   2.41218 255 255 255
-0.230285 0.0253338   2.37245 255 255 255
0.0775474  0.133774   2.39206 255 255 255
-0.544511  0.410985   2.19482 255 255 255
   -0.17829 -0.00301389     2.37935 255 255 255
-0.317297 0.0741498   2.34034 255 255 255
-0.269264  0.128976   2.33374 255 255 255
 0.140813 -0.397493   2.59205 255 255 255
 0.395726 -0.121822   2.53358 255 255 255
0.319547 0.228846  2.38264 255 255 255
-0.402785 -0.340011    2.4961 255 255 255
-0.399534 -0.329107   2.45824 255 255 255
 0.495695 -0.111301   2.55392 255 255 255
 0.25942 0.456526  2.19838 255 255 255
 0.315539 -0.226709   2.57533 255 255 255
 -0.212144 -0.0527058    2.40055 255 255 255
 0.419494 -0.213512   2.57707 255 255 255
-0.417236 -0.269004   2.44441 255 255 255
 -0.126076 -0.0476737    2.42161 255 255 255
-0.492403 -0.290481   2.44905 255 255 255
 0.33973 0.370243  2.27783 255 255 255
0.377945 0.379342  2.31239 255 255 255
-0.50966 0.349303  2.21328 255 255 255
-0.557064  0.267858   2.23934 255 255 255
 0.364177 -0.165166    2.5565 255 255 255
0.515651 0.210647   2.3742 255 255 255
 -0.65131 -0.253405    2.3865 255 255 255
0.225161 -0.26338  2.60137 255 255 255
-0.380486  0.348862   2.23416 255 255 255
0.0463742 0.0961795   2.40405 255 255 255
-0.224467    0.1243    2.3186 255 255 255
0.262006 0.235996  2.39606 255 255 255
0.178147 0.291229  2.26368 255 255 255
 0.168844 -0.515075    2.6357 255 255 255
 0.164683 -0.120715   2.52993 255 255 255
-0.306714 -0.104885   2.44054 255 255 255
-0.142512 -0.241132   2.45512 255 255 255
0.285077 -0.19095  2.57117 255 255 255
 0.0969508 -0.0365533    2.40614 255 255 255
0.301855 0.369895  2.28507 255 255 255
0.412537 0.343337  2.26995 255 255 255
-0.101892 -0.323982   2.52621 255 255 255
 0.329986 -0.292905   2.59778 255 255 255
-0.406174 0.0633866   2.35118 255 255 255
0.141829 0.398647  2.30387 255 255 255
-0.526865 -0.153481   2.39286 255 255 255
  0.542375 -0.0322297    2.54455 255 255 255
 0.345082 -0.107215   2.55034 255 255 255
 0.309189 -0.140705   2.54495 255 255 255
-0.0785759 -0.0709756    2.44027 255 255 255
 -0.491213 -0.0234704    2.32509 255 255 255
 0.427769 -0.150998   2.57882 255 255 255
 -0.48279 0.0769266   2.32805 255 255 255
0.0452211 -0.331884    2.5453 255 255 255
-0.352395 0.0112345   2.38149 255 255 255
-0.469308  0.429377   2.20142 255 255 255
    0.130911 -0.000520888      2.42464 255 255 255
-0.254943 -0.109913   2.42477 255 255 255
 0.259606 -0.225132   2.55509 255 255 255
-0.525543  0.386854   2.21249 255 255 255
-0.500976 0.0239564   2.33913 255 255 255
0.000906752    0.474938     2.18547 255 255 255
0.0937888   0.17995   2.36062 255 255 255
 -0.363045 -0.0130561    2.38801 255 255 255
0.278134 0.431324  2.23232 255 255 255
-0.51132 0.422187  2.19606 255 255 255
 0.242863 -0.419097   2.62016 255 255 255
 0.388599 -0.190918   2.57858 255 255 255
 0.497558 -0.342986   2.67242 255 255 255
0.494635 0.446693  2.22887 255 255 255
0.385503 -0.23212  2.58629 255 255 255
  0.465472 -0.0958143    2.56069 255 255 255
-0.544902 -0.433305   2.52462 255 255 255
 -0.380467 -0.0295632    2.38589 255 255 255
-0.666825  -0.28601   2.40853 255 255 255
-0.285313 -0.146721   2.40053 255 255 255
 0.204121 -0.286145   2.60782 255 255 255
-0.126673 -0.391871   2.54702 255 255 255
 0.605047 -0.313773   2.69007 255 255 255
-0.471635 -0.367096    2.4596 255 255 255
-0.251431   0.44077   2.22666 255 255 255
-0.539439 -0.283375   2.41003 255 255 255
-0.579674 -0.336286   2.43234 255 255 255
-0.0746934   0.334779    2.26718 255 255 255
-0.488824 -0.236769   2.43646 255 255 255
-0.41458 0.216369  2.25718 255 255 255
  0.233279 -0.0157572     2.4782 255 255 255
-0.110794  0.278711   2.31264 255 255 255
  0.618847 -0.0137854    2.55767 255 255 255
-0.0596265  0.0387748     2.4117 255 255 255
 0.369213 -0.089672   2.53845 255 255 255
-0.507984 -0.316142   2.44075 255 255 255
 0.457005 -0.207101   2.60627 255 255 255
-0.0340598  -0.214968    2.44412 255 255 255
  0.201183 -0.0776744    2.50208 255 255 255
-0.257085  0.206854    2.3159 255 255 255
-0.499389 -0.192854   2.40903 255 255 255
   -0.1471 -0.0118965    2.41037 255 255 255
-0.0627038   0.365317    2.29751 255 255 255
-0.26754 0.361679  2.24915 255 255 255
-0.352649  0.231238    2.2886 255 255 255
 0.404132 -0.172549   2.57566 255 255 255
0.259289 0.434628  2.23096 255 255 255
 0.372401 -0.535195   2.67347 255 255 255
-0.585458 -0.193772   2.37066 255 255 255
0.234416 0.465981  2.20689 255 255 255
-0.489996  0.432081   2.19501 255 255 255
 -0.716336 -0.0730447    2.32654 255 255 255
-0.22612 0.380947  2.23318 255 255 255
0.171915  0.16856  2.40164 255 255 255
-0.522602 -0.179128   2.39819 255 255 255
-0.219809 0.0585593   2.38115 255 255 255
 0.346994 -0.257909   2.63369 255 255 255
-0.488222  0.249318   2.26135 255 255 255
-0.193769 -0.114787   2.43038 255 255 255
-0.524603  0.245923   2.26552 255 255 255
 -0.224328 -0.0682207    2.40235 255 255 255
-0.631572 -0.222541   2.37317 255 255 255
-0.183591 -0.143452   2.44393 255 255 255
-0.210782  0.425568   2.23135 255 255 255
-0.397607 -0.368002   2.48812 255 255 255
0.468517 -0.22154  2.59647 255 255 255
  0.13877 0.0767213   2.38944 255 255 255
-0.286469  0.428852   2.21385 255 255 255
  0.193351 -0.0578095    2.49646 255 255 255
 0.295648 -0.164806   2.53881 255 255 255
-0.204462  0.344847   2.23726 255 255 255
0.304921 0.358033  2.28799 255 255 255
 0.299142 -0.377412   2.61948 255 255 255
-0.416303  0.347204   2.16271 255 255 255
 0.636345 -0.307053   2.69755 255 255 255
-0.0134488  -0.231981    2.49772 255 255 255
-0.531801 -0.313453   2.44397 255 255 255
0.207444 0.477359  2.20162 255 255 255
-0.41546 0.369018  2.20094 255 255 255
 0.480214 -0.282654   2.64807 255 255 255
0.174731 0.471057  2.21494 255 255 255
-0.365581 -0.186108   2.40535 255 255 255
 -0.43127 -0.476685   2.51058 255 255 255
 0.605031 -0.338091   2.69887 255 255 255
  0.34463 -0.540249   2.68328 255 255 255
-0.645338 -0.180757   2.37001 255 255 255
0.0428317 0.0340748   2.41264 255 255 255
0.131419 0.316055   2.3433 255 255 255
  0.643454 -0.0753254    2.59033 255 255 255
0.240873 -0.23962  2.55723 255 255 255
-0.592199 -0.309227   2.47064 255 255 255
0.750149 0.472792  2.32882 255 255 255
  0.601479 -0.0251695    2.56619 255 255 255
0.274602 0.433247  2.22409 255 255 255
0.415757 0.477867  2.24448 255 255 255
-0.272571 -0.460486   2.54791 255 255 255
0.0322685 0.0464235   2.41157 255 255 255
  0.2555 0.129077  2.35308 255 255 255
-0.582919 -0.124714   2.37838 255 255 255
-0.533825  0.448844   2.17996 255 255 255
-0.182705 -0.350227   2.52482 255 255 255
-0.544969  0.224983   2.25689 255 255 255
0.250699 0.484624  2.20223 255 255 255
 0.648906 -0.293766   2.70332 255 255 255
 0.316548 -0.115965   2.54357 255 255 255
0.242996 0.453801  2.22443 255 255 255
-0.276299 -0.476677   2.55021 255 255 255
-0.438413 -0.257656   2.44403 255 255 255
 0.104697 -0.332408   2.56719 255 255 255
-0.166297  -0.38466   2.53825 255 255 255
0.059133 0.494889  2.26922 255 255 255
 0.654842 -0.311106   2.70281 255 255 255
-0.121135  0.255506   2.30494 255 255 255
 0.396142 -0.494846   2.67689 255 255 255
 -0.39852 0.0463072   2.34734 255 255 255
0.151344  0.16201  2.39035 255 255 255
-0.523685  -0.15024   2.32889 255 255 255
-0.663773 -0.244894   2.36939 255 255 255
-0.392461 0.0340131   2.35374 255 255 255
  0.598226 -0.0522202    2.59448 255 255 255
-0.522655 0.0191097   2.34559 255 255 255
0.280917  0.23321  2.32171 255 255 255
 0.449798 -0.174257   2.58951 255 255 255
-0.0334895   0.332981    2.27006 255 255 255
  0.198759 -0.0382147    2.48914 255 255 255
0.205938 0.464441  2.22018 255 255 255
-0.462835  0.401292     2.212 255 255 255
-0.540458 -0.207964   2.40317 255 255 255
-0.239997 -0.143681   2.40659 255 255 255
0.734724 0.062051  2.52156 255 255 255
   0.24758 -0.0204495    2.48192 255 255 255
 0.217086 -0.238567   2.59455 255 255 255
 0.476278 -0.260108   2.61123 255 255 255
-0.139156 -0.399736   2.51673 255 255 255
-0.145365 -0.407213   2.55119 255 255 255
-0.0225513  -0.368745    2.56038 255 255 255
0.15899 0.47597 2.21368 255 255 255
 0.626702 -0.059613   2.57743 255 255 255
0.447877 -0.15432  2.57496 255 255 255
-0.681113  -0.34747   2.44181 255 255 255
0.311655 0.103695  2.45683 255 255 255
0.286267 0.354753  2.28141 255 255 255
0.137761 0.150776  2.40491 255 255 255
 0.419979 -0.266556   2.58956 255 255 255
0.363697 0.169018  2.44206 255 255 255
 0.386003 -0.254925     2.585 255 255 255
0.194137 0.483731  2.19776 255 255 255
-0.214113  0.355333   2.23312 255 255 255
 -0.395057 -0.0052042     2.3406 255 255 255
-0.455019  0.433052   2.18216 255 255 255
 0.709984 -0.346867   2.76212 255 255 255
 -0.64067 -0.354969   2.44159 255 255 255
-0.363247 -0.293687   2.46704 255 255 255
-0.740359 -0.438363   2.47445 255 255 255
-0.0153449   0.315937     2.2775 255 255 255
-0.325745 -0.402141   2.52672 255 255 255
 0.334349 -0.506628   2.66443 255 255 255
 0.652231 -0.276973   2.69544 255 255 255
-0.185124  0.333228    2.2331 255 255 255
 -0.148816 -0.0398705    2.41994 255 255 255
 0.607914 -0.298454   2.70807 255 255 255
0.626961  0.28734  2.42471 255 255 255
-0.126935  0.452959   2.23681 255 255 255
-0.227623  0.410252   2.21736 255 255 255
 0.307008 0.0791419   2.46243 255 255 255
-0.466878 -0.271735   2.44073 255 255 255
 -0.514961 0.00408623    2.35849 255 255 255
-0.649042 -0.101189   2.36495 255 255 255
0.187949 -0.11017  2.50605 255 255 255
0.0157911  0.060133   2.41393 255 255 255
-0.052965 0.0769803    2.3969 255 255 255
 0.25818 0.338405  2.36357 255 255 255
-0.389222 0.0125894   2.33911 255 255 255
 0.460053 -0.185744   2.59138 255 255 255
-0.511001 -0.346373   2.45844 255 255 255
 0.363242 -0.268593   2.58757 255 255 255
0.0480447 -0.105001   2.43421 255 255 255
-0.536569 -0.139812   2.38471 255 255 255
-0.484172 -0.317686   2.45517 255 255 255
  -0.54812 -0.0785402     2.3763 255 255 255
-0.637053 -0.135242   2.35844 255 255 255
-0.597401 -0.423794    2.4776 255 255 255
 0.525941 -0.292031   2.63149 255 255 255
-0.288521  0.167015   2.32344 255 255 255
 0.337404 -0.524601   2.67205 255 255 255
-0.443361 -0.273092   2.44311 255 255 255
 0.271035 0.0385476   2.46993 255 255 255
-0.136322 -0.336765   2.50228 255 255 255
0.0468835 -0.292203   2.54289 255 255 255
-0.0622725   0.106862    2.37462 255 255 255
  0.47477 -0.242785   2.60445 255 255 255
-0.573448 -0.408214   2.47292 255 255 255
-0.422274 -0.364272   2.47666 255 255 255
-0.651104 0.0727691   2.28739 255 255 255
-0.299416 -0.422169   2.53779 255 255 255
0.346954 0.154522  2.39293 255 255 255
-0.673081 -0.127467   2.37163 255 255 255
0.407491 0.221935  2.43149 255 255 255
0.269276    0.327  2.37281 255 255 255
  0.34555 -0.295424   2.64776 255 255 255
0.371535 0.180975  2.43759 255 255 255
 0.518064 -0.290867   2.68839 255 255 255
0.263007 0.478751  2.21296 255 255 255
 0.291364 -0.180759   2.56716 255 255 255
 -0.128228 -0.0256373    2.42544 255 255 255
0.570159 -0.32184  2.70081 255 255 255
 0.161705 -0.508254   2.62843 255 255 255
 0.353267 -0.471841   2.65069 255 255 255
 0.563558 -0.103461   2.54089 255 255 255
0.255662 0.298512  2.31424 255 255 255
 0.32077 0.391867  2.25273 255 255 255
-0.550186 -0.251396   2.40262 255 255 255
-0.0683983  -0.450264     2.5833 255 255 255
0.0375166 -0.314609    2.5503 255 255 255
-0.100659  0.263943   2.31181 255 255 255
 0.352831 -0.238515   2.62408 255 255 255
-0.245782  0.367973   2.24407 255 255 255
-0.461895 -0.281305   2.41614 255 255 255
-0.134182  0.140792   2.35053 255 255 255
0.275172  0.02585  2.47784 255 255 255
-0.634067  -0.37872   2.45898 255 255 255
-0.717045 -0.238283   2.39281 255 255 255
-0.211388  0.418409   2.22074 255 255 255
-0.224218  0.422855   2.22858 255 255 255
  0.672496 -0.0521767    2.57394 255 255 255
0.189492 0.473283   2.2122 255 255 255
-0.715462 -0.120032   2.36785 255 255 255
 -0.32332 -0.530221   2.57283 255 255 255
 0.135543 -0.490819   2.63674 255 255 255
  0.517958 -0.0702125    2.55103 255 255 255
-0.291606   0.37212   2.24835 255 255 255
-0.621484 -0.432622   2.48124 255 255 255
-0.610282  0.455793    2.1895 255 255 255
  0.636778 -0.0540487    2.59836 255 255 255
-0.541889  0.415228    2.1951 255 255 255
  0.586288 -0.0711427    2.55838 255 255 255
-0.631156  0.107591   2.26927 255 255 255
 0.0901037 -0.0145388    2.39503 255 255 255
0.311676 -0.55189  2.69688 255 255 255
-0.350097  -0.34942   2.49009 255 255 255
-0.272015 -0.158594   2.41238 255 255 255
 -0.61736 -0.374301   2.45457 255 255 255
 0.297791 -0.356231   2.62065 255 255 255
 -0.62591 -0.139414   2.36936 255 255 255
-0.340221  0.037662   2.37216 255 255 255
0.386267  0.22389  2.35733 255 255 255
 0.439081 0.0662332    2.4698 255 255 255
-0.344825 -0.369435   2.47218 255 255 255
-0.389378 -0.136566   2.37454 255 255 255
-0.545124 -0.304719   2.43815 255 255 255
-0.446068  0.434069   2.20182 255 255 255
 0.120029 -0.388786   2.58739 255 255 255
 -0.65405 -0.388086    2.4553 255 255 255
0.0463496  0.259812   2.32008 255 255 255
-0.527552 -0.343335   2.44682 255 255 255
0.320571 -0.52028  2.69306 255 255 255
-0.560058 -0.343744   2.49165 255 255 255
-0.61156  0.13755  2.27797 255 255 255
-0.688024 -0.181975   2.36885 255 255 255
  0.579439 -0.0832323    2.55982 255 255 255
 0.314012 0.0682076   2.47293 255 255 255
 -0.140551 -0.0271553    2.41698 255 255 255
-0.569069 -0.391747   2.46058 255 255 255
0.126224 0.392539  2.25785 255 255 255
0.355475 -0.24342  2.59143 255 255 255
-0.628671 -0.126768   2.36337 255 255 255
-0.459187  0.452178   2.18242 255 255 255
-0.670757 -0.101936   2.34382 255 255 255
-0.423521 -0.272976   2.45465 255 255 255
-0.242225  0.389408    2.2351 255 255 255
-0.366991  -0.20064   2.40733 255 255 255
-0.149067 -0.138735   2.45532 255 255 255
 0.517375 -0.058814   2.54709 255 255 255
-0.267485   0.21519   2.31096 255 255 255
-0.449732 -0.460837   2.51163 255 255 255
0.0756142 -0.117044    2.4329 255 255 255
 -0.139361 -0.0587711    2.44674 255 255 255
-0.681722 -0.267931   2.39083 255 255 255
-0.695063 -0.180485   2.36283 255 255 255
0.265517 0.424883  2.22832 255 255 255
-0.482514 -0.188022   2.41204 255 255 255
-0.180551  0.415236   2.24534 255 255 255
0.361048 0.186476  2.43481 255 255 255
-0.668906 0.0875468   2.27863 255 255 255
-0.181706  0.434343   2.23795 255 255 255
-0.221061  0.175184   2.33256 255 255 255
  0.553916 -0.0364889    2.54345 255 255 255
 0.282735 -0.170144   2.57157 255 255 255
-0.693219 -0.125408   2.35118 255 255 255
 0.754491 -0.378271    2.8029 255 255 255
-0.544496  0.396342   2.19746 255 255 255
0.148822 0.107099  2.39846 255 255 255
-0.516367 0.0315506   2.33955 255 255 255
  0.24199 0.0159793   2.47174 255 255 255
-0.515226 -0.355061   2.45151 255 255 255
0.0159376  0.470315   2.18975 255 255 255
0.762322 0.475889  2.32521 255 255 255
-0.228239  0.438867    2.2441 255 255 255
-0.478348  -0.34923   2.46373 255 255 255
 0.703575 0.0620653   2.52498 255 255 255
 0.437464 0.0468082   2.50615 255 255 255
 0.694683 -0.335494    2.7477 255 255 255
-0.536562 -0.376781   2.45079 255 255 255
 0.294439 0.0866102   2.46039 255 255 255
-0.136953 -0.348128   2.53364 255 255 255
0.296639 0.306443  2.30959 255 255 255
-0.699559  0.111739   2.26226 255 255 255
0.376526 0.217433  2.37023 255 255 255
-0.0337689   0.248219    2.22621 255 255 255
 0.376756 -0.373173    2.6906 255 255 255
0.193622 0.296272   2.2537 255 255 255
0.648423 0.047143  2.53869 255 255 255
-0.0155014   0.073576    2.40845 255 255 255
-0.245822  0.394266   2.24747 255 255 255
-0.478896  0.463607   2.18675 255 255 255
0.272712 0.339548  2.36118 255 255 255
-0.170571 -0.398213   2.50087 255 255 255
0.0066546 0.0686416   2.41904 255 255 255
0.392447 0.238958  2.42657 255 255 255
-0.468334 -0.251863   2.43729 255 255 255
 0.364225 0.0721727   2.47757 255 255 255
-0.0280276   0.359917    2.30434 255 255 255
-0.401757  0.313834   2.15095 255 255 255
-0.210784  0.316713   2.24125 255 255 255
-0.163102  0.298023   2.29719 255 255 255
-0.168223  0.416914   2.22424 255 255 255
-0.253243  0.338919   2.25252 255 255 255
-0.841933 -0.232842    2.3543 255 255 255
 0.108921 0.0818425   2.38164 255 255 255
 0.348201 -0.251281   2.62895 255 255 255
-0.559142 -0.147121   2.38291 255 255 255
0.138337 0.450571  2.22453 255 255 255
-0.441367 -0.231267   2.43046 255 255 255
 0.448328 0.0743847   2.46579 255 255 255
0.314214 0.385653  2.25534 255 255 255
-0.313539 -0.355256   2.49227 255 255 255
0.0617327 -0.527773   2.66358 255 255 255
 0.547604 -0.306503   2.63766 255 255 255
-0.537005 -0.345327   2.44622 255 255 255
  0.597518 -0.0129036    2.55882 255 255 255
 -0.617806 -0.0991517    2.35944 255 255 255
0.306482 0.352907  2.28924 255 255 255
-0.560632  0.256942   2.25549 255 255 255
0.787985 0.458828  2.34488 255 255 255
0.0329219  0.419829   2.18846 255 255 255
 0.277276 0.0654469   2.46174 255 255 255
-0.515526 -0.401639   2.47307 255 255 255
 0.261397 0.0457531   2.46542 255 255 255
   0.4534 -0.251635   2.64458 255 255 255
-0.347955  0.239116   2.28754 255 255 255
-0.207918   0.17393   2.31579 255 255 255
0.331121 0.168669  2.39523 255 255 255
-0.429164  -0.30081   2.44006 255 255 255
  0.398587 -0.0761738    2.53301 255 255 255
-0.674842  -0.17263   2.37204 255 255 255
  0.17352 0.0637018   2.37822 255 255 255
-0.473968 -0.205798   2.42524 255 255 255
 -0.48535 -0.405264     2.479 255 255 255
 0.276174 -0.550912   2.67021 255 255 255
-0.51308 -0.29879  2.42877 255 255 255
-0.544281 -0.175437   2.39375 255 255 255
   0.399374 -0.00419765     2.51809 255 255 255
-0.278458  0.174972   2.32286 255 255 255
-0.365559 -0.262665   2.45432 255 255 255
 -0.52988 -0.296236   2.43249 255 255 255
-0.410819 -0.283623   2.43572 255 255 255
 0.414734 -0.436687   2.64602 255 255 255
-0.672888 0.0778447   2.28399 255 255 255
-0.515851  0.436333   2.19825 255 255 255
-0.528932 -0.279973   2.42909 255 255 255
  0.611527 -0.0465807    2.59542 255 255 255
-0.347611 -0.444787   2.56273 255 255 255
-0.418819 -0.342752   2.47186 255 255 255
-0.669608   -0.1869   2.37608 255 255 255
-0.296887  0.183083   2.31249 255 255 255
  0.636385 -0.0250041    2.56614 255 255 255
0.243956 0.488324  2.19955 255 255 255
 0.468735 -0.213187   2.59752 255 255 255
-0.438782 -0.161971   2.34846 255 255 255
-0.588311 -0.092749   2.36664 255 255 255
-0.402123   0.11641   2.28785 255 255 255
-0.578091 -0.324884   2.43205 255 255 255
-0.026272   0.34876   2.29694 255 255 255
-0.361934 -0.324557   2.48637 255 255 255
-0.881512 -0.172642    2.3224 255 255 255
  0.532124 -0.0929338     2.5658 255 255 255
-0.683956  0.117543   2.26592 255 255 255
-0.485785  0.457014   2.18812 255 255 255
 0.481816 -0.168304   2.59062 255 255 255
-0.487085 -0.272818    2.4214 255 255 255
-0.624213 -0.312048   2.42805 255 255 255
-0.606983 -0.326125   2.42304 255 255 255
-0.468825 -0.142834   2.40334 255 255 255
  0.62469 -0.308512   2.69204 255 255 255
  0.505319 -0.0606448    2.55701 255 255 255
-0.603168 -0.393258   2.46301 255 255 255
-0.502366 -0.199382   2.40894 255 255 255
 -0.297412 0.00411263    2.33952 255 255 255
-0.135096 -0.153238   2.48278 255 255 255
-0.636876  0.428626   2.17562 255 255 255
-0.0438142   -0.46918    2.58934 255 255 255
 0.503445 -0.340915   2.67273 255 255 255
-0.536933 -0.178605   2.39186 255 255 255
-0.563691 -0.253488   2.39967 255 255 255
