ply
format ascii 1.0
element vertex 1162
property float x
property float y
property float z
property uchar red
property uchar green
property uchar blue
end_header
-0.678184  0.140733   2.26175 255 255 255
-0.535436 0.0129642    2.3439 255 255 255
 -0.837158 -0.0178252    2.27037 255 255 255
-0.599612  0.692645   2.00937 255 255 255
 -0.602073 -0.0634346    2.39006 255 255 255
-0.994789 0.0525491   2.14866 255 255 255
-0.821267  0.228579   2.21069 255 255 255
-0.440109  0.319639    2.1375 255 255 255
 -0.834594 -0.0995278    2.31774 255 255 255
 -1.11705 0.0549355   2.04967 255 255 255
-0.583867  0.257746   2.19791 255 255 255
 -1.05928 0.0268908   2.11408 255 255 255
-0.490163    1.0846   1.83574 255 255 255
 -1.09306 -0.049247   2.12893 255 255 255
-0.632064  0.376745   2.17324 255 255 255
 -0.591353 -0.0616509    2.39582 255 255 255
-0.863309 0.0707694   2.22092 255 255 255
 -0.872719 -0.0278344    2.26496 255 255 255
-0.687643   0.41588   2.17379 255 255 255
-0.431751  0.272094   2.18537 255 255 255
-0.633629 0.0244407   2.32675 255 255 255
-0.648611  0.472986   2.15812 255 255 255
 -0.631904 -0.0136262    2.35599 255 255 255
-0.671411  0.105499   2.29754 255 255 255
-0.663769  0.101178   2.28237 255 255 255
  -0.937785 -0.00682808     2.21893 255 255 255
-0.685195 -0.117899   2.38944 255 255 255
 -1.09654 0.0545757   2.06692 255 255 255
-0.754223  0.441416   2.17288 255 255 255
-0.929264 0.0111155    2.2168 255 255 255
-0.578528  0.453151   2.16656 255 255 255
 -1.16346 0.0141513   2.02329 255 255 255
-0.575322  0.112181   2.27809 255 255 255
-0.686889  0.894938   1.34604 255 255 255
 -1.06039 -0.101757   2.19197 255 255 255
-0.510557  0.136576   2.27107 255 255 255
-0.384389  0.260263   2.16445 255 255 255
-0.644748  0.462207   2.15677 255 255 255
-0.702572 0.0989592   2.27049 255 255 255
-0.568486  0.474083   2.16399 255 255 255
-0.478748 0.0694421   2.33103 255 255 255
 -0.794343 -0.0650456    2.31677 255 255 255
  -1.08459 -0.0341364    2.13177 255 255 255
-0.374626  0.272775   2.16061 255 255 255
-0.728823 0.0593485   2.23973 255 255 255
   -0.988645 -0.000568441       2.1803 255 255 255
   -1.0493 -0.0823061    2.19158 255 255 255
-0.367377  0.267817   2.16641 255 255 255
-0.63109 0.168976  2.22279 255 255 255
 -0.794457 -0.0120462    2.28903 255 255 255
-0.712899  -0.14111   2.37923 255 255 255
 -1.14866 0.0548356   2.02343 255 255 255
-0.419569 0.0780359   2.30942 255 255 255
-0.615554  0.209302   2.21128 255 255 255
-0.873583 0.0451956   2.23075 255 255 255
-0.532366  0.158127   2.23887 255 255 255
-0.374239  0.379062   2.12313 255 255 255
-0.479477  0.180904   2.22413 255 255 255
-0.442712  0.171459   2.21939 255 255 255
-0.485835  0.377383   2.21901 255 255 255
-0.783124  -0.13962   2.34943 255 255 255
-0.698462  0.449488   2.18078 255 255 255
  -1.02451 -0.0910771    2.21449 255 255 255
-0.711686  0.303607   2.20954 255 255 255
  -1.0872 -0.075646   2.14896 255 255 255
-0.55898 0.279746  2.20637 255 255 255
-0.624174  0.316153   2.16874 255 255 255
-1.03181 0.068509  2.11129 255 255 255
-0.672055  0.396736   2.17334 255 255 255
-0.666105  0.905717   1.35577 255 255 255
 -0.746794 -0.0454676    2.32753 255 255 255
-0.416701  0.260207   2.17713 255 255 255
-0.610717  0.151992   2.27199 255 255 255
 -0.875049 -0.0429613    2.27456 255 255 255
-0.68532 0.199089  2.22474 255 255 255
-0.392966  0.107713   2.27522 255 255 255
-0.564703  0.763463   1.96507 255 255 255
 -1.14388 0.0264639   2.03673 255 255 255
-0.562974  0.141788   2.28708 255 255 255
-0.601478  0.268066   2.19039 255 255 255
-0.498669  0.330436   2.16236 255 255 255
-0.415893  0.235707   2.20236 255 255 255
 -0.448982 0.00366323    2.31274 255 255 255
-0.373382  0.223947   2.20342 255 255 255
-0.702712  0.469036   2.19096 255 255 255
-0.608639 0.0952142   2.31183 255 255 255
-0.652305  0.381285   2.17073 255 255 255
  -1.04033 -0.0185159    2.16469 255 255 255
-0.62798 0.281724  2.16891 255 255 255
-0.643747 0.0334376   2.31821 255 255 255
 -0.994213 0.00514953    2.17246 255 255 255
-0.499492  0.191194   2.21663 255 255 255
-0.396816   0.31881   2.13034 255 255 255
-0.704926 0.0702261   2.27484 255 255 255
-0.892277 -0.122891   2.30563 255 255 255
 -1.06872 0.0236218   2.11176 255 255 255
-0.687858 0.0413436   2.27107 255 255 255
-0.950868 -0.155811   2.28953 255 255 255
-0.596643  0.469033     2.178 255 255 255
-1.03455 0.089485  2.09548 255 255 255
-0.675794  0.389167   2.16322 255 255 255
  -1.06917 -0.0617821      2.161 255 255 255
  -1.06092 -0.0371921     2.1536 255 255 255
 -1.03293 0.0565859   2.12182 255 255 255
-0.635012  0.689425   1.99894 255 255 255
-0.607869  0.694188    1.9966 255 255 255
-0.429664  0.311487   2.13312 255 255 255
-0.552235  0.172153   2.21323 255 255 255
-0.563447  0.270604   2.18355 255 255 255
  -0.72912 -0.0124166    2.31212 255 255 255
 -0.949684 -0.0870757    2.25718 255 255 255
-0.489857   1.09251   1.83043 255 255 255
-0.939263 -0.167933   2.31357 255 255 255
 -0.81168 -0.145161   2.33455 255 255 255
-1.09034 -0.02894  2.11657 255 255 255
-0.980067 0.0688577   2.15807 255 255 255
 -0.775959 -0.0826283    2.32991 255 255 255
 -0.790958 -0.0943926       2.33 255 255 255
-0.929978 0.0350888   2.20468 255 255 255
-0.481455  0.339299   2.17203 255 255 255
  -0.532152 -0.00134417     2.36619 255 255 255
-0.613198  0.812764   1.88588 255 255 255
-0.819946   0.15705   2.15757 255 255 255
 -0.54853 -0.062839   2.39749 255 255 255
-0.697464  0.169705   2.21296 255 255 255
-0.406316  0.313308   2.13329 255 255 255
-0.728378 0.0407417   2.28542 255 255 255
 -0.909707 -0.0264856    2.24674 255 255 255
-0.528737  0.330809    2.1613 255 255 255
   -1.16582 -0.00640593     2.03411 255 255 255
-0.611848  0.457343   2.17531 255 255 255
-0.641969  0.834205   1.85977 255 255 255
-0.797177 -0.110456    2.3321 255 255 255
-0.431444  0.341831   2.12804 255 255 255
-0.382286  0.317913   2.22741 255 255 255
 -0.440156 -0.0514529    2.39132 255 255 255
-1.01675 0.037024  2.12584 255 255 255
-0.878007 0.0176598   2.24516 255 255 255
-0.583845  0.149667   2.28711 255 255 255
-0.581571 0.0895113   2.29046 255 255 255
-0.377226  0.081627   2.33152 255 255 255
-0.448078 0.0988214   2.30113 255 255 255
-0.782031 -0.084137   2.32145 255 255 255
 -0.660234 -0.0851851    2.38198 255 255 255
  -1.10315 -0.0401101    2.10917 255 255 255
-0.804891 0.0245247   2.25954 255 255 255
-0.509772   0.21058   2.21153 255 255 255
-0.533085 0.0243105   2.34694 255 255 255
-1.00429 0.103428  2.12094 255 255 255
-0.790998 -0.163556   2.34661 255 255 255
 -1.18273 0.0470394   1.99171 255 255 255
-0.507391  0.187125   2.21991 255 255 255
 -0.986334 -0.0356555    2.20412 255 255 255
 -0.915852 -0.0535206    2.26023 255 255 255
 -0.939387 -0.0680005    2.25216 255 255 255
 -1.16042 0.0796154   1.99112 255 255 255
 -0.972757 -0.0553547     2.2238 255 255 255
-0.724844  0.464946   2.18358 255 255 255
-0.627026 0.0595678   2.30826 255 255 255
 -0.708105 -0.0767763    2.34106 255 255 255
   -0.85621 -0.00645811     2.26202 255 255 255
-0.816582 0.0447122   2.25286 255 255 255
-0.744814  0.408849   2.18418 255 255 255
-0.386436 0.0521468   2.32439 255 255 255
 -0.979717 -0.0206824    2.19746 255 255 255
-0.979962 0.0483061   2.16662 255 255 255
-0.597676  0.392784   2.16732 255 255 255
-0.908649  -0.17614    2.3249 255 255 255
-0.967561 0.0254073   2.18453 255 255 255
 -0.473683 -0.0761624     2.3911 255 255 255
 -0.580347 -0.0710808    2.39823 255 255 255
  -0.66345 -0.0414014    2.33324 255 255 255
 -1.05514 -0.094134   2.19043 255 255 255
-0.856189 0.0257539   2.24696 255 255 255
-0.597313  0.157947   2.25938 255 255 255
  -1.07093 -0.0928507    2.17544 255 255 255
 -0.999537 -0.0570654    2.20781 255 255 255
-0.774279  0.467863   2.17623 255 255 255
 -1.16607 0.0366783   2.01226 255 255 255
 -0.990893 -0.0810166    2.23164 255 255 255
-0.674795  0.900311    1.3562 255 255 255
-1.00749 0.053176  2.13957 255 255 255
-0.470634  0.246922   2.20095 255 255 255
 -0.669263 -0.0949569    2.35675 255 255 255
-0.771555   1.14462   1.42317 255 255 255
-0.787801 -0.101115   2.33331 255 255 255
-0.606377  0.335605   2.17839 255 255 255
-0.661418 -0.113306   2.36453 255 255 255
  -1.14783 -0.0123837    2.06673 255 255 255
 -0.653005 -0.0810459    2.38577 255 255 255
 -0.887115 -0.0631703    2.27777 255 255 255
-0.528295  0.238592   2.21642 255 255 255
-0.639508  0.139331   2.25391 255 255 255
  -1.03611 -0.0830852    2.20228 255 255 255
-0.529095    1.0022   1.88024 255 255 255
-0.759314  0.469398   2.17318 255 255 255
-1.18846 0.052081  1.98334 255 255 255
-0.37087 0.230554  2.18064 255 255 255
 -1.17238 -0.033502   2.03424 255 255 255
 -0.773032 -0.0757414     2.3277 255 255 255
-0.906184 -0.114517   2.29515 255 255 255
-0.534927  0.211464   2.22105 255 255 255
-0.494908  0.196436   2.20911 255 255 255
-0.639465  0.468625   2.16643 255 255 255
-0.425079  0.147435   2.23827 255 255 255
 -0.715127 -0.0376192    2.33954 255 255 255
-0.976311 0.0813925   2.14754 255 255 255
-0.459102 0.0943801   2.30241 255 255 255
-0.527147  0.338349   2.15975 255 255 255
 -0.568892 -0.0677694    2.39647 255 255 255
-0.846315 -0.127368   2.31413 255 255 255
-0.66073 0.311276   2.1833 255 255 255
-0.661061  0.113229   2.29986 255 255 255
 -0.575467 -0.0667209    2.39693 255 255 255
-0.567019  0.358659   2.15428 255 255 255
-0.46049 0.227523  2.21191 255 255 255
-0.631558  0.183245   2.22114 255 255 255
-0.767279   0.46604   2.17775 255 255 255
 -1.17657 0.0383989   2.00202 255 255 255
 -1.16236 0.0572072   2.00588 255 255 255
-0.666618  0.113516   2.27864 255 255 255
  -1.07749 -0.0713139    2.15569 255 255 255
 -0.575929 -0.0989436    2.41232 255 255 255
-0.685743 0.0291626   2.27492 255 255 255
-0.831996  0.149849   2.14397 255 255 255
-1.48742  1.74588  1.50185 255 255 255
 -0.64158 0.0416077   2.31138 255 255 255
-0.999646 -0.117614   2.24436 255 255 255
-0.694499  0.426828   2.18316 255 255 255
 -0.831779 -0.0235201    2.27871 255 255 255
-0.746312 0.0015565   2.29321 255 255 255
-0.676724  0.070908   2.29425 255 255 255
  -1.07434 -0.0102081    2.12727 255 255 255
-0.618768   0.27677   2.18949 255 255 255
-0.654566  0.390826   2.17294 255 255 255
-0.588244  0.386762   2.15614 255 255 255
-0.711891  0.295499   2.19755 255 255 255
-0.853778 0.0174293   2.23948 255 255 255
-0.955131 0.0596678   2.17674 255 255 255
-0.571673 0.0967762   2.29186 255 255 255
 -1.09409 0.0901267   2.04758 255 255 255
 -1.17132 0.0208254   2.00488 255 255 255
-0.878513 0.0276089   2.23777 255 255 255
-0.640035 -0.100526   2.39179 255 255 255
-0.599171  0.698008   2.00146 255 255 255
-0.546378 0.0706773   2.31054 255 255 255
-0.849849 0.0335093    2.2514 255 255 255
-0.820937 0.0699213   2.24362 255 255 255
 -0.560477 -0.0624947    2.36333 255 255 255
-0.500937  0.215221   2.20809 255 255 255
-0.674863  0.179363   2.23073 255 255 255
  -1.11407 -0.0264926    2.08718 255 255 255
-0.572921 -0.073365   2.39767 255 255 255
  -1.16733 0.00706078    2.02114 255 255 255
  -0.92404 -0.0834509    2.26988 255 255 255
-0.683479 0.0648801   2.26004 255 255 255
-0.595464 0.0473526     2.315 255 255 255
-0.666561  0.186988   2.24326 255 255 255
-0.928225 -0.100405   2.27703 255 255 255
-0.555028  0.409135   2.16381 255 255 255
-0.775326 0.0235275   2.27412 255 255 255
 -1.08569 -0.020867   2.11951 255 255 255
-0.588671  0.267688   2.19268 255 255 255
-0.672479  -0.12697   2.39891 255 255 255
-0.637696    0.8392   1.84954 255 255 255
   -1.01177 -0.00998617     2.16804 255 255 255
 -0.38721 0.0481775   2.33485 255 255 255
-0.599456  0.439151   2.16954 255 255 255
-0.555086   1.02731   1.85971 255 255 255
 -0.896373 -0.0847968     2.2863 255 255 255
-0.566621  0.383933   2.17334 255 255 255
-0.581178  0.415028   2.15517 255 255 255
-0.51597 0.149753  2.26184 255 255 255
  -1.08761 -0.0077945    2.11274 255 255 255
 -1.04519 0.0984256   2.08011 255 255 255
-0.593978 0.0525874    2.3021 255 255 255
 -1.01626 0.0926739   2.11472 255 255 255
-0.579272 0.0100957   2.32978 255 255 255
-0.679488 0.0375153    2.2766 255 255 255
-0.969138 -0.012765   2.19817 255 255 255
-0.664396 -0.090812   2.38554 255 255 255
  -1.02269 -0.0788386    2.20574 255 255 255
-0.435029  0.241333   2.20266 255 255 255
-1.00277 0.014341  2.16299 255 255 255
 -0.778362 -0.0409001    2.30971 255 255 255
  -0.861271 -0.00638833     2.25621 255 255 255
-0.653277 -0.117627   2.39495 255 255 255
 -1.16878 0.0532596   2.00247 255 255 255
-0.741476  0.335468   2.20658 255 255 255
-0.469908  0.273641   2.18271 255 255 255
 -0.895088 -0.0553704    2.27287 255 255 255
 -1.14026 -0.063775   2.10454 255 255 255
-0.501129  0.392713   2.16619 255 255 255
-0.65189 0.215334  2.23347 255 255 255
-0.381943  0.317252   2.12596 255 255 255
 -0.961097 -0.0134514    2.21266 255 255 255
-0.647841  0.122966   2.26639 255 255 255
-1.01807   1.0838  1.86513 255 255 255
-0.637268 0.0684113    2.3189 255 255 255
 -0.85361 -0.157472   2.32002 255 255 255
-1.08137 0.068571  2.07313 255 255 255
-0.557589  0.314976   2.16641 255 255 255
-0.651824 0.0209479   2.32632 255 255 255
-0.769752  0.379329    2.1941 255 255 255
-0.622492  0.266529   2.18613 255 255 255
-0.719669 -0.143965    2.3785 255 255 255
 -1.08123 -0.072731   2.15143 255 255 255
-0.380464  0.296063   2.16134 255 255 255
-0.503951  0.387574   2.16151 255 255 255
-0.709924  0.414989   2.17702 255 255 255
-0.582252  0.122836   2.27609 255 255 255
-0.670891  0.217381   2.24012 255 255 255
 -0.83111 -0.111903   2.32001 255 255 255
-0.676269  0.198134   2.23578 255 255 255
-0.566219  0.395362   2.20132 255 255 255
 -0.809342 -0.0745061    2.30825 255 255 255
 -1.05011 -0.017405   2.14987 255 255 255
-0.818907 -0.046954   2.29986 255 255 255
-0.667844     0.405   2.17962 255 255 255
 -1.16977 0.0393761   2.00727 255 255 255
-0.710342  0.315139    2.2092 255 255 255
  -1.1986 0.0325717   1.97483 255 255 255
-0.745335   0.43669   2.17581 255 255 255
-0.431768   0.30613     2.137 255 255 255
-0.536047  0.373073   2.17335 255 255 255
-0.693478  0.919989   1.21056 255 255 255
 -0.931058 -0.0920284    2.27225 255 255 255
-0.548592  0.451459   2.16624 255 255 255
-1.03282 0.121558  2.08346 255 255 255
-0.969411 0.0753749   2.15975 255 255 255
  -0.962817 -0.00474596     2.20328 255 255 255
  -0.967775 -0.00125903     2.20137 255 255 255
-0.721352 0.0965288   2.29802 255 255 255
 -1.17242 0.0058627   2.01097 255 255 255
-0.978448 0.0743926   2.15245 255 255 255
-0.602774 0.0311929   2.31698 255 255 255
-0.513004  0.284076   2.19605 255 255 255
-0.846602 0.0231777   2.24807 255 255 255
-0.635356  0.405267   2.17324 255 255 255
-0.674282  0.931928    1.2515 255 255 255
  -1.07928 -0.0106294    2.12345 255 255 255
-0.563936   0.14359   2.26271 255 255 255
-0.909472   1.17306   1.82106 255 255 255
-0.594589  0.266749   2.19057 255 255 255
-0.682469  0.443229   2.18216 255 255 255
-0.817163  0.254344   2.20974 255 255 255
 -0.871392 -0.0495759     2.2715 255 255 255
-0.968065   1.24912    1.7644 255 255 255
-0.600991  0.216502    2.2117 255 255 255
-0.823982 0.0440017   2.24844 255 255 255
-0.696266  0.413826   2.17301 255 255 255
-0.504821  0.295536   2.19191 255 255 255
  -1.01495 -0.0774742    2.20853 255 255 255
-0.428776  0.178593   2.24138 255 255 255
 -1.14844 0.0422823   2.01946 255 255 255
-0.613462  0.125627   2.26946 255 255 255
-0.877658  0.158786   2.14269 255 255 255
-0.484321     1.051   1.85511 255 255 255
-0.885869 -0.156737   2.32458 255 255 255
-0.574088 0.0156673   2.34625 255 255 255
-0.736026 0.0239857   2.29213 255 255 255
-0.588086  0.382603   2.16202 255 255 255
-0.602629  0.154527    2.2633 255 255 255
-0.580669  0.404582   2.14919 255 255 255
-0.462593  0.270604   2.17185 255 255 255
-0.738445  0.329253   2.20487 255 255 255
-0.672174 0.0646507   2.26345 255 255 255
 -1.10446 0.0736808   2.04366 255 255 255
-0.816565  0.166531   2.16511 255 255 255
-1.16301 0.062804  2.00111 255 255 255
-0.68122 0.069391  2.26598 255 255 255
-0.414563  0.361257   2.12072 255 255 255
-0.561545    0.4079   2.16457 255 255 255
-0.843799 0.0513638   2.23641 255 255 255
-1.08939 0.380215  1.82155 255 255 255
-0.776092 0.0298797   2.27504 255 255 255
-0.556614  0.346645     2.161 255 255 255
-0.668059  0.199562   2.23337 255 255 255
-0.428865  0.141204   2.24259 255 255 255
-1.09486 0.083784  2.04818 255 255 255
 -0.858116 -0.0481652    2.27536 255 255 255
 -0.92374 -0.103884   2.28083 255 255 255
   -1.17614 -0.00296651       2.018 255 255 255
-1.13648 0.079157   2.0187 255 255 255
 -0.708114 -0.0331219    2.33115 255 255 255
-0.842943 -0.183848   2.35061 255 255 255
  -1.04923 -0.0470895    2.16988 255 255 255
-0.213063  0.841302   1.98012 255 255 255
0.357147  1.05998  1.91963 255 255 255
 0.21523 0.866619  2.01148 255 255 255
0.0296489   1.01698   1.79338 255 255 255
0.453428 0.725015  2.14706 255 255 255
-0.326089  0.892282   1.93105 255 255 255
0.933086 0.910236  2.07832 255 255 255
0.294898 0.684363  2.10604 255 255 255
 0.34908 0.797741  2.01473 255 255 255
0.330239 0.327435   2.2986 255 255 255
0.430312  1.06395   1.9396 255 255 255
0.543205 0.925631  1.98205 255 255 255
0.846969 0.637398  2.21899 255 255 255
-0.201833  0.605404   2.06285 255 255 255
0.697611 0.523962  2.25003 255 255 255
0.701932 0.520269  2.26867 255 255 255
-0.432324  0.492039   2.10254 255 255 255
0.228594 0.997017  1.87164 255 255 255
 0.72945 0.333633  2.40999 255 255 255
-0.139368  0.928886   1.90425 255 255 255
0.111062 0.490417  2.19652 255 255 255
-0.142519  0.738213   2.01616 255 255 255
0.471421 0.609962  2.14948 255 255 255
0.358458 0.970704  1.96368 255 255 255
-0.617985  0.714797   2.03406 255 255 255
0.274721  1.05742  1.83512 255 255 255
-0.0284652   0.854828    1.96418 255 255 255
0.583161 0.842039  2.02632 255 255 255
0.488352  1.16401  1.87707 255 255 255
0.304874 0.877597  2.00377 255 255 255
0.488343  1.36077  1.72684 255 255 255
-0.686852  0.764637   2.00211 255 255 255
-0.216628  0.346455   2.23414 255 255 255
-0.342426  0.789764   1.98533 255 255 255
-0.516411  0.529333   2.12574 255 255 255
-0.256704  0.782318   2.00138 255 255 255
0.889252 0.708271  2.17538 255 255 255
0.591082  1.02962  1.97538 255 255 255
0.0531459  0.786937   2.00978 255 255 255
0.730617  1.36455  1.78795 255 255 255
0.215501 0.303638  2.32686 255 255 255
 1.06676 0.516113  2.40636 255 255 255
-0.252943   0.66415   2.03975 255 255 255
0.0359968  0.674343   2.08198 255 255 255
0.0410779  0.513343   2.14115 255 255 255
-0.061214  0.738632   2.03767 255 255 255
0.704863 0.877776  2.08401 255 255 255
-0.399741   0.76655   1.97297 255 255 255
-0.283466   1.00385   1.87276 255 255 255
0.616723 0.967422  1.97863 255 255 255
0.70513 1.24219 1.85921 255 255 255
0.924503 0.548835  2.30434 255 255 255
-0.131524  0.564662   2.10291 255 255 255
0.802161 0.624036  2.22229 255 255 255
0.163397 0.778866  2.02266 255 255 255
-0.18796  1.20706  1.78613 255 255 255
-0.217488  0.726654   2.00211 255 255 255
0.324222 0.823362  2.00648 255 255 255
0.655534 0.764461  2.12966 255 255 255
-0.933748  0.582552    2.1147 255 255 255
-0.0814316   0.442095    2.16031 255 255 255
-1.00007 0.225974  2.32378 255 255 255
-0.895608  0.503675   2.14803 255 255 255
-0.252717  0.764199   1.99879 255 255 255
0.0656182  0.944137   1.94457 255 255 255
0.607779  1.23885  1.84702 255 255 255
0.498988 0.969684  1.91626 255 255 255
-0.0322992    1.02258    1.88704 255 255 255
-0.626957  0.659651   2.03347 255 255 255
0.0178128  0.898364   1.94793 255 255 255
0.0587669  0.447695   2.20732 255 255 255
0.519413  1.11411  1.89008 255 255 255
-0.0937011   0.864264    1.96515 255 255 255
0.832758  1.21726  1.84567 255 255 255
-0.412416  0.840246   1.95793 255 255 255
-0.565441  0.454084   2.08993 255 255 255
-0.530014  0.774641   1.99598 255 255 255
0.552259  1.07697  1.87555 255 255 255
0.408939 0.833961  1.98987 255 255 255
-0.256429  0.898597   1.93968 255 255 255
-0.150613   1.06229   1.87303 255 255 255
0.633663  1.20713  1.79811 255 255 255
0.206062  1.00921  1.87541 255 255 255
-0.404484  0.447515   2.17297 255 255 255
-0.0169699   0.792808    2.00507 255 255 255
0.112095 0.439385  2.23167 255 255 255
0.571654  1.36528  1.75375 255 255 255
-0.469374  0.373083   2.20671 255 255 255
0.241028 0.734807  2.07706 255 255 255
0.653503  1.23949  1.82148 255 255 255
-0.550513  0.989633   1.88613 255 255 255
-0.314437  0.971123   1.88155 255 255 255
-0.0481539   0.661133    2.03918 255 255 255
0.726926   1.3105  1.83169 255 255 255
-0.495507   0.84044   1.96619 255 255 255
-0.695972  0.534337   2.08114 255 255 255
-0.448099  0.774187   1.98746 255 255 255
0.328003 0.926279   1.9757 255 255 255
-0.489455   0.79934   1.98619 255 255 255
0.314511 0.614255  2.08519 255 255 255
0.463257 0.925971  1.93526 255 255 255
-0.688266  0.479635   2.12325 255 255 255
-0.120792   1.04797   1.88087 255 255 255
0.219773  0.45215  2.19702 255 255 255
0.547239 0.611655  2.11708 255 255 255
-0.648699  0.923735   1.93195 255 255 255
0.432121 0.886342  1.95602 255 255 255
-0.730112  0.780319   1.99912 255 255 255
-0.405219  0.664455   2.05397 255 255 255
 0.19609 0.731372  2.07255 255 255 255
0.556207  1.11544    1.875 255 255 255
 0.28482 0.731141  2.07885 255 255 255
0.947738 0.529918  2.29032 255 255 255
0.380347 0.872202  2.01082 255 255 255
-0.403799  0.989439   1.89769 255 255 255
-0.496448  0.421691   2.18593 255 255 255
-0.199473  0.500706   2.04682 255 255 255
0.627881  1.39098  1.74256 255 255 255
0.134061 0.560707   2.1363 255 255 255
0.363575 0.504773  2.21546 255 255 255
0.207677 0.552851  2.15726 255 255 255
-0.548985  0.368296   2.19629 255 255 255
-0.138758  0.279776   2.24315 255 255 255
0.882009 0.972477  2.04258 255 255 255
-0.442294  0.959132   1.89595 255 255 255
0.479174  1.00457   1.9527 255 255 255
1.07693 0.36134 2.42613 255 255 255
 1.19674 0.526788  2.43404 255 255 255
 0.19968 0.594858  2.12401 255 255 255
-0.348223   1.00676   1.88829 255 255 255
0.465365 0.973187  1.96124 255 255 255
-0.118939  0.689375   2.05132 255 255 255
0.277176 0.694629  2.08143 255 255 255
-0.519473  0.569636   2.08308 255 255 255
0.376913  1.30894  1.75771 255 255 255
-0.204558     1.142   1.80208 255 255 255
0.571424  1.14859  1.88625 255 255 255
-0.0989705   0.653524    2.00123 255 255 255
-0.823864   0.45069   2.16663 255 255 255
0.959842 0.683859  2.20997 255 255 255
-0.132296  0.656053   2.05775 255 255 255
0.234318  1.13554  1.85004 255 255 255
0.863324 0.723506  2.21342 255 255 255
0.439344 0.958982  1.98223 255 255 255
0.867167 0.533776  2.30233 255 255 255
-0.244241  0.602382   2.08492 255 255 255
0.371771  1.25173  1.78607 255 255 255
0.00576732   0.654341    2.05489 255 255 255
-0.493178  0.913751   1.92641 255 255 255
0.164034 0.582001  2.14763 255 255 255
-0.329671   1.14485    1.7493 255 255 255
0.850837 0.240851  2.48959 255 255 255
-0.481441  0.740332   2.00822 255 255 255
 0.30182 0.954785  1.92243 255 255 255
0.460649  1.21453  1.82836 255 255 255
0.756306  1.15994   1.8798 255 255 255
0.763606  0.60537  2.25284 255 255 255
-0.252324  0.938342   1.91372 255 255 255
 0.35675 0.852938  2.01564 255 255 255
-0.234108  0.957464   1.90523 255 255 255
0.381833  1.37146  1.73154 255 255 255
-0.536563  0.696387   1.97463 255 255 255
0.283491 0.407197  2.25692 255 255 255
-0.46413 0.873376  1.94968 255 255 255
 1.09405 0.547236   2.3877 255 255 255
0.352158  0.82648  2.01741 255 255 255
-0.480141  0.941757   1.91973 255 255 255
0.622476 0.640504  2.18582 255 255 255
0.733071  1.01812  1.93743 255 255 255
-0.631431  0.399324   2.10545 255 255 255
-0.286365  0.734594   2.02519 255 255 255
0.562112 0.904907  2.01473 255 255 255
0.557062 0.787184  2.10466 255 255 255
0.992708 0.404706  2.42595 255 255 255
0.0358125  0.642663   2.11663 255 255 255
0.224407 0.806553   2.0304 255 255 255
0.0687962    1.1534   1.81878 255 255 255
-0.320874   1.01962   1.88758 255 255 255
-0.93954  0.69835  2.05492 255 255 255
-0.657084  0.410272   2.07614 255 255 255
 1.23223 0.527458   2.4408 255 255 255
0.750583 0.406108  2.35475 255 255 255
-0.684658  0.613039   2.05952 255 255 255
0.422386  1.16598  1.85013 255 255 255
-0.699447  0.791088   2.00829 255 255 255
 1.14927 0.657126  2.29536 255 255 255
-0.743865  0.807961    2.0136 255 255 255
-0.0543977   0.791589    2.01081 255 255 255
0.986529 0.955506  2.06578 255 255 255
 -0.1425 0.813668  1.97843 255 255 255
0.754591  1.05477  1.89882 255 255 255
-0.631515   0.95802   1.91295 255 255 255
0.938369 0.965743  2.06882 255 255 255
0.962615 0.732275  2.21426 255 255 255
-0.586534   0.81414   2.00461 255 255 255
-0.689242  0.713001   1.94876 255 255 255
0.824367  1.25233  1.82571 255 255 255
-0.0744226    1.08149    1.84757 255 255 255
-0.266812  0.609658   2.06219 255 255 255
0.992964 0.713164  2.24292 255 255 255
-0.353843   1.12402    1.7983 255 255 255
0.767303 0.697992  2.20055 255 255 255
0.589523 0.668072  2.11571 255 255 255
0.364186  1.34459  1.74992 255 255 255
0.633188 0.546401  2.22106 255 255 255
-0.827132  0.425055   2.16194 255 255 255
-0.19353  0.94008   1.9137 255 255 255
-0.360935   1.24718     1.716 255 255 255
 0.13102 0.925343     1.96 255 255 255
0.135055 0.401395  2.23721 255 255 255
0.986717 0.716882  2.22123 255 255 255
-0.124857  0.849997   1.97247 255 255 255
-0.828363  0.698028   2.03994 255 255 255
-0.431625  0.978499   1.90496 255 255 255
0.105965 0.900782  1.93251 255 255 255
0.788253 0.741124  2.13372 255 255 255
-0.533748  0.242569   2.27929 255 255 255
 1.12086 0.537302  2.38614 255 255 255
-0.342013  0.949152   1.91045 255 255 255
0.627451 0.611313  2.19516 255 255 255
0.757614 0.553693  2.28047 255 255 255
-0.446444   0.83568    1.9657 255 255 255
-0.736901  0.837367   1.98485 255 255 255
0.594807 0.513312  2.25429 255 255 255
0.774104 0.759951  2.16124 255 255 255
-0.913238   0.61792   2.09398 255 255 255
-0.542443  0.817725   1.99504 255 255 255
0.943092 0.713268  2.22759 255 255 255
  1.0902 0.704626  2.28426 255 255 255
-0.157741  0.852704   1.95893 255 255 255
-0.424237  0.793979    1.9886 255 255 255
-0.632047  0.474833   2.04964 255 255 255
 0.73495 0.980653  1.94391 255 255 255
-0.153168  0.511663   2.15286 255 255 255
-0.652948  0.655017   2.04245 255 255 255
0.602216  1.34987  1.77279 255 255 255
-0.375533   1.00779   1.88473 255 255 255
-0.616977  0.780267   2.01602 255 255 255
0.887994  1.15678  1.86414 255 255 255
-0.511355  0.806135   1.97743 255 255 255
-0.583198  0.999612   1.88264 255 255 255
0.596707  0.47401  2.27974 255 255 255
-0.26713 0.329383  2.22792 255 255 255
0.955495 0.559822  2.31399 255 255 255
 1.02866 0.409403  2.44958 255 255 255
-0.242841  0.754251    2.0053 255 255 255
 1.07566 0.393932  2.43745 255 255 255
-0.61566 0.384714  2.13451 255 255 255
-0.626079   0.90716   1.93608 255 255 255
0.0949513   1.20817   1.80489 255 255 255
-0.275713   1.23731    1.7424 255 255 255
-0.0722701     1.2826     1.7299 255 255 255
-0.801511  0.736966    2.0189 255 255 255
0.621252  0.58409  2.20924 255 255 255
 1.15968 0.534505  2.41951 255 255 255
0.165829 0.618064  2.11133 255 255 255
-0.0997268     1.0712    1.85615 255 255 255
-0.541858  0.961832   1.88999 255 255 255
0.975747 0.658158  2.21855 255 255 255
0.550951 0.864798  2.03738 255 255 255
-0.512591  0.464814    2.1235 255 255 255
0.899424 0.520073  2.32368 255 255 255
0.17632 1.33641 1.71751 255 255 255
0.316513 0.464229  2.21642 255 255 255
0.0424996   1.14521   1.83312 255 255 255
0.767747  0.39981  2.31237 255 255 255
 1.18016 0.683623  2.33831 255 255 255
0.402749  1.25501  1.79728 255 255 255
0.10977 1.22316 1.79106 255 255 255
-0.393021  0.818575    1.9736 255 255 255
0.216476  1.16871  1.82204 255 255 255
-0.711865  0.832157   1.98788 255 255 255
-0.388551  0.940544   1.90645 255 255 255
0.917401 0.754299  2.20401 255 255 255
0.024807   1.1408  1.83684 255 255 255
0.322041  1.30521  1.76742 255 255 255
-0.384588  0.771162   1.99545 255 255 255
0.43514 1.18316 1.84622 255 255 255
0.788318 0.699015  2.19376 255 255 255
 1.13841 0.684522  2.32286 255 255 255
0.300427  1.25367  1.77834 255 255 255
0.0686132   1.12522   1.84831 255 255 255
0.0697372   1.12484   1.84441 255 255 255
-0.279168  0.368115   2.20093 255 255 255
0.857944 0.436752  2.35362 255 255 255
0.860707  0.43511  2.36463 255 255 255
-0.672204  0.701676   1.94468 255 255 255
0.758227 0.869376  2.05577 255 255 255
-0.116135  0.795238   1.98951 255 255 255
0.953563 0.985227  2.05391 255 255 255
0.167188  1.28809  1.75714 255 255 255
0.113665  1.27192  1.74066 255 255 255
0.452718  1.20437  1.83979 255 255 255
0.290961 0.535777  2.18905 255 255 255
0.996691 0.983063  2.06492 255 255 255
 0.52937 0.772604  2.09324 255 255 255
0.119338   1.2876  1.73341 255 255 255
-0.162064   0.66272    2.0558 255 255 255
-0.184138   1.23571   1.73998 255 255 255
0.868046 0.265379  2.49934 255 255 255
-0.431054  0.773503   1.99735 255 255 255
0.651284   1.0499  1.93443 255 255 255
0.64739 1.31202 1.80817 255 255 255
0.0871844  0.615736   2.09323 255 255 255
-0.0760936   0.856685    1.96858 255 255 255
0.571926 0.812469  2.05435 255 255 255
-0.277882    1.1083    1.7999 255 255 255
 1.18221 0.499986  2.40851 255 255 255
0.078047  1.21524  1.79826 255 255 255
-0.868819  0.749938   2.02544 255 255 255
 1.00013 0.734004  2.22177 255 255 255
0.303872  1.28506  1.77477 255 255 255
0.858213 0.568703  2.28832 255 255 255
0.579024 0.941593  1.99927 255 255 255
0.399107 0.982152  1.96189 255 255 255
0.497679 0.638366  2.15359 255 255 255
0.816858 0.246523   2.4618 255 255 255
0.969582 0.947875  2.07032 255 255 255
0.0393384   1.20665   1.77293 255 255 255
0.0653524  0.677004   2.07051 255 255 255
0.242446  1.16208  1.82972 255 255 255
 1.11946 0.703031  2.30355 255 255 255
0.402276  1.39509  1.71123 255 255 255
-0.586823  0.658949   2.03205 255 255 255
0.836024  1.39463  1.86411 255 255 255
0.0473694   1.25829     1.772 255 255 255
-0.250396  0.430909   2.16986 255 255 255
0.0653845   1.23807   1.76814 255 255 255
-0.0726384     1.0278    1.87014 255 255 255
0.269186 0.775033  2.05555 255 255 255
0.346483 0.473754  2.22986 255 255 255
0.188175   1.1541  1.83675 255 255 255
 1.02556 0.715954   2.2331 255 255 255
0.828307 0.720379  2.20547 255 255 255
-0.282836  0.386802   2.20789 255 255 255
0.219457 0.480594  2.20118 255 255 255
-0.0808088     1.0425    1.87588 255 255 255
0.330407  1.04195  1.91671 255 255 255
0.107344 0.923533   1.9328 255 255 255
0.663471  1.31403  1.80766 255 255 255
-0.0619082    1.09883    1.83614 255 255 255
0.432335  1.01827  1.94392 255 255 255
 1.00201 0.938781  2.08234 255 255 255
0.720755  1.00266  1.94085 255 255 255
0.233677 0.913441  1.97519 255 255 255
0.111496  1.00447  1.89785 255 255 255
-0.0962605   0.795541    1.98709 255 255 255
0.143983  1.09589  1.86874 255 255 255
0.115736 0.681127  2.05375 255 255 255
0.614355 0.191882  2.49551 255 255 255
0.0452195  0.951046   1.93696 255 255 255
0.861217 0.754737  2.16924 255 255 255
0.924635 0.679799  2.21265 255 255 255
0.643609  1.25558  1.83671 255 255 255
0.388397 0.899968  1.99886 255 255 255
 0.28228 0.761906  2.05155 255 255 255
0.120993  1.18911  1.80958 255 255 255
-0.825606  0.796262   2.00917 255 255 255
0.529827  1.19419  1.84978 255 255 255
-0.158419   1.02207   1.88701 255 255 255
-0.498459  0.406015    2.1801 255 255 255
  1.0527 0.850138  2.15386 255 255 255
0.354725  1.30871  1.74761 255 255 255
0.898499  0.73171  2.21905 255 255 255
0.0491016  0.622854   2.13824 255 255 255
0.408384 0.940572  1.96651 255 255 255
0.185604 0.570128  2.15053 255 255 255
-0.87883 0.730237  2.02183 255 255 255
-0.0767361   0.809942    1.98699 255 255 255
-0.619728  0.437598   2.05768 255 255 255
-0.812337  0.827456   2.01464 255 255 255
0.00511116    1.05799    1.85877 255 255 255
-0.663087  0.819318   1.99788 255 255 255
0.0859516  0.897509   1.92049 255 255 255
-0.27026 0.825622  1.96512 255 255 255
-0.0730989    1.11337    1.83857 255 255 255
0.586655 0.972341  1.98722 255 255 255
0.30498 1.21961 1.80612 255 255 255
0.742676 0.858722  2.03202 255 255 255
0.178522  1.09321  1.85925 255 255 255
-0.200971  0.739831   2.00404 255 255 255
-0.203173   0.77928   2.00136 255 255 255
-0.511674  0.784352   1.99306 255 255 255
-0.394071  0.412358   2.21553 255 255 255
-0.802709   0.71716   2.02259 255 255 255
-0.670736  0.721947   1.94551 255 255 255
0.593886 0.867509  2.02801 255 255 255
0.575019 0.868344  2.01987 255 255 255
 -0.4958 0.783031  1.99952 255 255 255
0.280207 0.382929  2.26286 255 255 255
0.187585  0.59055  2.13916 255 255 255
-0.409562  0.869351   1.93843 255 255 255
0.725405 0.962663   1.9629 255 255 255
0.773664 0.246832  2.49211 255 255 255
-0.12238 0.516438  2.14307 255 255 255
0.951066 0.961547  2.06146 255 255 255
-0.0157839   0.711142    2.03988 255 255 255
-0.347824   1.16603   1.76995 255 255 255
-0.403673  0.401499   2.19833 255 255 255
0.816155  0.58279  2.26515 255 255 255
-0.416657  0.745105   1.95069 255 255 255
0.862531  0.87388  2.08407 255 255 255
-0.864422   1.12799   1.84483 255 255 255
0.354469  1.19618  1.80079 255 255 255
0.0151136  0.608307   1.99481 255 255 255
-0.449027  0.612803   2.06275 255 255 255
0.258095 0.900371  1.98869 255 255 255
0.625798  1.27494  1.81542 255 255 255
0.787523 0.608778  2.24772 255 255 255
-0.759732  0.470009    2.1133 255 255 255
0.122388 0.645416  2.09989 255 255 255
-0.215697   0.41414   2.17617 255 255 255
-0.702129  0.697927   1.95098 255 255 255
0.552239  1.24412  1.83656 255 255 255
-0.439367   1.13014   1.80198 255 255 255
0.870969 0.894602  2.05476 255 255 255
-0.604324  0.816959   1.98365 255 255 255
0.627337 0.208791  2.48866 255 255 255
-0.755237  0.830658   1.98484 255 255 255
-0.142631  0.631272   2.08541 255 255 255
-0.238507  0.846724   1.96514 255 255 255
0.225877 0.717522  2.08629 255 255 255
0.366982  1.22107  1.78933 255 255 255
0.594374 0.534301  2.25129 255 255 255
0.0104958  0.742388   2.03692 255 255 255
0.544899   1.4238  1.71743 255 255 255
0.00419794     1.0391     1.8789 255 255 255
 1.09898 0.432516  2.44848 255 255 255
0.916479 0.746564  2.16665 255 255 255
0.602235 0.941045   1.9871 255 255 255
0.454458  1.01484  1.91996 255 255 255
-0.600386  0.798824   2.00498 255 255 255
0.115481  1.24873  1.77821 255 255 255
-0.950737  0.734669    2.0358 255 255 255
0.453949  1.40948  1.70908 255 255 255
0.0158077  0.768326   2.02497 255 255 255
0.47819 1.04851 1.91221 255 255 255
-0.320515  0.834026   1.97674 255 255 255
0.639596 0.338623  2.38525 255 255 255
0.173705 0.515004  2.17317 255 255 255
0.486822  1.11803  1.89459 255 255 255
-0.430685  0.834006   1.96286 255 255 255
0.320716 0.429009  2.25875 255 255 255
0.345355  1.31597  1.74778 255 255 255
0.191372 0.622415  2.11674 255 255 255
-0.894839  0.581022    2.1174 255 255 255
0.233929  1.31275  1.73775 255 255 255
-0.00582865     1.18106     1.79257 255 255 255
0.500778  1.07052  1.89975 255 255 255
0.142806   0.9797  1.93351 255 255 255
-0.032308  0.673951   2.04898 255 255 255
0.261527 0.931335  1.96126 255 255 255
-0.547988  0.222236   2.28606 255 255 255
-0.469747  0.941211   1.91313 255 255 255
   0.877 0.438152  2.35718 255 255 255
-0.235315   1.11752   1.80621 255 255 255
0.110405  1.29661  1.72894 255 255 255
-0.623822  0.697742   2.03977 255 255 255
0.743276   1.0486  1.93221 255 255 255
0.573952 0.723188  2.11649 255 255 255
0.31514 0.84369 2.02586 255 255 255
0.0861833   1.29952   1.74881 255 255 255
-0.263666  0.727759   2.00393 255 255 255
0.663271  1.24867  1.83877 255 255 255
0.0148464  0.663006   2.08185 255 255 255
0.23559 1.20081 1.80055 255 255 255
-0.595726  0.836728   1.98161 255 255 255
-0.823107  0.716792   2.02797 255 255 255
0.958733 0.766496  2.21227 255 255 255
-0.758118  0.845093    1.9819 255 255 255
0.280328  1.35441  1.73409 255 255 255
0.935562 0.693706  2.20421 255 255 255
0.230727 0.780484  2.05491 255 255 255
0.0308206   1.21636   1.77518 255 255 255
0.163022  1.04467  1.89313 255 255 255
 1.07032 0.665732  2.25655 255 255 255
0.453044  1.06919   1.9069 255 255 255
0.134649 0.658395  2.07988 255 255 255
0.113081 0.694421  2.06527 255 255 255
-0.025797   0.32535   2.25844 255 255 255
-0.250605  0.845566   1.95646 255 255 255
-0.510994  0.914493   1.93613 255 255 255
-0.0824302    1.07489    1.84896 255 255 255
-0.0384199    1.08202    1.86201 255 255 255
-0.298422   0.81698   1.96813 255 255 255
0.276206 0.553072  2.16496 255 255 255
0.529097  1.16391  1.86848 255 255 255
0.0735588   1.22765   1.78855 255 255 255
0.444022  1.02107   1.9262 255 255 255
 0.13742 0.969695   1.9255 255 255 255
 1.01754 0.998523  2.06965 255 255 255
0.0982218  0.585089   2.10581 255 255 255
0.170625 0.638994  2.10313 255 255 255
-0.869392  0.354534   2.21737 255 255 255
0.534471  1.15432  1.85841 255 255 255
0.605467  1.13579  1.82653 255 255 255
0.518852  1.16815  1.86722 255 255 255
0.545004 0.715944  2.12257 255 255 255
-0.00469936      1.0674     1.85778 255 255 255
-0.362077  0.818307   1.98549 255 255 255
0.540525 0.732295  2.10007 255 255 255
0.122538 0.590235   2.1259 255 255 255
-0.258931  0.854645   1.95116 255 255 255
0.904518 0.570686   2.3103 255 255 255
0.544064 0.881387  2.03689 255 255 255
0.903322 0.301431  2.48422 255 255 255
0.334752  1.21042  1.81462 255 255 255
0.834055 0.832693  2.07088 255 255 255
-0.0601002    1.27634    1.73659 255 255 255
-0.880196  0.656576   2.07064 255 255 255
-0.864884  0.795049   2.00282 255 255 255
0.168226  1.36319  1.70477 255 255 255
0.463547  1.06283  1.90767 255 255 255
0.308599 0.420604  2.24789 255 255 255
0.844292 0.446788  2.35492 255 255 255
0.319035  1.23111  1.79704 255 255 255
-0.243458   1.27447   1.71716 255 255 255
0.104826  1.30573  1.74218 255 255 255
0.109716   1.1705  1.81035 255 255 255
0.894116 0.603485  2.27734 255 255 255
0.299323 0.507708  2.20064 255 255 255
0.0529732  0.740319   2.03458 255 255 255
0.0990837  0.976747    1.9135 255 255 255
-0.857833  0.477229   2.07905 255 255 255
0.490138  1.07686   1.8979 255 255 255
-0.531293  0.386855   2.20771 255 255 255
-0.0931261    1.23608    1.75236 255 255 255
-0.177577  0.667539   2.04381 255 255 255
-0.257856  0.328823   2.22805 255 255 255
0.165132  1.34799  1.73232 255 255 255
-0.234598  0.987568   1.89019 255 255 255
0.553704 0.878249  2.02274 255 255 255
0.0711012  0.971928   1.92372 255 255 255
0.168754   0.7242  2.07058 255 255 255
0.0329907  0.751932   2.03198 255 255 255
-0.0524283   0.935467    1.87933 255 255 255
0.232583 0.591106  2.13803 255 255 255
0.503041   1.4037  1.74024 255 255 255
0.574711 0.918116  1.99865 255 255 255
0.101709  1.01294  1.90415 255 255 255
0.647158  1.08255  1.91997 255 255 255
-0.364501  0.999915   1.88936 255 255 255
0.428567  1.15464  1.83377 255 255 255
0.660165 0.609422  2.14514 255 255 255
-0.423041  0.909033   1.91404 255 255 255
-0.159424   1.25506   1.75396 255 255 255
-0.660899  0.689016   2.03619 255 255 255
-0.604957  0.923562    1.9079 255 255 255
0.288507 0.933274  1.95619 255 255 255
0.169176  1.10093  1.85804 255 255 255
 0.2189 1.11211 1.86415 255 255 255
0.0245799    1.2255   1.78202 255 255 255
-0.398427  0.850699   1.93896 255 255 255
0.802516  1.31205   1.8615 255 255 255
-0.877452  0.580098   2.11968 255 255 255
0.519225 0.657706  2.12684 255 255 255
0.13357 1.03334 1.88809 255 255 255
-0.581233  0.393176   2.10839 255 255 255
0.0647485  0.713294    2.0475 255 255 255
-0.157884  0.536445   2.11889 255 255 255
-0.0780271   0.776253    2.00397 255 255 255
-0.092976  0.739551   2.02946 255 255 255
 0.74631 0.963937  1.97346 255 255 255
0.107607 0.983699  1.91628 255 255 255
0.467552   1.0534  1.90501 255 255 255
-0.0930924    1.05369    1.86387 255 255 255
0.645391  1.37156  1.68487 255 255 255
 0.87082 0.964394  2.03747 255 255 255
-0.0870419   0.875185      1.955 255 255 255
0.532892  1.38982  1.74212 255 255 255
0.722648  1.27075  1.84774 255 255 255
-0.24589 0.954392   1.9109 255 255 255
0.925405 0.530633  2.29066 255 255 255
-0.611402  0.724814   2.02089 255 255 255
0.0220195  0.737101   2.02906 255 255 255
-0.857875  0.523808   2.09905 255 255 255
0.437691  1.02926  1.93231 255 255 255
 1.15613 0.499435  2.37121 255 255 255
0.558463  1.36341  1.74667 255 255 255
-0.345629  0.816224    1.9766 255 255 255
 0.13744 0.643063  2.09466 255 255 255
0.197675  1.36755  1.71451 255 255 255
-0.157055   1.23464   1.76327 255 255 255
-0.388008  0.846032   1.96137 255 255 255
0.139989  1.02652  1.88659 255 255 255
-0.125616   1.24986   1.75568 255 255 255
0.397674  1.40725  1.70975 255 255 255
-0.00976184    0.670441     2.05422 255 255 255
0.694789  1.03441  1.91131 255 255 255
-0.106589  0.263103   2.28567 255 255 255
-0.451619    0.8029   1.96764 255 255 255
0.0997101  0.678482   2.06475 255 255 255
-0.621101  0.803197   1.99508 255 255 255
-0.43584 0.877177  1.94085 255 255 255
-0.506652  0.953155   1.91559 255 255 255
0.773768 0.537879  2.28969 255 255 255
-0.806704  0.292061   2.17307 255 255 255
-0.621718  0.255767     2.149 255 255 255
0.0560688   1.24839   1.75643 255 255 255
0.0918993   0.71151   2.05913 255 255 255
-0.100747   0.53512   2.11711 255 255 255
0.114969 0.850952  1.99672 255 255 255
-0.881391  0.742584   2.02254 255 255 255
0.805698 0.916769  1.99736 255 255 255
0.478012  1.01934  1.94045 255 255 255
-0.0547483    1.34794    1.70926 255 255 255
 1.16896 0.397617  2.48919 255 255 255
0.856566 0.535852  2.29738 255 255 255
-0.298957  0.467968   2.08785 255 255 255
0.263776 0.743249  2.07395 255 255 255
-0.935734  0.694776   2.04704 255 255 255
0.810954  1.33113   1.8582 255 255 255
0.590014 0.945149  1.98529 255 255 255
-0.151307   1.21957   1.75937 255 255 255
 0.99698 0.426308  2.41995 255 255 255
 0.25671 0.696401  2.09713 255 255 255
0.169049  1.30152  1.75296 255 255 255
-0.736021  0.821728   1.99324 255 255 255
0.589771  1.38031  1.75947 255 255 255
0.77172 0.42952 2.36305 255 255 255
0.817786 0.385451  2.29996 255 255 255
-0.286084   1.21789   1.75313 255 255 255
-0.276815  0.836667   1.96095 255 255 255
-0.880588  0.538538   2.12454 255 255 255
0.270643 0.900826  1.97623 255 255 255
 0.75274 0.781037  2.12017 255 255 255
 1.07674 0.254836  2.56613 255 255 255
-0.703968  0.806094   1.99487 255 255 255
0.230571  1.11039  1.86307 255 255 255
-0.321812   1.10162   1.74439 255 255 255
-0.601223  0.670925   2.03407 255 255 255
0.128425  1.31681  1.72617 255 255 255
0.576119 0.956804  1.99624 255 255 255
0.0892876  0.981419   1.91008 255 255 255
-0.154487  0.841618    1.9644 255 255 255
0.825353   1.2956  1.82306 255 255 255
0.556748  1.19727  1.86403 255 255 255
-0.71453  0.64666  1.92476 255 255 255
-0.676459  0.807766    2.0015 255 255 255
-0.869138  0.451366   2.07417 255 255 255
0.254041  0.92429  1.95926 255 255 255
-0.46355 0.344406  2.16983 255 255 255
0.261641 0.950798  1.95279 255 255 255
0.269401 0.459987  2.20937 255 255 255
-0.790746  0.766625   2.11629 255 255 255
0.0500225  0.827553   1.94381 255 255 255
-0.537236  0.595417    2.0772 255 255 255
0.353572  1.04785  1.89731 255 255 255
-0.547114  0.803771   2.00225 255 255 255
0.324813 0.882342  2.00385 255 255 255
 0.16923 0.947555  1.93763 255 255 255
0.636423  1.25858  1.83292 255 255 255
-0.246677  0.828668   1.95414 255 255 255
0.485191  1.08468  1.91023 255 255 255
-0.371085  0.821645   1.97914 255 255 255
0.396561 0.948499  1.96869 255 255 255
-0.613218  0.695895    2.0465 255 255 255
0.352652 0.933825   1.9814 255 255 255
 0.24154 0.750602  2.07197 255 255 255
0.428761  1.33586   1.7584 255 255 255
-0.967764   0.62183   2.10897 255 255 255
0.230641  1.20766  1.80959 255 255 255
0.756988 0.628733  2.22907 255 255 255
0.847045 0.867552  2.08102 255 255 255
0.36549 1.29996 1.76263 255 255 255
0.204833 0.476772  2.19697 255 255 255
-0.389783  0.833643   1.95333 255 255 255
0.309599 0.540053  2.18068 255 255 255
0.243701  1.19476  1.80702 255 255 255
-0.866341  0.715501   2.03239 255 255 255
-0.602045  0.448688    2.1553 255 255 255
0.291848 0.978588  1.93855 255 255 255
-0.213831  0.750907   1.99531 255 255 255
0.321828 0.448051  2.23623 255 255 255
0.576045 0.986989  1.97574 255 255 255
-0.0414824     1.0919    1.84702 255 255 255
-0.910247  0.837575   1.99792 255 255 255
-0.580032  0.782517   2.00985 255 255 255
0.0320203   1.15271   1.82047 255 255 255
-0.476396  0.767532   1.98451 255 255 255
0.234657 0.473115  2.19296 255 255 255
0.0762404  0.692447   2.05024 255 255 255
0.0749401   0.69168   2.05489 255 255 255
-0.141896   1.23059   1.76444 255 255 255
-0.253958  0.738098   2.01424 255 255 255
0.609487 0.948871  1.99164 255 255 255
 0.76575 0.675068  2.16423 255 255 255
-0.0138141    1.15053    1.81449 255 255 255
-0.474259  0.421207   2.17247 255 255 255
 1.18078 0.243597  2.60642 255 255 255
-0.893702  0.561848   2.06222 255 255 255
-0.211106   1.18851   1.79406 255 255 255
-0.130148   1.22972   1.75411 255 255 255
-0.582704  0.932943   1.88768 255 255 255
0.331577  1.22921  1.80322 255 255 255
-0.718121  0.657561   1.91696 255 255 255
0.632295  1.26431  1.84496 255 255 255
-0.00948259     1.19122     1.79976 255 255 255
0.810515 0.856161  2.07161 255 255 255
-0.553426  0.872135   1.96676 255 255 255
0.321882  1.00554  1.91995 255 255 255
-0.894755  0.539448   2.10111 255 255 255
-0.00847395    0.302624     2.27548 255 255 255
-0.149895  0.422308    2.1871 255 255 255
-0.278835  0.752378    2.0031 255 255 255
0.502348 0.671576  2.12327 255 255 255
-0.388822  0.900742     1.918 255 255 255
0.938175 0.515013  2.29405 255 255 255
0.160939 0.649707      2.1 255 255 255
-0.0534944     1.1474    1.82248 255 255 255
-0.0293976   0.345586    2.22523 255 255 255
0.411863  1.16042  1.83908 255 255 255
-0.0756512   0.795837    1.99904 255 255 255
-0.269592  0.340702   2.23175 255 255 255
-0.612548  0.458373   2.05359 255 255 255
 1.01716 0.261166  2.52466 255 255 255
 0.77015 0.954847  1.98276 255 255 255
-0.901271  0.355151   2.22662 255 255 255
0.568761 0.926259  2.00199 255 255 255
0.509061 0.664329  2.12218 255 255 255
-0.192247   1.15612   1.79256 255 255 255
0.296722 0.787429  2.04248 255 255 255
-0.88998 0.356028  2.22566 255 255 255
-0.716196  0.664745   1.93257 255 255 255
-0.0503894     1.0919    1.84361 255 255 255
0.646069  1.27202  1.82719 255 255 255
0.353554  1.05917  1.89583 255 255 255
0.909762 0.258094  2.51515 255 255 255
 1.19566 0.406519   2.5048 255 255 255
0.392278 0.957463  1.96695 255 255 255
-0.557989  0.859688   1.96674 255 255 255
-0.280609  0.845819   1.96122 255 255 255
0.624638  1.02939  1.95016 255 255 255
0.309043  0.96584  1.95597 255 255 255
-0.433998  0.846403   1.95337 255 255 255
 1.06512 0.915318   2.1164 255 255 255
-0.745201 0.0448055   2.46517 255 255 255
0.938854 0.931005  2.01266 255 255 255
0.106032 0.687764  2.06217 255 255 255
-0.517478  0.969415   1.74635 255 255 255
0.198525 0.848215  2.01593 255 255 255
0.525606 0.709391  2.11128 255 255 255
0.510419 0.718753  2.11916 255 255 255
0.145099  1.34861  1.71963 255 255 255
-0.618196  0.679768   2.03868 255 255 255
0.278858 0.713198  2.09165 255 255 255
0.940086 0.273682   2.4949 255 255 255
0.397054  1.04223  1.90976 255 255 255
-0.774222  0.768008   2.01718 255 255 255
-0.796462  0.496807   2.06427 255 255 255
-0.574697  0.848507   1.97219 255 255 255
0.167171  1.12912  1.85612 255 255 255
-0.126995  0.883353   1.95615 255 255 255
0.00118588    1.20937    1.79154 255 255 255
0.339416  1.30558  1.77077 255 255 255
0.584099  1.24296  1.84601 255 255 255
-0.652541  0.727675   1.95362 255 255 255
0.252508 0.307077  2.29622 255 255 255
 0.10247 0.704699  2.05928 255 255 255
 1.18948 0.263563  2.60049 255 255 255
0.641578  1.35519  1.69967 255 255 255
-0.713054  0.790343    2.0251 255 255 255
0.916701 0.531793  2.29424 255 255 255
0.301266 0.518541  2.20252 255 255 255
0.310383 0.396239  2.24413 255 255 255
0.987303 0.995523  2.05913 255 255 255
0.736903  1.28204  1.84577 255 255 255
0.435348 0.573011   2.1837 255 255 255
-0.152213   1.10865   1.84217 255 255 255
0.435776  1.18804  1.84818 255 255 255
0.346347  1.06475   1.9025 255 255 255
-0.0192829    1.07957    1.86428 255 255 255
0.453816 0.660009  2.14153 255 255 255
-0.212409  0.426929   2.17392 255 255 255
-0.875921  0.595504   2.10063 255 255 255
