ply
format ascii 1.0
element vertex 1135
property float x
property float y
property float z
property uchar red
property uchar green
property uchar blue
end_header
-0.454774 -0.437372    2.4757 255 255 255
 -0.71613 -0.134524   2.34701 255 255 255
-0.569965 -0.279328   2.40501 255 255 255
-0.429534 -0.222904   2.43316 255 255 255
-0.691075  0.160953   2.20261 255 255 255
-0.108165 -0.520837   2.59246 255 255 255
  0.35658 -0.460495   2.65582 255 255 255
-0.179896  0.404428   2.24455 255 255 255
-0.132093 -0.480209    2.5643 255 255 255
 -0.723318 -0.0306059    2.30724 255 255 255
-0.503642 -0.150601   2.39701 255 255 255
-0.229312  0.169728   2.32823 255 255 255
 0.367939 -0.523394   2.67092 255 255 255
 0.238839 -0.528615   2.65113 255 255 255
-0.627744  0.252522   2.18874 255 255 255
-0.474248 -0.246637   2.43529 255 255 255
-0.436362 -0.152436   2.38267 255 255 255
 0.652528 -0.124166   2.59599 255 255 255
-0.899295 -0.234243   2.33807 255 255 255
-0.732563  0.438308   2.07923 255 255 255
-0.431654  0.324758    2.1798 255 255 255
-0.0908501   -0.13027      2.431 255 255 255
-0.309521 -0.451178   2.53609 255 255 255
 -0.4784 -0.39096  2.47116 255 255 255
0.0291071  0.499954   2.25531 255 255 255
0.459696 -0.26823  2.60745 255 255 255
-0.63828 0.239646  2.15421 255 255 255
 0.129625 -0.503693   2.62845 255 255 255
-0.781719 -0.142973   2.33021 255 255 255
-0.179475 -0.493728   2.57563 255 255 255
-0.159606 -0.440588   2.56507 255 255 255
0.0256882 0.0840217   2.40634 255 255 255
-0.857139 -0.030733   2.27195 255 255 255
  0.628996 -0.0293796    2.56591 255 255 255
-0.774788 0.0207734   2.27741 255 255 255
-0.129341  0.456709   2.24442 255 255 255
-0.217861 -0.453636   2.55446 255 255 255
-0.249269 -0.459037   2.54879 255 255 255
-0.0875631   0.320784    2.29899 255 255 255
-0.320628  0.239298   2.28873 255 255 255
 0.032259 -0.552214   2.62849 255 255 255
-0.0869154   -0.47117     2.5811 255 255 255
-0.0254648   0.367076    2.29584 255 255 255
 0.103941 -0.561306   2.63652 255 255 255
 -0.76026 -0.102589    2.3267 255 255 255
-0.0749966     0.3642    2.27715 255 255 255
 0.425638 -0.207424   2.57148 255 255 255
 0.529874 -0.302913   2.63243 255 255 255
 -0.569623 -0.0552504    2.36571 255 255 255
-0.867252 -0.132259   2.31058 255 255 255
0.0375425 -0.370776    2.5553 255 255 255
0.0708603 -0.150562    2.4354 255 255 255
 0.244477 -0.486089   2.64922 255 255 255
-0.0593761  -0.101861    2.43121 255 255 255
 0.395049 -0.174997   2.57158 255 255 255
-0.802702 -0.203873   2.35246 255 255 255
-0.721476  0.311912   2.18125 255 255 255
-0.235482  0.161989   2.33236 255 255 255
 0.197118 -0.452569   2.61466 255 255 255
0.497694 0.176261   2.4683 255 255 255
 0.286585 -0.271869   2.58422 255 255 255
 -0.550787 -0.0425121    2.35093 255 255 255
-0.558084 -0.337802   2.43353 255 255 255
-0.844855  0.041765   2.24391 255 255 255
 0.391972 -0.218541   2.56873 255 255 255
-0.0873373  0.0672045    2.36721 255 255 255
-0.609929   0.14433   2.27043 255 255 255
   0.675349 -0.00667601     2.55563 255 255 255
 0.325159 -0.641457   2.76325 255 255 255
-0.429872 -0.375999   2.47499 255 255 255
-0.0827507   0.107375    2.37377 255 255 255
 0.455529 -0.381891   2.59223 255 255 255
-0.325774  -0.38321   2.50877 255 255 255
-0.518453 -0.381963   2.45701 255 255 255
 0.286739 -0.418661   2.62994 255 255 255
-0.701992  0.428707   2.13217 255 255 255
0.0389003  0.479497   2.26699 255 255 255
0.126121 0.325047  2.34043 255 255 255
-0.457227 -0.482783   2.51096 255 255 255
-0.573798   0.43794   2.15453 255 255 255
  0.640448 -0.0874213    2.58448 255 255 255
-0.857705 -0.213423   2.34249 255 255 255
 -0.11634 -0.500404    2.5816 255 255 255
 -0.40951 0.0537908   2.33074 255 255 255
-0.455589 -0.468976   2.51422 255 255 255
-0.469436 0.0823228   2.31309 255 255 255
  0.45359 -0.166177   2.58213 255 255 255
 0.311466 0.0177896   2.47838 255 255 255
-0.532172 0.0676086   2.31323 255 255 255
 0.309439 -0.453082   2.63316 255 255 255
-0.551235 -0.267963   2.39889 255 255 255
0.285305 -0.27871  2.58793 255 255 255
-0.537522 -0.215378   2.40177 255 255 255
-0.876586 -0.110543   2.30282 255 255 255
 -0.621655 -0.0703368    2.34293 255 255 255
-0.191669 -0.281457   2.49879 255 255 255
-0.55346 0.465444  2.16123 255 255 255
0.169866 0.431583  2.27996 255 255 255
-0.705663  0.164381   2.20129 255 255 255
-0.792126 -0.164575   2.34794 255 255 255
 0.155514 0.0915571   2.39564 255 255 255
0.383881 0.208194  2.42709 255 255 255
-0.391835  0.329887   2.24579 255 255 255
 0.24248 0.259122  2.38789 255 255 255
0.130326 0.141846   2.4043 255 255 255
 0.244334 -0.229039   2.55663 255 255 255
  0.512426 -0.0751756    2.55801 255 255 255
0.0544169 -0.294799   2.54094 255 255 255
 0.422093 -0.401883   2.63875 255 255 255
 0.293708 -0.269977   2.58392 255 255 255
  -1.07982 -0.0727722    2.15417 255 255 255
-0.192093 -0.155745   2.45381 255 255 255
0.0751903  0.320802   2.33131 255 255 255
 0.269809 -0.449782   2.63472 255 255 255
-0.195242 -0.505961    2.5743 255 255 255
-0.346818 0.0638834   2.34865 255 255 255
-0.300034  0.186419   2.30947 255 255 255
 -0.646187 -0.0532869    2.31007 255 255 255
 -0.20285 -0.481095   2.56474 255 255 255
 0.555021 -0.261111   2.62352 255 255 255
-0.644488 -0.220077   2.39312 255 255 255
 0.308512 -0.679268   2.79634 255 255 255
-0.839146  0.227089   2.18639 255 255 255
-0.353412 -0.337218   2.49296 255 255 255
-0.233472  0.402971   2.24129 255 255 255
-0.365106  0.535274   2.15606 255 255 255
 -0.469472 -0.0604901    2.37498 255 255 255
-0.0210673  -0.096516    2.45982 255 255 255
-0.348539 -0.212492   2.44162 255 255 255
 0.231669 -0.417896   2.60777 255 255 255
-0.439897 -0.407982     2.494 255 255 255
 -0.865815 0.00618028    2.25889 255 255 255
-0.0571184  -0.518926    2.64863 255 255 255
 0.271661 0.0614567   2.46394 255 255 255
 0.207218 -0.439789   2.61255 255 255 255
 0.316779 -0.279438   2.58828 255 255 255
0.0678206  0.426595   2.24585 255 255 255
  0.085791 -0.0234578    2.41425 255 255 255
-0.490841 -0.330991   2.45172 255 255 255
 0.430991 0.0336185   2.50523 255 255 255
 0.244661 -0.259051   2.56696 255 255 255
-0.706773 -0.195522    2.3856 255 255 255
 -0.30918 0.0182495   2.34356 255 255 255
0.543655 -0.14667  2.57633 255 255 255
0.0544715  0.281629   2.33255 255 255 255
-0.626249 -0.172893   2.36092 255 255 255
-0.0233607  0.0753091    2.39697 255 255 255
 0.415656 -0.533026   2.70118 255 255 255
 0.238139 0.0100959   2.47451 255 255 255
-0.612317 -0.133071   2.35602 255 255 255
-0.526351 -0.448668   2.47183 255 255 255
0.345684  0.14679  2.45113 255 255 255
-0.0158244  -0.254031    2.45361 255 255 255
0.193742 -0.47968  2.61594 255 255 255
-0.524191  0.397558   2.19193 255 255 255
 -0.70966 -0.256896   2.38071 255 255 255
 -0.876344 -0.0708629    2.28484 255 255 255
-0.55233 0.414261  2.18267 255 255 255
-0.185503 -0.382633   2.49428 255 255 255
-0.533774 -0.341701   2.44826 255 255 255
0.130973 0.337331   2.3344 255 255 255
 -0.540862 -0.0913377    2.36134 255 255 255
  0.18544 -0.505874    2.6266 255 255 255
-0.0197165    0.34272    2.29317 255 255 255
-0.287158  0.220686   2.30067 255 255 255
-0.104734  0.305615   2.30146 255 255 255
 0.355052 -0.587384   2.73897 255 255 255
-0.483121  -0.12601   2.38632 255 255 255
-0.483423 -0.125065   2.38872 255 255 255
 0.0979788 -0.0349353    2.40576 255 255 255
-0.417799 -0.179884   2.38195 255 255 255
0.121008 0.143391   2.4033 255 255 255
-0.654025 0.0706471   2.31698 255 255 255
0.00581285  -0.495323    2.63552 255 255 255
-0.603583  0.346502   2.18934 255 255 255
-0.0937502   0.279546    2.31637 255 255 255
-0.294174   0.16826   2.31939 255 255 255
 -0.23703 -0.485232   2.55796 255 255 255
 0.21341 -0.57529  2.71256 255 255 255
 0.224988 -0.567274   2.66326 255 255 255
-0.781829  -0.03907   2.29306 255 255 255
-0.607728  -0.15659   2.36332 255 255 255
-0.144406  0.501003   2.21045 255 255 255
-0.0132346 0.00375983    2.37467 255 255 255
  -0.2517 -0.491476   2.55741 255 255 255
-0.819269  0.208653   2.19082 255 255 255
-0.433844 -0.498277   2.52369 255 255 255
-0.0948601 -0.0813017     2.4176 255 255 255
-0.0459672  -0.479037    2.58305 255 255 255
-0.758348 -0.112127   2.33207 255 255 255
-0.594642 -0.383466   2.44762 255 255 255
-0.849529 -0.098026   2.30108 255 255 255
-0.0212246   0.353722    2.30292 255 255 255
0.406791 -0.42644  2.65256 255 255 255
0.111865 0.202082  2.38233 255 255 255
-0.53255 0.124234  2.26112 255 255 255
-0.495247 -0.187341    2.4053 255 255 255
-0.36395 0.245951   2.2801 255 255 255
-0.699791  0.131025    2.2549 255 255 255
-0.603616 0.0291939   2.29511 255 255 255
-0.044909   0.29184   2.27623 255 255 255
-0.34421 0.147969   2.3153 255 255 255
-0.270458  0.178743   2.31439 255 255 255
-0.470026   -0.2215   2.41868 255 255 255
-0.427582 -0.303813   2.46396 255 255 255
-0.411752 -0.167273   2.38196 255 255 255
-0.463157 -0.365883    2.4724 255 255 255
-0.167998 -0.372935   2.53718 255 255 255
-0.35958 0.151597   2.3097 255 255 255
-0.212335  0.187511    2.3192 255 255 255
 -0.51418 0.0525749   2.32166 255 255 255
-0.626806 -0.277157   2.40243 255 255 255
-0.215497  0.394169   2.25256 255 255 255
 0.289069 0.0436935   2.46937 255 255 255
  0.182479 -0.0881111    2.49641 255 255 255
 0.438602 0.0393932   2.50404 255 255 255
-0.24881 0.154133   2.3321 255 255 255
-0.589912  0.130675   2.28201 255 255 255
-0.594529 -0.372942   2.45264 255 255 255
0.341374 0.132429   2.4493 255 255 255
-0.461893    0.4182   2.19668 255 255 255
 0.047888 -0.334247    2.5398 255 255 255
-0.181439 -0.504709   2.57169 255 255 255
 0.595519 -0.081275    2.5565 255 255 255
-0.789339 -0.202603   2.35162 255 255 255
-0.475012  -0.23693   2.43054 255 255 255
 0.230428 -0.136486   2.48388 255 255 255
-0.183178 -0.529222   2.58693 255 255 255
-0.565383 -0.413003   2.47845 255 255 255
 0.465937 -0.108467   2.56703 255 255 255
-0.0101047  -0.566878     2.6907 255 255 255
-0.00296119  0.00986571      2.3829 255 255 255
0.409013 0.229384   2.4238 255 255 255
-0.580426 0.0435916   2.28743 255 255 255
-0.0776231  -0.136915    2.41154 255 255 255
-0.0372021  -0.187565    2.43933 255 255 255
 0.111736 -0.391501   2.58818 255 255 255
-0.174845 -0.447049   2.54252 255 255 255
-0.671727 -0.157397   2.38166 255 255 255
 0.131389 -0.642003   2.73375 255 255 255
-0.489035 -0.347711   2.45679 255 255 255
-0.660526 0.0944969   2.30503 255 255 255
  0.32933 -0.425833   2.63486 255 255 255
-0.0381434  -0.420542    2.57617 255 255 255
-0.201007 -0.374772   2.48077 255 255 255
-0.0653409    0.03024    2.40519 255 255 255
-0.803023  0.285133   2.12899 255 255 255
-0.465144 -0.203196   2.41658 255 255 255
-0.662363  0.408738   2.13794 255 255 255
 0.366991 -0.123449   2.52645 255 255 255
-0.0570661  -0.128413    2.41043 255 255 255
-0.696858   0.42977    2.1355 255 255 255
-0.157406 -0.362953   2.50842 255 255 255
-0.839719 -0.277535   2.37052 255 255 255
-0.338798 -0.537934   2.57128 255 255 255
0.0345109 -0.589496   2.71404 255 255 255
-0.677251  0.193727   2.23732 255 255 255
-0.845363 -0.204098   2.34271 255 255 255
-0.606047 -0.398623   2.46575 255 255 255
-0.620168  0.271302    2.1819 255 255 255
-0.0911671  0.0983566    2.37789 255 255 255
-0.0793467  0.0170025    2.36506 255 255 255
0.333331  0.31042  2.34365 255 255 255
 0.493414 -0.403235   2.64437 255 255 255
-0.694646 -0.262809   2.38566 255 255 255
-0.601104 -0.104941   2.36133 255 255 255
-0.810733 -0.204473   2.35243 255 255 255
-0.538712 -0.412958   2.48301 255 255 255
0.0379022  0.401823   2.25362 255 255 255
-0.458854  0.245824   2.25837 255 255 255
 -0.929939 -0.0881099    2.26254 255 255 255
0.0358356  0.300927   2.27117 255 255 255
 0.103354 0.0777618   2.39783 255 255 255
 0.299238 -0.372246   2.61834 255 255 255
-0.574723 -0.299246    2.4204 255 255 255
 -0.724058 -0.0769193    2.35116 255 255 255
-0.00608402   -0.527013     2.65795 255 255 255
 0.281745 -0.347949   2.60566 255 255 255
0.177391 0.175177  2.40597 255 255 255
 -0.844148 0.00636563    2.25571 255 255 255
  -1.08944 -0.0772011    2.14475 255 255 255
 -0.404026 -0.0890316    2.38757 255 255 255
0.0257246 -0.458788   2.60723 255 255 255
-0.509021  0.459236   2.17256 255 255 255
-0.453746  0.236496   2.27062 255 255 255
 -0.692867 -0.0956509    2.34364 255 255 255
 0.318822 -0.409847   2.63515 255 255 255
-0.781334 -0.202936   2.35134 255 255 255
-0.690948 -0.205007   2.36822 255 255 255
-0.138824 -0.505988   2.58098 255 255 255
-0.524794  0.250641   2.24711 255 255 255
 0.501959 -0.279994   2.61457 255 255 255
 -0.825873 -0.0458009    2.28814 255 255 255
-0.235454 0.0582362   2.36627 255 255 255
  0.28858 -0.582792   2.73544 255 255 255
-0.616934  0.256996   2.17999 255 255 255
-0.293858 -0.137371   2.36076 255 255 255
 0.367383 -0.192989   2.57402 255 255 255
 0.12112 0.200907  2.38516 255 255 255
-0.00959534    0.497173     2.25069 255 255 255
 -0.763894 0.00619437    2.28072 255 255 255
 -0.471976 -0.0643306    2.36732 255 255 255
-0.584158 -0.395628   2.46475 255 255 255
-0.0874643   0.132071    2.36643 255 255 255
-0.229646  0.158709   2.33477 255 255 255
-0.802688 -0.225716   2.35815 255 255 255
-0.0578302   -0.43984     2.5812 255 255 255
-0.834783  0.169564   2.17205 255 255 255
-0.380453 0.0794626   2.32556 255 255 255
-0.675048  0.247208   2.16197 255 255 255
-0.619591    0.1066   2.29468 255 255 255
-0.455513 -0.111929   2.38828 255 255 255
-0.806127   0.28547   2.12079 255 255 255
-0.392748  0.166876   2.30532 255 255 255
-0.458756 -0.409141   2.49108 255 255 255
 0.316061 -0.675215    2.7891 255 255 255
 0.270308 -0.211507    2.5528 255 255 255
0.0305309 -0.340157   2.54925 255 255 255
-0.464298 0.0998912   2.30805 255 255 255
0.293628 0.261694   2.3585 255 255 255
-0.883387 -0.185485   2.32122 255 255 255
-0.690651  0.379148   2.11736 255 255 255
-0.72551 0.413183  2.09623 255 255 255
  -1.08184 -0.0804312    2.15772 255 255 255
-0.204063  0.321523   2.24486 255 255 255
0.283891 0.332003  2.35669 255 255 255
0.0383676 -0.595442   2.71775 255 255 255
-0.0184731 0.00627246     2.3748 255 255 255
  -1.08964 -0.0830001    2.14544 255 255 255
-0.665462 0.0555753   2.29134 255 255 255
-0.653962  0.245754   2.14715 255 255 255
    -0.743 -0.0257482    2.29308 255 255 255
-0.373398 -0.304289   2.46964 255 255 255
-0.581202  0.470038   2.15946 255 255 255
-0.466787 -0.136063   2.39579 255 255 255
 0.374235 -0.598196   2.76348 255 255 255
 -0.405352 -0.0997991    2.39202 255 255 255
  -0.81223 -0.0610428    2.30096 255 255 255
-0.0161407   0.267854    2.28331 255 255 255
 -0.12428 -0.444074   2.56918 255 255 255
-0.693866  0.196203   2.20748 255 255 255
-0.720154 -0.185998   2.35895 255 255 255
-0.419618  0.220721   2.25762 255 255 255
-0.376585  0.175503   2.29852 255 255 255
 0.17188 0.166537  2.40685 255 255 255
-0.557284  0.460669   2.16281 255 255 255
-0.437785 -0.377281   2.47336 255 255 255
-1.2928 2.48279 1.09656 255 255 255
-1.08363  2.37132 0.937149 255 255 255
-0.141918   3.69216  0.657621 255 255 255
0.0712998   3.59163  0.680216 255 255 255
0.111935  3.28614  0.81801 255 255 255
0.056044  3.45371 0.756244 255 255 255
-0.432136   3.46645  0.770681 255 255 255
-0.0105262    3.71096   0.673341 255 255 255
-0.14478  3.90207 0.599384 255 255 255
-0.157323   3.92287  0.590798 255 255 255
-0.0557466    3.82545   0.631681 255 255 255
-0.279377   3.50616  0.724178 255 255 255
-0.272524   3.52493  0.717356 255 255 255
0.126549  4.20396  0.55575 255 255 255
0.138898  4.20672  0.55493 255 255 255
-0.626829  0.144468   2.26919 255 255 255
-0.64373 0.680691  2.03362 255 255 255
-0.564404  0.361778   2.20668 255 255 255
-0.805269 0.0149251   2.25939 255 255 255
-0.652941 0.0870223   2.28395 255 255 255
  -0.658129 -0.00240695       2.314 255 255 255
-0.931781 -0.148685   2.29554 255 255 255
-0.645593 0.0382245   2.32252 255 255 255
-0.586782  0.445512   2.16992 255 255 255
 -1.05041 0.0818857   2.07542 255 255 255
-0.642703  0.776859   1.95065 255 255 255
-0.938096  0.110278   2.13397 255 255 255
-0.694179  0.092535   2.27045 255 255 255
-0.536713  0.142369   2.25482 255 255 255
-0.778396  0.405347   2.20617 255 255 255
-0.566895  0.234952   2.23983 255 255 255
-0.726843 0.0609591   2.28028 255 255 255
-0.78035 0.363626  2.18883 255 255 255
-0.731938  0.273633   2.20109 255 255 255
-0.831509   0.19835   2.16188 255 255 255
-0.444659 0.0790756   2.29676 255 255 255
 -0.973104 -0.0343069    2.21839 255 255 255
-0.65753 0.192272  2.22173 255 255 255
 -0.7158 0.305911  2.17876 255 255 255
-0.86506 0.187173  2.14713 255 255 255
-0.587864 0.0623804   2.29513 255 255 255
-0.594127  0.205777   2.23019 255 255 255
-0.594044  0.285477   2.18142 255 255 255
  -1.1136 0.0937293   2.02289 255 255 255
-0.718861  0.202697   2.17181 255 255 255
-0.576576  0.308004   2.21824 255 255 255
-0.635347  0.335677   2.16263 255 255 255
  -1.01892 -0.0219254    2.17072 255 255 255
-0.597709   0.32229   2.18285 255 255 255
-0.855272 0.0585294   2.23015 255 255 255
   -1.00349 -0.00230871      2.1734 255 255 255
-0.977375 0.0105494   2.18131 255 255 255
-0.579695  0.344792   2.17314 255 255 255
-0.611167  0.020743   2.32181 255 255 255
-0.40782 0.368503  2.10525 255 255 255
 -0.578188 0.00495117    2.35307 255 255 255
-0.506507  0.272333   2.19709 255 255 255
-0.792387  0.218877   2.22441 255 255 255
-0.691835 -0.094062   2.37485 255 255 255
-0.520349  0.199776   2.21295 255 255 255
 -0.484599 -0.0567973    2.39389 255 255 255
-0.745589  0.062877   2.22359 255 255 255
   -1.0466 0.00461178     2.1303 255 255 255
-0.695314  0.315232   2.20687 255 255 255
  -1.11717 -0.0394016    2.08707 255 255 255
-0.588469  0.364791   2.16554 255 255 255
-0.454418  0.758019   2.13522 255 255 255
  -1.08271 -0.0619333    2.14825 255 255 255
-0.470459  0.161441   2.22204 255 255 255
-1.00054 0.106907  2.11126 255 255 255
 -0.601793 -0.0678171    2.39548 255 255 255
-0.709993   0.12451   2.20769 255 255 255
-0.693853  0.336788    2.1936 255 255 255
-0.462643   0.12587   2.25886 255 255 255
 -1.14253 0.0460205   2.02523 255 255 255
 -1.09318 0.0620823   2.05711 255 255 255
-0.625043  0.271272   2.16237 255 255 255
-0.856523 -0.104522   2.30757 255 255 255
-1.10094  1.51798  1.55954 255 255 255
-0.559045  0.171273    2.1779 255 255 255
-0.548912 0.0582764   2.30788 255 255 255
-0.987698 0.0901075   2.12897 255 255 255
 -0.717512 -0.0958152    2.33736 255 255 255
    -1.1251 -0.00307486     2.06769 255 255 255
 -1.1161 0.057084  2.04966 255 255 255
 -0.581041 -0.0813999    2.35924 255 255 255
  -1.11747 -0.0218491    2.09626 255 255 255
  -1.14192 -0.0297852    2.06401 255 255 255
  -1.05375 -0.0379469    2.15626 255 255 255
  -1.1228 0.0659378   2.03813 255 255 255
 -0.997618 -0.0321811    2.19511 255 255 255
-0.61025 0.215201  2.20608 255 255 255
 -1.02672 0.0532188   2.12073 255 255 255
-0.535219  0.188834   2.17408 255 255 255
 -1.10728 0.0729326   2.04185 255 255 255
-0.401931  0.178702   2.30057 255 255 255
-0.491331  0.130904   2.26531 255 255 255
-0.534803  0.216464   2.21352 255 255 255
-0.798096 -0.123586   2.32761 255 255 255
 -1.04843 0.0327214   2.11479 255 255 255
-0.583874  0.016609   2.32506 255 255 255
-0.755944   0.22414    2.1774 255 255 255
-0.538577  0.331815   2.14571 255 255 255
-0.381913  0.344218   2.10631 255 255 255
-0.452126  0.013195   2.34322 255 255 255
  -1.07989 0.00293193     2.1086 255 255 255
-0.953494 -0.108782   2.26675 255 255 255
  -1.13869 0.00507769    2.06123 255 255 255
 -1.1871 0.064033  1.96986 255 255 255
-0.819001  0.202214   2.17549 255 255 255
 -1.07115 0.0321995   2.09962 255 255 255
-0.418496  0.211521   2.18703 255 255 255
  -1.15045 -0.0358548    2.05509 255 255 255
 -1.14188 0.0342248    2.0368 255 255 255
 -0.804452 -0.0776702      2.308 255 255 255
-0.453624  0.371753   2.13518 255 255 255
 -0.622813 -0.0116391    2.34086 255 255 255
-0.784803 0.0496503    2.2289 255 255 255
 -1.08025 0.0834073   2.05323 255 255 255
-0.565522 0.0168675   2.34142 255 255 255
-0.890935 0.0336357   2.22557 255 255 255
  -0.562334 -0.00527895     2.34571 255 255 255
-0.673049  0.928006   1.44054 255 255 255
  -1.16303 0.00228093    2.01662 255 255 255
 -1.12298 0.0868747   2.00253 255 255 255
 -0.90064 -0.140801   2.30376 255 255 255
 -1.09774 0.0493939    2.0692 255 255 255
 -1.15115 0.0336518   2.02266 255 255 255
-0.539419  0.345235   2.14307 255 255 255
-0.636307  0.459199   2.18254 255 255 255
 -0.743386 -0.0285547    2.30239 255 255 255
 -0.806877 -0.0129136    2.25818 255 255 255
-0.746794 -0.125235   2.35934 255 255 255
-0.914471 -0.139521   2.29675 255 255 255
  -1.15926 -0.0122692    2.03115 255 255 255
-1.01161 -0.11296  2.23497 255 255 255
-0.533021  0.317305   2.14034 255 255 255
  -1.1287 0.0174942   2.05132 255 255 255
-0.947087 -0.156183   2.28742 255 255 255
  -1.15224 -0.0228717     2.0379 255 255 255
 -1.13379 0.0578627   2.02974 255 255 255
 -1.02184 0.0674345   2.12018 255 255 255
-1.04829  1.55281  1.55905 255 255 255
-0.879939 0.0319722   2.23308 255 255 255
 -0.851468 -0.0421333    2.27762 255 255 255
  -1.06375 -0.0198698    2.13629 255 255 255
 -0.731671 -0.0394792    2.32293 255 255 255
 -0.981546 -0.0331346    2.20035 255 255 255
 -0.6664 0.843054  1.88007 255 255 255
 -0.872618 0.00264486    2.24575 255 255 255
  -1.12669 -0.0173722    2.06068 255 255 255
-0.573362 0.0431278   2.31799 255 255 255
  -1.10603 -0.0366524    2.10115 255 255 255
 -0.933115 -0.0430438    2.23751 255 255 255
 -1.03641 0.0041881   2.14527 255 255 255
-0.713695  0.429957   2.18567 255 255 255
-0.912716 -0.182757   2.32508 255 255 255
-0.954588  -0.13161   2.27492 255 255 255
-0.423833 0.0589524   2.29766 255 255 255
-0.765298  0.367075   2.18536 255 255 255
 -1.00212 0.0157923   2.16181 255 255 255
-0.38518 0.280111  2.13546 255 255 255
-0.668935  0.300745   2.17306 255 255 255
-0.605173  0.411205   2.16025 255 255 255
-0.71617 0.269265  2.19862 255 255 255
-0.528257  0.157181   2.24229 255 255 255
 -0.894992 -0.0397089    2.26241 255 255 255
 -1.20175 0.0359374   1.96835 255 255 255
   -1.11046 -0.00878663     2.08948 255 255 255
 -0.708481 -0.0484593    2.34648 255 255 255
 -0.754454 -0.0886169    2.31763 255 255 255
  -1.17065 -0.0362535    2.03006 255 255 255
  -1.03845 -0.0273856    2.15958 255 255 255
-0.664882  0.124242   2.26829 255 255 255
-0.958902  0.658597   2.06788 255 255 255
-0.842766 -0.152351   2.32848 255 255 255
-0.709473  0.397811   2.16702 255 255 255
-0.939275 0.0749028   2.15745 255 255 255
-0.71692 0.942135  1.30235 255 255 255
-0.645644  0.328004   2.16267 255 255 255
-0.383852  0.245289   2.13906 255 255 255
-0.745001  0.442937   2.17947 255 255 255
-0.966247 0.0216006   2.18692 255 255 255
-0.383507    0.9926   1.90079 255 255 255
 -1.19146 0.0348487   1.98454 255 255 255
 -1.02255 0.0326106   2.12155 255 255 255
-0.951725 0.0666144    2.1684 255 255 255
-0.861242 0.0622619   2.21897 255 255 255
 -1.07816 0.0556514   2.07818 255 255 255
-0.781591 0.0440502   2.24798 255 255 255
  -1.07194 -0.0605451    2.15925 255 255 255
-0.813723 0.0285831   2.24751 255 255 255
-0.976165 -0.118196   2.25157 255 255 255
-0.78745  0.36011  2.17963 255 255 255
-0.900212 0.0410886    2.2198 255 255 255
-0.631321  0.352892   2.16706 255 255 255
-0.426234  0.155823   2.23335 255 255 255
 -0.7103 0.412882   2.1688 255 255 255
 -1.16201 0.0148221    2.0208 255 255 255
 -1.16208 0.0714831     1.987 255 255 255
-0.486078   0.28377     2.178 255 255 255
-0.745986 0.0287258   2.27119 255 255 255
-0.480688   0.05482   2.32005 255 255 255
-0.456717  0.346657   2.12707 255 255 255
   -1.03039 -0.00362873       2.154 255 255 255
 -1.13693 0.0228641   2.04395 255 255 255
 -0.935068 -0.0100953    2.21536 255 255 255
-0.689712  0.177062   2.20999 255 255 255
-0.560675 0.0671404   2.31004 255 255 255
-0.613176 0.0579893   2.30125 255 255 255
-0.656706  0.806584   1.91912 255 255 255
-0.874189 -0.017655   2.25904 255 255 255
 -1.18715 0.0075774   1.98662 255 255 255
  -1.07687 -0.0470804    2.14578 255 255 255
 -0.762702 -0.0246921    2.27166 255 255 255
-0.848058 0.0267681   2.24606 255 255 255
-0.572591  0.344353   2.14079 255 255 255
-0.833256 0.0698558   2.22732 255 255 255
-0.37124  0.25942  2.15145 255 255 255
 -0.48511 0.0936312   2.27066 255 255 255
 -1.00914 0.0614641   2.13166 255 255 255
 -1.17182 0.0233456     1.999 255 255 255
 -0.986216 -0.0664682    2.22186 255 255 255
 -0.890092 -0.0123712    2.25045 255 255 255
  -1.09414 -0.0575309    2.13385 255 255 255
-0.622401 0.0576533   2.30335 255 255 255
-0.918556 -0.167434   2.30887 255 255 255
-0.704725   0.96477   1.23029 255 255 255
 -1.18592 0.0178029   1.98843 255 255 255
  -1.00376 -0.0141701    2.17566 255 255 255
-0.827321  0.213358   2.17049 255 255 255
-0.56162 0.122825   2.2515 255 255 255
-0.981649 -0.125442   2.25224 255 255 255
 -0.649815 -0.0535808    2.35172 255 255 255
-0.548078  0.281355   2.22851 255 255 255
   -0.9584 -0.0236737    2.21421 255 255 255
-0.873651 -0.143259   2.32259 255 255 255
 -1.01842 -0.051021   2.16564 255 255 255
 -0.967222 -0.0523434    2.21568 255 255 255
-0.888238 0.0489475   2.20564 255 255 255
  -1.13471 -0.0116646    2.05506 255 255 255
-0.497869  0.270591   2.18183 255 255 255
-1.08671 0.050698  2.07374 255 255 255
-0.56431 0.254211  2.20507 255 255 255
-0.55141 0.338902  2.14416 255 255 255
-0.681735  0.424595   2.18533 255 255 255
-0.974025 0.0480093   2.16854 255 255 255
-0.980341 -0.154602   2.26726 255 255 255
  -1.02568 -0.0679494    2.19312 255 255 255
   -0.831442 -0.000165949      2.25833 255 255 255
-0.596626  0.417292   2.15417 255 255 255
-0.686246  0.410872   2.17248 255 255 255
-0.39441 0.301567  2.12599 255 255 255
-0.678512  0.137368   2.24428 255 255 255
-0.681869  0.139068   2.25383 255 255 255
-0.537509  0.010276   2.33591 255 255 255
 -0.842442 -0.0212858    2.26289 255 255 255
-0.610429  0.708284   2.02499 255 255 255
 -0.606747 -0.0669678    2.38928 255 255 255
 -1.00163 0.0497037   2.14136 255 255 255
-0.826816  0.227369   2.20306 255 255 255
-0.438946  0.317181   2.11946 255 255 255
-0.840308 -0.104035   2.31232 255 255 255
  -1.1236 0.0517013   2.03957 255 255 255
-0.584353  0.255725   2.18333 255 255 255
 -1.06645 0.0236366   2.10608 255 255 255
-0.496443   1.08383   1.83951 255 255 255
 -1.10104 -0.053437   2.12156 255 255 255
-0.634087  0.375852   2.16164 255 255 255
 -0.596017 -0.0651543    2.39541 255 255 255
-0.869018 0.0682993    2.2141 255 255 255
  -0.87889 -0.0313601    2.25917 255 255 255
-0.691468  0.416063   2.16511 255 255 255
-0.431163  0.269998   2.16898 255 255 255
-0.636642 0.0217056    2.3189 255 255 255
-0.652086  0.473608   2.14927 255 255 255
 -0.635813 -0.0166474    2.35111 255 255 255
-0.674599  0.103245   2.28815 255 255 255
-0.667361 0.0992222   2.27466 255 255 255
-0.944598 -0.010184   2.21288 255 255 255
-0.691893 -0.122373   2.39201 255 255 255
 -1.10322 0.0514234   2.05741 255 255 255
-0.760263  0.442749   2.16714 255 255 255
 -0.935957 0.00797043    2.21064 255 255 255
-0.580546  0.452775   2.15558 255 255 255
 -1.16976 0.0103545   2.01209 255 255 255
-0.57657 0.109898  2.26589 255 255 255
-0.704871  0.932738   1.36932 255 255 255
 -1.06899 -0.106639   2.18642 255 255 255
-0.511241  0.134456   2.25809 255 255 255
-0.383266  0.257981   2.14674 255 255 255
-0.64793 0.462564  2.14738 255 255 255
-0.706503  0.096931   2.26287 255 255 255
-0.570593  0.474055   2.15344 255 255 255
-0.480333 0.0673205   2.32252 255 255 255
 -0.800383 -0.0689108    2.31273 255 255 255
 -1.09252 -0.038121   2.12449 255 255 255
-0.37353 0.270532  2.14303 255 255 255
-0.730869  0.056533   2.22747 255 255 255
  -0.995789 -0.00393195     2.17377 255 255 255
   -1.0578 -0.0868657    2.18606 255 255 255
-0.366344  0.265636   2.14908 255 255 255
-0.631915  0.166662   2.20867 255 255 255
 -0.799312 -0.0153669    2.28183 255 255 255
 -0.72015 -0.145992   2.38245 255 255 255
 -1.15495 0.0514548   2.01237 255 255 255
-0.420296   0.07595   2.29917 255 255 255
-0.616268  0.207131   2.19699 255 255 255
 -0.87958 0.0424792   2.22433 255 255 255
-0.532543  0.155865   2.22409 255 255 255
-0.479172  0.178685    2.2084 255 255 255
-0.44212 0.169227   2.2032 255 255 255
-0.486773  0.376649   2.20763 255 255 255
-0.790968 -0.144574   2.35099 255 255 255
-0.703292  0.450499   2.17389 255 255 255
 -1.03287 -0.095724   2.20936 255 255 255
-0.715294  0.302714   2.20021 255 255 255
  -1.09547 -0.0801751    2.14224 255 255 255
-0.55964 0.277938  2.19239 255 255 255
-0.625149  0.314454   2.15496 255 255 255
 -1.03855 0.0656987   2.10309 255 255 255
-0.675196  0.396451   2.16354 255 255 255
-0.68321 0.943197  1.37884 255 255 255
 -0.752004 -0.0490149     2.3229 255 255 255
-0.415839  0.257992   2.16003 255 255 255
-0.612457  0.149901   2.26031 255 255 255
-0.881341 -0.046697   2.26901 255 255 255
-0.687389  0.197103   2.21271 255 255 255
-0.393362  0.105951   2.26433 255 255 255
-0.574609   0.78055   1.98024 255 255 255
 -1.15034 0.0228693   2.02609 255 255 255
-0.565172  0.140068   2.27799 255 255 255
-0.603116  0.266742    2.1793 255 255 255
-0.498339  0.328387   2.14632 255 255 255
-0.415368  0.233671   2.18638 255 255 255
   -0.44933 0.000902958     2.30201 255 255 255
-0.372741  0.221986   2.18758 255 255 255
-0.708245   0.47064   2.18541 255 255 255
-0.611385 0.0930673   2.30308 255 255 255
-0.654721   0.38057   2.15972 255 255 255
  -1.04826 -0.0222031    2.15829 255 255 255
-0.629514  0.280237   2.15758 255 255 255
-0.646665 0.0307385   2.30979 255 255 255
   -1.0013 0.00183472    2.16572 255 255 255
-0.499182  0.188934    2.2007 255 255 255
-0.395483  0.316314   2.11189 255 255 255
-0.707652 0.0676019    2.2644 255 255 255
 -0.89793 -0.128093   2.29894 255 255 255
 -1.07604 0.0203113   2.10378 255 255 255
 -0.69004 0.0385357   2.25992 255 255 255
-0.958519 -0.161426   2.28531 255 255 255
-0.59937 0.469219  2.16829 255 255 255
   -1.041 0.0868174   2.08677 255 255 255
-0.678655  0.388671   2.15278 255 255 255
  -1.07745 -0.0660816    2.15464 255 255 255
  -1.06891 -0.0411503    2.14692 255 255 255
 -1.03989 0.0536729   2.11395 255 255 255
-0.618746  0.709976   2.01222 255 255 255
-0.428332  0.308939   2.11462 255 255 255
-0.552017  0.169749   2.19724 255 255 255
-0.563512  0.268489   2.16812 255 255 255
 -0.733321 -0.0156111    2.30525 255 255 255
  -0.95711 -0.0915313    2.25223 255 255 255
-0.495863   1.09413   1.83584 255 255 255
-0.947047  -0.17383   2.30992 255 255 255
-0.818117 -0.149831   2.33041 255 255 255
  -1.09798 -0.0328716    2.10874 255 255 255
-0.986883  0.066183   2.15095 255 255 255
 -0.782185 -0.0866732    2.32715 255 255 255
 -0.795982 -0.0987673    2.32415 255 255 255
-0.936574 0.0321927   2.19826 255 255 255
-0.481338  0.337441   2.15665 255 255 255
  -0.535007 -0.00408784     2.36114 255 255 255
-0.623242  0.831104   1.90005 255 255 255
-0.823889  0.155174   2.14835 255 255 255
 -0.552579 -0.0662878    2.39694 255 255 255
-0.700194  0.167756   2.20331 255 255 255
-0.404993  0.310805   2.11485 255 255 255
-0.731748 0.0379269   2.27616 255 255 255
-0.916348 -0.030043   2.24103 255 255 255
-0.52859   0.3288  2.14558 255 255 255
  -1.17251 -0.0103936    2.02337 255 255 255
-0.610436  0.456258   2.15887 255 255 255
-0.652226  0.852965   1.87333 255 255 255
-0.804309 -0.114943     2.331 255 255 255
-0.430273  0.339379   2.11003 255 255 255
 -0.442514 -0.0545971     2.3893 255 255 255
-1.02331 0.033974  2.11782 255 255 255
 -0.88422 0.0146507   2.23912 255 255 255
-0.586826  0.148222   2.27908 255 255 255
-0.583098 0.0871532   2.27908 255 255 255
-0.377806 0.0796033   2.32203 255 255 255
-0.448888  0.096774   2.29012 255 255 255
-0.786795 -0.088317   2.31521 255 255 255
 -0.66585 -0.089096   2.38203 255 255 255
  -1.11079 -0.0442108    2.10111 255 255 255
-0.809864 0.0216867   2.25263 255 255 255
-0.509558  0.208365   2.19575 255 255 255
-0.535445 0.0217602   2.33984 255 255 255
-1.01091 0.100972  2.11295 255 255 255
-0.799335 -0.168941   2.34932 255 255 255
 -1.18849 0.0434163   1.97938 255 255 255
-0.50717 0.184868  2.20417 255 255 255
 -0.993795 -0.0394355    2.19824 255 255 255
 -0.922744 -0.0574491    2.25494 255 255 255
 -0.946552 -0.0721566    2.24691 255 255 255
  -1.1659 0.0763187   1.97879 255 255 255
 -0.980209 -0.0593748    2.21827 255 255 255
-0.730723  0.466594   2.17819 255 255 255
-0.629476  0.057044   2.29873 255 255 255
 -0.711788 -0.0807905    2.33406 255 255 255
  -0.862118 -0.00970407     2.25598 255 255 255
-0.820946 0.0417932   2.24365 255 255 255
-0.75033 0.409614  2.17777 255 255 255
-0.387161 0.0500024   2.31572 255 255 255
 -0.986967 -0.0242579    2.19133 255 255 255
-0.986883 0.0454513   2.15973 255 255 255
-0.599195  0.391796     2.155 255 255 255
-0.915726 -0.182097   2.32083 255 255 255
-0.974495 0.0223551   2.17798 255 255 255
 -0.476459 -0.0796458    2.38968 255 255 255
-0.584954 -0.074689   2.39829 255 255 255
 -0.667238 -0.0447311    2.32754 255 255 255
  -1.06366 -0.0988778    2.18485 255 255 255
-0.861992 0.0228588   2.24059 255 255 255
-0.598603  0.155807   2.24674 255 255 255
  -1.07948 -0.0976024    2.16953 255 255 255
   -1.0073 -0.0611519     2.2022 255 255 255
-0.781441  0.469989   2.17206 255 255 255
  -1.1722 0.0330634   2.00071 255 255 255
 -0.998854 -0.0854511    2.22662 255 255 255
-0.692245  0.937805   1.37941 255 255 255
 -1.01434 0.0502992   2.13206 255 255 255
-0.470301  0.244824   2.18506 255 255 255
 -0.672304 -0.0991961    2.34936 255 255 255
-0.792773 -0.105585   2.32748 255 255 255
-0.607555  0.334129   2.16522 255 255 255
-0.664234 -0.117801   2.35702 255 255 255
  -1.15537 -0.0163351    2.05745 255 255 255
 -0.658572 -0.0848965     2.3859 255 255 255
 -0.893591 -0.0671946    2.27241 255 255 255
-0.528554  0.236579    2.2017 255 255 255
-0.641043  0.137049   2.24141 255 255 255
  -1.04454 -0.0876318    2.19695 255 255 255
-0.535603   1.00304   1.88591 255 255 255
-0.76598 0.471355  2.16843 255 255 255
 -1.19408 0.0484663   1.97071 255 255 255
-0.36984 0.228377  2.16343 255 255 255
  -1.17904 -0.0377965    2.02341 255 255 255
 -0.779046 -0.0796885    2.32446 255 255 255
-0.912001 -0.119625   2.28827 255 255 255
-0.535105  0.209331   2.20611 255 255 255
-0.494447  0.194141   2.19278 255 255 255
-0.64287 0.469198  2.15762 255 255 255
-0.424693  0.145292   2.22311 255 255 255
  -0.72005 -0.0410256     2.3351 255 255 255
-0.981075 0.0784494   2.13743 255 255 255
-0.459985 0.0922902   2.29144 255 255 255
-0.527035  0.336381   2.14413 255 255 255
 -0.573247 -0.0713113    2.39615 255 255 255
-0.853516 -0.131922   2.31037 255 255 255
-0.662652  0.309887   2.17118 255 255 255
-0.664224  0.111057   2.29063 255 255 255
  -0.57993 -0.0702621    2.39666 255 255 255
-0.567399  0.356944   2.13962 255 255 255
-0.460215  0.225457    2.1963 255 255 255
-0.632482  0.181007   2.20722 255 255 255
-0.774249  0.468081   2.17341 255 255 255
 -1.18252 0.0347412   1.99006 255 255 255
 -1.16829 0.0537646   1.99412 255 255 255
-0.670262  0.111658   2.27092 255 255 255
  -1.08578 -0.0757568    2.14919 255 255 255
-0.581019 -0.102969    2.4147 255 255 255
-0.687975 0.0262916   2.26402 255 255 255
-0.835819   0.14789   2.13446 255 255 255
-1.47914  1.70376  1.48144 255 255 255
-0.644276  0.038953   2.30235 255 255 255
  -1.0079 -0.122644   2.23976 255 255 255
-0.698908    0.4274   2.17555 255 255 255
 -0.837218 -0.0270233    2.27175 255 255 255
 -0.750611 -0.0014766    2.28613 255 255 255
-0.679537 0.0683705   2.28454 255 255 255
  -1.08204 -0.0138858    2.11981 255 255 255
-0.619699  0.274909   2.17565 255 255 255
-0.657224  0.390297   2.16239 255 255 255
-0.589281  0.385487   2.14282 255 255 255
-0.715564  0.294647   2.18872 255 255 255
-0.858527 0.0142268   2.23023 255 255 255
-0.961804 0.0569641    2.1699 255 255 255
-0.573171 0.0944782    2.2805 255 255 255
 -1.10032 0.0872398   2.03742 255 255 255
 -1.17717 0.0170407   1.99296 255 255 255
-0.884634 0.0247054   2.23154 255 255 255
-0.645706 -0.104633   2.39311 255 255 255
-0.609942  0.713826   2.01709 255 255 255
-0.548019 0.0683324   2.30032 255 255 255
-0.855689 0.0307006   2.24516 255 255 255
-0.826287 0.0675062   2.23688 255 255 255
   -0.5622 -0.0662128    2.35479 255 255 255
-0.500635  0.213002   2.19212 255 255 255
-0.676688  0.177241   2.21833 255 255 255
 -1.12132 -0.030472   2.07832 255 255 255
 -0.577401 -0.0769881     2.3977 255 255 255
  -1.17363 0.00318558    2.00987 255 255 255
 -0.931111 -0.0878189    2.26488 255 255 255
-0.685356  0.062182   2.24809 255 255 255
-0.597667 0.0448032   2.30558 255 255 255
-0.668664  0.185001   2.23157 255 255 255
-0.934266 -0.105367   2.26982 255 255 255
-0.556103  0.408077   2.15089 255 255 255
-0.779279 0.0205149   2.26519 255 255 255
 -1.09336 -0.024694   2.11181 255 255 255
-0.589187  0.265698   2.17813 255 255 255
-0.927541   1.53756   1.48445 255 255 255
-0.679315 -0.131595    2.4026 255 255 255
-0.647841  0.858112   1.86305 255 255 255
  -1.01909 -0.0134995    2.16134 255 255 255
-0.388139  0.046036   2.32708 255 255 255
-0.601725  0.438908   2.15887 255 255 255
-0.561671   1.02835   1.86525 255 255 255
  -0.90191 -0.0893134    2.27915 255 255 255
-0.567742  0.382753   2.16042 255 255 255
-0.582471  0.414067   2.14251 255 255 255
-0.516546  0.147634   2.24839 255 255 255
  -1.09522 -0.0114813    2.10487 255 255 255
 -1.05146 0.0957762   2.07091 255 255 255
 -0.59581 0.0500346   2.29166 255 255 255
 -1.02289 0.0900979   2.10657 255 255 255
 -0.581648 0.00733498     2.3217 255 255 255
-0.681688 0.0347056   2.26566 255 255 255
 -0.976153 -0.0162322    2.19187 255 255 255
 -0.670253 -0.0948194    2.38619 255 255 255
  -1.03086 -0.0832841    2.20033 255 255 255
-0.434586  0.239283   2.18675 255 255 255
 -1.00991 0.0111087   2.15612 255 255 255
 -0.783631 -0.0444596    2.30418 255 255 255
  -0.866729 -0.00979317     2.24828 255 255 255
-0.659476 -0.122034   2.39754 255 255 255
 -1.17471 0.0497579   1.99058 255 255 255
-0.746278  0.335219   2.19906 255 255 255
-0.46938 0.271475  2.16625 255 255 255
 -0.900435 -0.0593932    2.26536 255 255 255
  -1.14854 -0.0683215    2.09654 255 255 255
-0.653781  0.213469   2.22145 255 255 255
-0.380531  0.314729   2.10732 255 255 255
 -0.966893 -0.0172368    2.20396 255 255 255
-0.649719  0.120656   2.25465 255 255 255
-1.02291   1.0756  1.86351 255 255 255
-0.640309 0.0659821   2.31027 255 255 255
-0.862516 -0.162876   2.32109 255 255 255
 -1.08803 0.0655915   2.06385 255 255 255
-0.557647  0.312977   2.15102 255 255 255
-0.655096   0.01816   2.31875 255 255 255
-0.77578 0.379925  2.18823 255 255 255
-0.623275  0.264561   2.17193 255 255 255
-0.727092 -0.148915   2.38191 255 255 255
  -1.08944 -0.0772011    2.14475 255 255 255
-0.379554  0.293924    2.1443 255 255 255
-0.714384  0.415418   2.16922 255 255 255
-0.583578  0.120597   2.26392 255 255 255
-0.674543  0.216263   2.23197 255 255 255
-0.838683 -0.116491   2.31856 255 255 255
-0.67846 0.196202  2.22413 255 255 255
-0.568223    0.3947   2.19035 255 255 255
 -0.815513 -0.0785069    2.30409 255 255 255
  -1.05785 -0.0210957    2.14301 255 255 255
 -0.82484 -0.050667   2.29457 255 255 255
-0.671173  0.404894   2.17028 255 255 255
-1.17579  0.03576  1.99552 255 255 255
-0.714077  0.314388   2.20014 255 255 255
 -1.20401 0.0287495   1.96185 255 255 255
-0.751114  0.437877   2.16979 255 255 255
-0.430469  0.303602   2.11858 255 255 255
-0.536702  0.371646   2.15957 255 255 255
-0.712322  0.961733   1.23199 255 255 255
   -0.9371 -0.0968539    2.26494 255 255 255
-1.03911 0.119126  2.07441 255 255 255
-0.976091 0.0727814   2.15259 255 255 255
  -0.969901 -0.00811346     2.19717 255 255 255
  -0.973514 -0.00494066     2.19239 255 255 255
-0.725071 0.0940495   2.28848 255 255 255
  -1.17841 0.00194233    1.99922 255 255 255
-0.985131 0.0717688   2.14515 255 255 255
-0.605079 0.0285269   2.30786 255 255 255
-0.513085   0.28213   2.18096 255 255 255
-0.851485 0.0200473   2.23924 255 255 255
-0.637849  0.404806    2.1626 255 255 255
-0.69217 0.972811  1.27326 255 255 255
  -1.08699 -0.0143258    2.11589 255 255 255
-0.564869  0.141399   2.24965 255 255 255
-0.913942   1.16416   1.81842 255 255 255
-0.595114  0.264744     2.176 255 255 255
-0.686825  0.443976   2.17464 255 255 255
-0.823001  0.253466   2.20272 255 255 255
-0.877711  -0.05343    2.2653 255 255 255
-0.971422   1.23754   1.75953 255 255 255
-0.601604  0.214358   2.19729 255 255 255
-0.828392 0.0410641   2.23914 255 255 255
-0.700254  0.414047    2.1645 255 255 255
-0.504863  0.293617   2.17677 255 255 255
  -1.02301 -0.0818784    2.20311 255 255 255
-0.429744  0.177374   2.23072 255 255 255
 -1.15447 0.0387846   2.00814 255 255 255
-0.614981  0.123352   2.25733 255 255 255
-0.882394  0.156873    2.1339 255 255 255
-0.490405   1.05238   1.86081 255 255 255
-0.891559 -0.162585   2.31832 255 255 255
-0.576862 0.0129809   2.33937 255 255 255
-0.739717 0.0210519   2.28356 255 255 255
-0.589203  0.381356   2.14888 255 255 255
-0.604056  0.152392   2.25095 255 255 255
-0.581678  0.403395   2.13588 255 255 255
-0.461788  0.268306   2.15468 255 255 255
-0.743018  0.328866   2.19696 255 255 255
-0.673975 0.0619693   2.25151 255 255 255
 -1.11062 0.0706197   2.03327 255 255 255
-0.820683  0.164745   2.15616 255 255 255
 -1.16882 0.0593948   1.98916 255 255 255
 -0.68326 0.0667409   2.25441 255 255 255
-0.413395  0.358827   2.10278 255 255 255
-0.562697  0.406867   2.15178 255 255 255
-0.848405 0.0484521   2.22696 255 255 255
-1.09119 0.378469  1.80512 255 255 255
-0.780113 0.0269178    2.2662 255 255 255
-0.556886  0.344851   2.14614 255 255 255
-0.670054  0.197604   2.22139 255 255 255
-0.428537  0.139053   2.22761 255 255 255
 -1.10106 0.0808422     2.038 255 255 255
 -0.864203 -0.0519708    2.26911 255 255 255
-0.929729 -0.108894   2.27367 255 255 255
   -1.18246 -0.00697472      2.0066 255 255 255
 -1.14248 0.0759978   2.00746 255 255 255
 -0.712611 -0.0364655    2.32583 255 255 255
-0.849296 -0.188974   2.34543 255 255 255
  -1.05733 -0.0511485    2.16366 255 255 255
-0.215576  0.842141    1.9801 255 255 255
0.359233  1.06342  1.91992 255 255 255
0.216586 0.868836  2.00861 255 255 255
0.0288763   1.01903   1.79587 255 255 255
0.456902 0.727185  2.14165 255 255 255
-0.329838  0.893008   1.93299 255 255 255
0.937606 0.915291  2.06614 255 255 255
 0.29727 0.685727  2.10126 255 255 255
0.351615 0.799639  2.01187 255 255 255
0.333428 0.327977  2.28871 255 255 255
0.432962  1.06761   1.9395 255 255 255
0.546886  0.92864   1.9804 255 255 255
0.853043 0.640355  2.21102 255 255 255
-0.203712  0.604612   2.06113 255 255 255
0.702704 0.525925  2.24202 255 255 255
0.707173 0.522392  2.25967 255 255 255
-0.435417  0.490589   2.09855 255 255 255
0.229704 0.999602  1.87223 255 255 255
0.735546 0.335258  2.39951 255 255 255
-0.141445  0.930311   1.90538 255 255 255
0.112361 0.490393  2.18997 255 255 255
-0.144175  0.738475   2.01511 255 255 255
0.475162 0.611392  2.14377 255 255 255
0.360755 0.973657  1.96279 255 255 255
-0.622959  0.714397   2.03144 255 255 255
0.276076  1.06037  1.83683 255 255 255
-0.0293117   0.856161    1.96345 255 255 255
0.587222 0.844749  2.02339 255 255 255
0.491138  1.16827  1.87765 255 255 255
0.306928 0.879983   2.0013 255 255 255
0.490366  1.36578  1.72677 255 255 255
-0.692401  0.764427   1.99948 255 255 255
-0.217641  0.344923   2.22746 255 255 255
-0.34605 0.789828  1.98606 255 255 255
-0.519917   0.52837   2.12043 255 255 255
-0.259532  0.782593   2.00142 255 255 255
0.894757  0.71207  2.16518 255 255 255
0.594801   1.0335  1.97335 255 255 255
0.0532587  0.788184   2.00713 255 255 255
0.732435  1.36991  1.77667 255 255 255
0.218013 0.303975  2.31652 255 255 255
1.07314 0.52093 2.38773 255 255 255
-0.25546 0.663591  2.03892 255 255 255
0.0362234  0.674939   2.07812 255 255 255
0.0416886  0.512949   2.13623 255 255 255
-0.0620519   0.739265    2.03541 255 255 255
0.709432 0.881392  2.07868 255 255 255
-0.403799  0.766257   1.97391 255 255 255
-0.287103   1.00537   1.87591 255 255 255
0.620698 0.970925   1.9763 255 255 255
0.708109  1.24735  1.85285 255 255 255
0.931223 0.551765  2.29381 255 255 255
-0.132614  0.563937   2.09991 255 255 255
0.807689 0.626982  2.21335 255 255 255
0.164486 0.780299  2.01972 255 255 255
-0.191166   1.21012   1.79129 255 255 255
-0.219867  0.726523   2.00196 255 255 255
0.326529 0.825351  2.00398 255 255 255
0.660151 0.767309  2.12423 255 255 255
-0.93794 0.582915  2.10023 255 255 255
-0.0817325   0.440903    2.15565 255 255 255
-0.999985  0.228608   2.29406 255 255 255
-0.898875   0.50414   2.13201 255 255 255
-0.255442  0.764347   1.99862 255 255 255
0.0654624   0.94635   1.94391 255 255 255
0.610778  1.24373  1.84458 255 255 255
0.502249 0.972659  1.91586 255 255 255
-0.0335527    1.02497    1.88811 255 255 255
-0.631651  0.658992   2.02988 255 255 255
0.0173214  0.900132   1.94707 255 255 255
0.0598574  0.448031   2.19815 255 255 255
0.522528  1.11809  1.89035 255 255 255
-0.0951461   0.865555    1.96455 255 255 255
0.83532 1.22262 1.83392 255 255 255
-0.415981  0.840855   1.95654 255 255 255
-0.568558  0.452993   2.08261 255 255 255
-0.534952  0.774385   1.99598 255 255 255
0.555631  1.08068  1.87572 255 255 255
0.411837 0.836115  1.98764 255 255 255
-0.259507  0.899617   1.94089 255 255 255
-0.152571   1.06476    1.8729 255 255 255
0.636829  1.21168  1.79628 255 255 255
0.206958  1.01188  1.87591 255 255 255
-0.406723  0.446837   2.16609 255 255 255
-0.0175273   0.793872    2.00314 255 255 255
0.113609  0.43992  2.22188 255 255 255
0.57461 1.37102  1.7552 255 255 255
-0.471764  0.371962    2.1981 255 255 255
0.242874 0.736357  2.07264 255 255 255
0.656502  1.24438  1.81771 255 255 255
-0.555189  0.990802   1.88542 255 255 255
-0.318352  0.972298   1.88488 255 255 255
-0.0487579    0.66159    2.03396 255 255 255
0.729292  1.31589  1.82229 255 255 255
-0.499661  0.840919   1.96461 255 255 255
-0.699705   0.53381   2.07244 255 255 255
-0.452468  0.773988   1.98788 255 255 255
0.330131 0.928938  1.97401 255 255 255
-0.494204  0.799268    1.9867 255 255 255
 0.31711 0.615055  2.08066 255 255 255
 0.46637 0.928633  1.93452 255 255 255
-0.69169  0.47908   2.1134 255 255 255
-0.124137   1.05047   1.88796 255 255 255
0.221976 0.452182  2.19009 255 255 255
 0.55144 0.613125  2.11196 255 255 255
-0.655069   0.92422   1.93311 255 255 255
0.435097 0.888743  1.95482 255 255 255
-0.735947  0.780211     1.996 255 255 255
-0.408916  0.663758   2.05286 255 255 255
0.197578 0.732768  2.06833 255 255 255
0.559492  1.11945   1.8749 255 255 255
0.287014 0.732751  2.07441 255 255 255
0.953918 0.533464  2.27704 255 255 255
0.382997  0.87468  2.00841 255 255 255
-0.407458  0.990927   1.89709 255 255 255
-0.499245  0.420611   2.17822 255 255 255
-0.20106 0.499099  2.04486 255 255 255
0.629851  1.39621  1.73586 255 255 255
0.135375  0.56095   2.1309 255 255 255
0.366748 0.505634  2.20799 255 255 255
0.209314 0.553792  2.14906 255 255 255
-0.551465  0.367461   2.18606 255 255 255
-0.138701  0.278869   2.23452 255 255 255
0.886294 0.977463  2.03201 255 255 255
-0.447274  0.959992    1.8992 255 255 255
0.482288  1.00792  1.95205 255 255 255
 1.08552 0.364029  2.41201 255 255 255
  1.2031 0.532816  2.41042 255 255 255
0.201237 0.595842  2.11684 255 255 255
-0.351529   1.00845   1.88791 255 255 255
0.46843 0.97632 1.96022 255 255 255
-0.120245  0.689436   2.04947 255 255 255
0.279377 0.695917  2.07713 255 255 255
-0.523337  0.568574   2.07935 255 255 255
0.378684  1.31369  1.76092 255 255 255
-0.207779   1.14456   1.80664 255 255 255
0.574718  1.15292  1.88567 255 255 255
-0.10008 0.653078  2.00021 255 255 255
-0.826635  0.451058   2.15097 255 255 255
0.965436 0.688167  2.19699 255 255 255
-0.13366 0.655816  2.05588 255 255 255
0.235307  1.13912  1.85182 255 255 255
0.868714 0.727423  2.20304 255 255 255
0.442261 0.962062  1.98077 255 255 255
0.873103 0.536896  2.29065 255 255 255
-0.246459  0.601587   2.08294 255 255 255
0.373497  1.25611  1.78905 255 255 255
0.00571386   0.654509    2.05194 255 255 255
-0.497368  0.914633   1.92531 255 255 255
0.165313 0.582965  2.13975 255 255 255
-0.334235   1.14691   1.75573 255 255 255
0.858072  0.24251  2.47726 255 255 255
-0.485895  0.739949   2.00788 255 255 255
