ply
format ascii 1.0
element vertex 1169
property float x
property float y
property float z
property uchar red
property uchar green
property uchar blue
end_header
0.335216   3.0503 0.894014 255 255 255
-0.425831   3.13158  0.889129 255 255 255
-0.593567   2.80731   1.00502 255 255 255
-0.458016   2.47467   1.14933 255 255 255
0.491398  3.54714 0.736582 255 255 255
-0.88925  1.79564  1.43028 255 255 255
0.301981  2.76464  1.02786 255 255 255
0.0948997   2.58383   1.06176 255 255 255
0.876638  2.53168  0.99346 255 255 255
 0.26691   3.2322 0.822854 255 255 255
0.426965  2.75683  1.03653 255 255 255
0.0410288   2.83563  0.984473 255 255 255
0.276728  2.86625 0.965435 255 255 255
-0.251828   3.20453  0.844615 255 255 255
 0.14145  3.29821 0.788151 255 255 255
0.524917  2.64769  1.10893 255 255 255
 -1.0949  2.91607 0.914726 255 255 255
-0.714008    2.4969    1.0939 255 255 255
-1.09692   2.9439 0.973331 255 255 255
0.0999984   3.41661  0.745641 255 255 255
 0.40528   3.0172 0.926704 255 255 255
-0.72718  2.70221 0.947136 255 255 255
-0.727158   2.70371  0.948483 255 255 255
0.897927  2.72596  1.19396 255 255 255
 0.37459  2.84104 0.991079 255 255 255
-0.71059  2.45696  1.09218 255 255 255
-0.823135    2.4447   1.09314 255 255 255
0.474168  2.61998  1.11189 255 255 255
-0.364439   2.65248   1.09055 255 255 255
-0.455831   1.96557   1.34208 255 255 255
0.475692  2.33813   1.2329 255 255 255
0.463903  3.08643 0.899993 255 255 255
0.208672  3.26016 0.801708 255 255 255
-0.955056   2.94374  0.805321 255 255 255
-0.720004   2.69723  0.927487 255 255 255
0.0215799   2.56901   1.06543 255 255 255
0.279202  2.64595   1.1101 255 255 255
-0.984442   2.44505  0.922757 255 255 255
0.406897  2.99573 0.929887 255 255 255
-0.457111    3.0887  0.901445 255 255 255
-0.946892   2.30446  0.968438 255 255 255
0.206559  3.08462 0.885927 255 255 255
1.00253 2.82122 1.09929 255 255 255
-0.949051   2.09427   1.18622 255 255 255
-0.260062   3.19446   0.85326 255 255 255
-0.161456   3.33415  0.639286 255 255 255
1.09427 2.54419 1.20999 255 255 255
0.329344  2.43359  1.20919 255 255 255
0.505322  3.49911  0.74088 255 255 255
0.139532  3.28544 0.795156 255 255 255
0.48089 2.30646 1.24845 255 255 255
-0.582316   2.78396  0.813916 255 255 255
1.00022 2.83079 1.11335 255 255 255
-0.468308   3.30157  0.829331 255 255 255
0.254687  3.32171 0.781377 255 255 255
0.387125  2.26551  1.27764 255 255 255
-0.895634   1.75313   1.46559 255 255 255
-0.961164   3.01211  0.779162 255 255 255
0.650479  3.38776 0.806578 255 255 255
0.314003  2.73329  1.02755 255 255 255
-0.942614   2.79302  0.812913 255 255 255
0.579175  3.45329 0.767637 255 255 255
0.307986  2.15894  1.30016 255 255 255
0.309733  2.17129  1.28926 255 255 255
-1.06895  2.48201 0.946754 255 255 255
 0.57013  3.35809 0.801824 255 255 255
0.288875  3.26952 0.805783 255 255 255
0.407884  3.08075 0.889941 255 255 255
-0.78232  2.38354  1.06354 255 255 255
-0.00388959      2.1688     1.13435 255 255 255
-1.10096  2.91587 0.905716 255 255 255
0.154654  3.27581 0.800017 255 255 255
0.773841  2.71966   1.0648 255 255 255
0.217555    3.197 0.822804 255 255 255
0.289897  2.64327   1.1037 255 255 255
0.379162  2.96391 0.938565 255 255 255
0.617239  2.97801  1.03883 255 255 255
-0.790043   2.44994   1.09176 255 255 255
0.219715  2.94443 0.954947 255 255 255
0.711045  2.78082  1.15187 255 255 255
-0.945429   1.86219   1.28367 255 255 255
-0.260455   3.37454  0.764785 255 255 255
-1.12215  2.95338 0.966819 255 255 255
-0.547313   2.27768   1.12137 255 255 255
-0.518343   3.02685  0.926664 255 255 255
 0.18529  3.45181 0.712832 255 255 255
0.00987692    3.14937   0.819928 255 255 255
-0.681624   2.35267   1.07483 255 255 255
0.707114  2.88816  1.10578 255 255 255
0.540455  3.54502 0.743092 255 255 255
-0.827317   3.02554  0.779049 255 255 255
-0.859121   2.01792   1.33516 255 255 255
0.617306   3.3223 0.823692 255 255 255
0.362272  2.92213 0.959974 255 255 255
-0.869521   2.02355   1.26664 255 255 255
0.547008  2.66165  1.12438 255 255 255
0.615281  2.62915  1.12671 255 255 255
0.298667  2.58443  1.12939 255 255 255
-0.823578   3.03264  0.776378 255 255 255
0.192222  3.26187 0.803942 255 255 255
0.617748  3.22191 0.865289 255 255 255
0.167346  2.33519   1.2305 255 255 255
1.13067 2.63493 1.18478 255 255 255
0.465949  3.32229  0.80447 255 255 255
0.905154  2.59728  1.01057 255 255 255
0.303328  2.81806 0.988414 255 255 255
0.367187  3.42698 0.755858 255 255 255
-0.579265   2.60953  0.881095 255 255 255
 1.0745 2.58632 1.19618 255 255 255
0.816578  2.92957  1.10355 255 255 255
0.0289835   3.15396  0.818961 255 255 255
-0.71867   2.9969 0.806601 255 255 255
0.991911  2.78571  1.11626 255 255 255
0.269617  2.52888  1.11697 255 255 255
0.727144  3.04926 0.954714 255 255 255
0.241132  3.31268 0.779546 255 255 255
0.980949  2.81548  1.12193 255 255 255
0.111507  3.02489 0.927872 255 255 255
0.563515  3.27519 0.835051 255 255 255
-0.722516   2.71887  0.918282 255 255 255
-0.724846   2.73121  0.911948 255 255 255
-1.06555    1.727  1.39599 255 255 255
0.530724  2.57846  1.13612 255 255 255
0.298015  2.82499 0.998236 255 255 255
0.668606  3.28151 0.830194 255 255 255
0.144174  3.21594 0.829322 255 255 255
0.134199  2.29528   1.2519 255 255 255
 1.1998 2.43326 1.27676 255 255 255
-1.11098   2.9188   0.8977 255 255 255
0.278387  2.82812 0.989748 255 255 255
 0.58667  3.16214 0.885347 255 255 255
0.330025  2.83408 0.988653 255 255 255
0.0574799   2.56726   1.06369 255 255 255
-0.33184  2.02635  1.33495 255 255 255
-0.882139   1.75604   1.46539 255 255 255
0.512476  3.48783 0.745362 255 255 255
0.13442  2.3114 1.23318 255 255 255
-0.941513   2.29185  0.948999 255 255 255
1.11772 2.59517  1.1984 255 255 255
0.0100534   3.15955  0.816805 255 255 255
-0.99356  2.28413 0.922525 255 255 255
0.703665  2.64657 0.965293 255 255 255
-0.837238   2.79081  0.857343 255 255 255
-0.954403   2.46457  0.945897 255 255 255
-0.335238   2.25031   1.05788 255 255 255
-0.72789  2.74165 0.910611 255 255 255
-0.849315   1.94715   1.38289 255 255 255
-0.893695   1.82243   1.43165 255 255 255
-0.571113   3.27516  0.801354 255 255 255
0.34882 2.50494 1.16674 255 255 255
0.502455  2.60562  1.12546 255 255 255
0.282543  3.29099 0.801737 255 255 255
-0.503355   2.86928   0.98736 255 255 255
 0.12238  3.43488 0.714378 255 255 255
0.344312  2.49893  1.16048 255 255 255
0.403894  2.77796  1.02371 255 255 255
-0.313267   2.03004   1.34322 255 255 255
-0.490522   2.86977  0.991087 255 255 255
-0.99264  1.90856  1.26508 255 255 255
-0.298637    3.0313  0.941418 255 255 255
-0.197164   2.51297   1.00876 255 255 255
0.262529  3.44849 0.730585 255 255 255
0.666116  3.28644 0.839841 255 255 255
0.377929  3.07095  0.89303 255 255 255
0.708676  2.72966  1.11788 255 255 255
-0.67155   2.6227 0.963177 255 255 255
0.554144  2.56368  1.14423 255 255 255
-0.862172   1.90076   1.40339 255 255 255
0.593157  3.46099 0.771819 255 255 255
0.669502   3.3727 0.817762 255 255 255
0.398818  2.53608  1.15027 255 255 255
0.300458  2.84616 0.984643 255 255 255
1.08681 2.42034 1.25988 255 255 255
0.206376  3.05037  0.90388 255 255 255
-0.989703   2.90441  0.756327 255 255 255
-0.358373   1.96752   1.37915 255 255 255
-0.0141515    2.78214    1.01708 255 255 255
0.673262  3.34348 0.822672 255 255 255
0.190582  2.26949  1.26182 255 255 255
-0.196772   2.09962   1.32881 255 255 255
-0.513198   2.96525  0.945235 255 255 255
-0.450231    2.4503   1.16224 255 255 255
0.14726 2.76157 1.04818 255 255 255
0.317208  2.88367  0.96521 255 255 255
-0.166719   2.87929   0.83066 255 255 255
-0.621126   2.76932  0.819806 255 255 255
0.221857   2.9879 0.926894 255 255 255
0.700448  3.30926 0.838079 255 255 255
-0.915508   2.51252  0.920757 255 255 255
0.192434  3.41502 0.720151 255 255 255
0.250649  3.39404 0.748871 255 255 255
-1.06348  2.53373 0.951015 255 255 255
0.583051  3.44802 0.768756 255 255 255
0.127267  2.97682 0.950148 255 255 255
0.0904909   2.23409   1.13502 255 255 255
 0.26617  3.48763 0.723829 255 255 255
0.393836  2.61392  1.11282 255 255 255
0.631257  2.45938  1.11313 255 255 255
0.917437  2.74295  1.17742 255 255 255
 0.12282  2.99235 0.944529 255 255 255
0.00460746     2.6055    1.04732 255 255 255
-0.418153    2.5338   1.12767 255 255 255
-0.13744  2.87025 0.849359 255 255 255
0.687449  3.32477 0.839192 255 255 255
0.701313  3.06821 0.939576 255 255 255
-0.766908    2.9688  0.810831 255 255 255
-1.01546  2.30785 0.960919 255 255 255
-0.996245   2.86995   0.76701 255 255 255
1.12532 2.63053 1.19134 255 255 255
0.373704  2.44829  1.13053 255 255 255
-0.893131    2.5802  0.965245 255 255 255
-1.11482  2.92477  0.90566 255 255 255
0.733713   3.0295 0.975511 255 255 255
0.883531  2.59384 0.965681 255 255 255
-0.61787   2.7643  0.81205 255 255 255
1.12346 2.59044 1.18161 255 255 255
-0.483749   3.29632  0.829438 255 255 255
-0.894949   1.83183   1.42891 255 255 255
0.316125   2.4662  1.17618 255 255 255
0.428298  2.55959  1.13785 255 255 255
0.0818414   2.82942  0.992642 255 255 255
-0.682958   2.47083   1.09294 255 255 255
 -1.0466  2.32626 0.972567 255 255 255
0.843385   3.0795 0.962076 255 255 255
0.677398  3.15723 0.901791 255 255 255
0.555736  3.10178 0.901428 255 255 255
0.62118 2.96431 1.05988 255 255 255
 0.15747  3.22359 0.820769 255 255 255
0.500413   3.5038  0.74063 255 255 255
0.230533  3.10066 0.873221 255 255 255
0.0426508   2.67642   1.05741 255 255 255
0.590953  3.42062  0.77751 255 255 255
0.834672  2.76675  1.17839 255 255 255
 0.41677   3.4765 0.747839 255 255 255
0.414747  2.63191  1.10158 255 255 255
0.471698  3.18397 0.857027 255 255 255
-0.457734   3.28917  0.832058 255 255 255
-0.448958   1.95825   1.34551 255 255 255
0.027553   2.6668  1.07068 255 255 255
0.627972  3.35622 0.805139 255 255 255
0.428814  3.24408 0.830387 255 255 255
-0.865299   2.07449   1.32686 255 255 255
-0.0548376     2.6446    1.03064 255 255 255
0.357541  2.46546  1.14349 255 255 255
-0.280655   3.17701  0.858096 255 255 255
0.360844  2.72138  1.04948 255 255 255
-0.563686   2.83968  0.996753 255 255 255
0.0904105   3.30224  0.812192 255 255 255
-0.84234  2.63448  0.94499 255 255 255
 0.52825  3.48368 0.752886 255 255 255
0.440547  2.62828  1.10952 255 255 255
-0.633825   2.85144  0.977491 255 255 255
0.522437  2.38502  1.23067 255 255 255
0.0533161   3.38552  0.780542 255 255 255
0.411865  2.53376  1.14056 255 255 255
0.231696  2.97739  0.92838 255 255 255
0.499641  2.45466  1.18886 255 255 255
1.08847 2.52675 1.22316 255 255 255
0.392746  3.07897 0.897298 255 255 255
  0.2649   3.1445 0.845679 255 255 255
  -1.14136 -0.0533186    2.12719 255 255 255
  -1.05451 -0.0341799    2.16772 255 255 255
 -1.03563 0.0115231   2.15175 255 255 255
 -1.33077 -0.112453   2.03793 255 255 255
-0.605118   5.64993  0.505856 255 255 255
-0.521908   6.05046  0.487053 255 255 255
-1.16579  5.00884 0.511128 255 255 255
-1.03111  5.05066 0.376066 255 255 255
-0.586981   5.52708  0.500914 255 255 255
-1.05149  5.02474 0.379737 255 255 255
-0.300176   1.15992   1.77519 255 255 255
-0.252468   1.34001   1.59976 255 255 255
-1.21535  1.06502  1.76671 255 255 255
-1.03961  1.13997  1.81499 255 255 255
-0.663084   1.32585   1.67247 255 255 255
-0.230757   1.40881   1.55621 255 255 255
-0.734307   1.70979   1.43572 255 255 255
-0.699401   1.66685   1.46126 255 255 255
-1.00688  1.22613  1.72979 255 255 255
-0.527275   1.05551    1.8368 255 255 255
-0.464868   1.72742   1.42599 255 255 255
-0.119982   1.53024   1.57271 255 255 255
-0.356955   1.01382   1.87147 255 255 255
-1.06002  1.58682  1.46991 255 255 255
-0.224578   1.36937   1.67347 255 255 255
-0.62706  1.67241  1.46291 255 255 255
-0.0673006     1.2732    1.73692 255 255 255
-0.858702   1.94075   1.15956 255 255 255
-0.67611  1.55797  1.52133 255 255 255
-0.927465   1.22697   1.75229 255 255 255
-1.04414  1.10087  1.80897 255 255 255
-0.61678  1.77006  1.25236 255 255 255
-1.18694  1.27362  1.70454 255 255 255
0.360117   1.8105  1.38646 255 255 255
-1.37251  1.24653  1.71231 255 255 255
-0.775878   1.63117   1.47779 255 255 255
-0.660014   1.67602   1.44175 255 255 255
-0.0515347    1.30604     1.6995 255 255 255
-0.645665   1.57117   1.51996 255 255 255
-1.43847  1.64918   1.4432 255 255 255
-0.515364   1.02821   1.84937 255 255 255
-1.04463  1.57194  1.51004 255 255 255
-0.0217962     1.5888    1.55465 255 255 255
-0.977144   1.21045   1.74822 255 255 255
-0.611013   1.02473   1.84359 255 255 255
-0.194993   1.41313    1.6039 255 255 255
-1.36691  2.39757    1.062 255 255 255
-0.0952454     1.1057    1.83959 255 255 255
-0.448358   2.21148    1.1171 255 255 255
-0.32205  1.12324  1.81913 255 255 255
-0.0685307     1.6806    1.33281 255 255 255
-0.36022  1.15891  1.76952 255 255 255
-0.506592   1.11677   1.80416 255 255 255
-1.11769  1.78285  1.38044 255 255 255
-0.871361   1.94561   1.16031 255 255 255
-1.40734  1.56357  1.48446 255 255 255
-0.0494008    1.19896    1.79002 255 255 255
-0.0621663     1.2917    1.71053 255 255 255
-0.479587   1.09691   1.81492 255 255 255
-1.03659  1.15889  1.78291 255 255 255
-0.0414931    1.56274    1.55985 255 255 255
-0.731597   1.97868   1.27205 255 255 255
0.374949   2.1327  1.15696 255 255 255
-0.622096  0.992235   1.86729 255 255 255
-0.565365   1.64501   1.46628 255 255 255
-0.0931647    1.19877    1.78579 255 255 255
-1.05705  1.06598  1.83919 255 255 255
-0.626166   1.00755   1.84809 255 255 255
-0.374573   1.31537   1.55818 255 255 255
-0.183449   1.22138    1.7216 255 255 255
-0.581402   1.01812   1.85012 255 255 255
-0.898821   1.98353   1.13381 255 255 255
-1.42308  2.36582  1.08469 255 255 255
-1.09877   1.5084  1.51076 255 255 255
-1.04356  1.06861  1.83871 255 255 255
-0.4399 1.06623 1.83779 255 255 255
-0.998671     1.184   1.76268 255 255 255
0.0137101   1.48247   1.62846 255 255 255
-0.474571   1.08325   1.82319 255 255 255
-0.594612   1.69133   1.44962 255 255 255
-0.293071   1.78775   1.38182 255 255 255
-0.642954   1.00792   1.84821 255 255 255
-0.497431   1.04602    1.8439 255 255 255
-0.923599    1.1604   1.77854 255 255 255
-0.527174   1.01873   1.85605 255 255 255
-0.144092   1.46445   1.56483 255 255 255
-1.41938  2.38382  1.06146 255 255 255
-1.31379  1.26311  1.69943 255 255 255
-1.36477  1.20417  1.72291 255 255 255
-1.11806  1.50716  1.50247 255 255 255
0.318995  2.18697  1.16512 255 255 255
-0.0534615    1.51406    1.49647 255 255 255
-1.01183  1.22524  1.73587 255 255 255
-0.945346   1.09256   1.83639 255 255 255
0.0216464   1.44768   1.64019 255 255 255
-0.465454   1.10335   1.81368 255 255 255
-0.36035  2.24852  1.10781 255 255 255
-1.05304  1.04805  1.85566 255 255 255
-0.611544   1.00464    1.8461 255 255 255
-0.572743   1.68591    1.4405 255 255 255
-1.07507  1.07495  1.83053 255 255 255
-1.04607  1.92873  1.15312 255 255 255
0.337864  2.11247  1.20788 255 255 255
-0.659093   1.67251   1.45582 255 255 255
-0.455534   1.70425   1.45222 255 255 255
-0.187419   1.38773   1.62223 255 255 255
-1.02896  1.04222  1.85796 255 255 255
-0.594112   1.01117   1.84714 255 255 255
-0.675828    1.6876   1.44957 255 255 255
-0.495145  0.987094   1.88136 255 255 255
-0.793264   1.92826   1.29808 255 255 255
-0.443576   1.12309   1.78535 255 255 255
-0.153163   1.41201   1.50302 255 255 255
-0.252517   1.33852   1.68424 255 255 255
-1.41466  1.57876  1.47442 255 255 255
0.391466  1.81941  1.39262 255 255 255
-1.54485   1.6696  1.44216 255 255 255
-0.30342 0.990887   1.8953 255 255 255
-0.548781    1.6738   1.46417 255 255 255
-0.63161 0.984391   1.8758 255 255 255
0.330238  2.14877  1.18707 255 255 255
-0.314443   1.83941   1.34962 255 255 255
-0.598234   1.00523   1.86202 255 255 255
-0.293323   2.08969   1.16484 255 255 255
-1.44437   1.2728  1.68014 255 255 255
-0.0549575    1.54651    1.45683 255 255 255
-0.813113   1.64051   1.46572 255 255 255
-0.508226   1.13426   1.78996 255 255 255
-0.799695   1.29225   1.69627 255 255 255
-0.598202    1.6659   1.45425 255 255 255
-0.305386   1.79938   1.37732 255 255 255
0.406317  2.01859  1.21107 255 255 255
-1.44936   1.2795  1.67395 255 255 255
-0.821563   1.07973   1.81857 255 255 255
0.262882  1.76226  1.41491 255 255 255
-0.0150438    1.32805    1.70212 255 255 255
-1.44648  2.43324  1.01888 255 255 255
-0.797845   2.07726   1.08674 255 255 255
0.404068  1.86456  1.36113 255 255 255
-1.24134  1.14396  1.75001 255 255 255
-1.2221 1.03775 1.84988 255 255 255
-1.24236  1.15207  1.74311 255 255 255
-1.09214  1.50781  1.49721 255 255 255
-0.767717   1.73545   1.42038 255 255 255
-1.42139  1.42715  1.59931 255 255 255
-0.489993   1.09937   1.81434 255 255 255
0.413434  1.86766  1.33584 255 255 255
-0.836992   1.79612   1.37338 255 255 255
0.525091  2.05173  1.25262 255 255 255
-0.12113  1.38636  1.63792 255 255 255
-0.335634   1.79042   1.36903 255 255 255
0.404997  2.08157  1.18151 255 255 255
-0.0230906    1.23928    1.76969 255 255 255
-1.07968  1.63032  1.46136 255 255 255
-0.449397   1.70928   1.42678 255 255 255
-1.07525  1.52725  1.50389 255 255 255
-0.803502   1.79975    1.3757 255 255 255
-0.277038   1.88479   1.34066 255 255 255
0.245078   1.7611  1.41379 255 255 255
-1.40167  1.09389  1.80633 255 255 255
0.0238516   1.48734   1.62701 255 255 255
0.00724348     1.3406     1.7007 255 255 255
-1.32682  1.15341   1.7477 255 255 255
0.370275  1.97723  1.29809 255 255 255
-0.832895   1.08901   1.81492 255 255 255
0.412048  1.86036   1.3552 255 255 255
 0.2773 1.94176 1.27041 255 255 255
-0.468258   1.69822   1.43359 255 255 255
-0.524821   1.02399    1.8477 255 255 255
-1.17121  1.28396  1.71361 255 255 255
-0.820401   1.77601   1.37966 255 255 255
0.414812  2.21636  1.15113 255 255 255
0.308126  2.20478  1.15786 255 255 255
-0.550259   1.77108   1.23641 255 255 255
-0.513434   1.71587    1.4191 255 255 255
 0.3854 1.93928 1.31488 255 255 255
0.255529   1.7507  1.42036 255 255 255
-0.743887   1.63901   1.47052 255 255 255
-0.57301  1.02827   1.8382 255 255 255
-1.0161 1.54224 1.52139 255 255 255
-0.310502   1.27299   1.66183 255 255 255
-0.502015   1.12418   1.79514 255 255 255
0.379294   1.9513   1.3147 255 255 255
-0.608378   1.67657   1.45032 255 255 255
-0.136206   1.13901   1.81579 255 255 255
0.0220992   1.47595   1.63319 255 255 255
-0.829972   1.77659   1.37905 255 255 255
-0.849267   1.15629   1.41991 255 255 255
-0.427803   2.23773   1.09063 255 255 255
-0.995662   1.23524   1.73417 255 255 255
-0.903721   1.26821   1.71166 255 255 255
-0.840047   1.21876   1.75092 255 255 255
-0.294174  0.985756   1.89916 255 255 255
0.428082   1.8914  1.45612 255 255 255
-0.852155   1.51837   1.48938 255 255 255
-0.861832   1.84542   1.42497 255 255 255
-0.699002   1.67233   1.44956 255 255 255
-0.305091   1.29076    1.6852 255 255 255
-1.1227 1.91972 1.16224 255 255 255
-0.790986   1.81274   1.36048 255 255 255
-0.348953   2.20894   1.12323 255 255 255
-0.829923   2.02113   1.12009 255 255 255
-0.348933   2.12243   1.18422 255 255 255
-0.0957026    1.17496    1.80107 255 255 255
0.534866  2.03925   1.2386 255 255 255
-0.812075   1.65319   1.45925 255 255 255
-0.499311   1.05153   1.83976 255 255 255
0.422398  1.83609  1.38942 255 255 255
-0.488368   1.70333   1.44361 255 255 255
0.39755 1.84222 1.38336 255 255 255
-0.0777407     1.5777    1.40533 255 255 255
-0.159109   1.02863   1.88511 255 255 255
0.344327  2.10899  1.19801 255 255 255
0.531125  2.03902  1.25577 255 255 255
-0.429415   1.20429   1.74733 255 255 255
-0.305902   1.83103   1.35219 255 255 255
0.378683  1.97507  1.29847 255 255 255
-0.102693   1.50282   1.59141 255 255 255
-0.350323   2.17427   1.14594 255 255 255
-0.76111  1.96006   1.2686 255 255 255
-0.0995433    2.18681    1.15713 255 255 255
0.445037  1.84027  1.36844 255 255 255
-0.792605   1.85887   1.33816 255 255 255
0.435321  1.81694  1.40196 255 255 255
-0.210778   1.11349   1.82353 255 255 255
-0.115566   1.49509   1.59547 255 255 255
-0.229983   1.95025   1.28299 255 255 255
-0.309913    1.1164   1.82332 255 255 255
-1.0766 2.00139 1.11931 255 255 255
0.411033  1.85846  1.37414 255 255 255
-0.571345   1.72769   1.28696 255 255 255
-0.802364    1.8802   1.15826 255 255 255
0.343347  2.14501  1.16545 255 255 255
-0.937253   2.06179   1.08977 255 255 255
0.325645  2.17002   1.1846 255 255 255
0.123547  4.17466 0.563517 255 255 255
0.0990596   4.30244  0.546869 255 255 255
0.198917  4.18625 0.565667 255 255 255
-1.24718  4.94497 0.525158 255 255 255
-0.212283   4.11148  0.552276 255 255 255
0.148548  4.55185 0.484988 255 255 255
0.309816  4.46492 0.514913 255 255 255
-1.18246  4.99105 0.519214 255 255 255
-1.20417  5.03603 0.507657 255 255 255
0.120896  4.13656 0.561716 255 255 255
-0.267849    4.1742  0.551655 255 255 255
-1.21115   5.0001 0.524332 255 255 255
-1.19004   4.9699 0.523804 255 255 255
0.119504  4.29337 0.545625 255 255 255
-1.25456  4.90157 0.537625 255 255 255
-1.23169  4.96533 0.522544 255 255 255
0.138077  4.16258  0.55448 255 255 255
0.0762183   4.55739  0.481792 255 255 255
-0.27545  4.22839  0.55101 255 255 255
-0.295018   4.83414  0.348601 255 255 255
-0.452928   4.63417  0.371651 255 255 255
-0.291315   4.15944  0.563923 255 255 255
-0.314322   4.63835  0.372476 255 255 255
-0.19636  4.71774 0.359103 255 255 255
0.150859  4.16969 0.556616 255 255 255
-0.211906    4.5259   0.47486 255 255 255
-0.606601   4.97632  0.260293 255 255 255
0.146192  4.33193 0.543696 255 255 255
-1.20306  4.90543 0.537948 255 255 255
0.188037  4.37777 0.532196 255 255 255
0.0704441   4.54786  0.488617 255 255 255
0.24292 4.36017 0.53667 255 255 255
-1.23636  4.89284 0.535084 255 255 255
-0.407392   4.65527  0.366903 255 255 255
-0.682824   4.63518  0.366883 255 255 255
0.16684 4.15021 0.57428 255 255 255
-0.385621   4.62796  0.375513 255 255 255
0.236773  4.35344 0.538693 255 255 255
 0.13497  4.14092 0.553331 255 255 255
0.343051  4.28213 0.547181 255 255 255
-0.364587    4.6771  0.298735 255 255 255
-1.38136  4.94131 0.612393 255 255 255
0.125685   4.2849 0.542535 255 255 255
-0.62824  4.59367 0.373242 255 255 255
-0.223156   4.52912  0.473677 255 255 255
-0.641665   4.58755  0.382154 255 255 255
0.564457   5.0836 0.380087 255 255 255
0.567255  5.06757 0.377205 255 255 255
0.506332  5.02162 0.291747 255 255 255
0.598474  5.06621 0.370312 255 255 255
0.344053  4.97958 0.324978 255 255 255
0.591715   5.0355 0.379379 255 255 255
 0.51042  5.01271 0.299462 255 255 255
0.394811  4.99447 0.307317 255 255 255
0.421255  5.00008 0.307389 255 255 255
0.485007  5.02067 0.308968 255 255 255
0.413925   5.0011 0.304912 255 255 255
0.409463  5.00347 0.305977 255 255 255
-0.607182 -0.171993   2.36852 255 255 255
 0.139606 -0.409164   2.58124 255 255 255
-0.579883 -0.395314   2.44453 255 255 255
-0.483862 -0.284642   2.40663 255 255 255
-0.385328 -0.341677   2.44459 255 255 255
-0.629146 -0.325811   2.41124 255 255 255
 -0.56991 -0.193653   2.37379 255 255 255
-0.754939 -0.231611   2.33598 255 255 255
-0.512591 -0.379179   2.45263 255 255 255
-0.432577 -0.394783   2.48145 255 255 255
-0.622914 -0.203665   2.36854 255 255 255
 0.377294 -0.405635   2.62689 255 255 255
-0.493042 -0.277766   2.40056 255 255 255
-0.755282 -0.381056   2.42664 255 255 255
-0.469252 -0.473115   2.50206 255 255 255
-0.37467 -0.38101  2.47867 255 255 255
-0.476383 -0.397144   2.46649 255 255 255
-0.328533 -0.459876   2.53637 255 255 255
-0.638896 -0.309811   2.39995 255 255 255
-0.403336 -0.403947   2.49506 255 255 255
-0.520947 -0.340104   2.43524 255 255 255
-0.457927 -0.373379   2.46239 255 255 255
-0.529512  -0.37662   2.44941 255 255 255
-0.673108 -0.264226   2.36581 255 255 255
-0.559011  -0.19785   2.38032 255 255 255
-0.733096 -0.196008   2.34102 255 255 255
-0.551394 -0.164786    2.3124 255 255 255
-0.490655 -0.394102   2.46805 255 255 255
-0.473964 -0.445153   2.48796 255 255 255
-0.507518 -0.396653   2.46408 255 255 255
-0.809077 -0.371275   2.43456 255 255 255
 -0.46475 -0.364353   2.45581 255 255 255
 -0.48356 -0.388818   2.46426 255 255 255
-0.474753 -0.359463   2.45176 255 255 255
-0.561375 -0.145167   2.36448 255 255 255
-0.518829 -0.347579     2.438 255 255 255
-0.568522 -0.180107   2.37834 255 255 255
 0.296936 -0.380678   2.54908 255 255 255
-0.542952 -0.184291   2.38178 255 255 255
-0.700804 -0.319491   2.39211 255 255 255
-0.567749  -0.30131   2.41579 255 255 255
-0.953212   1.97469   1.18604 255 255 255
-0.885816   1.66828   1.43125 255 255 255
-1.43955   2.1371  1.17794 255 255 255
-1.11576   1.6635  1.43415 255 255 255
-1.40896  1.71564  1.45779 255 255 255
-1.05186  1.72932  1.42283 255 255 255
-0.829345   1.65337   1.44684 255 255 255
-0.536459   1.77296   1.26194 255 255 255
-0.897518   1.83319   1.31841 255 255 255
-0.731379   1.69894   1.43159 255 255 255
-0.335305   1.26581   1.70425 255 255 255
-1.30392  1.69824  1.46607 255 255 255
-1.11918  1.47652  1.55811 255 255 255
-0.455863   1.86369   1.21811 255 255 255
-1.67296   2.4633   1.0717 255 255 255
-0.698681   1.52867   1.53225 255 255 255
-0.706053  0.987122   1.26259 255 255 255
-0.773828   1.83268   1.33031 255 255 255
-1.03946  2.25013  0.91517 255 255 255
-0.705617   1.40868   1.61893 255 255 255
-0.920129    2.0995   1.07546 255 255 255
-1.09093  1.75881  1.39163 255 255 255
-0.629654   2.40926  0.947874 255 255 255
-1.03086  1.80005  1.24409 255 255 255
-1.71638  2.53588  1.02495 255 255 255
-0.967854   2.14497   1.04145 255 255 255
 -1.071 1.58545 1.50252 255 255 255
-1.09174  1.46633  1.57838 255 255 255
-0.804286   2.07817  0.963697 255 255 255
-1.41044  1.55149  1.47876 255 255 255
-0.764271   1.70345   1.43763 255 255 255
-0.59314  2.37605  0.99363 255 255 255
-0.853083   2.08507  0.959932 255 255 255
-0.881799    1.6586   1.46479 255 255 255
-1.31466  2.43583  1.04037 255 255 255
-0.653281   2.38404  0.960043 255 255 255
-1.63227  2.48442  1.05256 255 255 255
-1.02999  1.92479  1.16292 255 255 255
-0.918797   1.47296   1.57589 255 255 255
-0.870725   1.94289   1.16009 255 255 255
-1.36769   2.4001  1.06339 255 255 255
-0.558905   1.77797   1.23272 255 255 255
-1.55652  1.98092  1.34997 255 255 255
-1.73841  2.39758  1.10234 255 255 255
-0.599566   2.39483  0.955977 255 255 255
-1.72776  2.34652  1.13072 255 255 255
-1.06591  2.30915 0.909465 255 255 255
-1.24536  1.94439  1.30288 255 255 255
-1.62882  2.43807  1.08037 255 255 255
-0.377536   2.26773    1.1058 255 255 255
-1.46487  1.68127  1.43023 255 255 255
-0.764269   1.82582   1.36269 255 255 255
-0.981752   1.81228   1.26439 255 255 255
-0.238514   1.25552   1.69476 255 255 255
-1.26417  1.51119  1.57578 255 255 255
-1.05703  2.25404 0.938345 255 255 255
-1.53765  1.70162  1.42197 255 255 255
-0.766903   1.82862   1.34397 255 255 255
-1.07672  2.31706 0.889159 255 255 255
-1.05017  1.93878   1.1556 255 255 255
-0.978985   1.70503   1.42861 255 255 255
-1.43548  1.68704  1.44491 255 255 255
-0.174047    1.2108   1.72518 255 255 255
-0.513531   1.25239   1.69336 255 255 255
-0.414073   2.35986    1.0308 255 255 255
-1.43431  2.49853  1.01487 255 255 255
-1.26584   1.4975  1.56987 255 255 255
-0.876653   2.04531   1.00695 255 255 255
-0.781992   1.71418   1.43205 255 255 255
-0.868619   2.08535   1.06821 255 255 255
-0.75389  1.75301  1.38704 255 255 255
-0.79568  1.78371  1.37769 255 255 255
-1.4058 2.39248 1.06783 255 255 255
-0.244781   1.26961   1.67801 255 255 255
-1.56307  1.69567  1.46555 255 255 255
-0.840986   1.75167   1.39779 255 255 255
-1.38556  2.40322   1.0638 255 255 255
-0.911656   1.78753   1.35911 255 255 255
-1.07974  1.80904  1.21732 255 255 255
-0.896409    2.0713  0.978012 255 255 255
-0.728709   1.63824   1.47126 255 255 255
-0.465988   1.66104   1.45665 255 255 255
-0.763112   1.77255   1.38194 255 255 255
-1.01703  1.81918  1.23666 255 255 255
-0.819623   2.04999   1.00054 255 255 255
-0.640694   1.64324   1.47146 255 255 255
-1.64204  2.16812  1.22922 255 255 255
-0.856138   1.47949   1.55117 255 255 255
-1.7821 2.48437 1.04773 255 255 255
-0.756927   1.89333   1.32535 255 255 255
-0.468645   1.65723   1.52228 255 255 255
-0.697526    1.5625   1.51711 255 255 255
-0.622348   1.66295   1.44048 255 255 255
-1.56483  1.72993  1.40956 255 255 255
-1.54984  1.69067  1.47564 255 255 255
-0.838783   2.02359    1.0138 255 255 255
-0.632512   1.72471   1.27871 255 255 255
-1.60294  1.90602  1.35027 255 255 255
-1.51449  1.71389  1.43435 255 255 255
-0.533144   1.77323   1.23522 255 255 255
-0.702976      1.42   1.59508 255 255 255
-1.55089  1.72104  1.41322 255 255 255
-0.193945   1.34179   1.65751 255 255 255
-0.535119   1.77048   1.26811 255 255 255
-0.857381   2.03198   1.01077 255 255 255
-1.53841  1.96193  1.36157 255 255 255
-0.840945   2.08824   0.97355 255 255 255
-0.805945   2.06887  0.942017 255 255 255
-1.45912  1.31103  1.69631 255 255 255
-0.499483   1.24171   1.71702 255 255 255
-0.354007   2.22406   1.11345 255 255 255
-1.63574  2.36479  1.13863 255 255 255
-1.49736  1.70862  1.46076 255 255 255
-0.282913   1.22796   1.69138 255 255 255
-1.05657  1.61759  1.47886 255 255 255
-0.568193   2.40181  0.959433 255 255 255
-1.56103  1.74745  1.39704 255 255 255
-1.02589  1.56488  1.51402 255 255 255
-1.18665  1.88234  1.34269 255 255 255
-0.503725   1.24567   1.69637 255 255 255
-0.891859    1.4812   1.53115 255 255 255
-0.318289   1.82041   1.36029 255 255 255
-0.232759    1.3169   1.67114 255 255 255
-0.549259   2.41322  0.999674 255 255 255
-1.01308  1.53442  1.53665 255 255 255
-1.07814  1.82473  1.19847 255 255 255
-0.0971636    2.19245    1.14799 255 255 255
-1.18545  1.91264  1.32906 255 255 255
-1.10394   1.7821   1.3883 255 255 255
-0.754682   1.80646   1.37242 255 255 255
-1.00578  1.24384  1.73471 255 255 255
-0.742037    2.0577   1.23209 255 255 255
-0.762748   2.04637   1.20732 255 255 255
-0.625379   1.75392   1.26175 255 255 255
-0.538696   2.09285   1.06969 255 255 255
-0.779491   1.83424   1.35507 255 255 255
-1.58731  1.75857   1.3968 255 255 255
-1.18285  1.89293  1.33494 255 255 255
-0.380467   1.61869   1.48248 255 255 255
-0.744664   2.07533   1.19673 255 255 255
-0.10317  1.87345  1.21549 255 255 255
-1.06734  2.35501 0.883689 255 255 255
-0.676644   1.28381   1.68826 255 255 255
-0.477664   2.12024   1.07314 255 255 255
-0.87679  1.78765  1.27919 255 255 255
-1.00566  1.69403  1.41767 255 255 255
 -1.0405  2.32393 0.904822 255 255 255
-0.826193   2.08606    1.0831 255 255 255
-0.865488   1.80102   1.30371 255 255 255
-0.779536   1.81891   1.36142 255 255 255
-0.557745   1.60129   1.49491 255 255 255
-0.616984   2.38253  0.916608 255 255 255
-1.11112  1.89981   1.1725 255 255 255
-1.22277  1.97172  1.29712 255 255 255
-0.623692   1.73725   1.27525 255 255 255
-0.922757   1.82598   1.31818 255 255 255
-0.98759  1.81321  1.25048 255 255 255
-0.888463   1.77569   1.38452 255 255 255
-0.893472   1.76431    1.3876 255 255 255
-1.04782  2.32022 0.912555 255 255 255
-0.988772   1.50199   1.55543 255 255 255
-0.739312   1.92795   1.30257 255 255 255
-0.71746  1.64146  1.47266 255 255 255
-0.789768   1.31605   1.68427 255 255 255
-1.28951  2.43177  1.04554 255 255 255
-0.95136  2.12084  1.05781 255 255 255
-0.342732   2.20037   1.13113 255 255 255
-0.610377   1.77424   1.36079 255 255 255
-0.61062  1.72917  1.28968 255 255 255
-1.54108  1.73199  1.40911 255 255 255
-0.591881   1.38913   1.62076 255 255 255
-0.751432   1.79083   1.37556 255 255 255
-0.839805   1.97832   1.14642 255 255 255
-1.15745   1.8884  1.32941 255 255 255
-1.77873  2.51717  1.03616 255 255 255
-0.471106   1.62761   1.47404 255 255 255
-0.735171   1.90354   1.31951 255 255 255
-0.59442  1.33843  1.66297 255 255 255
-0.825225   1.26191   1.72482 255 255 255
-0.793149   1.80392   1.36651 255 255 255
-0.891658   2.09951  0.962752 255 255 255
-1.15152  1.92373  1.32755 255 255 255
-0.757918    1.3712   1.64989 255 255 255
-0.665325   1.64425    1.4689 255 255 255
-1.21504   1.2667  1.72497 255 255 255
-0.900695   1.80248   1.36011 255 255 255
-0.770404   1.88547    1.3242 255 255 255
-0.900137   1.96055   1.14488 255 255 255
-0.765265   1.64825   1.46655 255 255 255
-1.42997     2.51  1.00052 255 255 255
-0.654548   1.80183   1.23441 255 255 255
-0.438711    1.5993   1.49832 255 255 255
-0.779969   1.85662   1.34359 255 255 255
-0.778869   2.07736  0.988183 255 255 255
-1.00225  1.81079  1.25024 255 255 255
-0.866633   1.44827   1.58989 255 255 255
-1.28606  1.43973  1.62728 255 255 255
-1.43009  1.60728  1.47648 255 255 255
-0.908559   1.78123   1.36792 255 255 255
-0.761302    1.8206   1.36674 255 255 255
-0.631195    1.7486   1.26481 255 255 255
-0.633914   1.78128   1.24664 255 255 255
-1.57723  1.70267  1.43064 255 255 255
-1.51973  2.09492  1.24141 255 255 255
-0.820918   2.01826    1.0249 255 255 255
-1.07338  1.63324  1.47491 255 255 255
-1.32465  1.26856  1.69691 255 255 255
-0.305523   2.49635  0.965745 255 255 255
-0.787578   1.64051   1.47083 255 255 255
-1.53842  2.23388  1.29791 255 255 255
-1.5729 1.74451 1.40179 255 255 255
-1.57029  1.69077  1.46849 255 255 255
-0.876867   2.20283  0.913958 255 255 255
-0.895124   1.46772    1.5132 255 255 255
-1.37668  2.54016 0.970476 255 255 255
-0.895295   1.82446   1.31912 255 255 255
-1.07274  1.81053  1.21047 255 255 255
-0.778988   1.71575   1.42626 255 255 255
-1.53944  1.97899  1.34903 255 255 255
-0.706748   1.64756   1.46305 255 255 255
-1.55553  2.07881   1.2946 255 255 255
-0.789582   1.74395   1.40664 255 255 255
-0.755532   1.84606   1.34985 255 255 255
-1.4099 2.12721 1.21869 255 255 255
-1.11784     1.93  1.15453 255 255 255
-0.776904   1.60754      1.49 255 255 255
-0.606333   1.76059   1.33968 255 255 255
-0.770002   2.08386  0.981857 255 255 255
-0.754782   2.18925  0.923613 255 255 255
-1.21119   1.9352  1.31696 255 255 255
-1.65719  2.50109    1.044 255 255 255
-1.05399  2.32108 0.904522 255 255 255
-0.656618   2.17036   1.02806 255 255 255
-1.40139  2.13017  1.21318 255 255 255
-0.744816 -0.221054   2.43328 255 255 255
 -1.03951 -0.161614   2.25519 255 255 255
-0.600391 -0.433202   2.49022 255 255 255
-0.656004 -0.407456   2.47406 255 255 255
-0.915365 -0.143921   2.29951 255 255 255
-0.873862 -0.285398   2.37159 255 255 255
-1.09008 0.339603  1.89083 255 255 255
-0.774788 -0.365497   2.44268 255 255 255
-0.628168 -0.394403    2.4825 255 255 255
-0.885912 -0.191201   2.33089 255 255 255
 -0.88291 -0.103152   2.31338 255 255 255
-0.849408 -0.115531    2.3434 255 255 255
-0.849169 -0.175626    2.3529 255 255 255
 -0.864905 -0.0612598    2.32193 255 255 255
-0.627938 -0.413613   2.48035 255 255 255
    -1.0375 0.000877661     2.15667 255 255 255
-0.565849 -0.505512   2.49418 255 255 255
-0.589065 -0.460602    2.4876 255 255 255
-0.765221 -0.201438   2.41239 255 255 255
-0.857373  -0.40238   2.43769 255 255 255
-1.10421 0.357319  1.85248 255 255 255
-0.637895 -0.433212   2.47257 255 255 255
-0.751926 -0.297832   2.42641 255 255 255
-0.767379 -0.270273   2.41841 255 255 255
-0.856925 -0.290976    2.3817 255 255 255
 -0.775095 -0.0797231    2.29352 255 255 255
-0.945854 -0.180187   2.30095 255 255 255
-1.04747 0.239699  2.00231 255 255 255
-0.881259 -0.134165   2.32292 255 255 255
-0.734846 -0.238087   2.44119 255 255 255
-0.524724 -0.522653   2.50545 255 255 255
-0.843853 -0.199539   2.36214 255 255 255
 -1.14409 0.0261481   2.07299 255 255 255
-0.753996 -0.271868   2.42469 255 255 255
-0.877432 -0.156636   2.30666 255 255 255
 -0.97699 -0.373934   2.38966 255 255 255
-0.643588 -0.418671   2.47125 255 255 255
-1.09716 0.369388  1.84853 255 255 255
 -0.65639 -0.335448   2.47261 255 255 255
-0.693795 -0.326729   2.46007 255 255 255
-0.634384 -0.425026   2.47925 255 255 255
 -1.04564 0.0469569   2.12604 255 255 255
-0.626421  -0.30848    2.3979 255 255 255
-0.583358 -0.430233    2.4947 255 255 255
-0.610265 -0.462178   2.48164 255 255 255
 -1.00928 0.0223737   2.16363 255 255 255
-0.681957 -0.328097   2.46195 255 255 255
-0.939508 -0.205581   2.31499 255 255 255
-0.573933 -0.449169   2.49624 255 255 255
-0.941862 -0.130879   2.28052 255 255 255
-0.882764 -0.256118   2.35683 255 255 255
-0.941668   -0.1949   2.30647 255 255 255
 -0.84473 -0.215263   2.35941 255 255 255
-0.607663 -0.454968   2.48357 255 255 255
 -1.31995 -0.408511    2.2317 255 255 255
-0.593378 -0.464875    2.4873 255 255 255
-0.805666 -0.273427   2.39167 255 255 255
-0.903454 -0.283695   2.40051 255 255 255
-0.804986 -0.213659   2.39357 255 255 255
-0.721315 -0.375656   2.44006 255 255 255
-0.941811 -0.171282   2.29694 255 255 255
-0.504748 -0.519898   2.50982 255 255 255
  -1.10699 -0.0822698    2.16481 255 255 255
-0.666434  -0.34458   2.47064 255 255 255
-0.803761 -0.193471   2.39334 255 255 255
-0.561753 -0.465819   2.49657 255 255 255
-0.740698 -0.363721   2.43234 255 255 255
 -0.89041 -0.209007   2.33819 255 255 255
  -1.067 0.208452  1.99407 255 255 255
-0.580261 -0.489862   2.48939 255 255 255
-0.908339 -0.205931   2.32518 255 255 255
-0.905372 -0.194209    2.3234 255 255 255
 -0.88003 -0.148399   2.30375 255 255 255
-0.879539 -0.263574   2.36127 255 255 255
-0.991485   -0.3506   2.34564 255 255 255
 -1.11353 -0.417825   2.32838 255 255 255
-0.756869 -0.310227   2.42324 255 255 255
-0.934923 -0.193719   2.31012 255 255 255
 -0.67131 -0.324815   2.46694 255 255 255
 -0.868418 -0.0738289     2.3197 255 255 255
-0.56969 -0.47627  2.49237 255 255 255
-0.932731 -0.329937   2.38767 255 255 255
-0.687912 -0.320245   2.46101 255 255 255
-0.562154 -0.459439     2.498 255 255 255
 -1.08946 -0.629312   2.42081 255 255 255
-0.984453 -0.325338   2.34002 255 255 255
 -0.89532 -0.218148   2.33507 255 255 255
-0.708728 -0.287215   2.45003 255 255 255
-0.619751 -0.461967   2.47652 255 255 255
 -0.83878 -0.385997   2.49044 255 255 255
-0.943027 -0.174744   2.32807 255 255 255
 -0.896415 -0.0805605    2.29996 255 255 255
-0.758436 -0.254354   2.42084 255 255 255
-0.866638 -0.253511   2.35879 255 255 255
-0.702578 -0.292742   2.45149 255 255 255
   -0.8714 -0.0618038    2.31899 255 255 255
-0.875777 -0.250622   2.35413 255 255 255
-0.765374 -0.266049   2.41866 255 255 255
-0.998062 -0.388055    2.3944 255 255 255
-0.723392  -0.35367    2.4403 255 255 255
-0.873548 -0.211529   2.34102 255 255 255
-0.921633 -0.166206   2.30366 255 255 255
-0.649777 -0.360297   2.47939 255 255 255
-0.763138 -0.249109   2.41843 255 255 255
-0.873513 -0.159249   2.33336 255 255 255
 -0.886664 -0.0378016    2.29917 255 255 255
-0.881215 -0.113948   2.31995 255 255 255
-0.834838 -0.369067   2.38034 255 255 255
-0.875335 -0.111764   2.32445 255 255 255
 -0.955102 -0.0614575    2.24123 255 255 255
-0.794793 -0.244652   2.40098 255 255 255
-0.780677 -0.227649   2.40625 255 255 255
-0.640241 -0.365873   2.48197 255 255 255
-0.942142 -0.180274   2.33258 255 255 255
-0.832728 -0.218103   2.37331 255 255 255
-0.908448 -0.354076   2.38504 255 255 255
-0.793074   -0.1774   2.39344 255 255 255
-0.700854 -0.323387   2.45388 255 255 255
 -0.73281 -0.228281   2.40465 255 255 255
-0.693116 -0.310298   2.45702 255 255 255
-0.774359 -0.242629   2.41192 255 255 255
-0.885793   -0.1612   2.32313 255 255 255
-1.01757 -0.14177  2.25046 255 255 255
-0.911556 -0.176662   2.31513 255 255 255
-0.658863 -0.340595    2.4715 255 255 255
 -1.29468 -0.424684   2.25115 255 255 255
 -0.898869 -0.0650008    2.29582 255 255 255
 -1.14063 -0.107107   2.15836 255 255 255
 -0.866886 -0.0574712     2.3188 255 255 255
-0.928378  -0.34379   2.37277 255 255 255
-0.773919 -0.212972   2.40867 255 255 255
-0.806229 -0.201314   2.39261 255 255 255
 -1.1112 -0.11765  2.18264 255 255 255
-0.723155 -0.240743   2.44613 255 255 255
 -1.13934 0.0144845   2.08205 255 255 255
-0.857619 -0.139034   2.34336 255 255 255
-0.901906 -0.206975   2.34003 255 255 255
-0.89485 -0.13685  2.31289 255 255 255
-0.895434 -0.162603   2.31705 255 255 255
 -0.880413 -0.0640461    2.30906 255 255 255
-0.879276 -0.133922   2.32399 255 255 255
-0.983938 -0.349147   2.34812 255 255 255
-0.909486 -0.102044   2.29373 255 255 255
-0.774083 -0.201158    2.4077 255 255 255
  0.0605487 -0.00719123     2.38656 255 255 255
  0.56512 -0.253842   2.61793 255 255 255
 0.35399 0.318319  2.25387 255 255 255
0.250032  0.35316  2.22332 255 255 255
-0.483357 0.0134249   2.34177 255 255 255
 -0.13092 0.0613871    2.3519 255 255 255
-0.227732  0.321709   2.17923 255 255 255
0.183075 0.434127  2.18912 255 255 255
  0.246929 -0.0825967    2.47446 255 255 255
   0.32497 -0.0825529    2.40122 255 255 255
 0.439434 0.0823212   2.41495 255 255 255
-0.179754 -0.111555   2.43128 255 255 255
-0.266584  0.377296   2.20123 255 255 255
0.232274 0.197794  2.29956 255 255 255
0.106429 -0.31783  2.51241 255 255 255
 0.285483 -0.164638   2.53157 255 255 255
0.170204 0.328286  2.25885 255 255 255
-0.127149  0.411069   2.18258 255 255 255
-0.526316 -0.276069   2.41129 255 255 255
  -0.2429 -0.148637   2.39396 255 255 255
 -0.234393 0.00690832    2.34971 255 255 255
0.0873951  0.119943   2.36424 255 255 255
-0.554971  0.406355   2.15922 255 255 255
 -0.179734 -0.0226662    2.35482 255 255 255
 -0.32453 0.0577512   2.31593 255 255 255
-0.273932  0.114873   2.30762 255 255 255
 0.153292 -0.442108   2.59439 255 255 255
0.421014 -0.14793  2.51542 255 255 255
 0.33863 0.217383  2.34399 255 255 255
 -0.42425 -0.381323   2.50004 255 255 255
-0.418622 -0.368518   2.45692 255 255 255
 0.526099 -0.136915   2.53459 255 255 255
0.276972 0.452252  2.16135 255 255 255
 0.337765 -0.259469   2.56757 255 255 255
 -0.216198 -0.0748341    2.38054 255 255 255
 0.446854 -0.245208   2.56508 255 255 255
-0.435638 -0.303951   2.43784 255 255 255
 -0.126403 -0.0695884    2.40316 255 255 255
-0.515739 -0.327138   2.44466 255 255 255
0.360719 0.364259  2.24325 255 255 255
0.400981  0.37418  2.27677 255 255 255
-0.519134  0.342612   2.17806 255 255 255
-0.57034 0.258809  2.20801 255 255 255
 0.388316 -0.193956   2.54254 255 255 255
0.54459 0.19972 2.34487 255 255 255
-0.679889  -0.28678   2.37358 255 255 255
 0.241681 -0.298334    2.5932 255 255 255
-0.385839  0.342242   2.19933 255 255 255
 0.054616 0.0808434   2.37915 255 255 255
-0.226728  0.109878   2.29092 255 255 255
0.279302 0.225554  2.36263 255 255 255
0.192753 0.282311  2.22861 255 255 255
 0.183755 -0.569761   2.64787 255 255 255
  0.17786 -0.146924   2.51555 255 255 255
-0.317126 -0.130113   2.42623 255 255 255
-0.145492 -0.273633   2.44336 255 255 255
 0.304816 -0.221248   2.55857 255 255 255
  0.107402 -0.0578998    2.38225 255 255 255
0.321111 0.364023  2.25027 255 255 255
0.435969 0.336338  2.23553 255 255 255
-0.103716 -0.363151   2.52508 255 255 255
 0.353434 -0.329995   2.59304 255 255 255
-0.418426 0.0466828   2.33028 255 255 255
 0.15453 0.392289  2.26269 255 255 255
 -0.54835 -0.181252      2.38 255 255 255
  0.575369 -0.0538586    2.52594 255 255 255
 0.368148 -0.132984   2.53725 255 255 255
 0.330322 -0.168286   2.53279 255 255 255
-0.0768878 -0.0941715    2.42126 255 255 255
 -0.506159 -0.0439802    2.30146 255 255 255
  0.45528 -0.179069   2.56433 255 255 255
-0.497868 0.0606663   2.30604 255 255 255
0.0520586 -0.371349   2.54282 255 255 255
 -0.362947 -0.0080073    2.36169 255 255 255
-0.47734 0.425316  2.16701 255 255 255
  0.142903 -0.0200984    2.39899 255 255 255
-0.262377 -0.135244   2.40998 255 255 255
 0.278563 -0.257564   2.54626 255 255 255
-0.536339  0.381675   2.17915 255 255 255
 -0.517012 0.00505188    2.31833 255 255 255
0.00986169   0.471186    2.14798 255 255 255
 0.10451 0.167875  2.33279 255 255 255
  -0.37449 -0.0334811    2.36935 255 255 255
0.296637 0.427123  2.19844 255 255 255
-0.520409  0.417813   2.16021 255 255 255
 0.261737 -0.465369   2.62323 255 255 255
0.414624 -0.22145  2.56786 255 255 255
 0.530558 -0.383467   2.66682 255 255 255
0.521064 0.442973  2.19464 255 255 255
 0.411328 -0.265254   2.57735 255 255 255
 0.494707 -0.120773   2.54395 255 255 255
-0.573336  -0.47879   2.52401 255 255 255
 -0.392846 -0.0507972    2.36771 255 255 255
-0.700013  -0.32268   2.40186 255 255 255
-0.293238 -0.173478   2.38215 255 255 255
 0.219446 -0.322623   2.60099 255 255 255
 -0.13064 -0.436273    2.5505 255 255 255
 0.644656 -0.352685   2.68475 255 255 255
-0.494478 -0.408525   2.45656 255 255 255
-0.251403  0.436588   2.18877 255 255 255
 -0.56568 -0.319513     2.405 255 255 255
-0.607337 -0.375392   2.42594 255 255 255
-0.0695835   0.327834    2.23398 255 255 255
-0.51122 -0.27002   2.4304 255 255 255
-0.423726  0.204922   2.23023 255 255 255
  0.250031 -0.0363182     2.4582 255 255 255
-0.107688  0.270151   2.28042 255 255 255
  0.656397 -0.0345127    2.54232 255 255 255
-0.0564749  0.0208087    2.38977 255 255 255
 0.393249 -0.114264   2.52188 255 255 255
-0.532546 -0.354471   2.43688 255 255 255
 0.486517 -0.238546   2.59394 255 255 255
 -0.03054 -0.245168   2.42631 255 255 255
 0.216418 -0.101597   2.48735 255 255 255
-0.260437  0.195884    2.2872 255 255 255
-0.520355  -0.22295   2.39811 255 255 255
 -0.148125 -0.0321939    2.38944 255 255 255
-0.0573628   0.359225    2.26225 255 255 255
-0.269538  0.355735   2.21503 255 255 255
-0.359228  0.221117   2.25885 255 255 255
 0.430674 -0.202065   2.56412 255 255 255
0.276895 0.430282  2.19507 255 255 255
 0.401556 -0.592491   2.68751 255 255 255
-0.609329 -0.223513   2.35649 255 255 255
0.251132 0.462248  2.17028 255 255 255
-0.499178  0.428392   2.16081 255 255 255
-0.744179 -0.096221    2.3075 255 255 255
-0.225996  0.375316   2.19884 255 255 255
0.185819 0.156113   2.3724 255 255 255
-0.544229 -0.208333   2.38604 255 255 255
-0.223566 0.0415067   2.35844 255 255 255
0.370655 -0.29287  2.62634 255 255 255
-0.499495  0.239813   2.23102 255 255 255
-0.198311 -0.140312    2.4153 255 255 255
-0.536997  0.236401   2.23505 255 255 255
-0.229028 -0.091104   2.38268 255 255 255
-0.657431 -0.253555   2.35706 255 255 255
-0.187678 -0.170519   2.43046 255 255 255
-0.20936 0.420962  2.19287 255 255 255
-0.417001  -0.41022   2.48795 255 255 255
 0.499014 -0.254095   2.58675 255 255 255
  0.15125 0.0604717   2.35863 255 255 255
-0.288033  0.424618   2.17886 255 255 255
 0.208186 -0.080669   2.48106 255 255 255
 0.316216 -0.193465   2.52556 255 255 255
-0.202875  0.337382   2.19844 255 255 255
0.324352 0.351913  2.25411 255 255 255
  0.32131 -0.420585   2.62005 255 255 255
-0.426932  0.339847   2.14647 255 255 255
 0.677981 -0.345684   2.69272 255 255 255
-0.00943725   -0.264454     2.48865 255 255 255
-0.557292 -0.351444   2.43925 255 255 255
0.223238 0.473919  2.16486 255 255 255
-0.420459  0.362334   2.16287 255 255 255
 0.511739 -0.319077   2.63986 255 255 255
0.189346 0.468228  2.18145 255 255 255
-0.378635 -0.215432   2.39131 255 255 255
  -0.4542 -0.527023   2.51484 255 255 255
 0.644876 -0.378672   2.69465 255 255 255
 0.372047 -0.598036   2.69822 255 255 255
-0.672259 -0.209847   2.35538 255 255 255
0.0507876 0.0160172   2.38872 255 255 255
0.143651 0.308217  2.30767 255 255 255
  0.682886 -0.0995253     2.5756 255 255 255
 0.258856 -0.273011   2.54964 255 255 255
-0.620367 -0.347012   2.46061 255 255 255
0.788653 0.471422  2.28883 255 255 255
  0.638219 -0.0465703    2.55118 255 255 255
0.292732 0.428698  2.18791 255 255 255
 0.43999 0.475415  2.20939 255 255 255
-0.286467 -0.510517   2.55575 255 255 255
0.0398156 0.0289085    2.3875 255 255 255
0.273052 0.114779  2.32286 255 255 255
-0.606651 -0.150912   2.36428 255 255 255
-0.54339 0.445225  2.14347 255 255 255
-0.189628 -0.391453   2.52584 255 255 255
-0.559196  0.214494   2.22876 255 255 255
0.268113 0.481984  2.16859 255 255 255
 0.691434 -0.331712   2.69903 255 255 255
 0.338051 -0.142185   2.53082 255 255 255
0.260156 0.450365  2.19052 255 255 255
-0.290547 -0.527926    2.5585 255 255 255
-0.457985 -0.292015   2.43763 255 255 255
 0.114491 -0.371054    2.5588 255 255 255
-0.172608 -0.428504   2.54129 255 255 255
 0.06932 0.491127  2.22735 255 255 255
 0.697727 -0.350084   2.69845 255 255 255
 -0.1186 0.246136  2.27472 255 255 255
 0.427274 -0.549422   2.69076 255 255 255
-0.415525 0.0282639   2.33692 255 255 255
0.164398 0.149376  2.36401 255 255 255
-0.546956 -0.179935    2.3218 255 255 255
-0.691568 -0.277374   2.35415 255 255 255
-0.404055  0.015838   2.33238 255 255 255
 0.636103 -0.075543   2.58143 255 255 255
   -0.540316 -0.000113874      2.32643 255 255 255
0.299459 0.222777  2.28916 255 255 255
