ply
format ascii 1.0
element vertex 1139
property float x
property float y
property float z
property uchar red
property uchar green
property uchar blue
end_header
-0.000588222    0.0576902      2.42287 255 255 255
 0.331681 -0.234549   2.63093 255 255 255
0.205695 0.396348  2.22069 255 255 255
-0.534292  0.420731   2.21214 255 255 255
   0.7915 -0.370489   2.81029 255 255 255
-0.182411  0.180158   2.34183 255 255 255
-0.211004  0.407404   2.23819 255 255 255
-0.549972 -0.172353   2.39212 255 255 255
 0.576814 -0.263663   2.61745 255 255 255
0.112284 0.308595  2.36168 255 255 255
-0.424996 -0.377374   2.50005 255 255 255
-0.595407 -0.278874   2.41996 255 255 255
-0.451135 -0.141756   2.42232 255 255 255
-0.444622 -0.356825   2.47342 255 255 255
 0.742489 -0.274754   2.68454 255 255 255
 0.501149 -0.353125   2.62135 255 255 255
-0.231256  0.137326    2.3544 255 255 255
-0.639471 -0.336405   2.44386 255 255 255
-0.625997 -0.268643   2.41622 255 255 255
 0.619165 -0.313249   2.70402 255 255 255
-0.499974 -0.395482   2.48089 255 255 255
 0.771732 -0.356015   2.81325 255 255 255
 -0.62391 -0.297197   2.42319 255 255 255
-0.36658 0.208872  2.31054 255 255 255
 0.607309 -0.248087   2.67609 255 255 255
 -0.148697 -0.0316596    2.42571 255 255 255
 0.374507 -0.176434   2.62007 255 255 255
-0.116229  0.266189   2.32752 255 255 255
-0.488726 -0.147169   2.40842 255 255 255
-0.445972 -0.277542   2.43114 255 255 255
-0.285113  0.455045   2.23215 255 255 255
-0.181304  0.192273    2.3372 255 255 255
0.403288 0.223574  2.38411 255 255 255
0.236467 0.304655  2.39035 255 255 255
-0.462557  0.419331   2.21837 255 255 255
-0.511407 -0.287042   2.44445 255 255 255
-0.284051 -0.447724   2.54481 255 255 255
0.0216323  0.084807     2.421 255 255 255
 -0.41433 -0.174314   2.38573 255 255 255
-0.264073  0.359991   2.26803 255 255 255
-0.224933  0.183922   2.33907 255 255 255
 0.26678 0.342145  2.31733 255 255 255
  0.356854 -0.0605676    2.54319 255 255 255
 -0.432794 -0.0124594    2.34077 255 255 255
  0.42485 -0.258111   2.60689 255 255 255
-0.419213 -0.108619   2.40806 255 255 255
0.282324 0.384173  2.27536 255 255 255
-0.431558  0.436528   2.21719 255 255 255
 0.472542 -0.175313   2.60426 255 255 255
 0.439221 -0.251518   2.61361 255 255 255
-0.053739  0.342491   2.28461 255 255 255
 0.287797 -0.138491   2.55251 255 255 255
-0.226164  0.147936   2.35262 255 255 255
-0.45061 0.183598  2.22704 255 255 255
 0.382484 -0.557058     2.731 255 255 255
-0.639591 -0.198772   2.38584 255 255 255
 0.505244 -0.289733   2.63451 255 255 255
-0.488222 -0.196689   2.41385 255 255 255
0.146822 0.233106  2.28179 255 255 255
-0.486118 -0.321594   2.45546 255 255 255
-0.533349 -0.281566   2.43943 255 255 255
0.348284  -0.4769  2.66547 255 255 255
-0.277125  0.167617   2.33743 255 255 255
-0.170892  -0.37118    2.5385 255 255 255
-0.451196 -0.439669   2.50502 255 255 255
 -0.725409 -0.0480475    2.34625 255 255 255
0.437334 0.249231  2.45082 255 255 255
 0.30433 0.481729  2.20897 255 255 255
-0.497708 -0.421083   2.48856 255 255 255
0.149239 0.156526  2.39773 255 255 255
  0.622734 -0.0312793     2.5761 255 255 255
0.261104 0.337777   2.3118 255 255 255
0.288047 0.107046  2.47158 255 255 255
 0.138009 -0.357027    2.5911 255 255 255
-0.281923 -0.501797   2.56556 255 255 255
-0.67971 0.110656  2.26524 255 255 255
0.0865698  0.300047   2.32246 255 255 255
-0.344758 0.0252514    2.3774 255 255 255
   0.401696 -0.00418681      2.5323 255 255 255
-0.882185 -0.258987   2.35235 255 255 255
-0.861363  -0.21113   2.35103 255 255 255
-0.707264 -0.417261   2.48854 255 255 255
-0.277547  0.383235   2.25625 255 255 255
-0.450264 -0.463212   2.51645 255 255 255
  0.472967 -0.0808772      2.555 255 255 255
  0.624736 -0.0371054    2.60038 255 255 255
 -0.110641 -0.0441346    2.44928 255 255 255
-0.243812  0.240944    2.2955 255 255 255
-0.539802 -0.121932   2.38298 255 255 255
-0.541841 -0.121384   2.38679 255 255 255
-0.49439 0.253476  2.26111 255 255 255
0.0792719 -0.513074   2.63631 255 255 255
-0.531514 -0.107808   2.39022 255 255 255
-0.529325  0.402218   2.21104 255 255 255
-0.717731 -0.237349   2.38391 255 255 255
 -0.604002 -0.0747813    2.37068 255 255 255
-0.248487 -0.540619    2.5892 255 255 255
 0.318518 -0.329928   2.66486 255 255 255
-0.241982  0.375944   2.26869 255 255 255
 0.365494 -0.349478   2.63365 255 255 255
-0.557042  -0.27846   2.42536 255 255 255
-0.0421422   0.356068    2.31464 255 255 255
-0.0896293  -0.514635    2.65005 255 255 255
-0.489532 -0.168575   2.41266 255 255 255
 -0.50584 -0.354497   2.47254 255 255 255
  0.570911 -0.0848212    2.53973 255 255 255
-0.64383 -0.43502  2.49556 255 255 255
-0.411314 -0.357022   2.48968 255 255 255
-0.280844  0.388803   2.25303 255 255 255
-0.293469 -0.469403   2.54834 255 255 255
 0.206008 -0.015022   2.50119 255 255 255
0.0607938 -0.278431   2.47747 255 255 255
  0.32655 -0.314717   2.55359 255 255 255
  0.226346 -0.0325026    2.49555 255 255 255
-0.661607  0.199897   2.23956 255 255 255
-0.669907   0.10501   2.28165 255 255 255
-0.593631  0.111432   2.31262 255 255 255
 0.721008 0.0530645   2.53136 255 255 255
-0.482897 -0.177006   2.42141 255 255 255
 -0.574823 -0.0872612     2.3777 255 255 255
 0.148954 -0.370109   2.59827 255 255 255
 0.472789 -0.288622   2.62413 255 255 255
-0.594402 -0.332492   2.43037 255 255 255
-0.273626  0.352934   2.27178 255 255 255
-0.249877  0.155136   2.34661 255 255 255
 0.479372 -0.138134   2.57911 255 255 255
0.070697 0.319448  2.34907 255 255 255
-0.498968  0.358551   2.23475 255 255 255
-0.265916   0.43324   2.23339 255 255 255
-0.252191 -0.273809   2.45472 255 255 255
-0.359464  -0.24871   2.45989 255 255 255
 0.354491 -0.111441    2.5445 255 255 255
 0.340851 -0.460749   2.64767 255 255 255
 0.294535 -0.302811   2.65859 255 255 255
-0.863956 -0.174754   2.31608 255 255 255
0.0323575  0.480699   2.21845 255 255 255
 -0.61542 -0.320035   2.42469 255 255 255
-0.488801 -0.346097   2.46736 255 255 255
-0.628116 0.0658209    2.3085 255 255 255
-0.0683538 -0.0566219    2.44862 255 255 255
 0.599746 -0.271128   2.68652 255 255 255
-0.572923 -0.129478   2.38926 255 255 255
-0.195992  0.191083   2.33941 255 255 255
 0.265184 -0.494739   2.66581 255 255 255
0.277142 0.446159  2.23016 255 255 255
-0.542962  0.425014   2.20367 255 255 255
-0.501991   0.22141   2.24296 255 255 255
0.0600115  0.272369   2.32101 255 255 255
-0.195985  0.430644   2.23252 255 255 255
0.0868347  0.142955   2.40247 255 255 255
  0.274041 0.00865799    2.48232 255 255 255
-0.273572  -0.10675   2.42983 255 255 255
-0.587033 -0.416274   2.48051 255 255 255
-0.521935 -0.142488   2.39712 255 255 255
-0.220372  0.327473   2.21903 255 255 255
 0.390511 -0.463901   2.65872 255 255 255
 -0.733395 -0.0961583    2.36031 255 255 255
-0.331024 -0.354227   2.50179 255 255 255
-0.438946 -0.325489   2.46823 255 255 255
 0.167853 -0.140308   2.52961 255 255 255
-0.345226 -0.394203   2.53561 255 255 255
-0.412129 -0.244937   2.45952 255 255 255
 -0.649316 -0.0927109    2.37933 255 255 255
 0.472103 -0.282403   2.62124 255 255 255
-0.449726 -0.321662   2.46386 255 255 255
-0.0531666  -0.469436    2.59327 255 255 255
-0.0897468   0.281996    2.32395 255 255 255
-0.432974 -0.391722   2.49899 255 255 255
-0.517523 0.0504623    2.3478 255 255 255
-0.396807  0.488065   2.19679 255 255 255
 -0.726177 -0.0655985     2.3308 255 255 255
  0.438938 -0.0831744    2.56789 255 255 255
 0.656654 0.0444435   2.54416 255 255 255
 -0.718127 -0.0398278     2.3413 255 255 255
-0.383569  0.303345   2.25468 255 255 255
-0.589485 -0.318793    2.4377 255 255 255
 -0.161446 -0.0382855    2.43727 255 255 255
 -0.728338 -0.0537303     2.3474 255 255 255
-0.563139 -0.294096   2.48373 255 255 255
 0.604698 -0.300414   2.70212 255 255 255
-0.411337 -0.251699   2.45592 255 255 255
-0.552043 -0.166407   2.39588 255 255 255
-0.304117 -0.347483    2.4949 255 255 255
-0.494071  -0.17458   2.41426 255 255 255
  0.12779 -0.479911   2.63755 255 255 255
 -0.51542 -0.319788   2.44926 255 255 255
-0.0332708  -0.354413    2.55711 255 255 255
-0.482954 -0.301933     2.447 255 255 255
-0.103262  0.249639   2.32183 255 255 255
-0.648521 -0.391591   2.47923 255 255 255
-0.679019  -0.35472   2.46135 255 255 255
-0.290704 -0.121171   2.37493 255 255 255
-0.20366 0.174951  2.33857 255 255 255
-0.435403   0.13302   2.24875 255 255 255
0.0101274 -0.555413   2.68793 255 255 255
-0.478427 -0.407378    2.4964 255 255 255
-0.366697 -0.324178   2.47721 255 255 255
-0.218801  0.333119   2.22047 255 255 255
0.144314 0.248927  2.34713 255 255 255
-0.562879 -0.160098   2.39113 255 255 255
-0.592266 -0.290408   2.42718 255 255 255
 0.355107 -0.481645    2.6653 255 255 255
-0.376094  0.229521   2.26984 255 255 255
-0.0835114  0.0200148    2.38072 255 255 255
 0.211724 -0.420659   2.61908 255 255 255
0.0638371 -0.499088   2.65356 255 255 255
 0.404199 -0.188478   2.58875 255 255 255
-0.0490354  -0.475801    2.59443 255 255 255
-0.962374 0.0391613   2.18136 255 255 255
  -0.948862 -0.00892066     2.21588 255 255 255
-0.229402   1.28187   1.71335 255 255 255
0.139799  1.15799  1.77544 255 255 255
0.403461  1.21607   1.8393 255 255 255
 0.77971 0.565919  2.28049 255 255 255
0.609174 0.507628  2.25661 255 255 255
0.455371 0.626167  2.13662 255 255 255
0.349641 0.405769  2.31059 255 255 255
0.26285 1.17525 1.84485 255 255 255
0.0805386  0.639736   2.12953 255 255 255
-0.15373  1.27261  1.74327 255 255 255
-0.00110538     1.12602     1.84902 255 255 255
0.39491 1.12608 1.88265 255 255 255
 0.25231 0.455096   2.2395 255 255 255
-0.224513   1.15373   1.80014 255 255 255
0.605902  0.39794  2.35231 255 255 255
-0.195796   1.16162   1.79948 255 255 255
0.613057 0.438733  2.33118 255 255 255
-0.258491   1.17749   1.80064 255 255 255
0.758225 0.606239  2.25403 255 255 255
0.488322 0.652564  2.14051 255 255 255
0.0812314   1.43607   1.68495 255 255 255
0.306093  1.00906  1.92128 255 255 255
0.158976 0.485249  2.22632 255 255 255
0.753632 0.457024  2.35443 255 255 255
-0.227151   1.12719   1.81179 255 255 255
0.438961  0.58857  2.19253 255 255 255
0.224241  0.53344  2.19454 255 255 255
0.887919  0.54512  2.33284 255 255 255
0.706067 0.401678  2.38425 255 255 255
0.990588 0.755263  2.22326 255 255 255
0.746675 0.582637  2.26946 255 255 255
0.889068 0.734283  2.20725 255 255 255
0.355132 0.440125  2.27061 255 255 255
0.326417  1.03864  1.93124 255 255 255
0.902044 0.740423  2.19725 255 255 255
0.732476 0.550105  2.29183 255 255 255
0.297653 0.998726  1.95147 255 255 255
0.0762363   1.34159   1.73313 255 255 255
0.441211  1.10908   1.9088 255 255 255
-0.316158   1.01157   1.87608 255 255 255
  1.1489 0.390936   2.5099 255 255 255
0.180555  1.46971  1.68062 255 255 255
-0.488941   1.05187   1.84149 255 255 255
0.118085  1.57037  1.61283 255 255 255
0.216219 0.569985  2.15534 255 255 255
 1.01065 0.439191  2.42893 255 255 255
0.260051 0.303104  2.34421 255 255 255
-0.13529  1.06141  1.86976 255 255 255
0.153389  1.10023  1.88391 255 255 255
0.242417 0.555998  2.16944 255 255 255
-0.0190166    1.45724     1.6674 255 255 255
-0.0201019    1.43438    1.68065 255 255 255
0.604931 0.592285  2.21953 255 255 255
0.119778 0.662996  2.08136 255 255 255
-0.456383  0.420013   2.20202 255 255 255
0.258738 0.532163  2.18786 255 255 255
-0.563603   1.00581   1.86442 255 255 255
0.450696 0.661332  2.14402 255 255 255
0.290272  1.55559  1.64258 255 255 255
0.314379 0.391111   2.2886 255 255 255
0.286086 0.495151  2.23112 255 255 255
-0.140813  0.706489    2.0515 255 255 255
0.144058  1.37312  1.72845 255 255 255
0.588381 0.319876  2.40861 255 255 255
0.0212692   1.46437   1.66944 255 255 255
0.297281 0.516545  2.21695 255 255 255
0.593898 0.340606  2.39818 255 255 255
0.266431 0.483568  2.23637 255 255 255
0.600107 0.504258  2.27892 255 255 255
0.738967 0.596465  2.25773 255 255 255
0.860529 0.597225  2.28723 255 255 255
0.740129 0.614495  2.24722 255 255 255
 -0.1446 0.521928  2.16332 255 255 255
0.988927 0.414482  2.44295 255 255 255
-0.148193  0.422449   2.21512 255 255 255
 0.26131 0.718369  2.08442 255 255 255
 1.05871 0.592292    2.344 255 255 255
-0.118422  0.539692   2.15189 255 255 255
0.919281  0.42744  2.41851 255 255 255
0.246637 0.706953  2.08607 255 255 255
-0.266366  0.331711   2.27353 255 255 255
0.412716  1.40685  1.74148 255 255 255
-0.178057    1.2035   1.75547 255 255 255
0.591252  1.53601  1.67558 255 255 255
0.845331    1.349   1.7847 255 255 255
-0.130187   1.28886   1.74587 255 255 255
0.526651   1.4618  1.70377 255 255 255
-0.802981   1.27895    1.7546 255 255 255
0.410123  1.44684  1.71422 255 255 255
-0.473488   1.05062    1.8419 255 255 255
0.393358  1.42936  1.72217 255 255 255
-0.255929   1.15731   1.78207 255 255 255
0.376403  1.34955  1.75729 255 255 255
0.483669  1.45144  1.70599 255 255 255
0.295244  1.50229   1.6634 255 255 255
0.244178   1.2271  1.81651 255 255 255
0.26753 1.24595 1.80771 255 255 255
0.530398  1.51506    1.678 255 255 255
0.00158856    1.43877     1.6786 255 255 255
0.561448   1.4832  1.69736 255 255 255
0.56198 1.50323 1.67905 255 255 255
0.17323 1.27229 1.76486 255 255 255
0.52649 1.19222 1.86967 255 255 255
0.118736  1.50405  1.63318 255 255 255
-0.805501  0.960566    1.9081 255 255 255
0.131252  1.35209  1.73022 255 255 255
0.195513  1.13712  1.84618 255 255 255
-0.0608333    1.12547    1.83831 255 255 255
0.185837  1.40244  1.70859 255 255 255
0.281942  1.25774  1.80065 255 255 255
0.0176594   1.44418   1.67821 255 255 255
0.586062  1.61943  1.64405 255 255 255
-0.139449   1.18603    1.7601 255 255 255
0.496222  1.12699   1.9047 255 255 255
0.545952  1.51552  1.68137 255 255 255
0.178971  1.11723  1.85641 255 255 255
-0.815374  0.985995   1.89203 255 255 255
-0.197369    1.2452   1.75001 255 255 255
0.504886  1.43108    1.716 255 255 255
0.171876  1.12408  1.85361 255 255 255
0.514737  1.46327  1.70455 255 255 255
-0.100824   1.18155   1.81036 255 255 255
0.212257  1.61403  1.59305 255 255 255
-0.0115126    1.07412    1.86373 255 255 255
0.466701  1.21824  1.83809 255 255 255
-0.214873   1.12996   1.81747 255 255 255
0.496704  1.41568  1.71966 255 255 255
-0.177041   1.22407   1.75126 255 255 255
1.15649 1.33442  1.8922 255 255 255
0.397703  1.41464  1.73572 255 255 255
0.462111  1.20203  1.83489 255 255 255
0.387921  1.32048  1.77064 255 255 255
0.0401279  0.433193   2.26488 255 255 255
-0.202501  0.460024   2.21144 255 255 255
-0.371136 -0.425425   2.51132 255 255 255
-0.0631228   0.402893    2.28919 255 255 255
 0.0673597 -0.0958679    2.44017 255 255 255
-0.632898 -0.328353   2.41957 255 255 255
 -0.414941 -0.0530639    2.38191 255 255 255
-0.0307504   0.107401    2.38832 255 255 255
 0.269269 0.0118065   2.48991 255 255 255
-0.471046  0.353396   2.29985 255 255 255
0.0773404  0.343626   2.33502 255 255 255
-0.241226  0.329865   2.27256 255 255 255
0.127161 0.189375  2.40715 255 255 255
-0.26249 0.252601  2.26559 255 255 255
-0.690914  0.344901   2.17956 255 255 255
-0.474704  0.574208   2.11937 255 255 255
-0.0322152  0.0397361    2.40941 255 255 255
-0.0580175   0.320303    2.28584 255 255 255
 -0.174768 -0.0842096    2.42457 255 255 255
-0.0201355 -0.0587552    2.38077 255 255 255
 -0.330768 -0.0298806    2.37471 255 255 255
 0.223423 -0.464578   2.61038 255 255 255
-0.174873  0.220796   2.31406 255 255 255
-0.0923875 -0.0775448    2.44407 255 255 255
 0.558796 -0.198797   2.60099 255 255 255
0.231241 0.125787  2.42581 255 255 255
-0.142229  0.424151   2.26328 255 255 255
-0.478422  0.224248   2.28229 255 255 255
  0.43123 -0.463119   2.65889 255 255 255
-0.56972 0.484819  2.14643 255 255 255
 -0.260267 -0.0647112    2.40044 255 255 255
-0.423438 -0.139486   2.42564 255 255 255
-0.117711  0.345185   2.27252 255 255 255
  -0.6468 0.0525917   2.29683 255 255 255
-0.327371  0.223738   2.30094 255 255 255
-0.263164  0.131743   2.32135 255 255 255
-0.161418  0.315448   2.29004 255 255 255
-0.669444 -0.200357   2.39949 255 255 255
0.0355283 -0.607328   2.72444 255 255 255
-0.637852  0.408311   2.17591 255 255 255
-0.801928 0.0165088   2.27828 255 255 255
-0.358729 -0.392324   2.51632 255 255 255
-0.213466  0.243292   2.29579 255 255 255
 0.108158 -0.077467   2.49643 255 255 255
0.0126244  0.139088   2.35702 255 255 255
0.352446 0.115292  2.47517 255 255 255
 0.214762 -0.253862   2.56614 255 255 255
 0.422677 0.0293595   2.52095 255 255 255
-0.437485  0.254262   2.26589 255 255 255
0.461488 -0.30728  2.62093 255 255 255
-0.123632  0.299769   2.31677 255 255 255
 0.125936 -0.208537   2.51377 255 255 255
  0.399896 -0.0255661    2.53288 255 255 255
0.114098 0.161726  2.41071 255 255 255
 -0.344605 -0.0473461    2.37322 255 255 255
  0.433258 -0.0245766    2.54067 255 255 255
-0.371966 0.0619641    2.3577 255 255 255
-0.038371 -0.385886    2.5571 255 255 255
-0.597709 0.0679612   2.30618 255 255 255
0.466304 0.119909  2.49645 255 255 255
0.0535235 -0.408949   2.59305 255 255 255
-0.368642   0.31869   2.27186 255 255 255
-0.0370002 0.00246591    2.40635 255 255 255
-0.155232  0.282503   2.30955 255 255 255
-0.459523  -0.02213   2.36365 255 255 255
-0.0682382  0.0142072    2.40568 255 255 255
0.00591561  -0.399628    2.57526 255 255 255
0.0948442 0.0915891   2.41716 255 255 255
 0.538423 -0.132252   2.60306 255 255 255
-0.0626555  -0.453029    2.58913 255 255 255
 0.127717 -0.500561   2.63404 255 255 255
 0.286815 -0.589619   2.73445 255 255 255
0.466738 -0.11899  2.57566 255 255 255
-0.0184003   0.243912    2.31772 255 255 255
-0.140009  0.179684   2.34949 255 255 255
-0.411151  0.158665   2.31856 255 255 255
-0.620699  0.371011   2.16979 255 255 255
0.191702 0.370479  2.34312 255 255 255
-0.324913  0.390991   2.23934 255 255 255
  0.52977 -0.157106   2.58963 255 255 255
 0.265003 -0.427012   2.63994 255 255 255
 0.29718 0.034778  2.49642 255 255 255
 0.295081 0.0335068   2.49821 255 255 255
-0.43864 0.414316  2.21377 255 255 255
-0.284957   0.19501   2.31899 255 255 255
  0.373048 -0.0648397    2.55123 255 255 255
  0.38119 -0.187918   2.58875 255 255 255
-0.160513 -0.124475   2.44671 255 255 255
 0.454536 0.0970183     2.506 255 255 255
-0.240835 -0.512488   2.63842 255 255 255
-0.713229 -0.217186   2.37661 255 255 255
 0.0465816 -0.0341869    2.42995 255 255 255
  -0.293 0.353183  2.27014 255 255 255
0.446079 -0.20263  2.59866 255 255 255
-0.785025 -0.065145   2.31148 255 255 255
-0.334108 -0.418093   2.53567 255 255 255
 0.481248 -0.355239   2.62953 255 255 255
-0.372749  0.236073   2.29461 255 255 255
-0.194481 -0.161263   2.41786 255 255 255
 0.420398 -0.363936   2.61589 255 255 255
-0.100187 0.0357929   2.39178 255 255 255
-0.212475   0.15828   2.34399 255 255 255
-0.184818 -0.364358   2.53099 255 255 255
-0.145104 -0.476832   2.57333 255 255 255
  0.19297 -0.274659   2.56592 255 255 255
-0.275622 -0.266403   2.43938 255 255 255
-0.695893  0.131101   2.26919 255 255 255
-0.737678  0.335951   2.16529 255 255 255
-0.121072 -0.458623   2.56534 255 255 255
-0.050883 -0.392217   2.56722 255 255 255
-0.509201   0.15944   2.28595 255 255 255
0.236439  -0.6133  2.73133 255 255 255
-0.124198 -0.166821    2.4634 255 255 255
-0.241569  0.153493    2.3471 255 255 255
 -0.384769 -0.0904172    2.40309 255 255 255
 0.398939 -0.552071   2.73644 255 255 255
 -0.200503 -0.0811658     2.4137 255 255 255
-0.398406  0.229361   2.29051 255 255 255
0.0548832  0.253832   2.35925 255 255 255
-0.606962  0.466938   2.16994 255 255 255
0.00158054  -0.130386     2.4625 255 255 255
 0.253184 -0.504344   2.65928 255 255 255
 0.691656 0.0453262   2.53079 255 255 255
-0.0598441  -0.423269    2.58315 255 255 255
 0.478377 0.0688477   2.50857 255 255 255
-0.306807 -0.479383   2.54669 255 255 255
-0.602323 0.0291913   2.30834 255 255 255
-0.00745276   -0.284535     2.47069 255 255 255
0.418105 -0.41296  2.65186 255 255 255
 0.311639 -0.194511    2.5492 255 255 255
0.0663564   0.42251   2.28969 255 255 255
 0.355477 -0.504662   2.68413 255 255 255
 0.248315 -0.256503   2.58263 255 255 255
-0.0940335   0.126914    2.38078 255 255 255
  0.592294 -0.0241459    2.57441 255 255 255
-0.246811 -0.519363   2.57943 255 255 255
-0.102248  0.167862   2.33842 255 255 255
-0.732935  0.315885   2.17381 255 255 255
  0.42414 -0.393113   2.63658 255 255 255
-0.786539 -0.113036   2.33829 255 255 255
0.00935317   0.383784     2.2748 255 255 255
-0.184073  0.245492     2.316 255 255 255
-0.535292 0.0445044   2.30651 255 255 255
-0.437301  0.332293   2.18966 255 255 255
-0.112976  0.278866    2.3271 255 255 255
-0.293504 -0.359088   2.48157 255 255 255
   -0.14975 -0.00939507     2.41534 255 255 255
 -0.78726 -0.201285   2.36105 255 255 255
-0.195649  0.423372   2.25324 255 255 255
-0.116064 -0.141829   2.45561 255 255 255
-0.552542 -0.279968   2.44452 255 255 255
-0.836102 -0.156841   2.33978 255 255 255
-0.440364  0.240204   2.28547 255 255 255
-0.16768 0.128818  2.34164 255 255 255
-0.633999 0.0845099   2.30067 255 255 255
 0.323025 -0.499645    2.6775 255 255 255
-0.0652287  -0.193267    2.44722 255 255 255
-0.736041  0.133742   2.20028 255 255 255
-0.514115  0.439988   2.20648 255 255 255
-0.746174  0.159563   2.21312 255 255 255
-0.455119 -0.215058   2.42809 255 255 255
-0.266092  0.423583   2.25372 255 255 255
-0.721458  0.334332    2.1651 255 255 255
 0.107526 -0.565949   2.68697 255 255 255
-0.290514 -0.442343   2.53417 255 255 255
 0.644892 0.0841014    2.5375 255 255 255
 0.423149 0.0479187   2.49028 255 255 255
-0.481235 -0.163627    2.4119 255 255 255
-0.520483 -0.174749   2.40512 255 255 255
0.0360828 -0.486887   2.61748 255 255 255
0.36241  0.3237 2.36516 255 255 255
 0.388399 -0.486072   2.67302 255 255 255
-0.245369 0.0559715    2.3755 255 255 255
-0.603659  0.301636   2.19039 255 255 255
  0.178251 -0.0920418     2.5243 255 255 255
-0.0848321    0.35959    2.29863 255 255 255
-0.554793  0.256062   2.25758 255 255 255
 0.353902 -0.443897   2.66098 255 255 255
0.095736 0.467139  2.29861 255 255 255
 0.309376 -0.479969    2.6623 255 255 255
 0.296436 -0.286816   2.61009 255 255 255
-0.736747  0.242199   2.18378 255 255 255
-0.299042  0.373383   2.23366 255 255 255
0.167825 0.393163  2.30779 255 255 255
  0.192504 -0.0363074    2.50084 255 255 255
-0.0617769  -0.476638    2.59265 255 255 255
 0.191378 -0.128359   2.51922 255 255 255
 0.193896 -0.129284   2.51058 255 255 255
-0.0831964  -0.423194    2.56949 255 255 255
0.0370679 -0.146117   2.44502 255 255 255
-0.68955 0.018905  2.26517 255 255 255
-0.308716  0.235108   2.31498 255 255 255
-0.290464  0.429705   2.24077 255 255 255
0.357727 0.281773  2.38998 255 255 255
-0.741295 -0.275543   2.39675 255 255 255
 0.41992 0.239541   2.4446 255 255 255
-0.530283 -0.307102   2.45216 255 255 255
-0.105171 -0.204154   2.43219 255 255 255
-0.103523 -0.089387   2.43095 255 255 255
-0.542482   0.45426   2.18458 255 255 255
0.383376 0.183055   2.4567 255 255 255
 0.0578345 -0.0135332    2.42708 255 255 255
  0.22232 -0.507177   2.65698 255 255 255
 0.235145 0.0343059   2.48664 255 255 255
 0.367028 -0.133506   2.55139 255 255 255
 -0.677097 -0.0882878    2.35526 255 255 255
 0.649439 0.0512551   2.54468 255 255 255
-0.478726 -0.201966   2.42666 255 255 255
0.122361 0.329875   2.3559 255 255 255
 0.184338 -0.478704   2.62244 255 255 255
-0.404092  0.394004   2.22515 255 255 255
  0.10171 -0.197583   2.53431 255 255 255
-0.632628   0.38631   2.15476 255 255 255
0.0293934 -0.349463   2.56084 255 255 255
  0.505336 -0.0312079    2.56299 255 255 255
-0.292932  -0.50309    2.5612 255 255 255
-0.178718  0.380689   2.26196 255 255 255
0.000956777  0.00535418     2.40697 255 255 255
0.00338635 0.00184265    2.39464 255 255 255
0.0134192  0.407395   2.26115 255 255 255
 -0.642788 -0.0302842      2.302 255 255 255
 0.354803 -0.068871   2.55103 255 255 255
0.373254  0.12497  2.47827 255 255 255
-0.135138  0.351651   2.25544 255 255 255
 0.503857 -0.093833   2.57725 255 255 255
 -0.550384 -0.0901194    2.37615 255 255 255
-0.537145 -0.203369   2.40843 255 255 255
-0.784719  0.241226   2.18789 255 255 255
-0.0310657  -0.169364    2.49504 255 255 255
0.0669689 -0.490887   2.62443 255 255 255
 0.621168 -0.116406   2.61993 255 255 255
-0.471123 -0.445958   2.50175 255 255 255
-0.514431  0.454172   2.18928 255 255 255
-0.790863 -0.160932   2.34605 255 255 255
-0.441974  0.197172   2.25113 255 255 255
0.275242 0.332632   2.3819 255 255 255
  0.30732 -0.170726   2.55196 255 255 255
-0.0975699  -0.447501    2.57074 255 255 255
 0.701576 0.0780043   2.52964 255 255 255
-0.109757  0.249538   2.33201 255 255 255
-0.506462 -0.394716   2.48649 255 255 255
-0.111658  0.121929    2.3755 255 255 255
 0.412244 -0.446898    2.6548 255 255 255
0.185722 0.111623  2.42043 255 255 255
-0.242617 -0.167396   2.41508 255 255 255
0.0604131  -0.60098   2.71185 255 255 255
  0.0929059 -0.00420721     2.43202 255 255 255
-0.146324 -0.447626    2.5971 255 255 255
 0.434953 -0.273596   2.60125 255 255 255
 0.259716 -0.293328   2.55624 255 255 255
0.559631 0.202062  2.45954 255 255 255
 0.278442 0.0591337   2.48808 255 255 255
-0.513989 -0.032531   2.33404 255 255 255
0.0450542  0.397347     2.197 255 255 255
-0.146157  0.233631   2.30997 255 255 255
0.465892 0.245103  2.44451 255 255 255
 0.517509 -0.356497   2.61357 255 255 255
0.00187735  0.0558104    2.42294 255 255 255
-0.593104   0.27227   2.22677 255 255 255
-0.242404  0.146665    2.3492 255 255 255
0.359395 0.128211  2.47564 255 255 255
-0.56127  0.45556  2.18027 255 255 255
0.0971796 -0.227305   2.53445 255 255 255
 0.0758281 -0.0246857    2.42313 255 255 255
 -0.39294 -0.485565   2.53241 255 255 255
 0.506388 -0.368427   2.63355 255 255 255
-0.270273 0.0497829   2.35134 255 255 255
 0.108019 -0.112673   2.47533 255 255 255
0.317859 0.112826  2.47026 255 255 255
  0.26539 -0.560616   2.72572 255 255 255
-0.0799856  -0.182488    2.44248 255 255 255
 -0.118492 -0.0172219    2.42769 255 255 255
-0.139878 -0.415777   2.56386 255 255 255
-0.344542 -0.437086   2.52438 255 255 255
-0.702478 -0.252704    2.4045 255 255 255
 0.312917 -0.511777   2.69375 255 255 255
  0.41969 -0.517156   2.68325 255 255 255
  0.207918 -0.0243253    2.49575 255 255 255
 -0.14959 -0.164844   2.41782 255 255 255
 0.318762 0.0848528   2.48493 255 255 255
-0.611054  0.285857   2.19201 255 255 255
 0.317975 0.0363661   2.49838 255 255 255
-0.576006 0.0353663   2.31126 255 255 255
 -0.873056 -0.0853677    2.29655 255 255 255
-0.322781 -0.360721   2.51233 255 255 255
-0.679998 0.0522214   2.26139 255 255 255
-0.554325 -0.319482   2.44177 255 255 255
0.332952 0.305917  2.36471 255 255 255
0.0833636 -0.412314   2.59453 255 255 255
-0.0956117   0.085142    2.38904 255 255 255
 0.415786 -0.478512   2.67144 255 255 255
0.0587919  0.102744   2.42042 255 255 255
-0.705408  0.176735   2.21606 255 255 255
 0.304663 -0.527718   2.67177 255 255 255
-0.222447 -0.133249   2.41545 255 255 255
-0.403439 -0.273989   2.46346 255 255 255
 -0.370908 -0.0274907    2.38406 255 255 255
0.267203 0.311996  2.38959 255 255 255
-0.314393 -0.530731    2.5731 255 255 255
0.0534394 0.0250789   2.41588 255 255 255
0.0519251 0.0269936   2.42297 255 255 255
 0.349982 -0.573062   2.74452 255 255 255
0.480634 0.141081  2.49287 255 255 255
-0.316519  0.248645   2.30071 255 255 255
-0.0639814  -0.460686    2.58372 255 255 255
 -0.472514 -0.0787907    2.35998 255 255 255
 0.290108 0.0685723   2.48316 255 255 255
-0.103477  0.263835   2.33094 255 255 255
-0.857666 -0.143402   2.32812 255 255 255
0.512647 -0.15077  2.59586 255 255 255
0.264109 -0.39924  2.62962 255 255 255
 0.284146 -0.419298   2.64098 255 255 255
0.406801 0.240696  2.44692 255 255 255
-0.404153 -0.103565    2.4031 255 255 255
  0.362052 -0.0772133    2.55817 255 255 255
 0.304415 -0.417673   2.64177 255 255 255
 -0.325862 -0.0699008    2.36915 255 255 255
 0.291474 0.0438813   2.48884 255 255 255
0.413515 -0.54316   2.6883 255 255 255
-0.0149041  -0.498997    2.61532 255 255 255
 0.33306 0.140069  2.45864 255 255 255
 0.325314 -0.308174   2.61184 255 255 255
-0.709668  0.358548   2.12659 255 255 255
-0.0820517    0.37363    2.28446 255 255 255
0.0867632  0.274847   2.33392 255 255 255
-0.623354 0.0841752   2.30035 255 255 255
0.390164    -0.54    2.681 255 255 255
 0.304462 0.0900617   2.47325 255 255 255
 -0.62467 -0.311977   2.42017 255 255 255
-0.142388 -0.429102   2.56792 255 255 255
-0.146664  0.247364   2.31385 255 255 255
-0.180911  0.294893   2.30587 255 255 255
0.134523 0.166112  2.41705 255 255 255
0.672021 0.034095  2.53206 255 255 255
-0.191264 -0.059892   2.41403 255 255 255
0.395734 -0.41073   2.6536 255 255 255
 -0.14498 -0.151443   2.45919 255 255 255
 -0.25322 -0.262008   2.46281 255 255 255
-0.443454 -0.113657   2.40632 255 255 255
   0.640395 -0.00265266     2.56037 255 255 255
 0.314081 -0.424966   2.64647 255 255 255
 -0.42265 -0.377576   2.49975 255 255 255
 0.429764 -0.425607   2.64672 255 255 255
-0.142393 -0.257904   2.44888 255 255 255
0.247389 0.020974  2.48679 255 255 255
   0.64527 -0.0195025    2.56836 255 255 255
0.189327 -0.52989  2.65094 255 255 255
-0.153083 0.0733835    2.3484 255 255 255
-0.161128 0.0377261   2.34851 255 255 255
-0.319935 -0.441843   2.53594 255 255 255
 -0.65905 0.0643752   2.29982 255 255 255
-0.0171411   0.365808    2.31651 255 255 255
0.329168 0.281554  2.36623 255 255 255
-0.334499 -0.371873   2.47006 255 255 255
  0.263401 -0.0739371    2.48457 255 255 255
-0.687469  0.192275   2.22744 255 255 255
0.226724 0.187736  2.38098 255 255 255
-0.733702   0.30002   2.18333 255 255 255
-0.563734  0.441162   2.17591 255 255 255
-0.723956  0.306319   2.18562 255 255 255
-0.0762145  0.0505184    2.40883 255 255 255
-0.217161  0.128491   2.34102 255 255 255
 -0.804405 -0.0264615    2.29361 255 255 255
-0.720477  0.302328   2.19701 255 255 255
 0.485846 -0.286922    2.6279 255 255 255
  0.356669 -0.0898752     2.5499 255 255 255
0.539231 0.183798  2.40173 255 255 255
 0.427597 -0.176853   2.58846 255 255 255
   0.41423 -0.0112671    2.53582 255 255 255
 -0.843006 -0.0369373    2.28706 255 255 255
  0.24759 -0.429145   2.63994 255 255 255
 0.641694 0.0564581   2.54261 255 255 255
 0.270531 0.0659188   2.47783 255 255 255
  -0.66682 -0.0217896    2.30782 255 255 255
-0.563843  0.417221   2.16717 255 255 255
  0.11807 -0.530564   2.63398 255 255 255
0.375407  0.19074  2.45566 255 255 255
 -0.12869 -0.502069   2.62954 255 255 255
 -0.862939 -0.0926334    2.29999 255 255 255
0.0505781  0.118345   2.41029 255 255 255
 0.301077 0.0116854   2.49302 255 255 255
-0.820327  0.181737   2.19268 255 255 255
-0.532918 0.0544733   2.30995 255 255 255
 0.133572 -0.376508   2.59538 255 255 255
 0.298129 0.0107734   2.49701 255 255 255
 -0.771385 -0.0482036    2.30973 255 255 255
0.00897287   0.497658    2.27385 255 255 255
-0.795272 -0.028514     2.295 255 255 255
-0.300559  0.488866   2.21609 255 255 255
0.449706 0.264626  2.44562 255 255 255
-0.201132 -0.519809   2.58471 255 255 255
  0.487129 -0.0615285     2.5669 255 255 255
-0.655443 -0.140015   2.37484 255 255 255
 0.254868 -0.368312    2.6217 255 255 255
-0.0144424  -0.258671    2.50038 255 255 255
-0.285989 -0.417948   2.53463 255 255 255
-0.0350257   0.304036    2.32426 255 255 255
  0.356024 -0.0897963    2.55015 255 255 255
  0.415268 -0.0575916     2.5332 255 255 255
 0.324188 -0.122449   2.54938 255 255 255
  -0.758463 -0.00932428     2.29425 255 255 255
 -0.58206 0.0553995   2.29879 255 255 255
  0.257343 -0.0560402    2.48817 255 255 255
-0.742988  0.116342   2.23947 255 255 255
-0.858493  -0.07081   2.29784 255 255 255
0.265545 0.073963  2.47478 255 255 255
 -0.6116 0.307988  2.19264 255 255 255
 0.146682 -0.158313   2.49913 255 255 255
  0.420581 -0.0391829    2.53183 255 255 255
 0.250224 0.0111537   2.49888 255 255 255
-0.579003  0.380337    2.2005 255 255 255
0.392298 -0.44747  2.66438 255 255 255
-0.203949 -0.291098   2.49255 255 255 255
-0.175127 -0.489273   2.61697 255 255 255
 0.249115 0.0539556    2.4803 255 255 255
-0.672578  0.394675   2.13704 255 255 255
-0.862189  -0.21615   2.34336 255 255 255
-0.642519 -0.161904   2.39079 255 255 255
-0.118535  -0.37077   2.54977 255 255 255
-0.126723  0.277729   2.31824 255 255 255
 0.592563 -0.162358   2.56391 255 255 255
0.198639 0.298344  2.34548 255 255 255
 0.657294 0.0886625   2.52984 255 255 255
 0.395916 -0.155088   2.57863 255 255 255
  0.387315 -0.0118683    2.53869 255 255 255
0.277175 -0.21618    2.575 255 255 255
 0.12144 0.341057   2.3513 255 255 255
-0.526844  0.418871   2.20737 255 255 255
-0.00601887   0.0316067     2.39589 255 255 255
-0.648299 0.0744259    2.2971 255 255 255
 0.179154 -0.462589   2.62276 255 255 255
-0.371608 -0.478787   2.53835 255 255 255
 0.466242 -0.169652   2.60278 255 255 255
-0.241754 -0.437078   2.57288 255 255 255
 0.405022 -0.400939   2.64351 255 255 255
 0.324832 -0.426334   2.64771 255 255 255
-0.645148  0.424208   2.17436 255 255 255
-0.127347  0.448747   2.26994 255 255 255
0.157328 0.377039  2.34485 255 255 255
-0.0881359 -0.0822619    2.42748 255 255 255
 -0.842472 0.00432219    2.26723 255 255 255
 0.580605 -0.224635   2.62259 255 255 255
-0.28257 0.154272  2.33492 255 255 255
0.256764 -0.27118  2.59176 255 255 255
0.148119 0.116448  2.41335 255 255 255
-0.496787 -0.211759   2.38979 255 255 255
0.329222  -0.3731  2.64012 255 255 255
-0.474754 -0.298573   2.44368 255 255 255
-0.335891  0.264368   2.29443 255 255 255
0.136162 0.190759   2.4079 255 255 255
 0.463504 -0.161858    2.6041 255 255 255
-0.255134 -0.166891   2.40401 255 255 255
-0.787906 -0.265728    2.3849 255 255 255
-0.165026 -0.420421   2.56527 255 255 255
-0.379713  0.236559   2.28693 255 255 255
 0.152377 -0.234068   2.54333 255 255 255
-0.0673208   0.062012    2.40355 255 255 255
-0.357528 -0.363414    2.4755 255 255 255
  -1.07776 0.00240832    2.11065 255 255 255
 -0.118692 -0.0635445    2.41781 255 255 255
-0.643069 -0.147179   2.37241 255 255 255
-0.603507 -0.393815   2.46876 255 255 255
 -0.87836 -0.181781   2.32468 255 255 255
-0.248456 -0.512569   2.57138 255 255 255
-0.511202 -0.362583   2.47902 255 255 255
-0.767209  0.111253   2.21941 255 255 255
-0.366533 -0.273154   2.46528 255 255 255
-0.556482   0.39893   2.20936 255 255 255
    0.230944 -0.000904863      2.48938 255 255 255
-0.634186 -0.145137   2.37696 255 255 255
 0.350574 -0.200066   2.58674 255 255 255
-0.482355  0.384641   2.21964 255 255 255
-0.630761 -0.036945   2.30945 255 255 255
  0.560232 -0.0904441     2.5653 255 255 255
-0.702942  -0.31244   2.42609 255 255 255
 0.431815 -0.341711   2.61406 255 255 255
  0.0525724 -0.00102386     2.42106 255 255 255
 0.285454 -0.548671   2.72196 255 255 255
-0.25853 0.170479  2.33885 255 255 255
  -0.83333 -0.0880751    2.31326 255 255 255
-0.375967 -0.490666    2.5401 255 255 255
-0.618141  0.329795   2.18553 255 255 255
 0.292066 -0.404644   2.63925 255 255 255
 0.220827 -0.422189   2.62082 255 255 255
-0.738615   0.16665   2.21434 255 255 255
0.0509474  0.405436   2.19809 255 255 255
-0.349224  0.388301    2.2061 255 255 255
 0.391787 -0.229038   2.59071 255 255 255
0.107519 0.329078   2.3551 255 255 255
 0.438557 -0.205277   2.59152 255 255 255
-0.474396  0.197762   2.24769 255 255 255
 -0.14296 -0.480755   2.56692 255 255 255
-0.0168941  -0.519906    2.61981 255 255 255
  0.664874 -0.0509263     2.5792 255 255 255
-0.414166 -0.259399    2.4555 255 255 255
-0.313528 -0.502962    2.5545 255 255 255
-0.0782106  -0.455221     2.5838 255 255 255
 0.396617 -0.475241   2.67126 255 255 255
-0.971074 0.0372031   2.17964 255 255 255
0.0675966 0.0988325   2.42505 255 255 255
-0.00169722   0.0160568     2.39513 255 255 255
0.474962 0.253758   2.4431 255 255 255
 0.522929 -0.173966   2.59938 255 255 255
-0.502188 0.0783713   2.32848 255 255 255
 0.496016 -0.087605   2.57653 255 255 255
  -0.8368 -0.243553   2.36578 255 255 255
-0.407626 -0.363643   2.47798 255 255 255
0.196924 0.246003  2.40153 255 255 255
-0.816896  -0.16084   2.34204 255 255 255
-0.0232346   0.309932    2.32595 255 255 255
-0.149924  0.297992   2.31613 255 255 255
-0.740715  0.297925   2.17075 255 255 255
 -0.081942 -0.0896256    2.43103 255 255 255
-0.825082  0.179891   2.18451 255 255 255
0.249989 -0.18334  2.56318 255 255 255
 0.472399 -0.175104   2.60511 255 255 255
 0.351731 0.0805142    2.4886 255 255 255
-0.541641 -0.225143    2.4242 255 255 255
0.318052 0.101402  2.47376 255 255 255
-0.238771 -0.447866   2.55119 255 255 255
 -0.317809 -0.0557498    2.36466 255 255 255
0.0111251 -0.461423   2.60649 255 255 255
 0.420079 -0.264986   2.60502 255 255 255
-0.600496 -0.303467   2.43329 255 255 255
0.119603 0.310458  2.36385 255 255 255
-0.780026 0.0379442   2.26786 255 255 255
-0.0410467   -0.47046    2.59219 255 255 255
-0.205958 -0.176941    2.4098 255 255 255
-0.630214  0.261968   2.18108 255 255 255
-0.604972 -0.158526   2.38075 255 255 255
 -0.733171 -0.0101247    2.29943 255 255 255
-0.474334 -0.428728   2.49886 255 255 255
 0.331061 0.0814408   2.48781 255 255 255
 -0.50697 -0.211035   2.42454 255 255 255
  0.554529 -0.0854712    2.56518 255 255 255
-0.649351  0.420798   2.16385 255 255 255
 0.476734 -0.327506   2.62964 255 255 255
 0.526845 -0.202605   2.61337 255 255 255
0.334755 0.323872  2.36773 255 255 255
0.0763636 -0.395373   2.58614 255 255 255
-0.510802 -0.130226   2.39495 255 255 255
 -0.270942 -0.0386713     2.3859 255 255 255
-0.272865 -0.418239   2.53405 255 255 255
 0.0418596 -0.0930915     2.4379 255 255 255
-0.241978  -0.47051   2.60373 255 255 255
  0.544339 -0.0855785    2.56898 255 255 255
0.0900303  0.126115   2.41925 255 255 255
 0.128776 0.0929055   2.40957 255 255 255
 0.128821 0.0900729   2.40167 255 255 255
 0.304655 -0.426895   2.64209 255 255 255
 -0.342693 0.00447959    2.38123 255 255 255
-0.0356569  -0.473943    2.59969 255 255 255
 0.474277 -0.245043   2.60736 255 255 255
-0.209483  -0.11389   2.44269 255 255 255
0.517816 -0.11431  2.58901 255 255 255
0.0881913   0.11218   2.42127 255 255 255
 0.209015 -0.523245   2.65006 255 255 255
 0.201112 -0.528286   2.65108 255 255 255
0.0358701 -0.483714   2.61764 255 255 255
-0.397765 -0.295679    2.4445 255 255 255
-0.0542572  -0.365684    2.55302 255 255 255
-0.555272 -0.103657   2.37542 255 255 255
 0.273308 0.0968529   2.47307 255 255 255
-0.0872794  -0.191837    2.43306 255 255 255
  0.44253 -0.196755   2.59926 255 255 255
-0.135928 0.0978232   2.35659 255 255 255
 -0.852294 -0.0624486    2.29057 255 255 255
 -0.525085 0.00737109    2.34985 255 255 255
-0.578424 -0.355745   2.45077 255 255 255
  0.31409 -0.486759   2.66935 255 255 255
 -0.749422 -0.0287938    2.30415 255 255 255
0.334458 -0.44132  2.65394 255 255 255
 0.254466 -0.446513   2.64605 255 255 255
-0.754261  0.178029   2.17924 255 255 255
 -0.744672 -0.0207365     2.3005 255 255 255
0.104985 0.140449  2.41718 255 255 255
0.646872 0.144934  2.51191 255 255 255
-0.0147759  -0.438765    2.59658 255 255 255
-0.542292  0.190231   2.24514 255 255 255
-0.603537   0.26866   2.20053 255 255 255
 -0.688949 -0.0897569    2.34295 255 255 255
0.150754  0.18889  2.41044 255 255 255
 -0.70205 -0.138051   2.37983 255 255 255
-0.688291 -0.139934   2.35871 255 255 255
 0.263841 -0.430818   2.63967 255 255 255
 0.375608 -0.102255   2.56102 255 255 255
 0.418761 -0.486252   2.67464 255 255 255
 0.378021 -0.542832   2.68097 255 255 255
 0.545621 -0.147964   2.60291 255 255 255
 -0.690712 -0.0800261    2.34116 255 255 255
 -0.633041 -0.0562901    2.29719 255 255 255
-0.127207  0.114178    2.3595 255 255 255
 0.252105 -0.389733   2.61975 255 255 255
-0.619293  0.443846    2.1744 255 255 255
-0.513218  0.410357   2.20777 255 255 255
0.202768 -0.54924   2.6623 255 255 255
 0.491713 -0.128353   2.57656 255 255 255
-0.741563  0.290042   2.17127 255 255 255
0.162468 0.048565  2.40945 255 255 255
-0.378326 -0.286514   2.47385 255 255 255
0.0925528  0.265086   2.33232 255 255 255
  0.176708 -0.0171094    2.48793 255 255 255
-0.494468  -0.21698   2.43115 255 255 255
-0.0435493  -0.199538    2.47544 255 255 255
-0.0641453  0.0698301    2.40556 255 255 255
 0.726562 0.0674433    2.5249 255 255 255
 0.337839 0.0737688   2.49713 255 255 255
-0.364571 -0.503533   2.54537 255 255 255
 -0.800372 -0.0381494    2.30059 255 255 255
 0.300617 -0.398414   2.63911 255 255 255
 0.133689 -0.168222   2.49442 255 255 255
-0.609745  0.535489   2.08781 255 255 255
 0.428566 -0.462517   2.66158 255 255 255
 -0.19608 -0.362702   2.48908 255 255 255
 0.318667 -0.275758   2.60039 255 255 255
-0.0889636    0.37102    2.30064 255 255 255
-0.128081 -0.505968   2.59134 255 255 255
 0.260157 -0.491673   2.66425 255 255 255
-0.229248  0.015545   2.36231 255 255 255
-0.398589 -0.251287   2.45831 255 255 255
-0.0999385   0.139492    2.37801 255 255 255
-0.531756  0.436219   2.19808 255 255 255
 0.405888 -0.246163   2.59106 255 255 255
-0.355884 0.0729177   2.35697 255 255 255
-0.894837 -0.217192     2.334 255 255 255
  0.187433 -0.0955826    2.51962 255 255 255
 0.511386 -0.104345   2.58433 255 255 255
-0.144318 -0.351308   2.54347 255 255 255
 0.279238 -0.228775   2.58195 255 255 255
 -0.817323 -0.0328371    2.29595 255 255 255
-0.0948783  -0.262447    2.51855 255 255 255
 0.149722 -0.341649     2.584 255 255 255
  0.35554 -0.581509   2.75585 255 255 255
0.277638 0.323193  2.38424 255 255 255
 -0.617671 -0.0737699    2.35091 255 255 255
-0.0385368  -0.541785    2.61843 255 255 255
  0.533248 -0.0454348    2.56925 255 255 255
 -0.26595 -0.300099   2.46833 255 255 255
-0.597864  0.255403   2.20093 255 255 255
 0.391968 -0.251934   2.59752 255 255 255
0.0121098 0.0940481   2.41408 255 255 255
-0.223138   0.40966   2.26243 255 255 255
 0.513377 -0.174072    2.6032 255 255 255
0.0896872  0.211085   2.38944 255 255 255
 -0.55567 -0.344458   2.45541 255 255 255
-0.492905  0.372211    2.2224 255 255 255
0.429245 -0.13201  2.57959 255 255 255
 -0.935851 -0.0240996    2.23424 255 255 255
-0.357755 -0.345731   2.47645 255 255 255
 -0.872804 -0.0561022     2.2837 255 255 255
 0.525318 -0.116031   2.58795 255 255 255
0.0390091 -0.578345   2.71644 255 255 255
0.174974 0.155838   2.4269 255 255 255
-0.0328867  -0.431303     2.5831 255 255 255
-0.825847   0.16433   2.18435 255 255 255
0.0753567  -0.60469   2.71189 255 255 255
-0.701369 -0.314595   2.42469 255 255 255
 0.472789 -0.288622   2.62413 255 255 255
-0.645651 -0.300329   2.41903 255 255 255
-0.598948 -0.151063    2.3775 255 255 255
 0.366593 -0.468466    2.6636 255 255 255
 -0.542629 -0.0541439    2.36881 255 255 255
-0.207633  0.309184   2.26193 255 255 255
 0.554722 -0.241405   2.62529 255 255 255
-0.0755768  0.0926838    2.39254 255 255 255
-0.609056  0.265319   2.19496 255 255 255
-0.216882 -0.477338     2.561 255 255 255
-0.479922 -0.084434    2.3489 255 255 255
  0.525877 -0.0615907     2.5722 255 255 255
 0.721411 0.0696785   2.52659 255 255 255
-0.67206 -0.22065  2.38062 255 255 255
 0.381289 -0.504361   2.67725 255 255 255
-0.105935 -0.258377    2.5159 255 255 255
0.169704 0.425144  2.30107 255 255 255
-0.200665  -0.18262   2.41249 255 255 255
-0.0614164   0.117292    2.38989 255 255 255
 0.229826 -0.261531   2.57118 255 255 255
 -0.794831 -0.0440243    2.30502 255 255 255
0.0705434  0.435795   2.26939 255 255 255
 0.482927 -0.317353   2.62829 255 255 255
-0.229547  0.380096   2.27426 255 255 255
0.495895 0.184608  2.48487 255 255 255
-0.164341 0.0507642   2.36534 255 255 255
 0.492039 -0.269226   2.62512 255 255 255
-0.838219 -0.160195   2.33655 255 255 255
 0.462068 -0.252595   2.61269 255 255 255
0.0483403 -0.566098   2.70567 255 255 255
-0.676368  -0.29112   2.40286 255 255 255
  0.666231 -0.0694363    2.58577 255 255 255
-0.122385  0.294112   2.32089 255 255 255
 0.366403 -0.420687   2.65634 255 255 255
-0.163101 -0.521883   2.59347 255 255 255
-0.100855 0.0990195   2.38937 255 255 255
 0.198223 -0.543369   2.66042 255 255 255
-0.542772  0.269219   2.25501 255 255 255
 -0.838046 -0.0154092    2.28382 255 255 255
   0.37385 -0.0523167    2.55023 255 255 255
  0.273913 -0.0537525    2.50427 255 255 255
0.0699022 0.0890953   2.42345 255 255 255
-0.080475  0.116318   2.38459 255 255 255
 -0.194762 -0.0429363    2.42004 255 255 255
 0.528024 -0.183468   2.60003 255 255 255
0.281743 0.356768  2.37962 255 255 255
0.200352 0.393716  2.22525 255 255 255
-0.735654  0.408071   2.09148 255 255 255
-0.236241  0.439025   2.24052 255 255 255
  0.164104 -0.0657715    2.50357 255 255 255
-0.247573 -0.485149   2.56038 255 255 255
-0.486075  -0.39778   2.48803 255 255 255
-0.547705  0.320217   2.18044 255 255 255
-0.0345594  -0.465235    2.59321 255 255 255
-0.35937 0.526373  2.18626 255 255 255
 0.236755 -0.442774   2.64101 255 255 255
0.182437 0.198439  2.40767 255 255 255
0.513687 0.178777  2.48949 255 255 255
-0.681798  0.206754   2.24027 255 255 255
 -0.591836 -0.0626956    2.35987 255 255 255
 -0.954635 0.00181606     2.2096 255 255 255
-0.416833 -0.464415   2.52233 255 255 255
-0.59434 -0.11047   2.3747 255 255 255
0.0325864    0.2259   2.33306 255 255 255
 -0.112133 -0.0307201    2.43211 255 255 255
-0.617634  0.251273   2.17227 255 255 255
-0.102093 -0.459612   2.57674 255 255 255
-0.688136  0.171232   2.22737 255 255 255
-0.451443 -0.425633   2.47972 255 255 255
-0.710394 -0.127566   2.35666 255 255 255
-0.565564 -0.270403   2.41256 255 255 255
-0.427281 -0.215489   2.44059 255 255 255
-0.687667   0.16343   2.21875 255 255 255
-0.111683 -0.508632   2.59575 255 255 255
 0.344856 -0.451249   2.66167 255 255 255
-0.182448  0.403474   2.26442 255 255 255
-0.135136 -0.468869   2.56863 255 255 255
  -0.71774 -0.0256702    2.31869 255 255 255
-0.500695 -0.144355   2.40604 255 255 255
-0.23055 0.170471  2.34295 255 255 255
 0.355626 -0.512487    2.6744 255 255 255
 0.228906 -0.517718   2.65641 255 255 255
-0.625447   0.25416   2.20614 255 255 255
-0.471351 -0.238683   2.44244 255 255 255
-0.434684 -0.146398   2.39314 255 255 255
 0.637593 -0.121966   2.60336 255 255 255
-0.885235 -0.224812    2.3402 255 255 255
-0.726472  0.437278   2.09425 255 255 255
-0.432656  0.326008    2.2006 255 255 255
-0.0940236  -0.125604    2.44115 255 255 255
 -0.30902 -0.439526   2.53903 255 255 255
-0.475337 -0.380312   2.47625 255 255 255
0.0255406  0.498418   2.27598 255 255 255
0.447583 -0.26325  2.61799 255 255 255
-0.636976  0.241868   2.17315 255 255 255
 0.121666 -0.493041   2.63423 255 255 255
-0.773802  -0.13605   2.33845 255 255 255
-0.181494 -0.481664   2.57839 255 255 255
-0.162724 -0.429753   2.56961 255 255 255
0.0210967 0.0848738   2.41933 255 255 255
 -0.847476 -0.0255708    2.28051 255 255 255
  0.615484 -0.0287026    2.57617 255 255 255
-0.767965 0.0250706   2.28843 255 255 255
-0.131778  0.455524   2.26392 255 255 255
-0.219068 -0.442231   2.55757 255 255 255
-0.249906 -0.447435   2.55181 255 255 255
-0.0903416   0.319707    2.31601 255 255 255
-0.321316  0.239806   2.30516 255 255 255
0.0259668 -0.540007    2.6324 255 255 255
-0.0907431  -0.460055    2.58521 255 255 255
-0.028829  0.365687   2.31384 255 255 255
0.0963033 -0.549305   2.64109 255 255 255
 -0.753469 -0.0962063    2.33625 255 255 255
-0.0779377    0.36303    2.29554 255 255 255
  0.41462 -0.203524   2.58499 255 255 255
0.516061 -0.29716  2.63942 255 255 255
 -0.566128 -0.0502521    2.37655 255 255 255
-0.856586 -0.124913   2.31686 255 255 255
0.0315384 -0.362406   2.56326 255 255 255
 0.065321 -0.146399   2.44803 255 255 255
 0.235142 -0.475156    2.6503 255 255 255
-0.0630269 -0.0977889    2.44178 255 255 255
 0.384448 -0.171435   2.58516 255 255 255
-0.793362 -0.195693   2.35854 255 255 255
-0.716262  0.312438   2.19571 255 255 255
-0.23635 0.162625   2.3461 255 255 255
 0.188195 -0.443433   2.62261 255 255 255
0.488275 0.175164  2.48579 255 255 255
 0.276904 -0.266366   2.59588 255 255 255
  -0.54829 -0.0376415    2.36343 255 255 255
-0.553048 -0.327599   2.43904 255 255 255
-0.835928 0.0456638   2.25386 255 255 255
 0.381336 -0.214385    2.5824 255 255 255
-0.0902883  0.0686419    2.38027 255 255 255
-0.60671  0.14662  2.28494 255 255 255
   0.661099 -0.00655634     2.56515 255 255 255
 0.312382 -0.626794   2.76205 255 255 255
-0.427588 -0.365751   2.48023 255 255 255
-0.0856279   0.108159    2.38647 255 255 255
0.443262 -0.37512  2.60241 255 255 255
