ply
format ascii 1.0
element vertex 1180
property float x
property float y
property float z
property uchar red
property uchar green
property uchar blue
end_header
-0.789797   3.40822  0.773143 255 255 255
-1.63969  3.95796  0.84536 255 255 255
-1.9797 4.46336 0.83361 255 255 255
-2.52795   4.4477 0.979655 255 255 255
0.0687066   3.61928  0.668499 255 255 255
0.143297  4.02509  0.56412 255 255 255
-1.09677  3.98555 0.557462 255 255 255
0.163986  3.92003 0.570034 255 255 255
-1.50926  4.44571 0.735844 255 255 255
-0.0431369    3.61737   0.700124 255 255 255
-1.49178   4.9302 0.682388 255 255 255
-1.10628   3.7634 0.648449 255 255 255
-2.16597  4.31925 0.902074 255 255 255
-1.66838  4.08758 0.808111 255 255 255
0.0957937   4.12006  0.583792 255 255 255
0.0616327   3.96341  0.562384 255 255 255
-2.08697  4.58843 0.823444 255 255 255
-0.177504   3.69437  0.640887 255 255 255
-1.29844  4.85363 0.658207 255 255 255
-1.09778  3.82833 0.643849 255 255 255
0.0259325   3.85061  0.591292 255 255 255
-0.558215   4.61333  0.413153 255 255 255
-0.997742    3.6343  0.617796 255 255 255
-0.213521   3.41513  0.741738 255 255 255
0.136015  4.09764 0.589236 255 255 255
0.0813089   4.19341  0.608824 255 255 255
-0.928852   3.63189  0.520709 255 255 255
 -1.4046  4.21041 0.759287 255 255 255
-0.224396   3.42999  0.764414 255 255 255
-0.26883  3.63564  0.66995 255 255 255
-0.683683   3.76504  0.689969 255 255 255
-1.07368  4.44079 0.536833 255 255 255
-1.09462  3.64031 0.660889 255 255 255
-2.12992  4.44527 0.861466 255 255 255
-1.28899  4.03443 0.653307 255 255 255
-0.456429   4.17355   0.57982 255 255 255
-0.892949   4.47104  0.529686 255 255 255
-1.55979  4.25723 0.725998 255 255 255
-0.674764   4.98871  0.335552 255 255 255
 0.12293  4.00835 0.576254 255 255 255
-0.0291567     3.9528   0.592479 255 255 255
-0.14943  3.65187 0.675444 255 255 255
0.249132  3.98037 0.575339 255 255 255
 -1.6437  4.91302 0.670874 255 255 255
-1.40103  4.47226 0.716261 255 255 255
-0.220058   3.72127  0.642442 255 255 255
-1.09914  3.66629 0.652096 255 255 255
-0.721198   3.76749  0.689752 255 255 255
-1.35448  4.83773  0.66521 255 255 255
-0.070815   4.05192  0.553063 255 255 255
-1.42442  4.30947 0.756881 255 255 255
-1.07642  4.39526 0.559955 255 255 255
-0.179947    3.6467   0.67639 255 255 255
-1.08319  3.61853 0.660486 255 255 255
-0.0982537    4.09813   0.508054 255 255 255
-0.874073   4.39466  0.584158 255 255 255
-1.62392  4.63687 0.729537 255 255 255
-1.15459  3.73882 0.683013 255 255 255
-0.465879    3.3229  0.820459 255 255 255
-0.910926   4.48765  0.552382 255 255 255
-1.32488  4.54738 0.687599 255 255 255
-1.54429  4.00062 0.814781 255 255 255
-1.43402  4.32914 0.687449 255 255 255
-0.35465  4.02355 0.633124 255 255 255
-0.0763008     4.1635   0.611622 255 255 255
-1.28885  4.83247 0.679985 255 255 255
-2.04752   4.7528 0.795215 255 255 255
-0.812548   4.38527  0.593143 255 255 255
-1.15448  4.89694 0.634194 255 255 255
-0.507526   3.68089  0.722057 255 255 255
-0.923807   3.34608  0.559381 255 255 255
-0.590459   4.58844   0.42103 255 255 255
-0.804584   4.40775  0.573538 255 255 255
0.210359  4.08386 0.548653 255 255 255
-1.41049  4.20922 0.725124 255 255 255
-0.776516    3.3904  0.632665 255 255 255
-0.288175    3.7119   0.66081 255 255 255
-1.10512   3.6916 0.622585 255 255 255
-2.47704  4.51496 0.952731 255 255 255
-0.508159   3.64167  0.723977 255 255 255
0.130594  3.58252 0.677387 255 255 255
0.275254  3.98836 0.587107 255 255 255
-1.19224  4.13159 0.642603 255 255 255
-1.37103  4.67357 0.680306 255 255 255
-0.0617143    3.66795   0.673279 255 255 255
-0.21673  3.74911 0.628784 255 255 255
-0.897263   3.30092  0.707589 255 255 255
-0.734909   4.20449  0.422391 255 255 255
-0.862123   4.32683  0.547317 255 255 255
-1.25632  4.72525  0.66537 255 255 255
-0.505551   3.70646  0.710433 255 255 255
-0.452735    3.3513   0.80979 255 255 255
-1.39385  4.06771 0.530833 255 255 255
-1.60504   4.6854 0.718191 255 255 255
-0.951875   3.64736  0.609081 255 255 255
-0.109385   3.75823  0.632756 255 255 255
-0.157075   3.70247   0.64236 255 255 255
-0.0320605    3.57346   0.695119 255 255 255
0.00549097    3.90927   0.586068 255 255 255
-0.864099   3.79845  0.685868 255 255 255
-0.0235786    3.63186   0.699087 255 255 255
-0.456404   4.45308  0.547092 255 255 255
0.183031  4.04167  0.54714 255 255 255
-1.32143   4.5668 0.701331 255 255 255
-0.0568279    3.94208   0.583489 255 255 255
-0.528972   3.48731  0.569892 255 255 255
-0.241984   4.22755   0.52835 255 255 255
-0.319909   3.50276  0.746176 255 255 255
0.110206  3.62154 0.670285 255 255 255
0.153815  4.10768 0.585855 255 255 255
-0.321378    4.6349   0.40484 255 255 255
-0.539519   3.06219  0.907369 255 255 255
-1.48665   4.5506 0.719446 255 255 255
-0.080477   4.32442  0.394601 255 255 255
0.061913  3.91299  0.57194 255 255 255
0.131196  3.88752 0.566379 255 255 255
-0.310833   4.67253  0.383682 255 255 255
-0.97035  3.55451 0.720496 255 255 255
-0.404351   4.12613  0.610494 255 255 255
-1.33013  4.83378 0.679925 255 255 255
-1.71671  4.14643 0.815212 255 255 255
-0.214439   3.66225  0.654071 255 255 255
-0.0943029    3.70323   0.648978 255 255 255
-2.0382 4.77064 0.81658 255 255 255
-0.0442366    3.55267   0.664283 255 255 255
-0.746968   3.41546  0.617396 255 255 255
0.0983476   3.92025  0.556448 255 255 255
-1.15684  3.99131 0.585626 255 255 255
-0.349431   3.65094  0.623266 255 255 255
-0.110438   3.85818  0.618979 255 255 255
0.00079115    4.05014   0.551923 255 255 255
0.146961  3.87747 0.564293 255 255 255
0.0799373   3.86861  0.561921 255 255 255
-1.33263  4.50677 0.708607 255 255 255
 -0.7922  5.20624 0.325906 255 255 255
-0.180634   4.32162  0.571401 255 255 255
0.0834118   3.90812  0.563474 255 255 255
-0.661148   3.98422  0.640592 255 255 255
-1.74455   4.0986 0.817222 255 255 255
0.0085073   3.63839  0.689867 255 255 255
-1.14289  5.06816 0.627441 255 255 255
-0.320205   4.68693  0.361728 255 255 255
0.00435936    3.93729   0.598541 255 255 255
-2.14014  4.47272  0.87157 255 255 255
-1.19921  4.93943 0.642404 255 255 255
-1.27458  4.89985  0.64935 255 255 255
-0.741998    3.8561  0.654949 255 255 255
 -1.3685  3.97269 0.691303 255 255 255
0.0166233   3.75755  0.628375 255 255 255
-1.42121  4.29035 0.693041 255 255 255
-0.473999   3.30377  0.825944 255 255 255
-0.527095   3.74193  0.709167 255 255 255
-1.17171  3.84388 0.594121 255 255 255
0.134839  4.09278 0.592767 255 255 255
-2.06884  4.13725 0.915733 255 255 255
0.0878976   4.12694  0.600122 255 255 255
-0.702211   4.93728  0.345403 255 255 255
-0.0469584    3.68807   0.671769 255 255 255
-0.276669   3.25102  0.815573 255 255 255
 -1.3657  4.88749 0.673064 255 255 255
-1.19652  4.11276 0.637746 255 255 255
-0.608365   4.60071  0.423547 255 255 255
-0.192256   3.94947  0.599979 255 255 255
-1.67012  4.04669 0.817128 255 255 255
-0.323302   3.25304  0.725862 255 255 255
-2.17716  4.40163 0.881052 255 255 255
-0.708378   3.84888  0.676806 255 255 255
-0.151968   3.72338   0.64748 255 255 255
-0.386109   4.44648  0.542527 255 255 255
0.106682  4.10642 0.593962 255 255 255
-0.522228   3.42688  0.774413 255 255 255
-0.199609   4.26957  0.578158 255 255 255
-2.01361  4.83713 0.809764 255 255 255
-2.02173   4.1605 0.891335 255 255 255
-0.651589   4.97871  0.326353 255 255 255
-1.73655  4.73642  0.75046 255 255 255
-0.803912   3.79755  0.688325 255 255 255
-1.30911   4.8685 0.657838 255 255 255
-1.26503  5.29653 0.630093 255 255 255
-0.737832   4.95793  0.333081 255 255 255
-1.56069  4.82243 0.626634 255 255 255
-1.43345  4.39481 0.726289 255 255 255
-0.714904   4.98222  0.334344 255 255 255
-1.28105  4.93073 0.645801 255 255 255
-0.906146   4.02487  0.453922 255 255 255
-0.32623  4.14143 0.614817 255 255 255
-0.402524   4.11672  0.589922 255 255 255
-0.0331177    3.56571   0.675606 255 255 255
-0.0779685     4.1636   0.569012 255 255 255
-0.681454   4.97146  0.328739 255 255 255
-0.240248   3.64889  0.666462 255 255 255
-2.4018 4.75171  0.9176 255 255 255
-0.143806   3.91645  0.597605 255 255 255
-0.411666   4.07096   0.61196 255 255 255
-0.120177   3.73842   0.62967 255 255 255
-0.256711   4.18499  0.582803 255 255 255
0.168195  4.09062 0.545523 255 255 255
-0.453862   4.49494  0.548476 255 255 255
-2.18842  4.31935 0.896933 255 255 255
-0.227745   4.11781  0.598996 255 255 255
-0.937487   4.13806   0.51279 255 255 255
 -1.2434   5.3003 0.624972 255 255 255
-0.297196   4.69317  0.361874 255 255 255
0.14898   4.044 0.55842 255 255 255
0.0930102   4.20865  0.596799 255 255 255
-2.12105  4.55873 0.843599 255 255 255
-0.517498   3.47184  0.766528 255 255 255
-0.946478   3.77308  0.633164 255 255 255
-0.205982   3.96925  0.591321 255 255 255
-1.14057  5.19254 0.616189 255 255 255
-0.785455   3.96698  0.643416 255 255 255
-0.695392   4.96738  0.325681 255 255 255
0.189079  4.00438 0.574107 255 255 255
-0.249567   4.19748  0.585578 255 255 255
-0.541958   3.44608  0.770668 255 255 255
-0.365692   4.67733  0.368121 255 255 255
-1.39555  4.27092 0.742115 255 255 255
-0.859372   4.35257  0.579794 255 255 255
0.0519513   4.06195  0.561245 255 255 255
-0.502173   2.78181   1.05069 255 255 255
-1.53778  3.79314 0.854151 255 255 255
0.0779032   3.92134  0.566297 255 255 255
-0.513318   2.94002  0.901429 255 255 255
-0.271122   4.18864  0.595299 255 255 255
-0.508779   3.21884  0.850269 255 255 255
-2.15132  4.40514 0.880483 255 255 255
-0.124052   3.95675  0.571277 255 255 255
-1.24615  4.95873 0.651985 255 255 255
0.079187  3.75873 0.601384 255 255 255
-1.21638  4.18851 0.633545 255 255 255
-0.539194   3.50794  0.758492 255 255 255
-0.388151   4.42009   0.54357 255 255 255
0.0174414   3.93052  0.594199 255 255 255
-2.42367  4.64145 0.939309 255 255 255
-0.34191  4.05528 0.632603 255 255 255
-0.551264   3.04146  0.909725 255 255 255
0.114538  4.17552 0.585992 255 255 255
0.0587904   3.86091  0.579392 255 255 255
0.0882272   3.63501  0.666476 255 255 255
0.0706228   3.76928  0.604441 255 255 255
-2.00604  4.33257  0.85833 255 255 255
-0.685485   3.78762  0.683074 255 255 255
-0.110356   3.43637  0.758148 255 255 255
0.114001  3.65164 0.658118 255 255 255
-1.08537  3.76566 0.700059 255 255 255
0.103881  3.94829 0.563908 255 255 255
-2.03985  4.18722 0.898645 255 255 255
-2.08857  4.16638 0.902053 255 255 255
-1.28629  4.81001 0.665094 255 255 255
-1.91173  4.01115 0.895624 255 255 255
-0.798306   3.41124  0.627765 255 255 255
0.170827  4.03388 0.563022 255 255 255
-0.882988   4.01994  0.463301 255 255 255
-0.616712   3.11848  0.856514 255 255 255
-0.081329   3.88716  0.598677 255 255 255
-0.572426   4.43402  0.334808 255 255 255
-0.423774   4.15028  0.594139 255 255 255
-2.20343  4.80579 0.867262 255 255 255
-0.527104   4.57936  0.428215 255 255 255
-1.67067  4.49403 0.759442 255 255 255
-0.523573   3.08434  0.903751 255 255 255
  -1.564  3.81934 0.859042 255 255 255
-1.60939   3.9308 0.842749 255 255 255
-1.61175  4.90198 0.680387 255 255 255
-1.38767  4.84833 0.621009 255 255 255
-1.58368  4.67981 0.716408 255 255 255
 -1.5692  3.86675 0.824555 255 255 255
-0.152226   4.34327  0.567003 255 255 255
-2.09565  4.58088 0.830017 255 255 255
-0.846277    5.2207  0.340946 255 255 255
-0.484683   4.47527  0.536036 255 255 255
-0.687136    5.0001  0.326671 255 255 255
-0.734166   4.22002  0.605655 255 255 255
 -1.3528  4.23111 0.758553 255 255 255
-0.0396038    3.66214   0.684716 255 255 255
-1.54555  3.80929 0.856717 255 255 255
-1.12881  5.18395 0.615953 255 255 255
-0.710027   3.84409  0.657033 255 255 255
-2.01609  4.35143 0.880197 255 255 255
-1.94954  4.48122 0.835325 255 255 255
-0.656513   4.99315  0.326065 255 255 255
-1.25624  5.04407 0.641262 255 255 255
-0.176765   3.70246  0.642074 255 255 255
-0.744407   4.98673  0.331737 255 255 255
-0.814813   5.23762  0.328401 255 255 255
-0.909111   3.71321  0.620966 255 255 255
-1.23719  5.09601 0.629798 255 255 255
-0.0555639    3.86536   0.614714 255 255 255
-0.284185   3.64171   0.68388 255 255 255
 0.14388  4.00634 0.565641 255 255 255
0.0853025   4.17111  0.606255 255 255 255
-0.817063   5.19064  0.321053 255 255 255
-0.703249   3.78928  0.687052 255 255 255
0.212174  4.02762 0.572381 255 255 255
-0.106497   4.12418  0.520812 255 255 255
-0.0510265    3.72209   0.654896 255 255 255
-0.748155   5.00049   0.33047 255 255 255
0.159562   3.9914 0.564912 255 255 255
-1.18818  4.22509 0.609748 255 255 255
-1.83963  4.67185 0.794027 255 255 255
-0.111131   3.75848  0.641023 255 255 255
-2.03758  4.70939 0.810218 255 255 255
-0.822699    5.2049  0.323728 255 255 255
-1.56484  3.83916 0.830721 255 255 255
-0.0332018     3.8003   0.638258 255 255 255
0.0498563   4.16483  0.534778 255 255 255
-1.73478  4.47672 0.771241 255 255 255
-0.0344604    3.68097    0.67562 255 255 255
-0.782277   3.94619  0.472755 255 255 255
 -1.9838  4.36517 0.860633 255 255 255
-1.01214  3.74828  0.68215 255 255 255
-1.54205  3.84358 0.840634 255 255 255
-1.42478  3.67007 0.882587 255 255 255
-0.610929   5.00418  0.326316 255 255 255
-0.32739  3.56063 0.735579 255 255 255
-0.726893   4.06865  0.583218 255 255 255
-1.55043  3.87174  0.83756 255 255 255
0.136107  3.65296 0.656506 255 255 255
-0.588093   4.53657  0.413309 255 255 255
-1.85298  4.78397  0.78483 255 255 255
-0.856168   3.46961  0.686003 255 255 255
-1.56033  3.80848   0.8388 255 255 255
0.203615   4.0212 0.567583 255 255 255
-0.351626   3.50333  0.648302 255 255 255
-0.92546  3.79905  0.67843 255 255 255
-0.820225   5.10283  0.380343 255 255 255
-0.226624   4.17967  0.603294 255 255 255
-0.556247    3.0901   0.89672 255 255 255
-0.0949615     3.9545   0.575502 255 255 255
0.0173749   4.02457   0.56426 255 255 255
-1.86368  4.34688   0.8346 255 255 255
-0.0563825    3.80684   0.634988 255 255 255
0.203991  4.05743 0.532086 255 255 255
-1.58293  4.68008 0.714415 255 255 255
-2.02645  4.74002 0.790276 255 255 255
-0.0934578    3.94029   0.586121 255 255 255
0.0985344   4.15627  0.599436 255 255 255
-0.73983  4.97332 0.330369 255 255 255
0.0295499    4.1982   0.50004 255 255 255
-0.03872  4.03196 0.560691 255 255 255
0.131817  4.17855 0.583623 255 255 255
-0.0846405    3.86486   0.610893 255 255 255
-0.0861147    3.86346   0.615131 255 255 255
-2.05897   4.1812 0.887007 255 255 255
-1.68133  4.41142 0.729455 255 255 255
-0.175644   3.87274  0.600003 255 255 255
-0.90192  4.03317 0.468901 255 255 255
-0.521165   3.06076  0.904835 255 255 255
-1.69337  4.97593 0.441431 255 255 255
-0.878867   4.49833   0.56255 255 255 255
-0.883879   4.53373  0.577466 255 255 255
-0.143412   3.84932  0.625359 255 255 255
 -0.7921  3.39762 0.622992 255 255 255
-1.67692  4.43212 0.757204 255 255 255
-1.41935  4.72819 0.691314 255 255 255
-0.718148   4.99182  0.324229 255 255 255
-0.379656   4.39954  0.556596 255 255 255
0.299882  3.90237 0.601202 255 255 255
-1.69254   4.0673 0.816096 255 255 255
-0.83126  5.23268 0.324693 255 255 255
-0.867011   4.93744  0.278273 255 255 255
-1.20548  5.07899 0.637158 255 255 255
-0.321456   3.57433  0.736743 255 255 255
-0.972607   4.00189  0.480661 255 255 255
0.136995   3.5586 0.691933 255 255 255
-0.0625979    3.68629   0.662753 255 255 255
-0.0602164    4.02352   0.565842 255 255 255
-0.700614   5.18122   0.20586 255 255 255
-0.483337   3.37919  0.783025 255 255 255
-0.886633   4.01851  0.444024 255 255 255
-0.068624   4.11756   0.61178 255 255 255
-0.848777    3.3814   0.69797 255 255 255
-2.41563  4.67296 0.915768 255 255 255
-0.63805  4.55005 0.434305 255 255 255
-0.82932  5.21944 0.328159 255 255 255
-2.13935  4.42225 0.875507 255 255 255
-0.355943   3.87557  0.583257 255 255 255
-0.528266   3.35458  0.798203 255 255 255
-0.784966    3.8669  0.677676 255 255 255
-0.200145   3.93671   0.60004 255 255 255
-0.502342   3.72876  0.700039 255 255 255
-0.0397079    4.12225   0.620195 255 255 255
0.114118  4.05061 0.563191 255 255 255
-0.206418    3.4748  0.732598 255 255 255
-0.34232   4.1564 0.613891 255 255 255
-0.0196821    3.82719   0.627567 255 255 255
-0.87224  5.04925 0.519471 255 255 255
-0.834911   3.65984   0.53151 255 255 255
-0.699226     4.982  0.322254 255 255 255
-0.684726    4.9528  0.336438 255 255 255
-0.766739   3.83072  0.680841 255 255 255
-0.353105   4.15011  0.613338 255 255 255
-2.16792  4.42208 0.849771 255 255 255
-1.22431  5.01042 0.626615 255 255 255
0.292574  3.91632  0.59912 255 255 255
-1.48425  4.67723 0.696155 255 255 255
-0.958418   4.14305  0.518191 255 255 255
-2.06017  4.64348 0.833303 255 255 255
0.00147809     3.7822   0.626058 255 255 255
-0.67379   4.0474 0.532716 255 255 255
-0.52052  2.98897 0.942042 255 255 255
-0.845503    5.1788  0.368358 255 255 255
-0.42854  4.05672 0.635405 255 255 255
-0.0502598    3.91128   0.597261 255 255 255
-0.514654   3.50788  0.767424 255 255 255
-0.113624   3.95273  0.568062 255 255 255
0.0257768   3.94192   0.58881 255 255 255
-0.577581   4.53498  0.420312 255 255 255
-0.556272   3.01569   0.92381 255 255 255
0.123758  4.05978   0.5683 255 255 255
0.149998  3.58504 0.688073 255 255 255
-1.51538   3.7258 0.869504 255 255 255
-1.14295  5.18379 0.600569 255 255 255
-1.67733  4.42505 0.737989 255 255 255
0.00507096     4.0187   0.563477 255 255 255
-0.506388   3.73922  0.703053 255 255 255
0.0578985   4.24397  0.484355 255 255 255
0.104323  4.16546 0.599444 255 255 255
-0.780536    3.3905  0.609414 255 255 255
-1.47298  3.64196 0.892629 255 255 255
-1.95291  4.28385 0.868646 255 255 255
-1.32119  5.33397 0.639199 255 255 255
-0.293639    4.1497  0.602209 255 255 255
0.121084  4.16287 0.589707 255 255 255
0.0615329   3.76121  0.612544 255 255 255
0.154677  4.06269  0.55216 255 255 255
-1.15167  5.08004 0.626465 255 255 255
 -1.1527  5.13803 0.610465 255 255 255
-1.30551   4.3281 0.736604 255 255 255
-0.522909   4.56743  0.422151 255 255 255
0.0189168   3.70113  0.638771 255 255 255
-0.538784   3.27835  0.827345 255 255 255
-0.701891   4.99612   0.32192 255 255 255
-0.855272   4.32264  0.536069 255 255 255
 -1.2575  4.89995 0.648823 255 255 255
-0.800098   3.61569  0.592569 255 255 255
-0.640615   4.99672  0.325505 255 255 255
-0.351794   4.49122  0.532733 255 255 255
0.142438  3.98018 0.542188 255 255 255
-2.45623  4.60911 0.889239 255 255 255
-0.00716986     4.02737    0.559894 255 255 255
-0.268091   4.01141  0.598645 255 255 255
0.125275  3.82892 0.571647 255 255 255
0.0144238   4.04418  0.556457 255 255 255
-0.796372   3.85985  0.675073 255 255 255
-0.499081   2.85684  0.968107 255 255 255
-0.135437   3.45137  0.747677 255 255 255
-1.35707   4.2467 0.752444 255 255 255
-0.525796   3.37004  0.792733 255 255 255
-0.154822   4.00328  0.563773 255 255 255
-0.247198   3.95098  0.626921 255 255 255
0.0811128   4.12936  0.612369 255 255 255
-0.542535   3.63613  0.750965 255 255 255
0.143225  4.15036 0.591394 255 255 255
-0.647795   2.80529  0.881038 255 255 255
-0.104115   3.63235  0.665443 255 255 255
  -1.979  4.30493 0.860437 255 255 255
-1.69117  4.43037 0.731608 255 255 255
0.0589192   4.09397  0.594048 255 255 255
-1.42865  4.31639 0.743428 255 255 255
-0.543626   3.39829  0.800768 255 255 255
-0.244575   3.61384  0.658267 255 255 255
-0.0810723    3.90709   0.585848 255 255 255
-0.530263   4.62379  0.409617 255 255 255
0.100208  3.88287 0.581104 255 255 255
-1.37539  3.97554 0.673072 255 255 255
-0.0108828    3.75636   0.642481 255 255 255
 -1.5887  3.80421 0.845727 255 255 255
-0.631845   5.02081  0.387202 255 255 255
0.111116  3.96925 0.541409 255 255 255
-1.16031  3.25916  1.05509 255 255 255
-0.530638   3.27991  0.802049 255 255 255
0.116859  3.98342 0.541389 255 255 255
-0.111132   3.80708   0.63089 255 255 255
0.109386  3.88308 0.562161 255 255 255
-0.504941    2.8774   1.00202 255 255 255
-0.139934   3.79646  0.630321 255 255 255
-0.160251    3.8586  0.624478 255 255 255
0.290124  3.95241 0.597599 255 255 255
-1.55024    4.352 0.670581 255 255 255
-1.61996  4.61213 0.725017 255 255 255
-0.517549   2.97543  0.944862 255 255 255
-0.919402   3.76664  0.657989 255 255 255
-0.842278   4.35918  0.576193 255 255 255
-2.06043  4.71989 0.816028 255 255 255
-0.316254   4.60422  0.400119 255 255 255
-1.21036   4.9473 0.639714 255 255 255
-0.0509247    3.94205   0.586611 255 255 255
-1.12096   3.8777 0.573911 255 255 255
0.302726  3.89365  0.60199 255 255 255
-0.070573   4.18674  0.614967 255 255 255
-2.47255  4.60465 0.942475 255 255 255
-0.836514   3.80537  0.674068 255 255 255
-0.461114   3.27312  0.848895 255 255 255
-0.598778   5.02411  0.395258 255 255 255
-0.542328   4.59067  0.422167 255 255 255
-1.29697  4.89476  0.64884 255 255 255
-0.824776   3.79218  0.694816 255 255 255
0.101319  3.87683 0.563832 255 255 255
-0.322303   4.41529  0.538768 255 255 255
-2.16348  4.26306 0.902966 255 255 255
-1.20108  4.75422 0.651312 255 255 255
-0.106817   3.77293  0.636718 255 255 255
-0.864347   5.13404  0.354865 255 255 255
-0.178724   3.48431  0.708468 255 255 255
-0.739468   3.75729  0.695938 255 255 255
-0.0140073    3.91586   0.603305 255 255 255
0.0106535   4.20275  0.528535 255 255 255
-1.86889   4.3256 0.860886 255 255 255
-0.534855   4.19296  0.593349 255 255 255
-0.142804   3.71566  0.644149 255 255 255
   0.162  4.06871 0.550181 255 255 255
0.134253  3.96716 0.554694 255 255 255
-0.703006   3.39201   0.79196 255 255 255
-2.01006   4.1437 0.897464 255 255 255
0.0982848   3.94348  0.554921 255 255 255
-0.87367  4.55629 0.547945 255 255 255
-0.146879   4.00614  0.570816 255 255 255
-0.367746   4.04178  0.371978 255 255 255
-0.227453   3.76073  0.636147 255 255 255
-0.533717   4.20177  0.330001 255 255 255
-0.45019  3.51092 0.774116 255 255 255
-1.38117  4.02592  0.72853 255 255 255
0.0892047    4.1626  0.604183 255 255 255
-1.02366  3.74715 0.685089 255 255 255
-1.42664  4.37988 0.729408 255 255 255
-0.676247   3.39359  0.784131 255 255 255
-1.30065  3.87027 0.710188 255 255 255
-2.45223  4.56811 0.928788 255 255 255
-0.0665923    4.14292   0.612986 255 255 255
-1.20119   4.1543 0.629497 255 255 255
0.174774   3.6668 0.657678 255 255 255
0.0122122   4.18659  0.525342 255 255 255
0.0579934   4.17074  0.627755 255 255 255
-0.0181857     4.0799   0.585264 255 255 255
-0.239018   3.71622  0.640305 255 255 255
-0.637913   3.05005  0.896187 255 255 255
-1.17722  4.94538 0.636729 255 255 255
-0.87045  3.74853 0.614735 255 255 255
0.0194632   3.92151  0.595805 255 255 255
-0.392535   4.13162  0.619761 255 255 255
0.0737123   4.16293  0.615734 255 255 255
-0.180321   4.07637  0.549873 255 255 255
0.0404885   3.83907  0.576102 255 255 255
-0.0775335    3.77441   0.645144 255 255 255
-0.479927   4.74376  0.367759 255 255 255
-0.292304   3.30292   0.79379 255 255 255
-0.371183   4.47358  0.539039 255 255 255
-0.253076   3.66512  0.652602 255 255 255
-0.494698   4.79237  0.376269 255 255 255
-0.990983   3.62748  0.625577 255 255 255
-1.17146  5.02695 0.626571 255 255 255
-0.779087   4.00236  0.649264 255 255 255
0.10007 3.61498 0.66062 255 255 255
0.170082  3.56542 0.699177 255 255 255
 -1.1483  4.95265 0.626008 255 255 255
 -2.1735  4.44032 0.851058 255 255 255
0.0169908   3.67196  0.674002 255 255 255
-1.16032   4.9365 0.637254 255 255 255
-0.309524   3.05126  0.927156 255 255 255
-0.0402809    3.92969   0.592033 255 255 255
-0.488361   4.78763  0.379605 255 255 255
-0.395326   4.58714  0.411818 255 255 255
-0.911181   4.01339  0.444446 255 255 255
0.0963089   4.07173  0.562773 255 255 255
-0.819266   3.65606  0.574464 255 255 255
0.0122259   3.59814  0.692908 255 255 255
0.109183  3.80397 0.590036 255 255 255
-0.141114   3.46432  0.724761 255 255 255
-0.496856   2.96316   0.90368 255 255 255
0.210075  4.07523 0.541876 255 255 255
-1.72724  4.15264 0.791312 255 255 255
-0.338195   3.22474  0.677122 255 255 255
0.145298  3.97234 0.545569 255 255 255
-0.0458444    3.59824   0.703079 255 255 255
-0.512038   4.56086  0.417457 255 255 255
0.0878391   3.53886  0.689464 255 255 255
0.0430594   3.89973    0.5924 255 255 255
-0.214575   3.47729  0.713508 255 255 255
-0.0445178    4.04386   0.556245 255 255 255
 -1.1641  4.94611 0.636643 255 255 255
-1.53147  3.72217 0.856811 255 255 255
0.146697  4.08957 0.582267 255 255 255
0.123778  4.05039 0.566638 255 255 255
0.109665  3.98559 0.564153 255 255 255
-0.603845   4.99876  0.333207 255 255 255
-0.239602   3.92623   0.60376 255 255 255
-0.765664   3.83702  0.652653 255 255 255
 -1.6127  4.59915 0.740497 255 255 255
-0.187616   3.73288  0.639679 255 255 255
-0.865573   4.62517  0.538552 255 255 255
-0.811216   3.42473  0.751415 255 255 255
-0.233896   3.46048  0.717452 255 255 255
-1.55244  4.24161 0.705362 255 255 255
-0.71077  3.76358 0.693328 255 255 255
-1.31707  4.32858 0.733571 255 255 255
-1.71789  4.27195 0.696665 255 255 255
-1.23304  4.89727 0.656948 255 255 255
-1.23344  4.64401 0.673959 255 255 255
-0.480017   3.43058  0.763363 255 255 255
-1.71258  5.00468 0.443053 255 255 255
-0.140428   4.26633  0.481258 255 255 255
-0.936538   3.70658  0.612531 255 255 255
-0.681614   4.64484  0.415066 255 255 255
-0.136561   3.93211  0.581059 255 255 255
-0.533085   2.79677   1.02919 255 255 255
0.189087  3.63959  0.66313 255 255 255
-0.0221967    3.73784   0.656438 255 255 255
-0.245428   4.19891  0.583374 255 255 255
-0.162191   3.63823  0.682719 255 255 255
-0.126581   4.12698  0.564247 255 255 255
-2.44675  4.46877 0.948013 255 255 255
-0.109303   4.09688  0.541482 255 255 255
-1.14359  3.80024 0.612801 255 255 255
-1.67281  3.94787 0.841677 255 255 255
 0.11022  3.79454 0.592595 255 255 255
0.0726423   3.89774   0.55996 255 255 255
-0.804704   3.45609  0.752282 255 255 255
-0.422698   3.03533  0.838396 255 255 255
-0.213725   3.87227  0.612347 255 255 255
-0.0912116    3.76927   0.634386 255 255 255
-0.220231    3.6735  0.650927 255 255 255
-0.254073   3.63463  0.674376 255 255 255
0.228673  3.96546 0.562174 255 255 255
-2.46308  4.53936 0.937958 255 255 255
0.069682  4.24143 0.594715 255 255 255
-0.776966   3.95435  0.481808 255 255 255
-0.0617228    3.87546   0.611553 255 255 255
-0.385181   4.58877  0.410988 255 255 255
-0.415017   4.50161  0.523086 255 255 255
 -1.4842  4.41731 0.731726 255 255 255
-1.27354  4.04294   0.6661 255 255 255
-0.435069   2.91912  0.915747 255 255 255
-0.0508171    4.08092   0.526395 255 255 255
-0.94506  3.94276 0.450865 255 255 255
-0.0754662    3.63848   0.670849 255 255 255
-0.673878   4.59856  0.426939 255 255 255
-2.02517  4.74466 0.807317 255 255 255
-0.263618   3.39825  0.748284 255 255 255
-0.0632319    3.73021   0.648316 255 255 255
-0.0435309    3.86001   0.613768 255 255 255
-0.701961   4.62951  0.427663 255 255 255
-0.25422  4.55478 0.320588 255 255 255
-1.22485  4.98832 0.637902 255 255 255
-1.57087  4.98756 0.658976 255 255 255
0.176302  4.02666 0.556493 255 255 255
-0.525315   4.20657  0.331454 255 255 255
0.216815  4.07695 0.515887 255 255 255
-1.71046  4.26218 0.787289 255 255 255
-0.851289   5.28795  0.355878 255 255 255
-0.259195   4.21348  0.595507 255 255 255
 -0.5555  4.72697 0.376079 255 255 255
-2.40585  4.66854 0.922642 255 255 255
-0.695092   2.76099   0.88009 255 255 255
-1.21781  4.74738 0.654817 255 255 255
-1.60929  4.65478 0.724987 255 255 255
-2.39943  4.70052 0.919529 255 255 255
-1.50429  4.67079 0.706693 255 255 255
-1.52285  4.81697 0.677722 255 255 255
-0.42879  3.26286 0.717725 255 255 255
0.086508  3.89948 0.558268 255 255 255
-0.156421   3.87486  0.609041 255 255 255
0.0205256   4.14878   0.53602 255 255 255
-0.0262611    4.21657   0.516789 255 255 255
0.289667  3.93595 0.596897 255 255 255
-0.188723   3.44939  0.736166 255 255 255
-0.89025   4.0287 0.466175 255 255 255
-0.364474   4.48039  0.536645 255 255 255
-1.75858  4.56061 0.751499 255 255 255
-0.192091   3.86413  0.624213 255 255 255
-2.51225   4.4742 0.970956 255 255 255
-1.70102  4.08257 0.828471 255 255 255
0.0782122   4.03986  0.565136 255 255 255
-0.211371   3.77208  0.632476 255 255 255
-0.210478   4.06876  0.604479 255 255 255
-0.0757463    3.87395   0.611902 255 255 255
0.0359676   4.16065  0.512204 255 255 255
-0.191744   3.91926  0.598627 255 255 255
0.025329  3.95313 0.585403 255 255 255
-0.66668  2.76192  0.89228 255 255 255
-0.868351   4.52596  0.555116 255 255 255
 -1.7026  4.48696 0.759302 255 255 255
-0.0883133    3.87596   0.603697 255 255 255
-0.936592   3.91845   0.46739 255 255 255
-0.775659   4.69369  0.468396 255 255 255
-2.08938  4.65804 0.796646 255 255 255
-0.280546   4.15104  0.612482 255 255 255
-2.01121  4.37266 0.854297 255 255 255
-1.50246   4.4089 0.735998 255 255 255
-1.86088  4.61253 0.778312 255 255 255
-0.247313   4.07212  0.606279 255 255 255
-0.0419756    3.98127   0.575899 255 255 255
-2.00086  4.77248 0.795904 255 255 255
-0.783081   3.96646  0.650917 255 255 255
-2.42371  4.65165 0.932358 255 255 255
-2.18364  4.34116 0.857027 255 255 255
-0.550457   2.96199  0.951252 255 255 255
-2.44363  4.53654 0.949178 255 255 255
-2.4554 4.53586 0.94476 255 255 255
-1.10993  5.44285 0.669605 255 255 255
-1.27759  5.03377 0.553675 255 255 255
-1.01101   3.6919 0.530648 255 255 255
-0.933254   3.91084    0.4554 255 255 255
-0.848808    3.3112  0.691998 255 255 255
-0.492413   3.76177  0.671563 255 255 255
0.0141907   3.84282  0.606687 255 255 255
0.273552  3.89823 0.591009 255 255 255
-0.942386   3.64895   0.60947 255 255 255
-0.647854   4.91825  0.336573 255 255 255
0.202683  3.86293 0.595057 255 255 255
-1.31667  4.94086 0.654841 255 255 255
-0.267076   3.38439  0.754587 255 255 255
-0.341802   4.41983  0.536423 255 255 255
0.0582652    3.8863  0.575424 255 255 255
-0.960265   3.63134  0.619592 255 255 255
-0.238202   4.15614  0.605496 255 255 255
-1.01532  3.65273 0.641727 255 255 255
-1.68738  4.96302 0.435925 255 255 255
-0.125815   4.38376  0.560288 255 255 255
0.100347  4.08414 0.590329 255 255 255
-2.39338  4.66934 0.923653 255 255 255
-0.122438    3.4499  0.737003 255 255 255
-0.125107   3.45684   0.74391 255 255 255
-0.669614   4.22466  0.598811 255 255 255
-0.262714    3.4294  0.726347 255 255 255
-2.00583  4.80407  0.78815 255 255 255
0.107788  4.01408 0.565422 255 255 255
-0.69048  2.71816 0.896194 255 255 255
0.153602  3.97752 0.561223 255 255 255
-0.278078   3.38773  0.765532 255 255 255
0.0117102   3.65738  0.682589 255 255 255
-0.480349   4.46368  0.321024 255 255 255
-1.28465   4.7546 0.663862 255 255 255
0.182423  3.67264 0.656532 255 255 255
-0.594054   4.62044  0.407364 255 255 255
-0.712082   4.10705  0.620921 255 255 255
-2.44295  4.61157 0.933267 255 255 255
-0.562282   3.06628  0.895375 255 255 255
-0.629298     3.117  0.860439 255 255 255
-0.0889046    3.93029   0.581263 255 255 255
-0.92828  3.33782 0.556764 255 255 255
-2.01595  4.17231 0.887601 255 255 255
-0.348272   3.69939  0.612725 255 255 255
-0.323479   3.47343  0.755137 255 255 255
-0.193738    4.0345  0.590555 255 255 255
-1.55383  3.78598 0.825974 255 255 255
-0.942129   3.94962  0.457007 255 255 255
-0.100397   3.88793  0.605897 255 255 255
-1.01679  3.75837 0.647623 255 255 255
-0.085887   3.65822  0.680953 255 255 255
0.0523877   3.90043  0.582566 255 255 255
-0.396148   4.05947  0.625466 255 255 255
-1.91808  4.31527 0.860682 255 255 255
-2.14056  4.44318 0.863882 255 255 255
0.0407625   4.01504  0.564292 255 255 255
0.0840685   4.19988  0.604274 255 255 255
-0.778801    4.4267  0.561775 255 255 255
-2.44901  4.56283 0.940225 255 255 255
-0.0499729    4.04846   0.552299 255 255 255
-0.103548   4.11391  0.564074 255 255 255
0.092692  3.61432  0.65901 255 255 255
-0.575908   4.49155  0.348031 255 255 255
0.165662  4.14925 0.586635 255 255 255
-1.08988  4.78957 0.553701 255 255 255
  -1.571   3.9929 0.823349 255 255 255
-0.511568   4.19214  0.592339 255 255 255
-0.156015    3.3783  0.677354 255 255 255
0.189094  3.66645 0.657314 255 255 255
-1.59855  4.57424   0.7078 255 255 255
-0.122497   4.08808  0.531981 255 255 255
-0.689186   2.69141  0.913652 255 255 255
0.194391  4.11535 0.540401 255 255 255
-2.03244  4.14342 0.894128 255 255 255
-0.117619   4.08528  0.521546 255 255 255
-0.145677   3.41752  0.721316 255 255 255
-0.305921   3.36407  0.783414 255 255 255
-1.72026   4.5493 0.749698 255 255 255
0.112705  4.06179  0.56207 255 255 255
-0.542688   3.49091  0.565506 255 255 255
-1.28613   3.8792   0.7038 255 255 255
-0.0912147     4.1689   0.618849 255 255 255
-2.46815    4.679 0.950441 255 255 255
-0.117695   3.82822  0.635285 255 255 255
-0.822818   4.68702  0.477728 255 255 255
-0.356145   4.77096  0.351297 255 255 255
-1.57094  4.48414 0.740036 255 255 255
-0.73736  3.77992  0.48988 255 255 255
-2.43241  4.46927 0.952595 255 255 255
-0.214799   3.93147  0.609089 255 255 255
-1.21323  5.08032 0.629467 255 255 255
-1.01729  3.64668 0.633999 255 255 255
-0.959869   3.94574  0.467938 255 255 255
0.00065893    4.06591   0.580187 255 255 255
0.155681  4.02327 0.557411 255 255 255
0.0996625   3.64063  0.651102 255 255 255
-0.892025   3.78221  0.676687 255 255 255
-2.40208  4.73576 0.916308 255 255 255
-1.71874  4.28026 0.708093 255 255 255
0.0448546   4.00812  0.569858 255 255 255
-0.808489   4.12267  0.450067 255 255 255
0.0831286   4.04591  0.566372 255 255 255
-0.0723912    4.15008   0.609192 255 255 255
-0.897634   4.02419  0.464631 255 255 255
-0.714987   3.78569  0.689589 255 255 255
-2.17443  4.33611 0.863556 255 255 255
-0.834754   3.29762  0.702876 255 255 255
-1.57627   4.0061 0.811854 255 255 255
-1.96595  4.34082 0.849945 255 255 255
-1.56551  3.81219 0.798689 255 255 255
0.102533  4.09618 0.594403 255 255 255
-0.228878   3.83177  0.609108 255 255 255
-1.46057  4.28628 0.675729 255 255 255
0.00628531     4.0384   0.560625 255 255 255
0.128153  3.98861 0.567193 255 255 255
-0.0539994    4.12397   0.604977 255 255 255
 -1.9201  4.84511 0.775273 255 255 255
-1.20185  4.11788 0.645893 255 255 255
-0.863038   4.01797  0.438086 255 255 255
-0.143649   4.11252   0.56798 255 255 255
-1.53179   4.2639 0.708949 255 255 255
-0.946294    3.7179  0.629753 255 255 255
-2.01224  4.15541 0.900472 255 255 255
 -1.5239  3.76864 0.857349 255 255 255
 -2.3575  4.81982 0.912365 255 255 255
-1.44965  4.28359 0.676995 255 255 255
-0.987432   3.75933  0.699551 255 255 255
-1.61337  4.62823 0.724834 255 255 255
-0.325922   3.30642  0.701177 255 255 255
-0.851162   5.22263   0.33511 255 255 255
0.00874289    4.22864   0.482777 255 255 255
-1.15449  5.33061 0.632345 255 255 255
-2.02249  4.14137 0.895452 255 255 255
0.0627517   4.18216  0.622712 255 255 255
-1.46702  4.02222  0.81036 255 255 255
-0.0208188    3.55242   0.720583 255 255 255
-0.607803   3.04782  0.879741 255 255 255
-1.10018   5.2352 0.611973 255 255 255
-0.517628   3.44666  0.786993 255 255 255
-0.690372   4.59648  0.423313 255 255 255
0.238955  3.64759 0.677979 255 255 255
-0.796372   4.53821  0.542512 255 255 255
0.402283  2.23221  1.29519 255 255 255
0.217804  1.52289  1.63955 255 255 255
0.572447  1.76583  1.56668 255 255 255
0.305138  2.38508   1.2465 255 255 255
0.242427  1.61001  1.58485 255 255 255
-0.513383   1.98215   1.29932 255 255 255
0.771483  1.38257  1.71383 255 255 255
0.260705  1.29353  1.76486 255 255 255
-0.850468   1.67065   1.55384 255 255 255
0.339108  1.46665  1.67065 255 255 255
-0.0640523    1.38902    1.68929 255 255 255
0.0705149   1.45596   1.66327 255 255 255
0.55578 2.31628 1.29473 255 255 255
0.410146  2.08983  1.37543 255 255 255
0.935269  1.40195  1.73015 255 255 255
0.419626  1.41657  1.71479 255 255 255
0.727822  1.93196  1.49125 255 255 255
-0.178973   1.21023   1.76414 255 255 255
0.59911 1.54509 1.65035 255 255 255
0.348988  2.03096  1.42486 255 255 255
0.072524  1.20805  1.79083 255 255 255
0.725348   1.9002  1.51181 255 255 255
0.420621  2.25223  1.27993 255 255 255
-0.719057   2.44962   1.13467 255 255 255
0.620341  2.00811  1.45097 255 255 255
1.07448 1.32054 1.84196 255 255 255
0.596752  1.49515  1.67038 255 255 255
0.850771  1.35942  1.74011 255 255 255
0.399186  2.05146  1.41529 255 255 255
-0.129177    1.2975   1.74442 255 255 255
0.452071  2.41684  1.23825 255 255 255
-0.0327926    1.95176    1.26947 255 255 255
0.496808  2.13043  1.37682 255 255 255
0.534839  1.47133  1.68048 255 255 255
0.996311   1.4569  1.74954 255 255 255
0.870931  1.63657  1.59284 255 255 255
0.575127  2.15422  1.36908 255 255 255
0.86314 1.39652 1.72081 255 255 255
0.692914  2.07677  1.42779 255 255 255
0.469458  1.82845  1.52828 255 255 255
-0.2189 1.27212 1.75239 255 255 255
-0.817576   1.28948   1.76506 255 255 255
0.432714  2.44685  1.20264 255 255 255
0.46327 2.44928 1.23112 255 255 255
0.349815  2.53022  1.17293 255 255 255
0.418465  1.45414  1.70059 255 255 255
0.335504  2.47018  1.18342 255 255 255
1.07019 1.46582 1.76858 255 255 255
-0.482742   1.05546   1.85486 255 255 255
0.380132  1.38389  1.72235 255 255 255
0.803713  2.09902  1.43015 255 255 255
0.401995  1.43894  1.70491 255 255 255
0.61734 1.64481 1.60375 255 255 255
0.823086  2.12829  1.41461 255 255 255
-0.667225   2.33408   1.08244 255 255 255
0.481235  2.58615  1.15814 255 255 255
-0.260563   1.16239   1.79322 255 255 255
0.990624  2.15175  1.43209 255 255 255
0.669319  1.90298  1.50722 255 255 255
0.136993  2.43694   1.1698 255 255 255
0.382583  1.35745    1.735 255 255 255
0.484324  2.33099  1.28447 255 255 255
0.491511  1.46084   1.6819 255 255 255
0.0411952   2.55369   1.08203 255 255 255
0.304061  1.51185  1.65098 255 255 255
1.03956 1.62722 1.67731 255 255 255
-0.700445   1.92904   1.29729 255 255 255
0.702073  1.83044  1.53853 255 255 255
0.276213  2.45836  1.20829 255 255 255
0.250349  1.23597  1.80036 255 255 255
-0.706365   2.33859   1.10379 255 255 255
0.532302  1.44873   1.6836 255 255 255
0.309361  2.17827  1.34598 255 255 255
-0.875888   2.04316   1.38284 255 255 255
0.274274   1.2546   1.7933 255 255 255
0.538651  1.52433  1.65602 255 255 255
0.00588166    1.44849    1.67383 255 255 255
0.69216 1.94978 1.48235 255 255 255
0.569403  1.49236  1.67202 255 255 255
0.66931 2.07722 1.43086 255 255 255
0.560428   2.4101  1.25173 255 255 255
0.128433  2.29783  1.28625 255 255 255
0.124699  2.47537  1.17612 255 255 255
-0.220772   2.10907    1.3653 255 255 255
-0.212533   2.50868   1.02594 255 255 255
0.570254  1.51246  1.65579 255 255 255
0.0684373   1.13007   1.84386 255 255 255
-0.298603   2.29019   1.27844 255 255 255
0.100329  2.54072  1.10405 255 255 255
0.992283  2.16617  1.41881 255 255 255
0.350519  2.33432  1.28164 255 255 255
0.178968  1.28024  1.75326 255 255 255
0.603537  1.90418  1.49646 255 255 255
0.534398  1.20219  1.83953 255 255 255
0.0760801   2.47526   1.17529 255 255 255
0.566354  1.52875   1.6534 255 255 255
0.124806  1.51398  1.62995 255 255 255
-0.820864  0.964128   1.91214 255 255 255
0.376323  2.24711  1.29417 255 255 255
0.511992  2.52377  1.19017 255 255 255
1.08755  1.4199 1.78751 255 255 255
0.100789  2.56462  1.09173 255 255 255
-0.599999   1.14267   1.81222 255 255 255
0.344182   2.5417  1.17482 255 255 255
0.0883974   2.47666   1.17911 255 255 255
0.13757 1.36091  1.7246 255 255 255
0.346747  2.46653  1.18244 255 255 255
1.07738 1.48751 1.75995 255 255 255
0.544282  2.33737  1.29198 255 255 255
0.456268  2.51445   1.1922 255 255 255
-0.281917   2.31311   1.26993 255 255 255
0.200791  1.14605  1.82683 255 255 255
-0.0600268    1.13352    1.83039 255 255 255
0.236652  2.56706  1.15908 255 255 255
0.463503  2.37007   1.2643 255 255 255
1.09459 1.34445 1.82759 255 255 255
1.08863 1.33136 1.83226 255 255 255
0.390835   2.5453  1.17253 255 255 255
0.451206  2.40652  1.24538 255 255 255
0.389987  2.60147   1.1466 255 255 255
0.192608  1.41224  1.69595 255 255 255
0.289032   1.2671  1.78298 255 255 255
-0.882703   1.81974   1.49171 255 255 255
1.09948 1.41139 1.79285 255 255 255
0.889936  1.49719  1.68633 255 255 255
0.66854 1.95459 1.48568 255 255 255
0.023424   1.4551  1.66381 255 255 255
0.751373  2.13561  1.42035 255 255 255
0.595556   1.6284  1.62582 255 255 255
-0.139097   1.19314   1.76092 255 255 255
0.73648 1.87609 1.52658 255 255 255
0.90096 1.56218 1.68062 255 255 255
-0.889711   1.74591   1.51914 255 255 255
0.29158  2.1564 1.34451 255 255 255
1.10452 1.31555 1.84128 255 255 255
0.471693  2.36726  1.26117 255 255 255
0.801242  1.32753  1.79652 255 255 255
0.0365132   1.21085   1.78445 255 255 255
-0.540951   2.05328    1.2658 255 255 255
0.135375  2.32029  1.27256 255 255 255
-0.681989   2.36041   1.10391 255 255 255
0.0608859   2.25341   1.30237 255 255 255
0.760318  2.14088  1.43122 255 255 255
0.0922622   2.57668   1.08441 255 255 255
0.282931  1.32242  2.20023 255 255 255
0.504233  1.13549  1.88149 255 255 255
0.554293  1.52481  1.65918 255 255 255
0.491219  2.28392  1.30138 255 255 255
0.521924  2.39297  1.27165 255 255 255
0.184142  1.12532  1.83764 255 255 255
-0.42019  2.51972  1.16423 255 255 255
-0.550234   1.08753   1.80656 255 255 255
-0.834278  0.990287   1.90666 255 255 255
 1.1011 1.51334 1.74502 255 255 255
0.0913565   2.56325   1.08981 255 255 255
-0.694204    1.8129   1.34836 255 255 255
0.588667  1.50921  1.66728 255 255 255
-0.197656   1.25267   1.75206 255 255 255
-0.422396   1.85037   1.25667 255 255 255
0.512702  1.44058  1.69077 255 255 255
0.176668  1.13203  1.83767 255 255 255
-0.816472   0.96479   1.92662 255 255 255
0.345894  1.32463  1.74512 255 255 255
0.710662   1.9583  1.47466 255 255 255
1.09494 1.31161 1.84444 255 255 255
1.09298 1.46472 1.76668 255 255 255
-0.422911   1.85913   1.26048 255 255 255
1.10996 1.50123 1.75211 255 255 255
0.102777  2.46527  1.18688 255 255 255
0.762477  2.05923  1.45186 255 255 255
-0.282383   2.25272   1.08182 255 255 255
0.313569   2.4628  1.20599 255 255 255
0.240895  2.26767  1.29554 255 255 255
0.523143  1.47268  1.68126 255 255 255
0.69516 1.92221  1.4949 255 255 255
-0.118806   1.30555   1.74285 255 255 255
0.46604 1.23167 1.81408 255 255 255
-0.0997074    1.18936    1.80372 255 255 255
0.220202  1.62425  1.59086 255 255 255
0.218573  2.36287  1.24532 255 255 255
-0.00956215     1.08174     1.85203 255 255 255
0.473665  1.22638  1.81468 255 255 255
-0.217046   1.13691   1.82031 255 255 255
0.586005   1.6259  1.62466 255 255 255
0.506522  1.42526  1.70312 255 255 255
0.982161  1.38987  1.78598 255 255 255
1.06807 1.44256 1.77737 255 255 255
1.12108 1.32859 1.83802 255 255 255
-0.177663   1.23231   1.75514 255 255 255
0.397853  2.53444  1.16925 255 255 255
-0.0777496    1.98514    1.25621 255 255 255
 1.0716 1.34269 1.82876 255 255 255
1.15659  1.3471 1.81996 255 255 255
0.403305   1.4226  1.71325 255 255 255
1.08057 1.39649  1.7986 255 255 255
0.778625  2.13135  1.41807 255 255 255
 1.0837 1.44965 1.77744 255 255 255
0.88105 1.45946 1.69309 255 255 255
0.300607  1.23279  1.79334 255 255 255
0.171591  1.08755  1.85479 255 255 255
1.00567 1.47658 1.74265 255 255 255
0.469125  1.21029  1.81323 255 255 255
0.394325  1.32877  1.75116 255 255 255
0.231464  1.74337   1.5152 255 255 255
0.441371  1.88237  1.50137 255 255 255
-0.0634384    3.11546   0.906487 255 255 255
-1.29715  2.62887  1.03516 255 255 255
-0.272983   3.07885  0.912983 255 255 255
0.158718  3.24307 0.833809 255 255 255
-1.25685  2.64323  1.02602 255 255 255
 0.27144  3.18108 0.855644 255 255 255
-1.00437   3.2608 0.692397 255 255 255
0.177324  3.10469 0.901787 255 255 255
0.243913  2.99497 0.937308 255 255 255
0.235365  3.15629 0.870789 255 255 255
0.239724   2.8424  1.01235 255 255 255
0.24337 2.85737 1.00374 255 255 255
0.176657  2.97387 0.977618 255 255 255
0.214669  2.91851 0.976884 255 255 255
0.220266  3.10735 0.886101 255 255 255
0.160793  2.84649  1.02489 255 255 255
0.131876   2.8489  1.02342 255 255 255
0.191305  2.86415  1.01585 255 255 255
0.169175  3.19735 0.863636 255 255 255
 0.13542  3.30896 0.794183 255 255 255
0.141941  3.64038 0.666769 255 255 255
 0.14866  3.03401 0.942353 255 255 255
-1.22856  2.59078  1.06434 255 255 255
0.266121  3.15048 0.861681 255 255 255
0.181431  3.03047 0.936994 255 255 255
-1.07541  2.72073  0.97094 255 255 255
0.174026  2.93414 0.987969 255 255 255
0.196189   2.9907 0.948045 255 255 255
0.236836  2.88712 0.988626 255 255 255
-1.23392  2.55834  1.07556 255 255 255
-1.26442   2.6338  1.02618 255 255 255
-0.702836   2.67056  0.991514 255 255 255
0.0924229   3.20111   0.86668 255 255 255
0.176508  3.14624 0.879104 255 255 255
0.24821 3.08305 0.89328 255 255 255
-1.28746  2.63917  1.03049 255 255 255
-0.449186   3.26586  0.842044 255 255 255
0.225738  2.95553 0.955556 255 255 255
0.225387  2.95536  0.95539 255 255 255
0.181626  2.95545 0.961855 255 255 255
-0.446703   3.30646  0.850498 255 255 255
0.165481  3.04208 0.943197 255 255 255
0.212976  2.87092   1.0063 255 255 255
0.076447  3.27874 0.833143 255 255 255
-0.810038   3.32342  0.802634 255 255 255
0.0529852   3.32138  0.814064 255 255 255
0.113443  3.23788 0.838681 255 255 255
0.0845763   3.55096  0.700189 255 255 255
0.180845  3.56863 0.700232 255 255 255
-0.479151   3.23028  0.860252 255 255 255
-0.443301   3.40797  0.769985 255 255 255
0.191153     2.96 0.962097 255 255 255
 0.21115  2.94021 0.967459 255 255 255
0.230002  3.53398 0.714321 255 255 255
-0.718364   2.66894  0.987132 255 255 255
-0.718577   2.65291  0.989741 255 255 255
0.0995642   3.57911  0.688277 255 255 255
0.0724051   3.63779  0.668456 255 255 255
0.153264  3.05796 0.936466 255 255 255
0.217401  3.55151 0.706443 255 255 255
0.20715 3.12801 0.87873 255 255 255
0.230611  3.01713 0.926846 255 255 255
0.236875  3.17764  0.85461 255 255 255
-0.720175   2.68331  0.984119 255 255 255
0.206887  3.05717 0.912489 255 255 255
-0.490472   3.23858  0.854819 255 255 255
 0.21209  3.17408 0.854607 255 255 255
 0.12022  3.31631 0.799318 255 255 255
0.197032  3.03562 0.926011 255 255 255
-0.726649   2.72935  0.964296 255 255 255
0.106062  3.15228 0.887741 255 255 255
0.195853  2.82578  1.03583 255 255 255
0.0992656   3.25022  0.840325 255 255 255
-0.700219   2.71584  0.958161 255 255 255
0.0932699   3.29508  0.818395 255 255 255
0.224441  3.03167 0.923923 255 255 255
-0.447582    2.9854  0.957602 255 255 255
-0.696025   2.68203  0.989583 255 255 255
0.0798163   3.31927  0.810345 255 255 255
-0.459068   3.13083  0.895058 255 255 255
0.0978666   3.64164  0.665866 255 255 255
0.158747   3.1345 0.882077 255 255 255
-0.73112  2.67626 0.984228 255 255 255
-0.721684   2.74701  0.956093 255 255 255
-0.924677   3.28996  0.761878 255 255 255
-0.480408   3.23976  0.855311 255 255 255
0.0583346   3.47698  0.746126 255 255 255
0.218824  3.20363 0.838155 255 255 255
-0.694054   2.71768  0.965608 255 255 255
0.171561  3.68026 0.650282 255 255 255
-0.470424   3.28979  0.836199 255 255 255
0.163587  4.17245 0.591584 255 255 255
-0.0329966    3.66597   0.680802 255 255 255
0.0818781   3.73657  0.630896 255 255 255
0.159171  3.88277  0.59315 255 255 255
-0.178141   4.00047  0.568275 255 255 255
-0.0894173    4.12694   0.612686 255 255 255
-0.429989   4.06292  0.609696 255 255 255
0.103795  3.91184 0.569442 255 255 255
0.259363    4.197 0.639856 255 255 255
0.267058  3.81744 0.621756 255 255 255
-0.233846   4.05804  0.561189 255 255 255
0.258746  4.11084 0.551494 255 255 255
0.0844955    3.7924  0.593111 255 255 255
-0.908446   4.50811  0.561537 255 255 255
-0.127239   3.82038  0.629712 255 255 255
0.178616  4.36688 0.521836 255 255 255
0.20297 3.86954 0.59417 255 255 255
-0.897546   3.79835  0.687983 255 255 255
0.102625  3.59488 0.677797 255 255 255
0.277566  3.77891 0.626844 255 255 255
0.201834  4.00826 0.570713 255 255 255
0.0908454   4.14023  0.602366 255 255 255
0.0979436   4.01871  0.573954 255 255 255
0.208795  4.09812 0.550684 255 255 255
0.0944153   3.56408   0.68264 255 255 255
0.312577  3.93153 0.604595 255 255 255
0.154016  3.53467 0.706885 255 255 255
-0.440298   4.64915  0.365027 255 255 255
-0.0874081    4.17284   0.563956 255 255 255
-1.27458  4.89985  0.64935 255 255 255
0.177209  3.74606 0.626917 255 255 255
0.0780773    4.0042  0.576218 255 255 255
-0.608065   4.98909  0.326671 255 255 255
-0.237761    3.8386  0.621843 255 255 255
-0.28818  4.17735 0.605735 255 255 255
0.262021  3.98553 0.581544 255 255 255
-0.583747   4.74752  0.379163 255 255 255
0.299627  3.68571 0.660164 255 255 255
0.305375  4.05533 0.539432 255 255 255
-0.0602164    4.02352   0.565842 255 255 255
-0.245449   3.79326  0.647338 255 255 255
0.0390967   3.62785  0.685481 255 255 255
0.211879  4.21488 0.616582 255 255 255
