ply
format ascii 1.0
element vertex 1200
property float x
property float y
property float z
property uchar red
property uchar green
property uchar blue
end_header
0.124123  4.25033 0.535574 147 139 126
0.469794  4.47387 0.513297 173 156 136
-0.192553   4.65533  0.372762 201 203 202
-0.107146   3.86136  0.593521 177 160 140
-0.373896    4.0702  0.580601 30 33 40
0.443059   4.5708 0.494808 105 85 61
-0.323639   4.51542  0.487573 14 17 34
 0.40376  4.46135 0.515911 173 163 154
0.157419  4.04958 0.532224 167 160 141
0.377265  4.48271 0.512682 50 41 32
-0.24325  3.78381 0.605667 110 91 77
0.200693  4.10141 0.505576 90 72 48
0.0935815   4.05991  0.539935 101 75 58
-0.651362  0.130235   2.26105 129 115 86
-0.654677  0.692111   2.00721 223 206 190
-0.583858  0.355586   2.20085 102 110 86
  -0.844864 -0.00463188      2.2582 34 43 22
-0.680405 0.0702342   2.27837 115 104 82
 -0.68673 -0.024234   2.30869 11 12 14
-0.986222 -0.178755    2.3041 89 92 75
-0.673839 0.0185541   2.31815 147 137 110
-0.601994  0.443183   2.14964 25 29 14
   -1.115 0.0702247   2.08105 58 68 43
-0.653455  0.796291   1.92532 190 195 191
-0.988792  0.098397    2.1344 52 61 40
-0.724281 0.0763568   2.26532 13 13 13
-0.556578  0.127775   2.24807 15 17 14
-0.802103  0.401167   2.17415 82 90 49
-0.585169  0.223856   2.22576 28 30 29
-0.757652 0.0426233   2.27201 89 93 60
-0.803416   0.35723    2.1567 97 101 86
-0.754769  0.263722   2.17705 39 42 33
-0.870422  0.189789   2.15672 13 13 11
-0.461555  0.060883   2.29463 32 32 32
  -1.03064 -0.0555026    2.22567 81 84 67
-0.680629   0.17973   2.20793 187 168 135
-0.740679  0.298845   2.16438 116 109 90
-0.907306  0.178635   2.14338 111 106 84
-0.610888 0.0435608   2.28651 5 10 6
-0.614329  0.193685   2.21745 113 104 73
-0.610038  0.275482   2.16014 17 19 14
 -1.18488 0.0838088    2.0279 66 77 43
-0.746164  0.191912   2.15886 92 108 72
-0.593823  0.299988   2.20182 85 95 60
-0.649855  0.326315   2.13299 14 22 9
  -1.08081 -0.0416714    2.17812 34 46 32
-0.613819   0.31402   2.16172 143 133 106
-0.899333 0.0420886   2.23071 89 92 71
  -1.06372 -0.0208464    2.18035 173 178 158
   -1.03437 -0.00743121     2.18683 77 82 60
-0.594205  0.337055   2.15069 46 52 40
   -0.636985 -9.79039e-05      2.31609 33 36 25
  -0.60461 -0.0167749    2.35388 15 15 23
-0.521795  0.263244   2.18582 144 120 94
-0.821431  0.207616   2.20466 93 105 69
-0.728852 -0.121583   2.38452 179 170 155
-0.537216  0.187437   2.20239 130 136 90
-0.774329  0.044514   2.21006 35 42 24
  -1.11117 -0.0128454    2.13741 75 78 57
-0.715327  0.306455   2.18092 28 31 24
  -1.18909 -0.0592569    2.09426 208 217 212
-0.601721  0.356909   2.13876 127 127 91
  -1.15247 -0.0839523    2.15825 185 180 160
-0.485218  0.146978   2.21142 105 122 77
 -1.05964 0.0960963   2.11611 104 102 81
 -0.633176 -0.0943268    2.40629 173 176 159
-0.735753  0.108945   2.19324 48 49 41
-0.712744  0.328558   2.16561 117 112 82
-0.478488  0.109872   2.25106 100 112 74
 -1.21693 0.0328453   2.03042 205 180 140
 -1.16292 0.0496125   2.06373 196 187 158
-0.64106 0.260228  2.13786 70 78 63
-0.903323 -0.131549   2.31292 167 155 143
-1.12854  1.52329  1.52153 234 240 238
-0.575179  0.156838   2.16064 78 83 63
-0.570669  0.039177   2.30135 164 154 127
 -1.04532 0.0778543   2.13353 101 99 84
-0.752126 -0.123023   2.33809 41 42 24
  -1.19827 -0.0201127    2.07493 19 18 16
 -1.18906 0.0445861    2.0572 171 160 132
-0.605716 -0.105738   2.35435 81 75 63
  -1.19082 -0.0404231    2.10543 14 14 22
  -1.21623 -0.0487421    2.07044 17 21 30
 -1.11994 -0.058458   2.16514 78 72 50
 -1.19617 0.0541594   2.04498 177 179 158
   -1.0573 -0.0529508    2.20227 158 160 139
-0.629571  0.203093   2.18983 20 25 18
 -1.08915 0.0390315   2.12717 31 35 20
-0.550683  0.175376   2.15875 53 60 44
 -1.17884 0.0615243   2.04854 70 76 48
-0.415345  0.165291   2.29157 204 198 174
-0.508943  0.115397   2.25824 15 18 7
-0.552371  0.205032   2.20316 31 30 25
-0.839342 -0.152339    2.3307 118 101 75
 -1.11351 0.0173993   2.12207 161 153 114
  -0.608001 -0.00465847     2.31877 112 122 88
-0.783129  0.213577   2.16289 5 6 10
 -0.5502 0.322747  2.12177 13 21 8
-0.389561   0.33769   2.09562 18 21 14
  -1.14883 -0.0141585    2.11705 112 99 67
 -1.00972 -0.135549     2.275 94 88 72
  -1.21389 -0.0112211    2.06904 190 182 161
 -1.26101 0.0518587   1.96652 219 220 212
-0.857108  0.193683   2.17057 21 18 11
 -1.13923 0.0172135   2.10779 94 83 53
-0.43066 0.199677  2.17924 15 14 10
  -1.22501 -0.0552196    2.06049 222 232 233
 -1.21669 0.0201646   2.04297 199 182 152
-0.845543  -0.10318   2.30997 82 84 71
-0.463442  0.365759   2.11934 30 13 19
 -0.651025 -0.0341394    2.33928 145 140 121
-0.817933    0.0311   2.21932 125 118 74
-1.14848 0.072376  2.05941 81 79 64
  -0.589809 -0.00440483      2.3383 122 129 98
-0.938738 0.0160472   2.22788 103 96 80
-0.587534 -0.027692   2.34611 128 121 103
-0.673752  0.949287   1.39736 162 163 158
  -1.2371 -0.014226   2.01859 107 121 122
 -1.19388 0.0764746   2.00526 212 212 200
-0.953099 -0.170224   2.31588 160 140 113
 -1.16874 0.0360647   2.07715 15 18 1
 -1.22605 0.0195831   2.02727 107 106 88
-0.55095 0.336731  2.11909 107 117 83
-0.649249  0.453772   2.14708 103 103 77
 -0.777067 -0.0515106    2.29715 51 50 29
 -0.842946 -0.0347439    2.25032 98 111 68
-0.788631 -0.154623   2.37195 140 121 89
-0.970047 -0.168167   2.31083 93 86 70
  -1.23389 -0.0298132    2.03475 230 244 247
 -1.07414 -0.139648    2.2451 60 62 40
-0.545377   0.30837   2.11965 90 106 69
  -1.20204 0.00206515    2.05785 119 121 116
 -1.00282 -0.186755   2.29601 61 72 38
  -1.22601 -0.0412422    2.04159 235 240 243
  -1.2078 0.0455447   2.03571 114 112 99
 -1.08383 0.0541852    2.1266 144 135 106
-1.07377   1.5571  1.52141 192 169 161
-0.92676 0.014152  2.23518 159 141 119
 -0.896714 -0.0648672    2.28067 88 86 71
  -1.13091 -0.0388996     2.1449 133 129 100
 -0.766026 -0.0631229    2.32037 95 99 49
   -1.0391 -0.0541191    2.20639 94 96 85
-0.678287  0.869389   1.85496 174 124 99
 -0.919012 -0.0170606    2.24801 74 68 52
  -1.19894 -0.0354615    2.06641 230 234 235
-0.596958 0.0233581   2.31238 118 111 83
  -1.17744 -0.0563998     2.1094 40 30 28
 -0.993172 -0.0633986    2.25596 147 136 114
  -1.10026 -0.0134541     2.1529 125 125 99
-0.730939  0.424506    2.1497 9 8 3
-0.965591 -0.216097   2.33414 94 91 76
 -1.01097 -0.160141   2.28339 87 84 69
-0.440107 0.0396287   2.29829 170 162 143
-0.78673  0.36027  2.15219 10 12 7
    -1.0619 -0.00147999     2.16812 59 62 41
-0.394331  0.271133    2.1267 19 25 23
-0.685949  0.290558   2.14487 88 104 59
-0.617508  0.404332   2.12901 13 19 7
-0.737604   0.25878   2.17362 5 10 4
-0.54648 0.142872  2.23248 15 17 4
 -0.944512 -0.0619885    2.26717 100 92 71
 -1.27511 0.0215088   1.96243 72 78 66
  -1.18273 -0.0264015    2.09799 175 171 168
 -0.742409 -0.0728429    2.34567 109 104 82
-0.79166 -0.11497  2.31841 64 61 42
  -1.24523 -0.0556481    2.03212 177 195 197
  -1.10272 -0.0472764    2.16775 164 158 136
-0.692329  0.109382   2.26158 144 133 115
-0.982604  0.663637   2.04063 84 81 64
-0.889345  -0.18309   2.33521 102 91 73
-0.72549 0.390447  2.13015 17 22 15
-0.990619 0.0606858    2.1589 194 199 177
-0.716485   0.96364   1.25547 213 215 210
-0.660685  0.318432   2.13306 66 75 54
-0.393152  0.234643   2.13003 74 84 47
-0.76427 0.438801  2.14273 103 114 82
    -1.022 0.00418489    2.19204 163 148 117
-0.383231   1.00761   1.87649 97 96 66
 -1.26629 0.0205854   1.98235 74 78 77
 -1.08365 0.0168694   2.12666 84 111 58
 -1.00525 0.0520377   2.17179 88 80 61
-0.905365 0.0460954   2.21882 83 75 54
 -1.14666 0.0424955   2.08558 92 85 66
-0.815141  0.025141    2.2391 73 74 58
   -1.1406 -0.0825977    2.16932 117 111 89
-0.853692 0.0099058   2.24595 61 69 48
 -1.03442 -0.145462   2.25992 165 167 154
-0.810999   0.35378   2.14761 27 29 24
-0.949002 0.0240871   2.22256 156 146 119
-0.645648  0.344192   2.13728 90 102 64
-0.439582  0.141073   2.22491 41 46 26
-0.726449  0.406219   2.13174 106 114 77
    -1.23717 -0.000683543      2.02429 17 25 27
 -1.23607 0.0601036   1.98775 63 49 46
-0.499358  0.274632   2.16458 215 202 185
 -0.778312 0.00892777    2.26389 46 45 25
-0.500265 0.0354796   2.31904 54 46 33
-0.46657 0.339464  2.11084 125 109 93
  -1.09354 -0.0219274    2.16152 72 73 57
  -1.21121 0.00791573    2.05033 194 178 155
 -0.987355 -0.0300119    2.21922 174 169 149
-0.713218    0.1635   2.19304 32 40 19
-0.582886 0.0486748   2.30403 217 196 179
-0.637967 0.0390782   2.29341 61 71 44
-0.668203  0.829306   1.89408 153 153 153
 -0.921256 -0.0386542    2.26231 112 104 83
   -1.26049 -0.00872211     1.98347 242 248 246
  -1.14586 -0.0680428    2.15543 118 113 94
 -0.797342 -0.0470603    2.26695 110 127 85
 -0.891828 0.00831606    2.24698 192 188 177
-0.584748  0.335488   2.11429 21 21 11
-0.869276 0.0523814   2.21626 105 101 66
-0.380322  0.249513    2.1435 68 77 50
 -0.50203 0.0759438    2.2615 61 66 46
 -1.06951 0.0475491   2.13755 107 94 75
  -1.24605 0.00837624    1.99933 45 65 64
 -1.04515 -0.089803   2.22963 51 54 37
 -0.938569 -0.0329131    2.25406 114 105 76
  -1.16494 -0.0790858    2.14351 218 212 198
-0.648277 0.0388976   2.29709 21 24 13
-0.971584 -0.199202   2.31707 83 86 69
-0.703226   0.98926   1.18349 64 91 46
  -1.25996 0.00230409    1.98629 74 84 83
  -1.06382 -0.0335382    2.18234 168 166 153
-0.866288  0.205696   2.16606 131 128 113
-0.582383  0.107203    2.2433 123 118 96
 -1.04049 -0.153256   2.26083 13 20 2
   -0.6799 -0.0786035    2.35035 24 33 14
-0.564922  0.272208   2.21339 136 119 91
  -1.02141 -0.0407258    2.23555 113 107 91
-0.923035 -0.173565   2.33053 91 87 62
  -1.07917 -0.0727415    2.17135 42 57 18
  -1.02334 -0.0747741    2.22145 88 91 72
-0.934904 0.0323202   2.20625 104 97 78
 -1.20787 -0.029288   2.06075 42 50 53
-0.512496   0.26141   2.17065 135 113 89
 -1.15616 0.0372946    2.0812 151 146 126
-0.582495  0.244471   2.19303 62 50 38
-0.563513  0.330232   2.12013 93 104 74
-0.696897   0.41818   2.14927 95 102 69
 -1.03052 0.0325262   2.17362 93 86 68
-1.03939 -0.18483  2.27657 65 83 45
  -1.08879 -0.0909977    2.20174 88 88 78
  -0.86953 -0.0212597    2.25092 107 111 94
-0.608012  0.410217   2.12176 137 144 113
-0.701331  0.403881   2.13634 30 35 28
-0.403043  0.293031   2.11457 118 130 84
-0.704479  0.122585    2.2333 39 33 21
-0.709998  0.125091   2.24657 84 72 58
 -0.560262 -0.0113412    2.33329 109 110 79
 -0.882438 -0.0434317    2.25749 81 75 63
-0.619868  0.721187   1.99952 204 193 187
 -0.638271 -0.0932917    2.39962 180 183 164
 -1.06093 0.0348018    2.1468 75 73 58
-0.858161   0.21705   2.18295 168 154 117
-0.448021  0.308494   2.10303 80 88 67
-0.885611 -0.131109   2.31715 87 79 60
 -1.19663 0.0388311   2.04598 52 50 38
-0.601149  0.245018   2.16532 79 89 65
 -1.1337 0.007915   2.1139 104 92 70
-0.499983   1.09741    1.8133 95 93 45
 -1.17233 -0.074575   2.13075 74 76 73
-0.647599   0.36759   2.12959 90 105 64
 -0.627406 -0.0914775    2.40753 200 202 188
-0.913895 0.0526031   2.21427 167 156 128
 -0.926305 -0.0531956    2.26239 103 91 67
-0.706416   0.40918   2.12809 105 112 81
-0.442696  0.260552   2.15884 123 117 81
 -0.664246 0.00112269    2.31425 139 141 120
-0.663478  0.467572   2.10864 139 152 122
 -0.665315 -0.0394261    2.35053 36 38 27
  -0.7021 0.0867425   2.27949 53 45 34
-0.695434 0.0831445    2.2687 39 29 17
 -0.998196 -0.0299889    2.21759 114 102 80
-0.732889 -0.152285   2.41255 130 123 104
-1.17441 0.038325   2.0646 33 34 16
-0.780641   0.43915   2.13034 6 17 0
 -0.988547 -0.0107309    2.21486 97 96 78
-0.595713  0.449701   2.13536 34 36 23
   -1.24478 -0.00550537      2.0141 26 40 41
-0.598839  0.093785   2.25894 125 110 91
 -1.13779 -0.132313   2.19752 163 157 143
-0.529973  0.119381   2.25175 28 21 15
-0.392549  0.247856   2.13756 21 33 9
-0.659248  0.456143    2.1075 43 58 25
-0.737252 0.0810708   2.25755 42 42 34
-0.585006  0.471803   2.13305 147 132 103
-0.498759 0.0483965   2.31683 128 123 91
 -0.840329 -0.0940189    2.31263 94 91 72
  -1.16321 -0.0581826    2.13399 62 58 46
-0.382598  0.261257   2.13543 20 26 14
 -0.75965 0.0380069   2.21597 102 113 79
 -1.05475 -0.022674   2.17982 116 118 104
 -1.12508 -0.111104   2.19648 117 107 82
-0.375107  0.255961   2.14105 105 115 78
-0.652601  0.152431   2.19242 32 41 24
 -0.836511 -0.0373446     2.2769 84 99 66
-0.764421 -0.177659   2.40645 136 119 93
 -1.23004 0.0387189   2.01632 31 34 25
-0.436204 0.0574853   2.29886 203 191 179
-0.635891  0.194788   2.18115 85 91 65
-0.925975 0.0253091   2.22572 178 166 144
-0.550425  0.141476   2.21347 118 127 106
-0.493756  0.164963   2.19676 23 36 6
-0.455082  0.154971   2.19224 43 54 37
-0.498989  0.370541   2.18888 47 17 9
-0.837297  -0.17526   2.36654 138 123 94
-0.719637  0.445745   2.13731 163 152 124
-1.09745 -0.12087  2.21945 125 117 94
-0.73636 0.293605  2.17431 139 128 108
 -1.16636 -0.103458     2.152 43 39 30
-0.576558  0.268886   2.17826 143 131 105
-0.639398  0.304322   2.12633 107 126 70
 -1.10223 0.0526186    2.1095 71 71 47
-0.689353  0.388559   2.12727 11 17 7
-0.683091  0.964833   1.33423 197 192 189
 -0.788368 -0.0731057    2.32199 72 80 57
-0.426712     0.248   2.15039 209 198 168
-0.636049  0.135808    2.2523 119 108 78
 -0.929509 -0.0695269    2.27325 174 166 147
-0.710488  0.184345   2.19505 96 107 77
-0.403225 0.0870493   2.24687 40 50 15
  -1.22488 0.00795875    2.03051 200 203 194
-0.586178   0.12512   2.26886 128 128 100
-0.619828   0.25624    2.1588 112 123 89
-0.509841  0.320158   2.12775 128 121 93
-0.427825  0.223314   2.18094 214 198 173
 -0.462584 -0.0228806    2.28804 79 87 63
-0.383548   0.21102   2.18374 59 58 40
-0.725505  0.467202   2.14924 173 159 124
-0.635868 0.0759113   2.29599 117 115 100
-0.668105  0.371968   2.12461 35 44 25
  -1.11417 -0.0416397    2.16752 101 90 68
-0.645285  0.269829   2.13402 92 108 69
-0.674659 0.0107422   2.30508 61 54 38
-1.06087 -0.01641  2.17187 181 183 162
-0.514301  0.175687   2.18824 118 130 94
-0.403423  0.308041    2.0988 15 24 7
-0.737038 0.0496714   2.25626 15 16 2
-0.951557 -0.156154   2.31291 122 108 82
   -1.1446 0.00446447     2.1121 170 157 125
-0.716867 0.0187667   2.24777 107 122 89
 -1.01545 -0.192418   2.29435 100 98 75
-0.615183  0.468242   2.14833 80 72 49
 -1.10485 0.0753518   2.09278 87 90 73
-0.692646   0.38041    2.1162 118 130 92
  -1.14657 -0.0884803    2.16455 224 219 200
  -1.13697 -0.0617221    2.15632 200 197 180
 -1.10421 0.0397616   2.12124 169 158 128
-0.628416  0.723036   1.98616 219 203 187
-0.43696 0.299846  2.09834 92 102 78
-0.56869  0.15539  2.18149 141 147 121
-0.579259  0.258448    2.1511 43 47 24
 -0.766359 -0.0379021    2.29994 75 91 55
 -1.01322 -0.116943   2.25966 166 159 131
-0.499629   1.10693   1.80916 157 143 116
-0.996366  -0.20917   2.30536 86 79 61
-0.862165 -0.179966   2.33536 92 84 65
 -1.16862 -0.052443   2.11718 209 208 188
 -1.04496 0.0522165   2.15655 103 95 76
 -0.82215 -0.112982   2.32968 137 141 118
-0.837345 -0.125719   2.32763 143 132 102
-0.988961 0.0150983   2.20201 166 154 140
-0.493507  0.330605   2.14259 100 74 59
 -0.559525 -0.0266486    2.36447 157 142 119
-0.860688  0.143695    2.1402 34 42 18
 -0.582612 -0.0930733     2.4154 73 74 43
-0.723601   0.15401   2.18689 105 118 88
-0.413197  0.302143   2.10082 124 134 107
-0.763408 0.0185765   2.26928 63 66 35
 -0.967434 -0.0514718     2.2455 98 95 76
-0.540504  0.320091   2.12395 22 34 12
  -1.24799 -0.0278153    2.02598 18 28 30
-0.628205  0.454068   2.14055 152 141 111
-0.663192    0.8795   1.84811 214 184 158
-0.847851 -0.143114   2.33793 112 101 71
-0.438621  0.331525   2.09344 25 31 21
 -1.08445 0.0183676   2.12283 90 117 66
  -0.931721 -0.00420917     2.24181 179 168 148
-0.608947   0.13382   2.27045 108 97 69
-0.606294 0.0699387   2.27292 134 124 99
 -0.38774 0.0589366   2.30903 90 84 72
-0.465797  0.079589   2.28741 48 45 36
-0.826854 -0.114506   2.31728 67 64 47
-0.701768 -0.116472   2.39352 88 80 69
  -1.18255 -0.0645143    2.10922 151 144 136
 -0.849704 0.00258348     2.2513 76 88 64
-0.52532 0.196291  2.18445 42 41 23
  -0.558484 0.000727437     2.33865 75 64 44
 -1.07159 0.0899417   2.11879 116 102 76
-0.849954 -0.201827   2.37362 93 92 72
 -1.26295 0.0297964   1.97692 240 245 241
-0.522859  0.171529   2.19207 29 37 0
  -1.05304 -0.0607264    2.20524 161 164 143
 -0.975049 -0.0806996    2.26067 97 89 66
  -1.00133 -0.0962237    2.25351 113 102 74
  -1.2395 0.0652215   1.97826 215 211 202
  -1.03822 -0.0822257    2.22533 168 169 151
-0.749834  0.463857   2.14277 154 140 113
-0.656019  0.038412   2.29347 112 105 87
-0.746035 -0.106955    2.3347 224 224 212
 -0.907602 -0.0302969    2.25804 203 205 191
-0.857369 0.0229181   2.23498 141 144 125
-0.769513   0.40379   2.14109 91 102 68
  -1.04505 -0.0445496    2.19738 94 96 82
-1.04486 0.030014   2.1653 103 92 72
-0.611067  0.383923   2.12352 6 14 0
-0.968757 -0.215307   2.32968 79 73 59
  -1.03104 0.00512592    2.18316 50 45 26
-0.616833 -0.101817   2.41481 97 89 78
-0.697097 -0.068982    2.3235 84 98 65
 -1.13155 -0.123976   2.19534 115 108 90
 -0.907019 0.00430159    2.24189 74 72 59
-0.62084 0.141868  2.23776 120 109 81
 -1.14895 -0.122451   2.17994 81 73 60
  -1.06827 -0.0838825    2.21012 150 154 131
-0.80611  0.47005  2.13886 86 97 65
-1.24719 0.018862  2.00192 212 225 233
 -1.05951 -0.110101   2.23546 92 93 77
-0.692629   0.95966    1.3348 255 253 253
 -1.07533 0.0356902   2.13818 167 169 147
-0.484443  0.234703   2.17615 55 43 31
-0.703365 -0.127093   2.34902 208 203 184
-0.833814 -0.133064   2.33083 98 89 58
-0.621765  0.325093   2.13836 133 146 103
-0.694365   -0.1473   2.35622 95 90 61
   -1.2315 -0.0342409    2.06418 34 45 47
-0.694036 -0.112058    2.3974 216 213 194
 -0.943162 -0.0913173    2.27746 104 99 80
-0.545612  0.226189   2.19175 65 51 40
-0.665194   0.12224   2.23134 145 134 112
 -1.11036 -0.112054   2.20715 107 95 71
-0.540789   1.01452   1.85896 213 203 178
-0.788041  0.470134   2.13277 67 77 40
  -1.2679 0.0350755   1.96641 203 212 211
-0.379244  0.217011   2.15562 59 69 35
  -1.25389 -0.0573162    2.02446 95 113 115
 -0.81798 -0.105574   2.32516 70 77 59
-0.967273 -0.146609   2.30342 125 107 83
-0.552343   0.19744   2.19493 25 23 11
-0.509167  0.181127   2.18032 19 26 10
-0.654524  0.463314   2.11877 110 128 78
-0.437846  0.130081   2.21465 33 40 22
 -0.754297 -0.0648476    2.33367 112 110 87
-0.477461 0.0749078    2.2884 80 81 67
-0.538949  0.328096   2.12294 26 35 16
  -0.60426 -0.0982755    2.41271 106 102 91
-0.900149 -0.160823   2.31537 101 98 79
-0.679696   0.30029   2.14405 10 18 3
-0.691149 0.0949185   2.28219 93 82 60
 -0.610995 -0.0971065    2.41166 209 209 197
-0.579486  0.348744   2.11383 23 27 13
-0.474739  0.214725   2.18951 16 17 22
-0.65313 0.167452  2.19102 58 68 34
-0.797329  0.467118   2.13841 9 18 0
 -1.25749 0.0205967   1.98944 191 206 209
 -1.24308 0.0411108    1.9953 233 239 225
-0.698399  0.096251   2.26487 146 135 117
 -1.15556 -0.098804   2.15885 52 48 36
-0.616222 -0.132733   2.44392 187 181 169
 -0.714882 0.00591417    2.25209 98 112 89
-0.873212  0.136147   2.12586 38 46 22
-1.52406  1.69721  1.43589 32 30 31
-0.671707 0.0193735   2.29686 151 139 113
 -1.06989 -0.150111   2.24964 68 66 45
-0.71487  0.42142  2.13924 21 20 15
 -0.877597 -0.0494834    2.26781 100 87 68
 -0.786451 -0.0223381    2.28472 107 116 87
-0.707418 0.0502108   2.27581 170 162 143
   -1.1515 -0.0322262    2.12891 207 199 180
-0.636261  0.264282   2.15264 5 13 0
-0.67069  0.38207  2.12696 99 110 76
-0.600318  0.377104   2.11098 120 134 101
-0.741463  0.287802   2.17535 38 32 20
  -0.898051 -0.00589774     2.22191 118 117 97
 -1.01675 0.0419066    2.1742 88 85 66
-0.595948 0.0776328   2.27475 166 154 128
 -1.17082 0.0767867   2.04354 131 136 104
  -1.25079 0.00151951    1.99168 192 206 207
 -0.931904 0.00649265    2.23375 170 155 132
-0.682174 -0.133489   2.41047 48 42 28
-0.619291  0.727098   1.99149 144 128 113
-0.570092 0.0499856   2.29547 35 27 14
-0.900278 0.0125495   2.24658 106 101 82
-0.867265 0.0512179   2.23577 88 80 57
 -0.584766 -0.0930278    2.35053 198 191 175
-0.515901  0.201119   2.18092 13 21 0
-0.700476  0.163937   2.20358 112 117 77
  -1.19359 -0.0496101    2.08521 251 255 254
-0.609101 -0.104361   2.41563 202 199 190
  -1.24833 -0.0132604    2.01095 183 194 196
-0.984597 -0.113148   2.27154 109 99 72
-0.711693 0.0436361   2.23616 109 122 92
-0.622189 0.0252625   2.29922 82 92 67
-0.693008   0.17231   2.21886 176 156 129
-0.992118 -0.130601   2.28669 115 103 81
-0.567173  0.401487   2.12335 202 193 164
  -0.813651 0.000383873     2.25778 44 52 31
  -1.16375 -0.0437097    2.12055 234 231 216
-0.605614  0.255202   2.15877 112 124 88
-0.948779   1.55235   1.44754 221 227 217
-0.720989 -0.162608    2.4278 89 88 86
  -1.08074 -0.0326067    2.16823 13 21 8
-0.404703  0.025998    2.3392 75 69 47
-0.567304   1.03968   1.83782 214 199 176
-0.956982 -0.114008   2.29519 117 104 87
-0.580433  0.375898   2.13537 126 130 95
-0.592698  0.406418   2.10935 30 36 26
-0.535117  0.133179   2.24128 109 107 94
  -1.16586 -0.0294901    2.11356 203 200 183
 -1.11644 0.0851829   2.07683 102 109 91
-0.619443 0.0307083   2.28365 82 95 69
 -1.08496 0.0785279   2.11273 173 157 131
-0.605572  -0.01443   2.31532 16 21 1
 -0.70816 0.0146895   2.25349 104 116 80
  -1.03297 -0.0360613    2.19736 97 98 84
-0.706872 -0.122639   2.39872 219 212 202
 -1.09483 -0.107461   2.20964 186 183 166
-0.447654  0.229099   2.18011 73 65 46
   -1.07043 -0.00638064     2.16247 159 157 136
 -0.821048 -0.0681586    2.30136 85 85 73
 -0.907744 -0.0312742     2.2411 111 108 89
-0.698749 -0.152298   2.42032 86 71 52
 -1.24957 0.0367644   1.99087 93 100 84
-0.767835  0.327253    2.1694 114 119 87
-0.481863  0.261764   2.15326 220 216 187
  -1.22522 -0.0902916    2.10592 212 215 206
-0.67637 0.201827  2.20705 174 154 127
-0.388182  0.306693   2.09599 33 43 16
  -1.02994 -0.0343154    2.22539 175 169 155
-0.67517 0.105194  2.24598 73 61 49
-1.04664  1.08233  1.83583 156 158 153
-0.66696 0.047608  2.30397 25 26 10
-0.914362 -0.194662    2.3357 139 125 98
 -1.15765 0.0533517   2.07111 121 114 85
-0.570676   0.30355    2.1282 22 35 18
  -0.684024 -0.00250136     2.31476 114 115 107
-0.798432  0.374173   2.15554 104 96 83
-0.639806  0.253417   2.14847 100 110 83
-0.772111 -0.180795   2.40646 101 85 62
-1.15958  -0.1003  2.15433 215 209 197
-0.389107  0.286134   2.13817 167 168 160
-0.730833  0.408974   2.13217 105 112 81
-0.606013  0.105002   2.25657 114 99 70
-0.700704  0.205963   2.22232 154 146 125
-0.884191 -0.144644   2.32403 92 81 61
-0.702563  0.183874    2.2098 54 48 36
-0.582394  0.389589   2.16852 132 111 94
-0.856678 -0.104105   2.30445 82 77 57
  -1.12444 -0.0402927    2.15171 95 89 63
 -0.865136 -0.0746173    2.29178 107 102 82
-0.685737  0.397657   2.13521 107 115 92
 -1.25076 0.0217424   1.99602 11 22 28
-0.734754  0.305636   2.17341 150 141 124
 -1.27571 0.0135932   1.95351 197 202 198
-0.770588  0.433629   2.13282 23 32 11
-0.439307  0.294311   2.10236 22 34 14
-0.549196  0.365014   2.13837 42 44 33
-0.711085  0.985978   1.18493 0 15 0
-0.995494 -0.121293   2.28239 117 101 78
-1.10281 0.110001  2.08022 112 113 95
 -1.03261 0.0590568   2.15729 85 79 55
  -1.02618 -0.0274994     2.2027 174 172 159
  -1.03742 -0.0208354    2.21437 92 89 74
  -1.25229 -0.0146598    1.99834 237 246 253
 -1.04266 0.0581458   2.15011 187 180 161
 -0.629488 0.00798876    2.29966 12 20 5
-0.527802  0.273181   2.16786 130 110 86
  -0.890262 0.000115087     2.23044 75 73 61
-0.650692  0.397187    2.1281 92 100 76
-0.691554  0.998538   1.22822 146 147 139
  -1.15699 -0.0326411      2.125 105 98 82
-0.585787  0.126752   2.24176 35 36 5
-0.933419   1.17177   1.79008 208 223 218
-0.611501  0.254075   2.15579 45 56 26
-0.702471  0.438821   2.13912 26 26 18
-0.852327  0.243727   2.17864 164 151 119
 -0.921352 -0.0773692    2.26098 113 107 81
-0.994389   1.24666   1.73018 191 193 190
-0.620345  0.202201   2.18112 16 20 5
-0.864996 0.0221392   2.22976 69 65 53
-0.715823  0.407325   2.12774 10 14 0
-0.519091  0.285186   2.16383 216 200 175
-1.08591 -0.10601   2.2119 168 167 149
-0.440309  0.161877   2.21118 101 115 82
 -1.22838 0.0250166   2.01066 12 20 33
-0.638826  0.107986   2.24947 35 31 2
-0.925888  0.146756    2.1299 13 23 0
-0.493965    1.0641   1.83372 229 213 197
-0.942411 -0.193206   2.33031 125 98 77
  -0.601264 -0.00855126     2.33455 11 18 0
  -0.772279 0.000830277     2.27722 154 141 106
-0.600792  0.373145   2.11827 27 41 15
-0.626632  0.138268   2.24182 157 142 113
-0.591933  0.395437   2.10328 44 58 23
-0.473685  0.258377   2.14151 112 105 76
-0.764628  0.320734    2.1681 32 33 17
-0.700208 0.0434879   2.24081 36 41 19
 -1.18193 0.0590444     2.039 84 91 58
-0.857565  0.153799   2.14861 43 52 25
 -1.24329 0.0471203    1.9897 153 150 133
-0.709846 0.0484405   2.24316 24 32 11
-0.420721  0.351585   2.08595 42 50 27
-0.573674  0.399936   2.12296 67 71 46
-0.886234 0.0300251   2.21707 74 69 47
-1.18553 0.411152  1.83895 245 251 247
 -0.814529 0.00711321    2.25874 104 112 91
-0.568877  0.336191   2.12095 105 113 89
-0.693677  0.185329    2.2072 61 49 35
-0.441813  0.123454   2.21853 24 36 16
 -1.17155 0.0699221   2.04403 51 58 25
-0.906545  -0.07586   2.26454 69 70 54
-0.986973 -0.134558    2.2901 144 129 106
  -1.25724 -0.0242187     2.0065 173 185 185
 -1.21646 0.0650589    2.0115 62 53 44
 -0.746596 -0.0599004    2.32536 34 38 11
 -1.16461 -0.436409   2.32578 232 217 194
 -1.25499 -0.486634    2.2975 228 219 202
-0.861837 -0.148826   2.35301 157 146 124
-0.963646 -0.218656   2.32989 93 87 71
  -1.11957 -0.0699286    2.17748 114 98 73
 -1.07483 -0.114918   2.22568 142 137 118
-1.04735 -0.08997   2.2292 179 178 160
 -1.38621 -0.549034   2.28637 152 137 116
 -1.40831 -0.550219   2.27727 71 68 53
-0.933617 -0.192482   2.33471 120 108 82
 -1.20977 -0.433079   2.30516 150 146 119
 -0.88571 -0.153165   2.34527 114 105 90
 -1.17587 0.0235712   2.07708 197 180 160
  -1.13142 -0.0642293    2.16645 173 162 142
  -1.16776 0.00799266     2.0939 181 166 143
  -1.14319 -0.0253231    2.13555 100 88 64
-0.928306 -0.187174     2.336 100 88 66
  -1.0057 -0.181115   2.29278 89 90 74
-0.876381 -0.170864   2.35506 118 107 87
-0.928861 -0.225136   2.34863 114 100 74
 -1.16633 -0.459472   2.33314 115 91 67
-0.962245  -0.32363   2.36687 205 193 167
-1.06013 -0.13059  2.24102 214 211 196
-0.941179 -0.152247   2.31558 107 108 94
-0.983651 -0.361928   2.36811 179 170 153
  -1.3195 -0.532813   2.29641 104 95 66
 -1.05275 -0.130573   2.24637 108 107 89
-0.998613 -0.400401    2.3763 103 101 76
 -1.03286 -0.159437   2.26838 203 207 190
-0.952796 -0.303441   2.36688 135 113 89
 -1.1245 -0.38834    2.321 113 109 84
0.373561  4.65997 0.446159 89 95 67
-0.144509   4.35425  0.590271 10 13 6
0.223977  4.16621 0.541811 27 22 19
-0.408715   4.82945  0.364963 230 235 229
0.462538  5.01698 0.285589 196 214 216
0.539404   4.6436 0.387317 136 88 78
0.560287  4.65951 0.329393 142 88 78
0.600888  4.84638 0.288451 92 102 75
0.234607  4.18499 0.556828 7 11 10
0.189118  4.46516 0.490356 155 140 133
-0.282573   4.94222  0.293357 49 65 38
0.545232  4.75702 0.475894 150 141 132
-0.473608   5.27799  0.491221 173 151 114
 0.45278  4.66698 0.493232 12 12 14
-1.16817  5.68845 0.533822 58 66 69
-1.06963  5.48078  0.56882 214 211 204
0.0361197   4.20437  0.489751 108 104 92
0.488454  5.08793 0.256187 179 189 190
0.565495  4.78219 0.461876 20 22 21
-0.52587  4.82004 0.378652 233 237 236
-0.155608   5.28643  0.327908 11 12 7
-0.67032  5.10757 0.384436 186 187 189
-0.023584   5.05223  0.283043 42 36 40
0.449187  4.64979 0.466638 184 155 115
-0.114557   5.27902  0.333297 7 9 6
0.180852  4.31995 0.520109 206 194 180
-0.147278   4.22085  0.595216 127 101 78
-0.967581   5.42059  0.550958 85 110 55
-0.835156   5.66583  0.507359 50 53 42
0.113478  5.39974 0.218294 97 106 105
-1.03593  5.50768 0.544502 21 22 14
-0.897594   5.49894  0.542856 126 121 81
-0.476749   5.39197  0.430847 53 65 25
0.262549  4.73725 0.294548 79 80 62
-0.113447   5.04548  0.354865 34 28 28
 0.66208  4.48125 0.377405 181 178 169
0.439332  4.50258 0.516781 196 188 177
-0.743044   5.74723  0.490194 231 227 216
 0.26981  4.66996 0.455198 220 230 242
0.372875  4.66624 0.361796 81 87 61
 0.18583  4.89257 0.427697 157 148 133
0.418376  4.97237 0.409713 158 139 125
0.500653  4.36264 0.514306 54 53 33
0.425825  4.65137  0.40632 31 34 25
0.337513  4.34754 0.536467 164 147 127
-0.719174    5.7548  0.501638 230 226 215
0.524909  4.70361 0.482993 17 17 17
0.232302  4.25415 0.546433 26 28 14
0.0160208   5.64496   0.18693 64 72 83
 0.52679  4.99825 0.418567 188 161 132
-0.702386   5.17067  0.485232 187 186 184
0.387311   4.3876 0.522446 189 183 171
0.272155  4.22156 0.575733 53 47 33
-0.118004   5.27851  0.309943 11 11 9
-0.141447   4.81548  0.375412 24 19 26
0.370145   4.6723 0.410309 14 17 10
0.419398  4.64456 0.370426 113 119 91
0.00438855    5.34093   0.215104 64 66 78
-0.198979   4.89226   0.38337 212 212 212
0.0216372   5.34336  0.213124 77 79 91
0.372513    4.651 0.368117 72 77 55
-0.237888   5.53274  0.246404 154 153 148
-0.0504611    4.44544   0.478643 10 12 9
-0.33337  4.78741 0.338639 48 56 59
-0.407896   4.20461  0.597489 84 85 90
-0.029765   4.09972  0.529941 54 44 34
-0.0314459    5.63788   0.192114 70 74 85
0.461734  4.42423 0.523584 184 160 136
-0.0387841    5.10329   0.289183 221 223 220
0.578759  4.94116 0.247828 37 42 22
0.332714  4.46573 0.511468 191 182 173
-0.0102932    4.44777   0.441052 57 59 48
 0.38854  4.43237 0.520737 196 186 177
0.0438708   5.62838  0.388727 221 223 218
-0.790662   5.41905  0.532776 152 159 92
0.174078  4.82834 0.435305 108 107 87
0.0832727   5.40102  0.206499 85 88 97
-0.444781   4.65821  0.386262 188 193 197
0.223795  4.22553 0.561268 206 194 180
0.355993  4.38243 0.526578 63 51 35
0.0443274   4.34545  0.554229 169 129 104
0.0220412   5.61961  0.193028 72 79 87
0.0730674   5.44112  0.202949 90 94 103
0.284716  5.33447 0.194161 96 115 60
-0.101497   5.57661  0.196772 80 83 98
0.284899   5.3078 0.182621 119 133 72
0.454616  4.80528  0.21733 68 77 50
-0.454965   4.59563  0.395879 182 186 189
0.285888  5.31283 0.196548 8 13 6
0.303103  5.36548 0.183748 109 129 68
-0.0979813     5.5628   0.197973 88 91 106
-0.0201828    5.50613   0.199113 81 85 96
0.276718  4.59586 0.469763 51 45 33
0.386169  4.66362 0.359864 31 35 18
0.226083  4.35702 0.534864 197 187 178
-0.0791159    4.64986   0.449798 40 39 45
-0.183831   4.87213  0.360584 78 78 80
0.441954  4.66876 0.480326 10 11 6
 0.41421  4.67553 0.454508 32 41 20
0.333686   4.7645 0.289419 92 94 73
0.250847   5.2959 0.187084 115 134 68
0.515937  4.99303 0.416502 13 10 3
-0.280103   4.17061  0.572553 19 19 17
0.594956  4.83454 0.268276 160 163 144
0.0675308   4.45698  0.509942 65 53 29
0.214474  4.31741 0.547298 105 88 68
-0.157147   4.74063  0.378916 82 73 74
0.0970053   4.53938    0.4618 56 72 27
0.0342199   4.42749  0.527134 177 150 129
 0.16727  5.24278 0.280497 91 100 53
0.161949  4.32821 0.534154 141 132 115
0.492367   5.0045 0.335124 9 12 17
0.540501  4.84605 0.272679 25 35 10
0.243277  4.73678 0.174748 103 114 72
0.158809  4.37748 0.520027 65 52 36
-0.596184   5.08886  0.481537 11 19 0
-0.00504737     4.50785    0.489782 155 146 137
-0.685598    5.5111  0.511181 161 153 106
-0.153264   5.26666  0.312273 81 110 44
0.0144144   5.59919  0.188274 73 75 87
0.254469  4.74434 0.207411 16 20 3
0.446179  4.66016 0.461201 50 50 60
-0.0594524     5.5249   0.220104 69 72 81
0.376503  4.63648 0.396134 88 94 66
0.440572  4.29596  0.54027 92 70 56
0.00469617    5.62856   0.189074 71 78 88
-0.194831   4.83172  0.406036 168 159 160
-0.0108639    4.40513   0.419164 10 13 2
0.0762187   5.33124  0.224791 71 81 54
0.445462  4.82647 0.214581 23 28 8
  0.3412  4.48347 0.501199 192 185 177
-0.177147   5.22027   0.29621 88 118 46
-1.0871 5.46894 0.57127 219 212 206
0.254493  4.36453 0.523637 195 187 176
-0.12447  5.58627 0.194068 70 74 86
0.457892  4.41816 0.512864 105 83 59
-0.0616154    5.52652   0.195228 66 69 84
0.304701  5.05768 0.289833 202 213 217
0.167656  4.91888 0.411274 18 14 2
0.0997032   4.23896  0.549483 70 57 41
0.480577  4.38951  0.53112 53 42 24
0.107628  5.63823 0.418556 135 120 117
-0.248296   5.12555  0.412842 177 174 167
-0.43546   4.6165 0.397914 183 193 195
 0.27903  4.17394 0.503743 21 17 8
0.0738029   5.73902  0.424699 161 140 139
-0.199246   3.84732  0.614149 55 48 32
-0.13809  4.99937 0.391595 196 194 195
0.0562827   5.38044  0.206656 70 74 85
-0.260314   4.64824  0.375974 191 197 197
0.00177911    4.34443   0.324013 51 54 33
-0.316794   5.16957  0.463847 124 134 71
-0.0561476    4.02282   0.546809 103 93 81
0.124091  4.52936 0.492982 177 165 143
-0.0497433    4.09361   0.521465 193 174 159
 0.1393 4.30197 0.53167 149 137 123
-0.72581  5.28413 0.343907 48 55 61
-0.251204   3.95778  0.556463 102 101 80
0.0442758   4.21694  0.573899 104 93 87
0.109401  5.29489  0.22629 98 110 64
-0.318477    4.1951  0.596328 181 177 166
-0.34592  4.66618 0.377412 235 236 240
-0.708719     5.195  0.462464 60 60 62
0.100924  4.10024 0.552653 48 35 19
-0.661828   5.08668  0.356959 26 33 43
-0.14734  4.58317 0.482469 87 94 52
0.507691  4.37594 0.494879 71 65 51
0.382688  4.67675 0.417804 11 14 5
0.374183  5.32097 0.191794 90 115 60
0.137122  5.24907 0.250527 2 9 1
-0.844403   5.56916  0.524258 120 118 103
0.45093 4.94596 0.21936 6 12 0
-0.179961   4.82877  0.414769 43 33 41
 0.06635  5.75654 0.427011 144 129 132
-0.134941   4.99573  0.427463 50 50 42
-0.728957   5.25408   0.46016 47 48 50
0.0367001   4.29508  0.546045 160 135 128
0.116332  4.48758 0.509759 166 151 130
0.234362  4.75534 0.175427 103 113 76
0.476934  4.81506  0.22359 72 73 39
0.438009  4.71199 0.476586 152 143 136
-0.0329146    4.47351   0.519458 116 111 105
-0.0218306    5.09752   0.287007 164 163 161
-0.268527   4.63691  0.374224 218 221 226
-1.01965  5.39169 0.612624 19 26 34
-0.754443   5.33346  0.454847 51 51 51
-0.898572   5.50124  0.540771 113 108 79
-0.36497  4.89477 0.269903 75 85 60
-0.502757   4.52967  0.489016 20 24 33
0.0875831   5.19329  0.244451 81 91 54
0.00106759    4.96955   0.313818 148 141 135
0.308745  4.89583 0.408498 166 162 163
 -1.0471  5.70407 0.428225 227 220 212
0.260906  4.53429 0.502502 198 182 169
-0.756674    5.2947  0.300302 173 184 190
0.571534  4.77397  0.45563 72 81 88
0.0373572   4.26527  0.508737 22 24 23
0.0556473   4.19761  0.553521 161 166 162
0.435014  4.99798 0.307372 188 195 201
0.0114692   4.50908   0.49101 9 8 14
0.112503  4.41589 0.531298 190 177 160
0.188711  4.57172 0.470896 85 102 47
-0.170799   4.36426  0.523637 28 28 30
0.620547   4.8491 0.273009 47 55 31
0.510039  4.99493 0.261224 61 65 48
-0.0171352    5.10342   0.289653 177 184 190
-0.434712     4.937  0.265529 80 95 72
-0.106708   4.46465  0.514812 56 51 48
0.356472  4.46499  0.51739 178 172 160
-0.269935   4.68186   0.36959 185 188 193
0.550941  4.69446  0.39445 80 80 82
0.452698  4.45503 0.511631 196 179 159
0.331875  4.48941 0.503298 192 183 174
-0.345364   4.17411  0.606465 123 116 106
0.0909239    4.3477  0.540469 188 172 157
-0.14112  5.20656 0.312673 24 42 16
0.177792  4.82727 0.439059 115 116 98
0.178523  4.81954 0.433083 10 6 0
 0.12787  4.19602 0.540134 176 164 150
-0.260156   4.65487  0.371587 194 198 197
0.106707  5.38137 0.277538 83 98 65
-0.222786   5.25651  0.320166 79 102 46
0.201457  4.29016 0.540356 194 184 172
0.463999  4.94123 0.206874 46 60 27
-0.190714   3.84136   0.61168 65 59 43
0.501564  5.00195 0.284621 0 4 5
-0.292812   4.79452  0.341311 80 83 92
-0.890305   5.44959  0.533893 221 218 201
-0.179699   4.99453   0.36381 102 102 110
0.148328  4.54211 0.484159 91 76 55
-0.168409   4.81408  0.353035 184 142 143
-0.871057   5.46561   0.54021 135 136 96
0.426262  4.70454 0.429399 33 45 21
0.145373  5.20588  0.24657 40 57 12
0.148665  5.62406 0.425057 124 127 74
0.399504  4.39992 0.512199 201 192 183
0.185687  4.88487 0.243279 15 22 4
0.565845  4.92359 0.232598 29 39 15
0.342045  4.98063 0.312536 48 61 70
0.128165  4.50562 0.488839 122 107 88
-0.127039   4.83057  0.458362 215 211 208
0.372819  4.51629 0.499567 193 183 173
-0.538839   5.60324   0.50247 124 112 72
0.563329  4.97302 0.239987 80 90 63
0.00755831    4.36472   0.531401 130 108 84
0.201419  4.61293 0.466954 89 95 69
-0.125216   4.14581  0.579981 61 33 9
-0.189713   4.84811  0.364455 79 61 75
-0.754423   5.34841  0.449513 29 28 33
0.0640439   4.21061  0.507683 160 160 158
0.127528  4.91052 0.382662 41 26 29
0.483391  4.30163 0.527656 21 15 15
0.598361  4.93695 0.237334 76 87 53
0.332714  4.97945 0.319414 51 65 74
0.53488 4.98883 0.23172 54 66 28
0.413587  4.57948 0.496621 18 15 0
0.0125841   4.41015   0.42037 23 27 13
0.426771  4.50723 0.503366 34 30 21
 0.54275  4.65465 0.335667 136 89 81
0.279451  4.37973 0.528403 102 92 80
 0.32156  4.50463 0.504218 150 141 134
-0.449261   5.16053  0.463264 93 92 61
0.0526919   5.54452  0.397946 163 158 126
0.566978   4.7543 0.476791 22 22 22
-0.739084   5.28299  0.295972 179 188 195
0.0158825   4.38677  0.435605 34 43 16
0.236007  4.55913 0.471733 88 74 48
0.484116  4.93031 0.216884 9 22 0
-1.01915  5.50495 0.517686 67 75 51
-0.131793   4.87734  0.443259 222 211 205
0.621983  4.73573 0.428612 7 13 3
0.0902575   5.19329   0.25926 71 89 51
0.281967  4.22716 0.551133 30 12 8
0.311055  4.73727 0.248409 58 54 42
0.0424991   4.23352   0.55245 176 176 174
0.139946  4.14763  0.54634 58 49 34
-0.191974   5.43264  0.218136 210 210 202
0.372162   4.4965 0.507951 201 194 186
0.610509  4.75523 0.475748 55 57 54
-0.601954     5.328  0.419645 108 110 70
-0.0109585    4.44301   0.518735 68 81 38
-0.139028   5.06904  0.359926 235 236 231
-0.156734   4.69238  0.411846 193 201 204
0.142045  4.93432 0.312278 237 242 248
0.182474  4.94858 0.321021 34 44 46
-0.10103  5.42938  0.21099 110 120 129
0.00599404    4.90315   0.420019 181 172 167
0.305349  4.19524 0.526639 10 10 0
-0.521196   5.29193  0.415331 29 44 11
0.270099  4.58336  0.47381 162 155 139
0.373828   4.4179 0.514597 203 194 187
0.0365526   4.25592  0.570904 79 69 57
0.411199  4.52435 0.503666 48 38 29
0.407021  4.52353 0.508617 38 34 23
-0.0802798    4.11624   0.538621 180 153 132
0.324654  4.31379 0.532444 36 32 23
0.421472  4.72548 0.458411 28 32 41
0.357777  4.40598 0.515126 199 188 182
0.214676  4.88957 0.420916 33 34 39
0.446134  4.70606 0.435682 70 83 39
0.479881  4.33212  0.52311 80 73 55
0.325262  4.30505 0.543016 185 176 167
 0.24133   4.2886 0.542809 86 76 66
0.00374987    4.17036   0.511833 173 163 151
0.104509   4.5909 0.477769 110 118 121
0.0979806   4.58757  0.488625 156 155 161
0.0969175   4.58857   0.48851 110 118 121
0.453764  4.96601 0.227081 76 90 57
0.410027   4.5763 0.480256 77 67 55
-0.181883   4.84045  0.378213 112 111 107
0.172957  4.14017 0.537362 38 37 33
-0.470612   5.67871  0.393822 65 79 44
-0.342978   4.12473  0.580914 173 163 153
-0.0775957    4.61688   0.475305 235 231 230
0.111682  4.58098 0.480611 213 213 221
0.365243  4.56064  0.49538 116 104 92
0.371006  4.68653  0.40321 6 8 3
0.262109  4.43624 0.518255 202 192 180
0.281525  4.55162 0.493348 191 181 169
0.417352  4.71029 0.455821 6 10 13
-0.282433   4.15821  0.584177 26 37 7
0.353849  4.54705 0.499907 148 135 119
0.231673  4.36191 0.537525 198 188 179
  0.5334   4.9992 0.233807 74 84 57
0.424048  4.54934 0.495561 139 126 110
-0.236143   3.82975   0.60591 165 158 139
0.277438  4.70436 0.481721 49 48 44
0.0143399    4.4087  0.456004 69 73 59
-0.669863   5.14787  0.311461 77 88 94
-0.0059295    4.37937   0.421745 90 100 66
-0.0236669    5.12587   0.279979 40 39 44
0.106328  4.34715 0.543987 191 177 164
-0.0573831    4.06979   0.525961 174 167 149
-0.182574   4.71293  0.354969 192 197 200
0.280785  4.18368  0.52881 41 34 26
0.247017  4.22193 0.557082 191 177 168
0.492091  4.42698 0.499853 186 166 142
0.320846   4.4858 0.504426 202 193 186
0.108216  4.51163  0.47994 15 26 0
-0.0331849    4.45393   0.462233 1 3 2
-0.0692198    5.28226   0.253227 124 132 134
-0.130782   4.99877  0.355784 156 166 175
0.0659843   4.23219  0.512394 125 129 128
0.598446  4.69667 0.328861 73 73 71
0.434659  4.83238 0.275814 38 24 23
-0.908128   5.53964  0.538554 207 198 189
0.273802  4.54983 0.489642 189 177 163
-0.821629   5.50036  0.525141 161 162 105
-0.410362   5.09459  0.470301 40 24 8
0.111124  5.52473 0.396269 147 157 105
-0.329267   5.05409  0.465283 36 33 14
0.468329  5.01334 0.324567 198 209 215
 0.60381  4.83121 0.260346 41 42 24
0.285841  4.81925 0.423081 162 144 132
0.37584 4.39531 0.50979 197 190 182
0.603937  4.76136 0.477829 50 56 46
0.531037  5.00493 0.423347 42 19 13
0.0172473   4.47705  0.504543 218 201 181
0.0615358    4.2055  0.503153 129 133 132
0.526763  4.98635 0.224101 85 99 66
-0.528022    4.7642  0.363608 243 248 251
0.314603  4.24088  0.54104 48 37 15
0.457131  4.38032 0.513657 69 57 41
-0.930233   5.43528  0.535748 223 227 204
0.306924  4.86171 0.448728 43 47 48
0.443976  4.94656 0.218014 11 25 0
0.266953  4.23313 0.557867 187 173 162
0.340628  4.49494 0.502017 93 86 78
0.377901  4.22686 0.532404 7 9 6
-0.0677299      4.044   0.538717 179 167 153
0.295376  4.89925 0.438724 53 49 48
-0.189644   5.29628   0.31679 58 70 50
0.492982  4.94615  0.21968 12 20 7
0.0122213   4.41227  0.423774 12 16 1
0.296259  4.25165 0.559074 134 117 99
0.148934  4.39975 0.535316 194 184 172
0.0593533   4.19089   0.58405 183 171 157
-0.303168   4.08087   0.59012 55 70 29
-0.370712   5.04262  0.475058 13 22 1
0.351375  4.51761 0.499163 189 179 169
-0.164762   5.58286  0.215513 225 226 228
-0.50544   4.7493 0.349373 48 51 58
-0.663127   5.06016  0.419367 28 39 22
 0.26079  4.56182 0.492405 158 145 129
0.0514756   4.82112  0.242998 58 72 39
-0.173044   5.58422  0.214915 98 101 106
0.0346686   4.16791  0.508313 165 151 142
-0.20896  4.89957 0.400606 185 183 188
0.233245  4.89271 0.432003 162 167 170
0.213096  4.44101 0.512618 71 55 39
-0.0646566    4.64662   0.302499 87 103 64
-0.532772   5.28739   0.41368 67 82 43
-0.542626   5.29825  0.413783 81 96 57
0.505078  4.99758  0.41684 102 98 95
0.223422  4.88999 0.435919 24 35 37
0.123731  4.44195 0.502187 72 57 38
0.489159  5.09874 0.276421 187 197 199
-0.248366   5.13589  0.417975 136 84 88
0.0511874   4.24375  0.495453 144 146 143
-0.121603   4.88709  0.426445 202 189 183
0.135931  5.27847 0.186663 103 116 73
-0.236997   4.89375  0.316564 238 242 245
0.110223  4.92757 0.310401 225 233 236
0.137806  4.61917 0.482667 21 19 20
0.162933  4.27128 0.550486 231 221 212
0.381325  4.51576 0.502883 80 74 60
0.532076  4.97025 0.242461 0 7 0
-0.164183   3.94664  0.568736 48 44 17
0.126009  4.93026 0.309369 233 240 246
-0.0853373    4.59128   0.281997 72 88 49
-0.0181184    4.45919    0.51056 98 93 73
0.180228  4.25513 0.556688 210 198 184
-0.119968   4.10821  0.514262 13 16 0
0.0113137   4.02551  0.527896 72 76 49
-0.0194894    4.42901   0.496845 11 14 5
-0.447034    4.1483  0.609035 4 5 0
0.125744  4.93657 0.321261 38 43 49
 0.44898  4.99144 0.299051 161 156 163
0.288204  5.27232 0.185673 123 149 86
-0.107268    4.2599  0.582657 109 95 68
0.497888  4.94536 0.221803 64 72 51
0.274926  4.67707 0.451858 234 243 252
-0.268283    5.3337  0.338839 76 92 55
-0.162543   4.18603  0.590559 214 183 154
0.264663   4.8191 0.254657 24 32 8
0.125493  4.45858 0.503292 186 160 135
0.405351  4.97905 0.429018 30 29 24
0.388351  4.41897 0.516506 168 158 148
0.262139   4.5258 0.498017 189 175 162
-0.766262   5.60199  0.463092 142 140 117
0.347162   4.7023 0.456625 234 240 252
 0.17125  4.94039 0.306144 239 237 242
0.592945  4.77224 0.464207 22 30 33
0.0597154   4.03567  0.537684 94 78 62
-0.464527   4.81225  0.338154 229 235 235
0.258873  4.81779 0.440122 30 20 10
0.163398  4.83023 0.435594 16 16 6
0.303752  4.20322 0.572017 166 145 124
0.0920794   4.21604  0.569483 78 71 55
0.270089  4.53097 0.497885 41 31 19
0.268181  4.82368 0.443968 68 45 39
0.0222813   4.44583  0.503567 63 47 31
-0.0151501    4.51753   0.510202 152 134 134
-0.155372   4.67311  0.432068 85 94 101
0.428903  4.73246 0.472867 129 111 99
-1.10527   5.5757 0.485992 10 22 2
-0.52326  5.55029 0.486448 96 106 53
0.421208  5.31869 0.259481 101 123 77
0.257933  4.82957 0.439588 42 34 32
-0.0875438    3.95233    0.56185 198 184 171
0.243564  4.95296  0.29317 230 233 238
0.418323  4.53768 0.502231 120 106 95
-0.696856   5.57112  0.502133 144 121 103
-0.591538   5.09053  0.494095 136 133 100
-0.647011   5.50807  0.498087 165 155 102
0.0820151   4.38447  0.536872 191 154 125
0.130192  4.61345 0.478715 27 21 23
0.337444  4.35723 0.528129 195 182 165
0.405895   4.3559 0.528202 209 202 194
0.0531468   4.16728    0.5961 87 66 45
-0.18656  4.85257 0.391186 210 213 218
0.387888  4.27982 0.541777 106 87 72
0.327738  4.84484  0.45518 47 47 47
0.0291263   4.44922  0.512685 178 152 135
0.0298531   4.44808  0.512613 178 152 135
-0.0736457    4.26111   0.562254 83 72 52
0.280846  4.20544  0.54418 119 101 81
0.0208723   4.04297  0.534655 104 94 82
0.262275  4.80958 0.440587 42 22 13
0.0556905   4.55532  0.493671 122 97 93
0.537155  4.76878 0.472206 133 106 95
0.250676  4.39256 0.526827 53 44 35
0.490402  4.71469 0.476668 38 38 38
0.0001609    4.3827  0.371869 23 27 13
0.438372  4.74386  0.47127 139 120 106
0.596633  4.84059 0.250491 43 49 23
0.328086  4.74373 0.248084 174 177 156
-0.167821   5.15225   0.40558 112 64 64
-0.690432   5.14349  0.442649 123 124 119
0.261721  4.95746  0.29506 228 233 237
0.466415  4.36538 0.523164 172 163 148
-0.157136   4.68882   0.42316 45 48 55
-0.398467   4.27851  0.589099 178 172 172
-0.152699   4.70212  0.431137 202 204 203
0.153651  5.26271 0.239199 64 82 32
-0.012339   5.01998  0.295511 69 72 81
-0.0575476    3.94211   0.571725 99 89 77
0.0664714   5.18858  0.268652 213 217 200
0.281794  4.34924 0.542337 91 82 75
0.253617  4.39957 0.525135 203 194 185
0.260838  4.73594 0.244583 60 59 39
0.261119  4.41073 0.522041 179 169 159
0.181696  4.21401 0.555687 200 183 167
0.145691  4.23887 0.543292 209 191 177
0.558249  4.78997  0.46684 169 158 156
0.134373  5.24953 0.243524 72 91 46
0.0165676   4.17005  0.507432 113 100 91
0.00202959    3.98934   0.554539 191 185 161
0.464544  4.70258 0.477047 53 53 53
0.155958  4.93616  0.30042 223 228 232
0.570184  4.98068 0.231332 10 17 1
0.314072  4.50061 0.507038 191 185 171
-0.858081   5.49385  0.532362 213 222 193
 0.13983  4.82833 0.235397 80 95 66
0.509118  4.74749 0.478026 58 44 35
-0.122825   4.23711  0.585994 77 59 37
0.290564  4.66028 0.479966 30 26 25
-0.325077   5.39698  0.337637 11 20 1
0.191444  5.21807 0.245309 9 4 1
-0.212605   4.88772  0.331645 173 178 184
0.164949  4.62834 0.467267 126 129 136
0.556779  4.95799  0.21952 15 27 7
0.579221  4.77139 0.469717 89 96 102
0.218503   4.3667  0.53801 208 197 191
-0.0668191    5.28997   0.236736 200 205 211
0.479662  4.30583 0.533173 136 131 127
0.0604151   4.30158  0.557061 166 139 112
0.553857  4.76261 0.473576 158 147 143
-0.580459   4.47874  0.537658 13 16 5
0.238466  4.45673 0.501218 47 37 25
-0.194102   5.51144  0.233712 239 232 224
0.562053  4.75792 0.479723 129 128 126
0.0638996   4.06257  0.536305 64 54 42
-0.231761   4.41405  0.501758 32 26 26
0.174926  4.25551  0.55387 56 44 30
0.256391  4.44565 0.511484 56 48 35
0.471157  4.45764 0.510449 187 170 144
0.515192  4.75799 0.477255 53 38 31
-0.301146   4.02053  0.584541 12 20 0
0.00813991    4.48729   0.514559 206 191 172
0.263288  4.81614 0.444648 241 218 212
-0.206594   5.13726  0.402556 233 212 209
0.0284891    4.4432  0.505223 136 113 97
0.222325  4.49084 0.490586 85 77 54
0.283918  4.48902 0.506641 187 174 158
0.541255   5.0104 0.420461 64 45 28
0.521336  5.01439 0.298321 230 238 241
-0.642595   5.44361  0.509569 160 153 107
0.210545   4.6361 0.482328 175 158 150
-0.992721   5.41662  0.561344 76 83 50
0.210261   4.8695 0.410407 1 3 15
0.323512  4.48034  0.50716 80 71 64
-0.446234   4.61736  0.393042 227 237 239
-0.148147   3.87957   0.60709 165 157 134
-0.841672    5.4427  0.537743 130 128 79
0.142378  5.26102 0.247589 38 56 14
0.256948  4.48805  0.50294 206 195 191
0.458942  5.00502 0.303686 43 50 58
-0.148282   5.05874  0.363298 220 219 217
-0.183601   4.85883  0.330094 53 52 58
0.154925  4.56502 0.481341 73 81 42
0.102475   4.9321 0.313374 29 34 40
0.263964  4.31156 0.554382 200 186 173
