ply
format ascii 1.0
element vertex 1134
property float x
property float y
property float z
property uchar red
property uchar green
property uchar blue
end_header
-0.423079  0.305633   2.14038 255 255 255
-0.217059  0.300843   2.19378 255 255 255
-0.167284  0.279797   2.24491 255 255 255
-0.842104 -0.247924   2.24462 255 255 255
-0.551917 -0.163434   2.28098 255 255 255
-0.435058 -0.246068   2.32741 255 255 255
0.461797  0.04946  2.45512 255 255 255
-0.311722  -0.37021   2.39346 255 255 255
0.0698525 -0.540451   2.52774 255 255 255
 0.555818 -0.338945   2.58001 255 255 255
-0.530155  -0.35821   2.33632 255 255 255
  0.610933 -0.0410944    2.51712 255 255 255
-0.609081 -0.116576   2.25511 255 255 255
 -0.5603 0.235759  2.17327 255 255 255
 0.277137 0.0416168   2.41011 255 255 255
-0.509429 -0.413513   2.36129 255 255 255
 0.260369 0.0216556   2.41075 255 255 255
-0.350407   0.21969   2.21969 255 255 255
0.339925 0.148736  2.39588 255 255 255
-0.428397 -0.317744   2.35612 255 255 255
-0.161495 -0.337121   2.41471 255 255 255
 0.400183 -0.102595   2.47539 255 255 255
-0.666413 -0.189206   2.26453 255 255 255
-0.480199 -0.417038   2.36838 255 255 255
0.275626 -0.57519  2.57878 255 255 255
-0.694456 -0.207746   2.26062 255 255 255
-0.510493 -0.314429   2.33138 255 255 255
-0.537063 -0.191241   2.29134 255 255 255
  0.402015 -0.0300279    2.46446 255 255 255
-0.279213  0.154086   2.25305 255 255 255
-0.361639 -0.276984   2.35199 255 255 255
-0.415649 -0.304387   2.35497 255 255 255
 0.416764 -0.465623   2.57177 255 255 255
-0.675093 0.0615965   2.19659 255 255 255
-0.522181 -0.293872   2.32172 255 255 255
  0.628832 -0.0763946    2.53302 255 255 255
-0.332792 -0.450207   2.41401 255 255 255
-0.414243 -0.356292   2.36576 255 255 255
-0.664121  -0.20213   2.27081 255 255 255
-0.297817  0.162733   2.24397 255 255 255
  0.653776 -0.0537652    2.53044 255 255 255
 -0.45243 -0.469322   2.38847 255 255 255
 0.470902 -0.242278   2.53094 255 255 255
  0.711857 -0.0607694    2.54095 255 255 255
 -0.57864 -0.108109   2.25968 255 255 255
-0.40384 0.097777  2.21703 255 255 255
-0.570443 -0.338136   2.32249 255 255 255
-0.0308237   0.334385    2.26071 255 255 255
-0.354504 -0.337774   2.37562 255 255 255
 -0.88718 -0.188118   2.21796 255 255 255
-0.688119  0.101398   2.18137 255 255 255
-0.499314    0.4498   2.12981 255 255 255
  0.48509 -0.197657    2.5249 255 255 255
-0.489802  -0.29147   2.33406 255 255 255
-0.613198 -0.324392   2.31024 255 255 255
-0.599332  -0.33962    2.3124 255 255 255
  -0.6997 -0.218768   2.26282 255 255 255
-0.461621 -0.159702   2.30129 255 255 255
  0.511337 -0.0885872    2.50432 255 255 255
-0.496927 -0.214512   2.30789 255 255 255
-0.649583  0.421516   2.09928 255 255 255
-0.0417833  -0.483565    2.48003 255 255 255
  0.638467 -0.0152782    2.51716 255 255 255
0.122359 0.402643  2.27722 255 255 255
0.067969 0.477997    2.245 255 255 255
-0.512116 -0.357711    2.3433 255 255 255
-0.512116 -0.357711    2.3433 255 255 255
 -0.49736 -0.240318   2.31789 255 255 255
0.200639 0.400377  2.26963 255 255 255
-0.58628 -0.29465  2.30815 255 255 255
  0.221159 -0.0507321    2.42129 255 255 255
  0.44834 -0.250641   2.51932 255 255 255
-0.603754 -0.322442   2.31173 255 255 255
 0.464755 -0.362484    2.5524 255 255 255
 -0.633402 -0.0561705     2.2114 255 255 255
-0.158575 -0.513181   2.46124 255 255 255
-0.734624 -0.248147   2.26112 255 255 255
-0.262867  0.348757   2.20645 255 255 255
-0.602492  0.469297   2.09785 255 255 255
-0.630154 -0.316958   2.30313 255 255 255
-0.642342 -0.319195   2.29799 255 255 255
-0.408687 -0.349713    2.3649 255 255 255
-0.635315 -0.233456   2.27382 255 255 255
-0.241904 0.0201026   2.27674 255 255 255
0.00741703   0.189626    2.26542 255 255 255
 0.249283 -0.311848   2.48448 255 255 255
-0.613193 -0.294931   2.30149 255 255 255
-0.172494 -0.559029   2.47487 255 255 255
-0.596132  0.109715   2.20266 255 255 255
-0.592861 -0.383689   2.33732 255 255 255
-0.442839   0.21533   2.20499 255 255 255
 -0.40463 -0.310062   2.35911 255 255 255
  0.201038 -0.0855173    2.43165 255 255 255
0.106037 0.287866  2.30396 255 255 255
0.00522023    0.49959     2.2273 255 255 255
-0.51233 0.357232  2.14909 255 255 255
-0.591055  0.459301   2.10305 255 255 255
 -0.544279 -0.0566129    2.25744 255 255 255
 0.216197 -0.544529   2.54886 255 255 255
 0.485928 -0.303879   2.55114 255 255 255
0.123022  0.12484  2.35104 255 255 255
 0.179123 -0.553548   2.54444 255 255 255
 -0.837563 -0.0952052    2.20362 255 255 255
 0.246161 -0.418558   2.52941 255 255 255
0.0974173  0.107887   2.34989 255 255 255
 -0.63349 -0.241943   2.27599 255 255 255
0.358286  0.17185  2.39418 255 255 255
 0.458673 0.0227248   2.45907 255 255 255
    0.6469 -0.0707534    2.53339 255 255 255
-0.596788 -0.170915   2.27007 255 255 255
 0.373855 -0.399086    2.5555 255 255 255
0.0688008 0.0746518   2.35094 255 255 255
 0.335796 -0.403758   2.55167 255 255 255
 -0.66346 -0.180053   2.26328 255 255 255
 0.444948 0.0108094   2.46081 255 255 255
-0.572024 -0.284919    2.3097 255 255 255
-0.232974  0.130489   2.26746 255 255 255
-0.0747052  0.0692714    2.31338 255 255 255
-0.422298 -0.357466   2.36183 255 255 255
-0.521078 -0.341019   2.33727 255 255 255
-0.672038 -0.182702   2.26146 255 255 255
 0.082261 -0.498292   2.51696 255 255 255
 0.481933 -0.296323   2.54986 255 255 255
-0.385324  0.153688   2.23298 255 255 255
-0.452802  0.416959   2.14671 255 255 255
-0.0866081  0.0668067    2.31396 255 255 255
0.0297429  0.143091   2.29163 255 255 255
-0.694455  -0.28633   2.27329 255 255 255
-0.300983 -0.259643   2.32923 255 255 255
 -0.621103 -0.0997295    2.24788 255 255 255
 0.324844 -0.347712   2.53357 255 255 255
-0.535959   0.38903   2.13615 255 255 255
0.522248 0.151267  2.44126 255 255 255
-0.514052  -0.17992   2.29207 255 255 255
 0.349371 -0.115405   2.47495 255 255 255
0.345069 0.302858  2.33454 255 255 255
0.210781 0.369493  2.28243 255 255 255
-0.291997  0.393544    2.1909 255 255 255
 0.359334 0.0551877   2.42602 255 255 255
 0.413567 -0.270812   2.51854 255 255 255
0.154981 0.101863   2.3507 255 255 255
   0.21689 -0.0429496    2.42089 255 255 255
0.252872 0.242685  2.35132 255 255 255
-0.421212  -0.19518   2.29124 255 255 255
-0.429242 -0.302744   2.35032 255 255 255
 0.29357 -0.19589  2.48216 255 255 255
0.0913958  0.102247   2.34827 255 255 255
-0.458824 -0.435153   2.37946 255 255 255
-0.623798  -0.23544   2.28722 255 255 255
-0.500428  -0.17989   2.29722 255 255 255
 0.565457 -0.279746   2.56758 255 255 255
-0.587705 -0.330174   2.31607 255 255 255
 0.439532 -0.153676   2.50861 255 255 255
 0.303619 -0.330684   2.52034 255 255 255
0.389566 -0.04909  2.46569 255 255 255
  0.578661 -0.0552896    2.51355 255 255 255
-0.533216 -0.345753   2.33468 255 255 255
  0.686056 -0.0228699    2.52168 255 255 255
 0.439043 -0.283451   2.53098 255 255 255
-0.512612 -0.322588   2.33376 255 255 255
-0.0475325  -0.396736    2.45115 255 255 255
0.345819 0.103395  2.40943 255 255 255
-0.531379 -0.287518   2.31706 255 255 255
-0.531379 -0.287518   2.31706 255 255 255
 0.455352 -0.313336   2.54696 255 255 255
-0.556957 -0.329666    2.3235 255 255 255
-0.433185 -0.377353   2.36441 255 255 255
-0.537381 -0.434821   2.36615 255 255 255
0.0821352  0.293454   2.29614 255 255 255
 -0.67535 -0.300507    2.2829 255 255 255
-0.331841 -0.349183   2.38247 255 255 255
 -0.37337 -0.267647    2.3484 255 255 255
 0.695126 -0.120357   2.55614 255 255 255
 0.496933 -0.289606   2.55377 255 255 255
-0.173688 -0.336251   2.41366 255 255 255
-0.211791   0.17547   2.26098 255 255 255
-0.684454  -0.12385   2.24076 255 255 255
 0.302665 -0.576224   2.58452 255 255 255
0.140982 0.449499  2.26921 255 255 255
0.361073 -0.50499  2.58356 255 255 255
-0.621142 -0.228174   2.27947 255 255 255
 0.316316 -0.552772   2.58397 255 255 255
-0.245725  0.140082   2.26227 255 255 255
-0.567705  0.232309   2.17204 255 255 255
-0.32212 -0.51104  2.43016 255 255 255
-0.574834 -0.221163    2.2835 255 255 255
  0.302645 -0.0229556    2.42292 255 255 255
-0.529532 -0.185196   2.29064 255 255 255
  0.174293 -0.0926478    2.42635 255 255 255
0.526535 0.215939  2.42524 255 255 255
-0.54763 0.368818  2.13807 255 255 255
-0.480886  0.397138   2.14424 255 255 255
-0.479542 -0.435771   2.37267 255 255 255
-0.580024 -0.057758   2.21539 255 255 255
 0.260602 -0.464874   2.54694 255 255 255
 0.397944 -0.508745   2.58796 255 255 255
  0.206682 -0.0596648    2.42321 255 255 255
 0.0833616 -0.0569739    2.34918 255 255 255
  -0.335824 0.000375262     2.28365 255 255 255
-0.481826 -0.209903   2.30802 255 255 255
-0.200527 -0.379867   2.41716 255 255 255
 0.579513 -0.121335   2.51049 255 255 255
 -0.49563 -0.172835   2.29998 255 255 255
-0.399625  0.303214   2.18995 255 255 255
-0.0659645  -0.452267     2.4714 255 255 255
0.289647 0.070871  2.40663 255 255 255
-0.487223 -0.160206   2.29729 255 255 255
 0.333494 -0.529967   2.57846 255 255 255
 -0.465493 -0.0693183    2.27665 255 255 255
  0.228657 -0.0202945    2.41532 255 255 255
   -0.575 -0.324447   2.31806 255 255 255
-0.556725 -0.426921    2.3584 255 255 255
0.0974843  0.285502   2.30375 255 255 255
-0.469762 0.0644888   2.23938 255 255 255
-0.370571 -0.276832   2.35002 255 255 255
 0.538579 -0.114947   2.51696 255 255 255
-0.0429708  0.0543504    2.32573 255 255 255
0.322704 0.110615  2.40202 255 255 255
-0.621009 -0.216386   2.27058 255 255 255
 0.471342 -0.278828   2.54066 255 255 255
 0.377848 -0.477326   2.57669 255 255 255
 0.516845 -0.298673   2.55859 255 255 255
0.328233   -0.253   2.5082 255 255 255
 -0.72382 -0.102364   2.22557 255 255 255
 0.382609 0.0452879   2.43204 255 255 255
-0.472341 -0.321756   2.34532 255 255 255
-0.694848 -0.128567   2.24521 255 255 255
0.486123 0.107467  2.44421 255 255 255
 0.364678 -0.397868   2.55215 255 255 255
 0.200517 -0.467745   2.52555 255 255 255
-0.411614 -0.186862    2.2935 255 255 255
0.0731075  0.419807   2.22912 255 255 255
 0.479118 -0.356868   2.55746 255 255 255
0.000489852   0.0335843     2.34341 255 255 255
 -0.20965 -0.473016   2.44411 255 255 255
0.218675 0.405781  2.27589 255 255 255
 0.598889 -0.300765   2.56482 255 255 255
0.114502 0.290165  2.30547 255 255 255
-0.592486 -0.299516   2.30779 255 255 255
-0.785412 -0.161951   2.23134 255 255 255
 -0.44181 -0.376044   2.36163 255 255 255
0.665652 0.123673  2.48221 255 255 255
 0.517163 -0.390362   2.55733 255 255 255
-0.620994 -0.288673    2.2987 255 255 255
0.300033 -0.36773   2.5316 255 255 255
 0.267708 -0.368598    2.5152 255 255 255
-0.497008 -0.414723   2.36497 255 255 255
-0.619669 -0.317084   2.30618 255 255 255
 -0.147072 -0.0548149    2.33396 255 255 255
-0.117887  0.247392   2.26308 255 255 255
  -0.4842 -0.167583   2.30008 255 255 255
-0.452961 -0.300198   2.34449 255 255 255
-0.294802  0.449009   2.17754 255 255 255
0.242475 0.286606  2.33859 255 255 255
-0.473026  0.409577   2.14505 255 255 255
-0.506546 -0.306567   2.33053 255 255 255
-0.278401 -0.467382   2.42689 255 255 255
-0.413438 -0.193741   2.29227 255 255 255
-0.269209  0.346158   2.20448 255 255 255
-0.224896  0.162431   2.26092 255 255 255
0.284467 0.337878  2.33182 255 255 255
  0.363789 -0.0884612    2.47057 255 255 255
-0.0156545  -0.418077     2.4686 255 255 255
0.434587 -0.28973  2.53133 255 255 255
-0.414076 -0.129785   2.30203 255 255 255
-0.44301 0.427834  2.14877 255 255 255
 0.484003 -0.207313   2.52988 255 255 255
 0.449605 -0.283527   2.53852 255 255 255
 0.291179 -0.166432   2.47189 255 255 255
  0.40207 -0.590636   2.60625 255 255 255
-0.631007 -0.218691   2.26703 255 255 255
 0.520308 -0.324907   2.56651 255 255 255
-0.483114  -0.21686   2.30417 255 255 255
-0.482287 -0.340946   2.34281 255 255 255
-0.528452 -0.301122   2.32517 255 255 255
 0.357395 -0.511623   2.57978 255 255 255
-0.276724  0.146249   2.25621 255 255 255
-0.166378 -0.391797   2.42765 255 255 255
-0.445412 -0.459003   2.38477 255 255 255
-0.691142 -0.362652   2.31728 255 255 255
 0.45244 0.229873  2.40344 255 255 255
-0.494758 -0.440402   2.37186 255 255 255
  0.649241 -0.0612061    2.53197 255 255 255
 0.293509 0.0823226   2.40721 255 255 255
 0.140955 -0.382731   2.49419 255 255 255
-0.276235 -0.521624   2.44503 255 255 255
0.356662 0.106846  2.41161 255 255 255
 -0.341553 0.00291145    2.28138 255 255 255
  0.410668 -0.0316041     2.4659 255 255 255
-0.898319 -0.281283   2.24304 255 255 255
-0.284734  0.371722   2.19616 255 255 255
-0.444311 -0.482547   2.39452 255 255 255
  0.654732 -0.0683763    2.53413 255 255 255
-0.246869  0.223381   2.22938 255 255 255
-0.536745 -0.142016   2.27778 255 255 255
-0.536745 -0.142016   2.27778 255 255 255
0.0830582 -0.538736   2.52933 255 255 255
-0.540806  0.392152   2.13284 255 255 255
-0.716598 -0.259137   2.26724 255 255 255
 -0.592634 -0.0957162    2.25184 255 255 255
-0.242884 -0.560846   2.46724 255 255 255
 0.316213 -0.351572   2.52745 255 255 255
-0.247397  0.363236   2.20842 255 255 255
 0.373154 -0.380969   2.54942 255 255 255
-0.0431088   0.339744    2.25612 255 255 255
-0.0699104  -0.529862    2.49078 255 255 255
-0.484602  -0.18884   2.30373 255 255 255
 -0.49835 -0.372619   2.34824 255 255 255
 0.599122 -0.117983   2.51231 255 255 255
-0.405226  -0.37632    2.3732 255 255 255
-0.288221  0.377767   2.19341 255 255 255
-0.287864 -0.489108   2.42965 255 255 255
0.0420822 -0.323056   2.45263 255 255 255
 0.317616 -0.367532   2.53347 255 255 255
  0.229213 -0.0584769    2.42158 255 255 255
0.650435 0.143562  2.47373 255 255 255
0.768115 0.028596   2.5249 255 255 255
-0.566625 -0.106248   2.26188 255 255 255
  0.621397 -0.0417339    2.51924 255 255 255
  0.15207 -0.396122   2.50116 255 255 255
 0.485528 -0.322478   2.55249 255 255 255
-0.591434 -0.352217   2.31599 255 255 255
-0.278423  0.338317   2.20606 255 255 255
-0.24922 0.133194  2.26466 255 255 255
0.492634 -0.16905  2.51029 255 255 255
0.0719921  0.301419   2.29213 255 255 255
-0.506147  0.344799   2.15375 255 255 255
-0.248676 -0.294339   2.35299 255 255 255
-0.356145 -0.268539   2.35209 255 255 255
-0.157753  -0.54935   2.47635 255 255 255
 0.188061 -0.476721   2.52589 255 255 255
0.349407 -0.49713   2.5764 255 255 255
0.291946 -0.32384  2.51793 255 255 255
0.0305837  0.490124   2.23502 255 255 255
-0.611881 -0.339886   2.30927 255 255 255
-0.483435 -0.364441   2.35002 255 255 255
-0.0663525 -0.0801168    2.35881 255 255 255
-0.19599  0.16941  2.26244 255 255 255
 0.273425 -0.524808   2.56436 255 255 255
-0.555953   0.41632   2.12508 255 255 255
-0.270015  -0.12864   2.32843 255 255 255
-0.583336 -0.435807   2.35825 255 255 255
-0.516723 -0.162901   2.28849 255 255 255
 0.400847 -0.501511   2.58452 255 255 255
-0.435625 -0.345867   2.35883 255 255 255
 0.170077 -0.166156   2.44439 255 255 255
 0.484758 -0.316039   2.54972 255 255 255
-0.720956 -0.184263   2.24829 255 255 255
-0.446706  -0.34232   2.35604 255 255 255
-0.0911243   0.263888    2.26244 255 255 255
-0.426754 -0.410918   2.38008 255 255 255
-0.505461 -0.463464   2.37462 255 255 255
-0.410445  0.484545   2.13512 255 255 255
 -0.726996 -0.0837865    2.22068 255 255 255
 0.449829 -0.112541   2.49734 255 255 255
 0.335243 -0.476339   2.56458 255 255 255
 0.689531 0.0180507    2.5124 255 255 255
-0.585193 -0.338461   2.32125 255 255 255
 0.401588 -0.490747   2.58585 255 255 255
-0.547116 -0.186559   2.28653 255 255 255
-0.697381 -0.192184   2.25486 255 255 255
-0.511435 -0.339161    2.3359 255 255 255
-0.0178813  -0.300545    2.40155 255 255 255
-0.0301325   -0.37687    2.45255 255 255 255
-0.204351  0.154113   2.26405 255 255 255
-0.161207 -0.352046   2.41879 255 255 255
0.0312505 -0.571347   2.52368 255 255 255
 0.376679 -0.437344   2.56741 255 255 255
0.146496 0.229694  2.29431 255 255 255
 -0.55806 -0.180338   2.28128 255 255 255
-0.259645 -0.522813   2.44698 255 255 255
 -0.0838479 -0.00191268     2.30661 255 255 255
 0.215889 -0.448771   2.52438 255 255 255
0.267774 -0.41829  2.53786 255 255 255
0.0756048 -0.520614   2.51994 255 255 255
 0.207964 -0.458743    2.5253 255 255 255
 0.577721 -0.124524   2.52487 255 255 255
0.0405782 -0.218554   2.41446 255 255 255
0.0399092  0.424154   2.22175 255 255 255
-0.365524 -0.444825   2.39413 255 255 255
-0.0650775   0.389631    2.23439 255 255 255
0.0585774 -0.118072   2.38856 255 255 255
 -0.411728 -0.0740071    2.28359 255 255 255
-0.0277426  0.0833241    2.31034 255 255 255
0.0787088  0.327184   2.28141 255 255 255
0.129194 0.166699  2.34214 255 255 255
-0.712147  0.338554    2.0998 255 255 255
-0.0313227  0.0160368    2.32982 255 255 255
-0.172142 -0.106519   2.33193 255 255 255
-0.0435781 -0.0752494    2.36203 255 255 255
 -0.328329 -0.0512423    2.28221 255 255 255
-0.174423  0.198767    2.2385 255 255 255
-0.090268  -0.10063   2.35337 255 255 255
 0.578075 -0.232758   2.54352 255 255 255
0.00855145    0.32686    2.27524 255 255 255
0.235039 0.102374  2.36482 255 255 255
-0.146271   0.41276    2.2075 255 255 255
-0.482569  0.206686   2.19902 255 255 255
 0.443947 -0.501192    2.5846 255 255 255
 -0.259608 -0.0854666     2.3124 255 255 255
-0.416927 -0.156199   2.30031 255 255 255
-0.650741 0.0342538   2.20011 255 255 255
-0.330711  0.205647   2.22743 255 255 255
-0.164153  0.298253   2.22654 255 255 255
-0.655672  0.403715   2.09662 255 255 255
   -0.814098 -0.000625076      2.17787 255 255 255
-0.352444  -0.41157   2.39827 255 255 255
-0.215774  0.224193   2.22669 255 255 255
 0.109836 -0.102614   2.41199 255 255 255
 0.360497 0.0908023   2.41515 255 255 255
 0.217881 -0.280743   2.47894 255 255 255
  0.433067 0.00258575    2.45828 255 255 255
-0.442623  0.237465    2.1879 255 255 255
 0.473756 -0.341128   2.54872 255 255 255
-0.125141  0.281088   2.25106 255 255 255
 0.118427 -0.234766   2.44731 255 255 255
 0.408654 -0.053264   2.46607 255 255 255
0.115795 0.138484  2.34359 255 255 255
-0.773392   0.39038   2.06634 255 255 255
  0.443715 -0.0524411    2.47546 255 255 255
-0.0353102  -0.408413    2.45275 255 255 255
-0.600213 0.0491436   2.21097 255 255 255
 0.480606 0.0955649   2.44224 255 255 255
0.0566013 -0.433065   2.48967 255 255 255
-0.373651   0.30271   2.19807 255 255 255
-0.157064  0.263616   2.24261 255 255 255
-0.0668651 -0.0100436    2.32025 255 255 255
0.00893811  -0.422882    2.47122 255 255 255
-0.0588137  -0.475194    2.47824 255 255 255
 0.131601 -0.527371    2.5312 255 255 255
-0.019253  0.224353   2.25788 255 255 255
-0.140131  0.157739   2.27487 255 255 255
-0.412069   0.13868   2.23289 255 255 255
-0.639763  0.364763    2.0951 255 255 255
0.196778 0.356508  2.29702 255 255 255
-0.332111  0.379071   2.17423 255 255 255
 0.546835 -0.190217   2.52155 255 255 255
0.270247 -0.45682  2.54661 255 255 255
  0.302348 0.00880539    2.42797 255 255 255
-0.452598  0.406166     2.149 255 255 255
 0.380995 -0.092934   2.47861 255 255 255
 0.388622 -0.217633   2.51132 255 255 255
-0.162174 -0.147795   2.35634 255 255 255
 0.467669 0.0719659   2.44911 255 255 255
0.0473167 -0.058223   2.35235 255 255 255
 0.456132 -0.234545    2.5214 255 255 255
-0.789431 -0.083221   2.20158 255 255 255
-0.327624 -0.437274   2.41579 255 255 255
 0.495563 -0.391586   2.56108 255 255 255
-0.375558  0.217506   2.21595 255 255 255
 0.430952 -0.397886   2.54088 255 255 255
-0.180274 -0.384877    2.4205 255 255 255
-0.140827 -0.498055   2.45995 255 255 255
  0.465074 -0.0102919    2.45754 255 255 255
 0.195869 -0.301187   2.47711 255 255 255
-0.705152  0.113894   2.17627 255 255 255
-0.765674  0.332298   2.08828 255 255 255
 -0.11723 -0.480216   2.45481 255 255 255
-0.0474493  -0.414435    2.46011 255 255 255
-0.516419  0.140716   2.20595 255 255 255
-0.121418 -0.188976   2.36723 255 255 255
-0.24124   0.1317  2.26619 255 255 255
-0.377769 -0.112345   2.29718 255 255 255
-0.197914 -0.103248   2.32146 255 255 255
-0.401504  0.211022   2.21088 255 255 255
0.0556822  0.233423   2.29802 255 255 255
0.00291644  -0.153951    2.37563 255 255 255
 0.259011 -0.535134   2.56366 255 255 255
 0.731536 0.0196592   2.51165 255 255 255
-0.403562  0.182266   2.20957 255 255 255
-0.0560304  -0.445295    2.47295 255 255 255
 0.492726 0.0430935   2.45289 255 255 255
-0.301256 -0.499115   2.42772 255 255 255
 0.429046 -0.448139   2.57335 255 255 255
-0.0481781  -0.207522    2.37863 255 255 255
0.0673037  0.411873    2.2443 255 255 255
 0.252083 -0.284024   2.49537 255 255 255
  0.614984 -0.0537106    2.52394 255 255 255
-0.241324 -0.539524   2.45893 255 255 255
-0.102821  0.146206     2.268 255 255 255
-0.758162  0.310133   2.09462 255 255 255
 0.435235 -0.427883   2.56016 255 255 255
-0.791883  -0.13222   2.22866 255 255 255
0.00833602   0.371183    2.22681 255 255 255
-0.185552  0.225593   2.24543 255 255 255
-0.538576 0.0265129   2.21573 255 255 255
-0.114054  0.259263   2.25995 255 255 255
 -0.147549 -0.0324497    2.32616 255 255 255
-0.791784 -0.221427   2.24824 255 255 255
  0.34393 0.0940392   2.41614 255 255 255
-0.113526 -0.164229   2.36131 255 255 255
-0.841418 -0.177346   2.22553 255 255 255
-0.444175   0.22248   2.20421 255 255 255
-0.167854  0.106931   2.26583 255 255 255
-0.637585 0.0659808   2.20442 255 255 255
-0.762938  0.124038   2.12414 255 255 255
-0.528148  0.433578   2.13432 255 255 255
-0.76267 0.146106  2.12438 255 255 255
-0.450197 -0.234995   2.31945 255 255 255
-0.272257  0.412186   2.19099 255 255 255
-0.747425  0.329664   2.08776 255 255 255
-0.285173 -0.462104   2.41781 255 255 255
0.676539   0.0594  2.50388 255 255 255
 0.433976 0.0219825   2.43233 255 255 255
-0.516368 -0.194714   2.29707 255 255 255
0.0396362 -0.511229   2.50979 255 255 255
0.374997 0.309669  2.32637 255 255 255
 0.398893 -0.522609   2.59123 255 255 255
 -0.24356 0.0335552   2.28819 255 255 255
-0.618294  0.291165   2.11304 255 255 255
 0.180592 -0.118033   2.44085 255 255 255
-0.562054  0.240684   2.17348 255 255 255
 0.362129 -0.477107   2.57399 255 255 255
0.0981276  0.459132   2.25518 255 255 255
 0.316469 -0.512326   2.57131 255 255 255
 0.301425 -0.315669   2.52244 255 255 255
-0.757873  0.232347   2.10074 255 255 255
0.172034  0.38172    2.266 255 255 255
  0.194963 -0.0622075    2.42277 255 255 255
-0.057978 -0.499033   2.48171 255 255 255
 0.193762 -0.154394   2.43775 255 255 255
  0.35342 -0.310026   2.52083 255 255 255
-0.0794621  -0.445014    2.46014 255 255 255
  -0.697067 0.000987246     2.17054 255 255 255
-0.310282  0.215352    2.2368 255 255 255
-0.298821  0.421432   2.18345 255 255 255
0.369033 0.264855  2.34635 255 255 255
-0.741936 -0.295778   2.27991 255 255 255
0.433747  0.21986  2.39654 255 255 255
-0.524828 -0.326554   2.33578 255 255 255
-0.101694 -0.112146   2.34191 255 255 255
-0.559721  0.450526   2.11399 255 255 255
-0.441612  0.309876   2.13665 255 255 255
0.393965 0.160827  2.40294 255 255 255
 0.0585778 -0.0376507    2.35093 255 255 255
 0.227523 -0.536922   2.55879 255 255 255
 0.374005 -0.162072   2.47863 255 255 255
-0.673704 -0.106583    2.2419 255 255 255
 0.681186 0.0250701   2.51096 255 255 255
-0.475237 -0.221593   2.31942 255 255 255
0.124941 0.312552  2.30186 255 255 255
 0.188509 -0.507062   2.52603 255 255 255
-0.413284  0.383248   2.15678 255 255 255
 0.103733 -0.222412   2.44296 255 255 255
-0.653754  0.382415   2.08057 255 255 255
0.0320363  -0.37304   2.46048 255 255 255
-0.708074 -0.171248   2.24618 255 255 255
  0.520124 -0.0600678     2.5014 255 255 255
-0.287303 -0.522922   2.44085 255 255 255
-0.18306 0.367123  2.20302 255 255 255
0.00149161   -0.01825    2.33008 255 255 255
0.0122972  0.396764   2.21604 255 255 255
 -0.646202 -0.0493624    2.20442 255 255 255
  0.361378 -0.0967771    2.47758 255 255 255
0.382399  0.10082  2.41957 255 255 255
-0.438541  0.354728   2.14009 255 255 255
0.518175 -0.12409  2.51335 255 255 255
-0.545188 -0.110953   2.26778 255 255 255
-0.533128 -0.223218     2.299 255 255 255
-0.812799  0.233889   2.10629 255 255 255
-0.0287564  -0.192531    2.39986 255 255 255
0.0705462 -0.516014   2.51807 255 255 255
-0.465542 -0.465411   2.38116 255 255 255
-0.530173  0.449538   2.11956 255 255 255
-0.796384 -0.180743   2.23534 255 255 255
-0.451412  0.180116   2.18125 255 255 255
0.283282 0.316703  2.33491 255 255 255
 0.312245 -0.198683   2.47434 255 255 255
-0.0937781  -0.469275    2.46063 255 255 255
 0.744276 0.0544455   2.51516 255 255 255
-0.500507 -0.413969     2.366 255 255 255
 0.423429 -0.483181   2.57686 255 255 255
 0.188268 0.0878942   2.35654 255 255 255
-0.239923 -0.188495   2.32032 255 255 255
-0.130559 -0.464869   2.45487 255 255 255
0.584182 0.183086  2.42223 255 255 255
 -0.513729 -0.0525512    2.23874 255 255 255
0.0434179  0.402299     2.227 255 255 255
-0.147773  0.213753   2.24262 255 255 255
0.483076 0.226385  2.40036 255 255 255
 0.535165 -0.394922   2.55393 255 255 255
0.00293831  0.0317059    2.34364 255 255 255
-0.603752  0.258869   2.14466 255 255 255
-0.241953  0.124789   2.26777 255 255 255
0.367922 0.104042  2.41631 255 255 255
-0.579809  0.452609   2.10937 255 255 255
 0.099186 -0.252023   2.44293 255 255 255
 0.0764831 -0.0487892    2.34905 255 255 255
-0.387123 -0.505047   2.41115 255 255 255
 0.523074 -0.406599   2.57002 255 255 255
-0.269299 0.0281177   2.26684 255 255 255
0.108098 -0.13704   2.3973 255 255 255
 0.324453 0.0883057   2.40842 255 255 255
-0.0851724  -0.204508    2.36639 255 255 255
  -0.11632 -0.0405396    2.33828 255 255 255
-0.135424 -0.436678   2.45124 255 255 255
-0.338824 -0.456556    2.4065 255 255 255
 0.432793 -0.557335   2.60817 255 255 255
  0.210608 -0.0502751    2.41985 255 255 255
 0.325091 0.0596236    2.4205 255 255 255
-0.628014  0.275405    2.1169 255 255 255
 0.323853 0.0103229   2.43122 255 255 255
-0.577929  0.017582   2.21523 255 255 255
-0.889953 -0.104483   2.19325 255 255 255
 -0.31672 -0.380193   2.39661 255 255 255
  -0.6904 0.0354399   2.17077 255 255 255
-0.549788 -0.339079   2.32616 255 255 255
0.343443  0.29054  2.32354 255 255 255
0.0863781 -0.437188   2.49338 255 255 255
-0.0955983  0.0618005    2.30884 255 255 255
 0.427723 -0.516399    2.5939 255 255 255
0.0599113 0.0786701   2.34646 255 255 255
-0.71935 0.162985  2.12846 255 255 255
 0.312246 -0.561509   2.58095 255 255 255
-0.397629 -0.293687   2.35139 255 255 255
 -0.367721 -0.0488306    2.28774 255 255 255
0.274546  0.29475  2.34035 255 255 255
-0.308376 -0.550439   2.44976 255 255 255
  0.052748 0.00288012    2.34731 255 255 255
0.496311  0.11749  2.44083 255 255 255
-0.318939  0.229641   2.22461 255 255 255
-0.060313  -0.48301   2.47395 255 255 255
 -0.470627 -0.0991342    2.26243 255 255 255
 0.295295 0.0431483   2.41662 255 255 255
-0.104948   0.24474   2.26628 255 255 255
-0.867721 -0.163906   2.21775 255 255 255
0.527376 -0.18209  2.53326 255 255 255
 0.269147 -0.428387   2.53729 255 255 255
 0.289825 -0.449431   2.54905 255 255 255
0.419797 0.220749  2.39752 255 255 255
 -0.40001 -0.124346   2.30142 255 255 255
 0.310638 -0.448459   2.55163 255 255 255
 -0.323852 -0.0909004    2.27781 255 255 255
 0.296519 0.0181368   2.42125 255 255 255
 0.426872 -0.584667   2.61407 255 255 255
-0.0111018  -0.522329    2.50425 255 255 255
0.340613 0.116406  2.40014 255 255 255
 0.331251 -0.337982   2.52664 255 255 255
-0.740109  0.357494   2.05528 255 255 255
0.0877614  0.256272   2.27961 255 255 255
-0.625275 0.0648157    2.2033 255 255 255
 0.401952 -0.579492   2.60271 255 255 255
0.310326 0.065125  2.40964 255 255 255
-0.621874 -0.331873   2.30475 255 255 255
-0.135021 -0.449333   2.45069 255 255 255
 0.334948 -0.347282   2.53321 255 255 255
-0.148178  0.227607   2.24606 255 255 255
  0.1366 0.142858  2.35055 255 255 255
  0.707757 0.00759868    2.50586 255 255 255
   -0.1887 -0.0822302     2.3223 255 255 255
 0.405404 -0.444834   2.57167 255 255 255
 -0.14193 -0.173555   2.36228 255 255 255
-0.249213 -0.282527   2.35933 255 255 255
  0.669864 -0.0314572    2.52218 255 255 255
 0.320663 -0.456246   2.55674 255 255 255
-0.416228 -0.396742   2.38103 255 255 255
 0.441665 -0.461997    2.5714 255 255 255
    0.25172 -0.00420899     2.41819 255 255 255
  0.675294 -0.0490284    2.53077 255 255 255
  0.19412 -0.559253   2.55145 255 255 255
-0.314065 -0.461306    2.4174 255 255 255
-0.663112 0.0460435   2.20207 255 255 255
-0.0177079   0.350002    2.25969 255 255 255
 0.33899 0.265034  2.32402 255 255 255
-0.701822  0.179304   2.14103 255 255 255
0.23081 0.16665 2.32769 255 255 255
-0.757096  0.293009   2.10225 255 255 255
-0.577786  0.436141   2.09959 255 255 255
-0.747347  0.299845    2.1046 255 255 255
-0.0749544  0.0268755    2.32627 255 255 255
-0.217134  0.106674    2.2623 255 255 255
 -0.815784 -0.0443001    2.19133 255 255 255
-0.74128 0.294054  2.11423 255 255 255
 0.499443 -0.321242   2.55758 255 255 255
 0.363254 -0.118027   2.47666 255 255 255
 0.436639 -0.207277   2.51565 255 255 255
  0.423764 -0.0388859    2.46984 255 255 255
-0.858726 -0.055016   2.18615 255 255 255
 0.252518 -0.458305     2.545 255 255 255
 0.672302 0.0304111   2.50709 255 255 255
0.339742 -0.46422   2.5625 255 255 255
  -0.67018 -0.0405948    2.20801 255 255 255
-0.581946  0.412639    2.0966 255 255 255
 0.121994 -0.557831   2.53116 255 255 255
0.385696  0.16866  2.40161 255 255 255
-0.879084 -0.111559   2.19654 255 255 255
0.0513002 0.0947841   2.33847 255 255 255
  0.306216 -0.0144431     2.4252 255 255 255
-0.848196   0.17174   2.10793 255 255 255
-0.534451 0.0349835   2.21788 255 255 255
 0.136596 -0.402252   2.49762 255 255 255
 -0.777512 -0.0662696    2.20345 255 255 255
0.00840916   0.491605     2.2288 255 255 255
 -0.805142 -0.0466754    2.19199 255 255 255
-0.310959  0.484884   2.16091 255 255 255
0.466093 0.246355  2.40048 255 255 255
-0.196126 -0.540502   2.46629 255 255 255
  0.500437 -0.0909135    2.50263 255 255 255
-0.650705 -0.160528   2.26068 255 255 255
 0.259443 -0.396887   2.52943 255 255 255
-0.0125103   -0.28165    2.40643 255 255 255
-0.280317  -0.43757   2.41793 255 255 255
-0.509422    0.2282   2.18815 255 255 255
  0.424658 -0.0858008    2.46734 255 255 255
 0.329593 -0.150419   2.47355 255 255 255
 -0.766406 -0.0269889    2.19216 255 255 255
-0.584856 0.0365077   2.20555 255 255 255
  0.260907 -0.0822584    2.41734 255 255 255
-0.755878    0.1012    2.1467 255 255 255
 -0.874416 -0.0897673    2.19518 255 255 255
-0.626264  0.297649    2.1143 255 255 255
 0.148415 -0.183658   2.41754 255 255 255
  0.430341 -0.0671124    2.46675 255 255 255
  0.253945 -0.0149135    2.42612 255 255 255
-0.591961  0.370929   2.12282 255 255 255
 0.402334 -0.482603    2.5821 255 255 255
-0.199796 -0.311781   2.38691 255 255 255
-0.156609  -0.50448   2.46385 255 255 255
  0.25301 0.0284604   2.41088 255 255 255
-0.700017  0.393862   2.06603 255 255 255
 -0.87533 -0.237238   2.23386 255 255 255
-0.114498 -0.391974   2.44047 255 255 255
 0.615753 -0.196094   2.51623 255 255 255
 0.20297 0.281425  2.29786 255 255 255
 0.691261 0.0646372   2.50049 255 255 255
   0.2814 -0.244042   2.49121 255 255 255
0.124049 0.324354   2.2982 255 255 255
-0.651579 0.0558701   2.19961 255 255 255
 0.183159 -0.490461   2.52548 255 255 255
-0.365586  -0.49818   2.41704 255 255 255
  0.41508 -0.435242    2.5639 255 255 255
 0.331785 -0.458014   2.55894 255 255 255
-0.663954  0.421424   2.09454 255 255 255
-0.131058  0.438289   2.21474 255 255 255
-0.427232  0.325813   2.14274 255 255 255
0.161303  0.36274  2.29629 255 255 255
-0.087646 -0.104387   2.34424 255 255 255
 -0.859921 -0.0125497    2.16864 255 255 255
 0.602297 -0.260631   2.56828 255 255 255
-0.282648   0.13297   2.25374 255 255 255
 0.260775 -0.298973   2.50373 255 255 255
  0.14997 0.0928496    2.3478 255 255 255
 0.335796 -0.403758   2.55167 255 255 255
-0.338842   0.24605    2.2184 255 255 255
0.138355 0.168126  2.34347 255 255 255
-0.791565 -0.286391   2.26879 255 255 255
-0.383003  0.218245   2.20907 255 255 255
 0.154647 -0.259687   2.45485 255 255 255
-0.0662609  0.0384169    2.32267 255 255 255
 -0.116979 -0.0862902    2.33013 255 255 255
-0.641713 -0.167042   2.26354 255 255 255
-0.598688 -0.413432   2.34657 255 255 255
-0.895034 -0.202511   2.21849 255 255 255
-0.243185 -0.532807   2.45218 255 255 255
-0.502225 -0.379772   2.34754 255 255 255
-0.783759 0.0967605   2.12872 255 255 255
-0.361007 -0.292953   2.35486 255 255 255
-0.632328 -0.164949   2.26776 255 255 255
 0.355366 -0.229473   2.50672 255 255 255
-0.493187  0.374337   2.14674 255 255 255
 -0.633402 -0.0561705     2.2114 255 255 255
 0.579513 -0.121335   2.51049 255 255 255
-0.700809 -0.332511   2.30606 255 255 255
0.442732 -0.37549  2.54002 255 255 255
0.0532521 -0.025043   2.34562 255 255 255
-0.258702  0.149104    2.2587 255 255 255
-0.843406 -0.107351   2.20609 255 255 255
-0.370034 -0.510134   2.41847 255 255 255
 0.297816 -0.434769   2.54803 255 255 255
 0.225152 -0.450582   2.52664 255 255 255
-0.754609  0.153159   2.12574 255 255 255
0.049259 0.411078  2.22722 255 255 255
-0.358469  0.378087   2.14395 255 255 255
 0.399848 -0.259374    2.5141 255 255 255
 0.10973 0.311575  2.30011 255 255 255
-0.484122  0.180476   2.17627 255 255 255
-0.138972  -0.50221   2.45504 255 255 255
-0.0130398  -0.543452    2.50827 255 255 255
   0.69797 -0.0821886    2.54687 255 255 255
-0.408491 -0.279141   2.34421 255 255 255
-0.307919 -0.522744   2.43416 255 255 255
-0.0743368    -0.4772    2.47281 255 255 255
 0.407358 -0.511753    2.5903 255 255 255
0.0688008 0.0746518   2.35094 255 255 255
-0.00170942 -0.00621872     2.32501 255 255 255
0.493076 0.235648  2.40022 255 255 255
0.538574 -0.20689  2.53302 255 255 255
 -0.50444 0.0583275   2.23857 255 255 255
-0.845414   -0.2646   2.25237 255 255 255
 -0.40495 -0.383023   2.36684 255 255 255
0.200933 0.225253  2.34383 255 255 255
-0.824541 -0.180685    2.2316 255 255 255
-0.023774  0.291694   2.26584 255 255 255
-0.151562  0.279214   2.24875 255 255 255
-0.766188  0.291599   2.09128 255 255 255
-0.735044  0.434213   2.07317 255 255 255
-0.0815637  -0.112287    2.34503 255 255 255
-0.854763  0.170333   2.10114 255 255 255
 0.253557 -0.210506   2.47907 255 255 255
 0.359334 0.0551877   2.42602 255 255 255
 0.324532 0.0766524   2.41125 255 255 255
-0.233562 -0.467899   2.43496 255 255 255
 -0.316035 -0.0768632    2.27461 255 255 255
0.0146384 -0.484972   2.49827 255 255 255
 0.429627 -0.296627   2.52933 255 255 255
0.122032 0.292074  2.30784 255 255 255
-0.793224 0.0211669   2.17113 255 255 255
-0.0374522  -0.493232    2.48279 255 255 255
-0.645377  0.250749   2.10249 255 255 255
-0.602697 -0.178392   2.27247 255 255 255
 -0.739407 -0.0276876    2.19722 255 255 255
-0.468519 -0.448046   2.37832 255 255 255
 0.337823 0.0561068   2.42381 255 255 255
 0.573243 -0.116218   2.50946 255 255 255
-0.673498  0.419235   2.09095 255 255 255
  0.49023 -0.362675   2.55918 255 255 255
 0.542951 -0.235952   2.54894 255 255 255
0.345686 0.309178  2.32666 255 255 255
0.0792355 -0.420027   2.48567 255 255 255
-0.506976 -0.150413   2.28918 255 255 255
 -0.268515 -0.0604346    2.29466 255 255 255
-0.267432 -0.437995    2.4183 255 255 255
0.562066 -0.11617  2.51133 255 255 255
0.0913958  0.102247   2.34827 255 255 255
  0.13016 0.0691787   2.34286 255 255 255
 0.310976 -0.457914   2.55217 255 255 255
 -0.339798 -0.0171967    2.28708 255 255 255
-0.029957 -0.496091    2.4858 255 255 255
-0.206939 -0.136052   2.34354 255 255 255
 0.533041 -0.145367    2.5253 255 255 255
0.0890717 0.0888025   2.35192 255 255 255
 0.214067 -0.553143   2.55235 255 255 255
0.206079 -0.55802  2.55261 255 255 255
0.0394263 -0.508007   2.50983 255 255 255
-0.0510151  -0.387853    2.44782 255 255 255
-0.552665 -0.123727   2.27072 255 255 255
-0.135748 0.0754002   2.27981 255 255 255
 -0.867395 -0.0810503    2.18781 255 255 255
 -0.523163 -0.0119662    2.24969 255 255 255
-0.574984 -0.375217   2.33477 255 255 255
 0.321405 -0.519516   2.57809 255 255 255
 -0.755799 -0.0473467    2.20105 255 255 255
 0.341927 -0.473683   2.56568 255 255 255
 0.259723 -0.476091   2.55108 255 255 255
-0.788128  0.171468   2.10839 255 255 255
-0.750934 -0.038356   2.19704 255 255 255
0.106529 0.116795  2.34794 255 255 255
 0.68067 0.123829   2.4832 255 255 255
-0.0112043  -0.461634    2.48767 255 255 255
-0.449689   0.19571   2.18918 255 255 255
-0.549289  0.173844   2.16299 255 255 255
-0.616342  0.256537   2.12113 255 255 255
-0.690224 -0.109201   2.23647 255 255 255
0.153206 0.166256  2.34669 255 255 255
-0.688661 -0.159614   2.24975 255 255 255
 0.269143 -0.460485   2.54629 255 255 255
-0.100721 -0.508079   2.47775 255 255 255
 0.382904 -0.130746   2.48753 255 255 255
 0.431053 -0.524685   2.59779 255 255 255
 0.389149 -0.581678   2.60076 255 255 255
 -0.692132 -0.0994594     2.2349 255 255 255
 -0.636682 -0.0753778    2.20079 255 255 255
 0.256779 -0.418508   2.52789 255 255 255
-0.637008  0.441123   2.09591 255 255 255
-0.526262  0.402211   2.13489 255 255 255
 0.208001 -0.579503   2.56283 255 255 255
 0.505179 -0.159073   2.51143 255 255 255
-0.766662  0.283236   2.09142 255 255 255
 0.164053 0.0246091   2.34494 255 255 255
-0.372393  -0.30618    2.3613 255 255 255
0.0935639  0.246342   2.27844 255 255 255
-0.489191 -0.236821    2.3199 255 255 255
-0.653234  0.267575   2.10328 255 255 255
-0.0416989  -0.222316    2.38321 255 255 255
-0.0630342  0.0461572    2.32461 255 255 255
0.775562 0.044174  2.52179 255 255 255
 0.344773 0.0481297   2.43207 255 255 255
-0.358761 -0.523128    2.4237 255 255 255
-0.810122 -0.056293   2.19655 255 255 255
 0.306538 -0.428721   2.54861 255 255 255
0.135277 -0.19336  2.41263 255 255 255
-0.845939  0.184882   2.10681 255 255 255
 0.441046 -0.500463   2.58645 255 255 255
  0.32425 -0.304917   2.51615 255 255 255
-0.0908997   0.355566     2.2415 255 255 255
-0.123724 -0.527529   2.47646 255 255 255
 0.265992 -0.522406   2.56812 255 255 255
  -0.228129 -0.00641167       2.278 255 255 255
-0.392797 -0.271095   2.34724 255 255 255
-0.0992893   0.116494    2.30038 255 255 255
 0.410264 -0.278847   2.52557 255 255 255
-0.354277 0.0513769   2.26696 255 255 255
-0.913837 -0.238906   2.22775 255 255 255
 0.189817 -0.121631   2.43775 255 255 255
 0.526171 -0.135024   2.52039 255 255 255
-0.139898 -0.372181   2.43312 255 255 255
 0.283555 -0.256778   2.49721 255 255 255
  -0.82921 -0.0507152    2.19279 255 255 255
-0.0914316  -0.284298     2.4151 255 255 255
   0.1526 -0.367584   2.48914 255 255 255
0.285622 0.306777  2.33681 255 255 255
 -0.617112 -0.0934852    2.24696 255 255 255
-0.0346333  -0.565274    2.50606 255 255 255
 0.550083 -0.075001   2.51008 255 255 255
-0.261953  -0.32041   2.36354 255 255 255
0.0232936 -0.383994   2.46525 255 255 255
-0.612468  0.243167   2.12462 255 255 255
 0.400119 -0.282645   2.52006 255 255 255
0.0130726 0.0700834   2.33753 255 255 255
-0.228208   0.39726   2.20102 255 255 255
 0.528292 -0.206356   2.53757 255 255 255
0.0911354   0.18905   2.32493 255 255 255
-0.550655 -0.363958   2.33749 255 255 255
-0.503505  0.361411    2.1483 255 255 255
 0.438899 -0.161765   2.50776 255 255 255
 -0.892576 -0.0745887    2.18412 255 255 255
 -0.791774 -0.0710629    2.20504 255 255 255
 0.541172 -0.147199   2.52538 255 255 255
0.177742 0.132418  2.36177 255 255 255
-0.0294305  -0.453943    2.47518 255 255 255
-0.854987  0.154188    2.1005 255 255 255
-0.699351 -0.334643   2.30497 255 255 255
 0.485528 -0.322478   2.55249 255 255 255
-0.596788 -0.170915   2.27007 255 255 255
 -0.540202 -0.0743797    2.26604 255 255 255
-0.211749  0.293026   2.19976 255 255 255
 0.573751 -0.276949   2.56568 255 255 255
-0.0747052  0.0692714    2.31338 255 255 255
-0.624652  0.253863   2.11865 255 255 255
-0.212013 -0.497755   2.44504 255 255 255
-0.478883 -0.104015   2.25616 255 255 255
  0.541994 -0.0915306    2.51163 255 255 255
0.768989 0.046288  2.52087 255 255 255
-0.671374 -0.240589   2.26907 255 255 255
 0.391757 -0.541297   2.59498 255 255 255
 -0.10236 -0.280125   2.41208 255 255 255
0.174374  0.41587  2.26123 255 255 255
-0.0606727  0.0939289    2.31252 255 255 255
0.233235 -0.28872  2.48439 255 255 255
-0.802984 -0.062182   2.19937 255 255 255
0.0713662  0.427133   2.22768 255 255 255
 0.496755 -0.352383   2.55855 255 255 255
-0.233917  0.365765   2.21005 255 255 255
0.513614 0.162749  2.43635 255 255 255
-0.163651 0.0283078   2.28472 255 255 255
 0.505912 -0.303243   2.55555 255 255 255
 -0.84416 -0.180408   2.22263 255 255 255
 0.473835 -0.285248    2.5404 255 255 255
-0.675213 -0.311237   2.28779 255 255 255
 0.699529 -0.101572   2.55374 255 255 255
-0.123742  0.275096   2.25447 255 255 255
-0.219357 -0.468023   2.44156 255 255 255
 0.374829 -0.453842   2.57071 255 255 255
-0.158347 -0.543013   2.47606 255 255 255
-0.0998678  0.0757134    2.30909 255 255 255
 0.203333 -0.573254   2.56058 255 255 255
-0.550215  0.254084   2.17213 255 255 255
 -0.853437 -0.0330633    2.18325 255 255 255
-0.0797711  0.0930939    2.30682 255 255 255
 -0.191861 -0.0655061    2.32699 255 255 255
 0.544231 -0.216361   2.53708 255 255 255
-0.653348  0.238855   2.09727 255 255 255
0.290519 0.342093  2.33401 255 255 255
0.212574 0.402127  2.27807 255 255 255
-0.779676   0.41603   2.02975 255 255 255
  0.166171 -0.0915155    2.42256 255 255 255
-0.242375 -0.505286   2.44269 255 255 255
-0.480199 -0.417038   2.36838 255 255 255
-0.561367  0.310005   2.10751 255 255 255
-0.0309811   -0.48806      2.484 255 255 255
 0.241605 -0.471776   2.54518 255 255 255
0.185602 0.176291  2.34696 255 255 255
0.532707 0.156852  2.44205 255 255 255
-0.693153  0.192348   2.15091 255 255 255
  -0.58772 -0.0808409    2.25066 255 255 255
-0.410883 -0.483766   2.40118 255 255 255
0.0324729  0.205703   2.27398 255 255 255
 -0.109948 -0.0540055    2.34228 255 255 255
-0.641121  0.243901   2.10524 255 255 255
 -0.09815 -0.481324   2.46543 255 255 255
-0.700158  0.156652   2.13898 255 255 255
-0.707443  -0.14624   2.24133 255 255 255
-0.421797 -0.235456   2.33107 255 255 255
-0.703503   0.14987    2.1349 255 255 255
-0.107424 -0.530447   2.48129 255 255 255
 0.352818 -0.484301   2.57379 255 255 255
-0.131085 -0.490272    2.4567 255 255 255
 -0.721162 -0.0438794     2.2136 255 255 255
-0.495202 -0.164949   2.29633 255 255 255
-0.229736  0.148188   2.26146 255 255 255
 0.364988 -0.548337   2.58918 255 255 255
 0.234329 -0.548029   2.55932 255 255 255
 -0.17219 -0.517886   2.46408 255 255 255
-0.465744 -0.258427   2.33042 255 255 255
-0.431248 -0.166671   2.29168 255 255 255
 0.666061 -0.155899   2.56203 255 255 255
-0.902163 -0.246502   2.23243 255 255 255
-0.771727  0.447835   2.03432 255 255 255
-0.442587  0.314083   2.13283 255 255 255
-0.0921679  -0.148217    2.35102 255 255 255
-0.303125 -0.459005    2.4205 255 255 255
-0.469926 -0.399693   2.35916 255 255 255
0.025532 0.492566  2.23177 255 255 255
 0.458515 -0.295694   2.54342 255 255 255
-0.652583  0.230428    2.0949 255 255 255
-0.752532  0.419333   2.05672 255 255 255
 0.125473 -0.519573   2.53068 255 255 255
-0.778779 -0.155565   2.22924 255 255 255
-0.176554 -0.502267   2.46157 255 255 255
 0.022116 0.0607878   2.34243 255 255 255
  -0.86459 -0.0432363    2.18083 255 255 255
  0.641003 -0.0585531    2.53033 255 255 255
  -0.77686 0.00743473    2.18728 255 255 255
-0.135803  0.445767   2.20947 255 255 255
-0.213839 -0.462327   2.44127 255 255 255
-0.244484 -0.467319   2.43472 255 255 255
-0.0917294   0.301751    2.25311 255 255 255
-0.323104  0.220313   2.22724 255 255 255
0.0297999 -0.564792   2.52246 255 255 255
-0.0867029  -0.481832    2.47312 255 255 255
-0.0296264   0.349895    2.25661 255 255 255
 0.100288 -0.576179   2.53565 255 255 255
-0.754987  -0.11424   2.22412 255 255 255
-0.0808908   0.350434    2.24519 255 255 255
 0.423665 -0.234016   2.51119 255 255 255
0.532108 -0.33302  2.57302 255 255 255
  -0.8677 -0.144551   2.20788 255 255 255
0.0341989 -0.386064   2.46283 255 255 255
-0.0614293  -0.120867    2.35368 255 255 255
 0.391998 -0.200999   2.50853 255 255 255
-0.798325  -0.21571   2.24593 255 255 255
-0.73667  0.30515  2.11196 255 255 255
-0.236131  0.140866    2.2658 255 255 255
  0.19221 -0.471169    2.5257 255 255 255
0.505205 0.152882  2.43619 255 255 255
 0.281328 -0.294566   2.50881 255 255 255
 -0.544279 -0.0566129    2.25744 255 255 255
-0.857435 0.0294844   2.16118 255 255 255
 0.388915 -0.244314   2.50607 255 255 255
-0.0897013  0.0455989    2.30202 255 255 255
-0.611415  0.128245   2.19352 255 255 255
  0.693887 -0.0355712    2.53247 255 255 255
-0.422046 -0.385162    2.3648 255 255 255
-0.0848436  0.0848885    2.30789 255 255 255
 0.455501 -0.410428   2.53267 255 255 255
-0.320119 -0.392793   2.39938 255 255 255
-0.509967 -0.390973   2.34581 255 255 255
 0.281845 -0.440112   2.54573 255 255 255
-0.72804  0.43015  2.07662 255 255 255
0.0356006  0.470156   2.24154 255 255 255
0.123662 0.305967  2.30395 255 255 255
-0.448534  -0.48964   2.39239 255 255 255
-0.588538  0.433267   2.09833 255 255 255
 0.652839 -0.118014   2.54866 255 255 255
-0.856543 -0.225392   2.23596 255 255 255
-0.115468 -0.510209   2.47173 255 255 255
-0.411005  0.035795   2.25927 255 255 255
 -0.44633 -0.475788   2.39465 255 255 255
-0.469762 0.0644888   2.23938 255 255 255
 0.452465 -0.193451   2.52211 255 255 255
   0.30824 -0.0070837    2.42734 255 255 255
-0.530135 0.0503224   2.23284 255 255 255
  0.30503 -0.475427   2.55097 255 255 255
 0.280036 -0.301273   2.51162 255 255 255
-0.530092 -0.227799   2.30101 255 255 255
 -0.88044 -0.122802   2.20367 255 255 255
 -0.614437 -0.0830253    2.24515 255 255 255
-0.188454 -0.294252   2.39682 255 255 255
-0.570045   0.46234   2.10885 255 255 255
0.169672 0.421251  2.26151 255 255 255
-0.715578  0.152864   2.12938 255 255 255
 -0.78389 -0.176649    2.2383 255 255 255
0.150874 0.068503  2.34687 255 255 255
0.386633 0.186022  2.39398 255 255 255
0.241447 0.237907  2.35105 255 255 255
0.126257 0.118224  2.35167 255 255 255
 0.238816 -0.251226   2.48287 255 255 255
 0.515094 -0.103202   2.50824 255 255 255
0.0506937 -0.311618   2.45194 255 255 255
 0.419896 -0.428292   2.56634 255 255 255
 0.288532 -0.292854   2.50924 255 255 255
-0.189346 -0.171934   2.36062 255 255 255
0.0719921  0.301419   2.29213 255 255 255
 0.264958 -0.470536   2.54823 255 255 255
-0.192017 -0.514174   2.45965 255 255 255
-0.344401  0.044615   2.27084 255 255 255
-0.301144  0.166454   2.24442 255 255 255
-0.199368 -0.489577   2.45106 255 255 255
 0.558853 -0.291787   2.56855 255 255 255
-0.860629  0.220432   2.11342 255 255 255
-0.345778 -0.347139   2.38235 255 255 255
-0.240369  0.389628   2.19819 255 255 255
 -0.462087 -0.0757901    2.27802 255 255 255
-0.0234134  -0.116314    2.37915 255 255 255
-0.342148 -0.225797   2.34194 255 255 255
 0.226571 -0.437894   2.52322 255 255 255
-0.431122 -0.416168   2.37915 255 255 255
  -0.874255 -0.00570631     2.16846 255 255 255
 0.268111 0.0368321   2.41225 255 255 255
0.202222 -0.45881  2.52486 255 255 255
 0.311888 -0.302903   2.51489 255 255 255
0.0642407  0.416489   2.22541 255 255 255
 0.0807053 -0.0453372    2.35411 255 255 255
-0.482287 -0.340946   2.34281 255 255 255
  0.431697 0.00756775     2.4592 255 255 255
0.239169 -0.28084  2.49117 255 255 255
  -0.307778 -0.00034179     2.26861 255 255 255
  0.54757 -0.175845   2.52659 255 255 255
-0.620825 -0.185853   2.26376 255 255 255
-0.0262391  0.0525648    2.33056 255 255 255
-0.607026  -0.14668   2.26086 255 255 255
0.345408 0.122739  2.40947 255 255 255
 0.188946 -0.498211   2.52683 255 255 255
-0.535959   0.38903   2.13615 255 255 255
-0.702821 -0.268247   2.27397 255 255 255
-0.793177  0.371726   2.07746 255 255 255
 -0.882998 -0.0834195    2.19024 255 255 255
-0.563786  0.405508   2.12205 255 255 255
-0.643454  0.237707   2.10312 255 255 255
-0.524779  -0.35136   2.33774 255 255 255
0.128701 0.318999  2.29985 255 255 255
-0.535452 -0.106145   2.26947 255 255 255
 0.180815 -0.523871   2.53472 255 255 255
-0.28913 0.200976  2.23882 255 255 255
-0.108726  0.286094   2.25341 255 255 255
-0.476686 -0.140571   2.29198 255 255 255
 0.0922396 -0.0552236    2.35531 255 255 255
-0.413438 -0.193741   2.29227 255 255 255
0.116953 0.119762  2.34998 255 255 255
-0.615661  0.337519   2.12769 255 255 255
-0.0972871   0.258877    2.26539 255 255 255
-0.294665  0.148008   2.25227 255 255 255
-0.232717 -0.493274   2.44336 255 255 255
0.220672 -0.58613   2.5683 255 255 255
