ply
format ascii 1.0
element vertex 1136
property float x
property float y
property float z
property uchar red
property uchar green
property uchar blue
end_header
-0.278039   1.51366    1.2205 255 255 255
-0.380378    1.4206   1.30352 255 255 255
-0.258726   1.03227   1.58765 255 255 255
-0.116776   1.67579    1.1021 255 255 255
0.121545  1.87897 0.968956 255 255 255
-0.0567344    1.70188    1.10487 255 255 255
-0.280275   1.47729   1.25514 255 255 255
-0.555344   1.40829   1.26679 255 255 255
0.0814492   1.79639   1.02713 255 255 255
-0.3669 1.08136 1.53702 255 255 255
0.457026  1.57074  1.11096 255 255 255
-0.342255   1.11126    1.5343 255 255 255
-0.209037   1.53294   1.21537 255 255 255
-0.0420714    1.78096    1.02571 255 255 255
0.465779  1.93724 0.917547 255 255 255
-0.028845   1.76586   1.03832 255 255 255
-0.166633    1.7061   1.07045 255 255 255
-0.394353   1.41113    1.3106 255 255 255
0.481521  1.94797 0.900465 255 255 255
0.569989  1.91341  0.94034 255 255 255
0.489318  1.85854  1.00597 255 255 255
0.526541  1.88818 0.978439 255 255 255
0.570597  2.02233 0.847523 255 255 255
0.150632  1.92101  0.94432 255 255 255
0.05534 1.80856 1.01018 255 255 255
 0.49399  1.93884 0.909748 255 255 255
-0.0679111    1.78518    1.02165 255 255 255
-0.0646853    1.75297    1.03542 255 255 255
0.0192923     1.849  0.975249 255 255 255
-0.188739   1.70707   1.04888 255 255 255
0.176634  1.99136 0.875729 255 255 255
-0.625187   1.09438   1.53109 255 255 255
-0.45103  1.35765  1.34374 255 255 255
-0.0478516    1.72686    1.08018 255 255 255
-0.176124   1.73194    1.0416 255 255 255
0.0392704   1.06068   1.45553 255 255 255
0.0346616    1.7881   1.02711 255 255 255
0.14656 1.77319 1.02998 255 255 255
0.589796  1.95356 0.899737 255 255 255
-0.0950623    1.77705    1.01492 255 255 255
0.287497  1.63709  1.09902 255 255 255
-0.0867036    1.71872    1.07187 255 255 255
-0.411673   1.37405   1.34277 255 255 255
-0.385343   1.46902   1.25099 255 255 255
0.571586  1.99573 0.873412 255 255 255
-0.348611   1.45274    1.2655 255 255 255
-0.188289   1.68241   1.07642 255 255 255
0.558402  1.97402 0.883171 255 255 255
-0.128054   1.70259   1.07699 255 255 255
0.696514  1.92332 0.905523 255 255 255
0.337814  1.99023 0.888256 255 255 255
0.216014  1.86102 0.986227 255 255 255
-0.176369   1.65697   1.11433 255 255 255
-0.0843366     1.7408    1.05111 255 255 255
0.0126554   1.86474  0.968473 255 255 255
-0.111112   1.73035   1.05422 255 255 255
0.119342  1.93361 0.912578 255 255 255
-0.30358  1.48753  1.23779 255 255 255
-0.0884918    1.79071    0.99199 255 255 255
-0.507509   1.44671   1.25589 255 255 255
-0.352577   1.40488   1.32422 255 255 255
0.0174282   1.80129   1.01181 255 255 255
0.202889  2.00751 0.861339 255 255 255
-0.49263  1.46343  1.23866 255 255 255
0.564765  2.00764 0.857386 255 255 255
-0.0451832    1.81175    1.00388 255 255 255
-0.102853   1.79126  0.990455 255 255 255
0.0665101   1.87078  0.964631 255 255 255
0.677445  1.93207 0.900981 255 255 255
-0.39208  1.34986  1.35937 255 255 255
-0.442475   1.30873   1.39115 255 255 255
0.011295  1.76748  1.05961 255 255 255
-0.145948   1.68565   1.08469 255 255 255
-0.381272   1.35847   1.35247 255 255 255
-0.0291171    1.81838   0.995421 255 255 255
 0.13039  1.94484 0.916515 255 255 255
-0.0366519    1.79491    1.01037 255 255 255
-0.0295652    1.83477   0.987207 255 255 255
0.494489  1.92302 0.928837 255 255 255
-0.151568   1.63676   1.12808 255 255 255
   0.131  1.89319 0.973618 255 255 255
0.0175597   1.77271   1.03916 255 255 255
-0.426486   1.51991   1.19884 255 255 255
-0.659426   1.04681   1.56249 255 255 255
0.0696069   1.88506  0.946523 255 255 255
-0.158662   1.69917   1.07681 255 255 255
-0.512771   1.44672   1.24932 255 255 255
-0.174329   1.67325   1.10679 255 255 255
0.562444  1.91133 0.949954 255 255 255
-0.0333528    1.80734    1.00035 255 255 255
-0.161327   1.63172   1.13668 255 255 255
-0.486491    1.0859   1.54112 255 255 255
0.471169  1.92504 0.925401 255 255 255
0.580111  1.98969   0.8771 255 255 255
-0.54041  1.17611  1.48219 255 255 255
0.139798   1.9846 0.879372 255 255 255
-0.142696   1.63232   1.11859 255 255 255
0.0271918   1.77423   1.05826 255 255 255
-0.0888847    1.68126    1.10792 255 255 255
0.0057225   1.76651   1.04319 255 255 255
0.0160255   1.88603  0.952786 255 255 255
0.0622097    1.8191   1.02002 255 255 255
-0.508881   1.32671   1.35988 255 255 255
-0.270308   1.46783   1.27251 255 255 255
0.329748   1.9814 0.896566 255 255 255
-0.0372237    1.85389   0.948609 255 255 255
-0.406066   1.39614   1.30912 255 255 255
0.113233  1.92729 0.926735 255 255 255
-0.640621   1.22076   1.43652 255 255 255
-0.0439652    1.77182     1.0306 255 255 255
0.181459  2.00193 0.869377 255 255 255
-0.111174   1.65001   1.13796 255 255 255
0.0244732   1.89749  0.945108 255 255 255
0.123929  1.97657 0.884945 255 255 255
0.583259  1.90322 0.953326 255 255 255
0.0107487   1.84061  0.980852 255 255 255
-0.00846867      1.8497    0.977467 255 255 255
 0.20106  1.90298 0.965433 255 255 255
0.151739  1.99152 0.868339 255 255 255
0.0437636    1.8535  0.972089 255 255 255
0.119096   1.8544  1.00562 255 255 255
0.100451  1.93766  0.91259 255 255 255
0.114845  1.85026  1.00901 255 255 255
-0.196491   1.68148   1.09859 255 255 255
-0.0935475     1.6787    1.09866 255 255 255
-0.354299   1.06565   1.56854 255 255 255
0.490415  1.91472  0.93346 255 255 255
0.125787  1.85992  1.00135 255 255 255
0.0318001   1.90774  0.936159 255 255 255
-0.459397   1.38694   1.31135 255 255 255
0.312343 0.940894  1.44209 255 255 255
-0.106381   1.71479   1.06527 255 255 255
-0.501734   1.41043    1.2937 255 255 255
0.551516  1.92918 0.944411 255 255 255
-0.0450738    1.81936    0.99754 255 255 255
-0.00533718     1.71061     1.10687 255 255 255
-0.130263    1.7349    1.0547 255 255 255
-0.130852   1.68823   1.08655 255 255 255
0.093396  1.91185 0.926184 255 255 255
-0.0804252    1.81193   0.979929 255 255 255
0.077537  1.92634 0.918271 255 255 255
-0.0414644    1.72705    1.08406 255 255 255
-0.0676991    1.77494    1.02968 255 255 255
0.0508372   1.86596  0.967617 255 255 255
0.0250103   1.87376  0.957746 255 255 255
-0.000113683      1.85573     0.973702 255 255 255
-0.0819886    1.72883    1.05701 255 255 255
0.0357568   1.73723   1.06432 255 255 255
  2.82957   3.68003 -0.112349 255 255 255
  2.54644   3.95189 -0.153674 255 255 255
   2.94063    3.69938 -0.0937535 255 255 255
   2.83847    3.81461 -0.0678599 255 255 255
  2.86936   3.49852 -0.169828 255 255 255
 2.99472  3.82996 -0.40784 255 255 255
   2.99223    3.77451 -0.0275388 255 255 255
 2.85414  3.62819 -0.15864 255 255 255
  2.83351    3.5256 -0.213639 255 255 255
 2.10591  4.31221 0.292034 255 255 255
   2.9204    3.4991 -0.167153 255 255 255
   2.98886    3.71575 -0.0409304 255 255 255
  2.89869   3.46873 -0.196614 255 255 255
 3.03971  3.79537 0.010564 255 255 255
  2.87866    3.5603 -0.156299 255 255 255
  2.55033   4.61993 -0.331146 255 255 255
  2.59005   3.54808 -0.124664 255 255 255
  3.13246   4.03087 0.0254095 255 255 255
  3.06067   3.85689 0.0276181 255 255 255
 2.2964 4.29687 0.28473 255 255 255
  2.77048   3.69297 -0.161316 255 255 255
 2.77567  3.54135 -0.17606 255 255 255
  3.12745   3.99355 0.0411707 255 255 255
  3.17446   3.94772 0.0419891 255 255 255
  2.55483   3.58286 -0.241796 255 255 255
  2.86055   3.36271 -0.247864 255 255 255
  3.03364   3.89401 0.0259434 255 255 255
   2.92256    3.81676 -0.0432125 255 255 255
   3.01316    3.79435 -0.0151444 255 255 255
  2.92609   3.38077 -0.226047 255 255 255
 2.91152  3.42015 -0.20175 255 255 255
  2.86187   3.45971 -0.227885 255 255 255
  3.13362   4.06245 0.0497194 255 255 255
 2.35782  4.61165 0.116685 255 255 255
   3.0652   3.89639 0.0437391 255 255 255
     3.12   3.99637 0.0364767 255 255 255
  2.63914   3.38846 -0.226614 255 255 255
  3.14296   3.97542 0.0383518 255 255 255
   3.00122     3.6799 -0.0458265 255 255 255
  2.93774   3.37567 -0.214154 255 255 255
 3.13067  3.78387 0.038925 255 255 255
   2.74325    3.99449 -0.0563701 255 255 255
  2.93359     3.584 -0.117308 255 255 255
  3.18735   3.93996 0.0464087 255 255 255
  3.02422   3.88984 0.0172563 255 255 255
 2.13602  4.33932 0.312182 255 255 255
  3.11593   3.77629 0.0281025 255 255 255
   3.0873   3.84179 0.0364314 255 255 255
    3.0276    3.71188 -0.0203726 255 255 255
   3.0828   3.81397 0.0296013 255 255 255
 1.7752 4.38611  0.3476 255 255 255
  2.56045   3.48947 -0.245403 255 255 255
 2.37656  4.62624 0.128049 255 255 255
   3.03084    3.80108 0.00372689 255 255 255
   2.92681    3.83458 -0.0290029 255 255 255
   3.02433    3.73146 -0.0264016 255 255 255
  3.09546   3.73869 0.0186335 255 255 255
  3.11828   3.81964 0.0433782 255 255 255
  2.61789   3.87173 -0.149848 255 255 255
   3.1269   4.01073 0.0354749 255 255 255
  3.18565   3.92429 0.0417485 255 255 255
 2.57581  3.55991 -0.24364 255 255 255
  2.97032   3.48278 -0.157345 255 255 255
  2.32602   3.89622 -0.196852 255 255 255
     2.9634     3.87101 -0.00826036 255 255 255
 2.33062  4.60669 0.155991 255 255 255
  2.91577   3.43758 -0.194906 255 255 255
   3.1345   3.82444 0.0534391 255 255 255
  2.73654   3.36345 -0.204442 255 255 255
  1.7479  4.39924 0.356941 255 255 255
   2.98453    3.89932 -0.0013014 255 255 255
   2.84632    3.76687 -0.0697674 255 255 255
   2.78893    3.86337 -0.0780905 255 255 255
  2.93072   3.44714 -0.192731 255 255 255
  2.34335   3.88932 -0.208271 255 255 255
  3.02679    3.8916 0.0229366 255 255 255
    3.00708     3.84044 -0.00913673 255 255 255
  2.95287    3.3677 -0.214354 255 255 255
 2.21528  4.55089 0.152001 255 255 255
   2.98814    3.80086 -0.0164229 255 255 255
  3.11131   3.73962 0.0266342 255 255 255
  2.63407   3.87837 -0.160506 255 255 255
   2.89022    3.95062 -0.0697407 255 255 255
    2.9717    3.88195 -0.0076551 255 255 255
    2.98705       3.871 -0.00078466 255 255 255
  2.96037   3.79632 -0.037986 255 255 255
  3.15706   3.95646 0.0282603 255 255 255
   2.81555    3.84637 -0.0835996 255 255 255
  3.05532    3.8797 0.0309733 255 255 255
    3.03517     3.75289 -0.00543031 255 255 255
  3.16697   3.89885 0.0242631 255 255 255
 2.35594  4.57589 0.142604 255 255 255
  2.56448   3.84178 -0.183776 255 255 255
   2.96525    3.72524 -0.0625073 255 255 255
  2.16428   3.78573 -0.324383 255 255 255
  2.57618   3.54133 -0.243389 255 255 255
 2.00962  4.31635 0.297917 255 255 255
  3.17162   3.88712 0.0276108 255 255 255
  3.19269   3.94785 0.0459263 255 255 255
  2.74854   3.73069 -0.124784 255 255 255
  3.16476   3.99962 0.0382027 255 255 255
   3.1954   3.99541 0.0583578 255 255 255
 2.23189  4.30377 0.276404 255 255 255
 3.07852  3.80055 0.023272 255 255 255
   3.02511    3.64451 -0.0435982 255 255 255
 2.12858  4.34638 0.316831 255 255 255
 2.60295  3.36106 -0.23248 255 255 255
  2.18417    4.5469 0.0641494 255 255 255
  2.61811    3.6211 -0.223581 255 255 255
 2.07076   4.3197 0.305583 255 255 255
   3.1949    3.9257 0.0443958 255 255 255
 3.08438  3.79341 0.024662 255 255 255
  2.64745   3.61545 -0.208021 255 255 255
   3.1889   3.93169 0.0455683 255 255 255
   3.01367    3.67003 -0.0414669 255 255 255
   3.0379   3.88855 0.0249062 255 255 255
  2.86456   3.41923 -0.234161 255 255 255
  3.18372   3.96092 0.0475654 255 255 255
  3.09076   3.85528 0.0390048 255 255 255
   2.93862    3.63984 -0.0848639 255 255 255
    3.0689    3.74762 0.00967245 255 255 255
   3.07688     3.7295 0.00735603 255 255 255
   3.07849    3.73251 0.00582932 255 255 255
    2.8737     3.9738 -0.0925253 255 255 255
  3.11961   4.05179 0.0494956 255 255 255
 2.32347  4.24708 0.245957 255 255 255
  2.94471   3.73583 -0.055643 255 255 255
 2.26127  4.46874 0.077177 255 255 255
  3.21859   4.00979 0.0674394 255 255 255
   3.1981   3.94328 0.0509382 255 255 255
  2.57523   4.62292 -0.287661 255 255 255
   2.73989    4.02201 -0.0653042 255 255 255
   2.95303     3.6279 -0.0923644 255 255 255
  3.04935   3.88436 0.0304125 255 255 255
 1.82745  4.38459 0.345536 255 255 255
 3.07127  3.84481 0.029413 255 255 255
   3.04141     3.8181 0.00566296 255 255 255
 2.89373  3.43518 -0.19562 255 255 255
  3.08647   3.77554 0.0199269 255 255 255
  3.09706   3.82019 0.0333057 255 255 255
  2.70436   4.23632 0.0865024 255 255 255
    3.02269     3.76405 -0.00890568 255 255 255
   2.98539    3.88173 0.00195564 255 255 255
   2.96059    3.83969 -0.0177101 255 255 255
 2.12911  4.35352 0.320973 255 255 255
 2.03937  4.29752 0.291798 255 255 255
   3.1033   3.81404 0.0488885 255 255 255
     3.021    3.84857 0.00730033 255 255 255
  3.11111   3.78428 0.0326551 255 255 255
     3.022    3.86695 0.00338422 255 255 255
   2.93179    3.81716 -0.0323384 255 255 255
   2.73993    3.94639 -0.0777108 255 255 255
    3.00137     3.83446 -0.00500346 255 255 255
  3.07516   3.87748 0.0367559 255 255 255
   2.96286    3.79078 -0.0227405 255 255 255
   2.75316     3.9444 -0.0838468 255 255 255
  2.56169   4.62567 -0.311595 255 255 255
  2.54023   3.90489 -0.141942 255 255 255
  3.14712   3.94505 0.0311518 255 255 255
  3.11762   3.79856 0.0389772 255 255 255
  2.57038   3.59698 -0.228088 255 255 255
  3.03996   3.92026 0.0305509 255 255 255
  3.14244   4.04454 0.0431026 255 255 255
2.84085 3.51901 -0.1802 255 255 255
  3.18204   4.05088 0.0667602 255 255 255
   2.77541    3.91146 -0.0799913 255 255 255
 2.09512  4.30766 0.301704 255 255 255
  3.05284   3.84915 0.0243588 255 255 255
   2.98594    3.82199 -0.0207895 255 255 255
  3.15719   3.96354 0.0390932 255 255 255
  2.79643   3.58264 -0.152457 255 255 255
   2.9166   3.55539 -0.154478 255 255 255
   2.92874    3.74574 -0.0558303 255 255 255
   2.98518    3.74745 -0.0332382 255 255 255
   2.92929    3.85859 -0.0238884 255 255 255
   2.98948    3.74405 -0.0398696 255 255 255
   3.01916      3.685 -0.0358583 255 255 255
   2.74589    3.94488 -0.0801625 255 255 255
   3.00604    3.79505 -0.0232317 255 255 255
  3.13064   3.96784 0.0297691 255 255 255
  3.10101    4.0407 0.0239333 255 255 255
  2.50623   4.67535 -0.398821 255 255 255
   2.88281    3.71384 -0.0755402 255 255 255
  3.16721   3.91147 0.0326315 255 255 255
   2.96928    4.27407 -0.0295678 255 255 255
   3.0538   3.81134 0.0157041 255 255 255
 3.05392  3.81498 0.014058 255 255 255
  2.34121   3.88447 -0.197701 255 255 255
 3.15324  3.92009 0.024895 255 255 255
  3.15213   3.93317 0.0303179 255 255 255
   3.05899    3.76316 0.00399435 255 255 255
   3.0972   3.85068 0.0406291 255 255 255
   3.1187   3.71835 0.0315051 255 255 255
2.01662 4.30428 0.29398 255 255 255
  2.67216   4.19361 0.0512528 255 255 255
 1.73099   4.4243 0.387138 255 255 255
  3.02743    3.7402 -0.019715 255 255 255
 2.16348  4.32977 0.306157 255 255 255
  3.09314   3.75362 0.0204361 255 255 255
  3.09475   3.75815 0.0169025 255 255 255
 1.96458  4.33691 0.315083 255 255 255
    2.98495     3.87072 -0.00190371 255 255 255
 2.36882  4.55472 0.133916 255 255 255
  2.97354   3.50302 -0.150802 255 255 255
  3.00256   3.46662 -0.154683 255 255 255
   2.92032    3.94748 -0.0935933 255 255 255
   2.88642    3.71222 -0.0807483 255 255 255
  3.12624   3.98064 0.0340465 255 255 255
  3.09916   3.71192 0.0111029 255 255 255
   3.01523    3.68027 -0.0385517 255 255 255
  2.84637   4.21086 0.0768136 255 255 255
   3.10236    3.66347 -0.0066226 255 255 255
 1.78765  4.40589 0.357844 255 255 255
 3.0492 3.87861 0.02451 255 255 255
   2.76457    3.90957 -0.0718442 255 255 255
 1.82374  4.42118 0.373037 255 255 255
 2.54438  4.56554 0.156413 255 255 255
    3.03185     3.74734 -0.00960722 255 255 255
 2.03038  4.33963 0.313065 255 255 255
   2.95925    3.75881 -0.0441032 255 255 255
 2.10139  4.32936 0.308682 255 255 255
   3.0435   3.82893 0.0113056 255 255 255
  2.60557   3.56652 -0.159557 255 255 255
   2.96667    3.78596 -0.0269417 255 255 255
     3.012    3.98626 -0.0175617 255 255 255
  3.17077   4.00226 0.0512063 255 255 255
  3.08722   4.02558 0.0247204 255 255 255
  3.16358   3.95175 0.0399678 255 255 255
  2.84027   3.53724 -0.183243 255 255 255
 2.98575  3.51022 -0.14677 255 255 255
  2.69967   4.23737 0.0828119 255 255 255
  3.04943   3.84064 0.0195263 255 255 255
  3.05066   3.83967 0.0202991 255 255 255
  3.05056   3.83764 0.0113816 255 255 255
  2.44967   3.96143 -0.157043 255 255 255
    2.98143     3.85893 -0.00596022 255 255 255
  2.85142   3.54527 -0.161941 255 255 255
    2.97533     3.87152 -0.00619365 255 255 255
  3.18286   3.91754 0.0374282 255 255 255
   2.80125    3.94342 -0.0599435 255 255 255
   2.8325    3.5382 -0.171839 255 255 255
   2.6451   3.62664 -0.200103 255 255 255
  3.07782   4.02131 0.0179472 255 255 255
   2.94711    3.79325 -0.0323714 255 255 255
 2.36254  4.29555 0.282132 255 255 255
  3.17858   3.91995 0.0364308 255 255 255
 3.05376  3.83822 0.020335 255 255 255
 2.93812   3.5639 -0.14461 255 255 255
 2.29476  4.29726 0.283357 255 255 255
   3.02274    3.72132 -0.0282872 255 255 255
    2.9199    3.86216 -0.0263223 255 255 255
 2.06461  4.30639 0.297002 255 255 255
  2.99512    3.4656 -0.159917 255 255 255
   3.03143    3.72731 -0.0213307 255 255 255
   2.97168    3.80253 -0.0293592 255 255 255
  2.91826    3.7811 -0.046492 255 255 255
   2.94458    3.62137 -0.0879153 255 255 255
  3.13318   3.77054 0.0306799 255 255 255
  2.65109   3.52237 -0.207201 255 255 255
   2.7538   3.33632 -0.222981 255 255 255
  2.56791   3.57475 -0.239285 255 255 255
    3.0645    3.74212 0.00267852 255 255 255
    2.942   3.52026 -0.154424 255 255 255
 2.89301  3.43209 -0.20651 255 255 255
   2.72249    3.93715 -0.0760288 255 255 255
  2.78357   3.56127 -0.152265 255 255 255
  2.85675   3.32848 -0.266957 255 255 255
    2.9246    3.63193 -0.0848151 255 255 255
   2.94795    3.84801 -0.0175663 255 255 255
 3.17316  4.04646 0.060732 255 255 255
   2.93225    3.86503 -0.0216382 255 255 255
  2.96071   3.49513 -0.148354 255 255 255
  3.08814   3.80128 0.0260866 255 255 255
  2.65686   3.35404 -0.239273 255 255 255
  3.15351   4.01954 0.0486365 255 255 255
 2.87029  3.49818 -0.18502 255 255 255
   2.99081    3.80666 -0.0105125 255 255 255
  3.05112   3.88185 0.0269044 255 255 255
  3.07632   3.88664 0.0406058 255 255 255
   2.94176    3.70009 -0.0577503 255 255 255
   2.97448    3.70831 -0.0510688 255 255 255
   2.99073    3.74237 -0.0332489 255 255 255
  2.93728   3.53214 -0.157399 255 255 255
  3.03453   3.86372 0.0159884 255 255 255
   3.01955    3.74543 -0.0175975 255 255 255
  3.08873   3.87197 0.0442267 255 255 255
   2.96787    3.70469 -0.0502799 255 255 255
  2.88073   3.50239 -0.180926 255 255 255
  3.14501   3.90407 0.0296253 255 255 255
   2.99619    3.89099 0.00645859 255 255 255
  3.14687   3.96647 0.0375408 255 255 255
   3.01621    3.73739 -0.0257495 255 255 255
  3.15844   4.05585 0.0644039 255 255 255
   3.06585    3.74613 0.00499558 255 255 255
    3.0301    3.82567 0.00326151 255 255 255
   3.05085    3.69208 -0.0208013 255 255 255
2.33285  4.0636 -0.1289 255 255 255
  2.86641   3.55219 -0.169434 255 255 255
  3.13932   3.94103 0.0311382 255 255 255
  3.05462   3.80508 0.0122997 255 255 255
   2.96992    3.79049 -0.0242121 255 255 255
    3.02174     3.81332 5.65106e-05 255 255 255
  3.15421    3.9007 0.0286386 255 255 255
  3.12054   3.78501 0.0340002 255 255 255
  3.09859    3.7856 0.0282746 255 255 255
  3.19493    3.9276 0.0478855 255 255 255
   3.1657   3.88465 0.0275086 255 255 255
   3.00821    3.88137 0.00904499 255 255 255
   2.98783     3.8224 -0.0142579 255 255 255
  3.15052   3.89829 0.0295205 255 255 255
  3.10291   4.00062 0.0247274 255 255 255
  3.10303   3.72436 0.0160193 255 255 255
  3.01248   3.74767 -0.020145 255 255 255
   3.00916     3.8432 0.00187971 255 255 255
   2.96559    3.77978 -0.0320838 255 255 255
   2.79999    3.84251 -0.0761691 255 255 255
  3.17992   3.90493 0.0379975 255 255 255
  3.12417   4.00258 0.0344218 255 255 255
  2.86252    3.3304 -0.264742 255 255 255
  2.55698   3.86682 -0.155461 255 255 255
  3.09247   3.86623 0.0455457 255 255 255
  2.66069   3.89166 -0.146704 255 255 255
   2.8561   3.49349 -0.193887 255 255 255
  2.93748   3.51277 -0.157741 255 255 255
  3.01597   3.88266 0.0138491 255 255 255
   3.1864   4.01816 0.0575054 255 255 255
 2.86042   3.5529 -0.16168 255 255 255
   2.71165    3.90389 -0.0938952 255 255 255
  3.18387   4.02239 0.0569968 255 255 255
   2.98297    3.81619 -0.0112402 255 255 255
   2.98735    3.79657 -0.0177301 255 255 255
   3.00724    3.84544 0.00385591 255 255 255
  2.85942   3.54981 -0.171659 255 255 255
 2.84956  3.50553 -0.18941 255 255 255
   2.93247    3.74856 -0.0524006 255 255 255
  2.84727   3.51127 -0.188001 255 255 255
     2.9884     3.85667 -0.00324857 255 255 255
   2.99243     3.8747 0.00215072 255 255 255
   2.91107    3.96346 -0.0585734 255 255 255
   1.6219   3.90378 -0.223529 255 255 255
  2.05366   3.50509 -0.206649 255 255 255
  1.64931   3.82036 -0.173596 255 255 255
  2.17564   3.53472 -0.272555 255 255 255
  2.09311   3.63758 -0.312525 255 255 255
  1.60481    4.1152 -0.182984 255 255 255
   2.0398   3.52846 -0.236302 255 255 255
    1.931   3.40356 -0.226806 255 255 255
  1.77013   3.64844 -0.176332 255 255 255
   2.42055    3.13589 -0.0974599 255 255 255
   1.6797   4.16722 -0.174943 255 255 255
  2.24484   3.44852 -0.283958 255 255 255
  1.60624   3.54815 -0.109587 255 255 255
  2.28365   3.78123 -0.351264 255 255 255
  1.70072   3.93489 -0.212642 255 255 255
  1.84167   3.86647 -0.182487 255 255 255
  2.20755   3.76081 -0.327474 255 255 255
   1.9404   3.70945 -0.317559 255 255 255
   1.9405   3.68492 -0.308937 255 255 255
  1.99789   3.39974 -0.325383 255 255 255
  1.57942   3.71582 -0.166473 255 255 255
  2.19524   3.77623 -0.328704 255 255 255
  1.53827   3.67402 -0.193181 255 255 255
  1.86498    3.5595 -0.278126 255 255 255
  1.61366   3.84105 -0.165993 255 255 255
  2.16419   3.78574 -0.324439 255 255 255
  1.64079   4.04358 -0.183368 255 255 255
  1.54233   3.99468 -0.232341 255 255 255
  1.83076   4.04944 -0.276537 255 255 255
  2.18503   3.78949 -0.331704 255 255 255
   1.5977   4.20797 -0.137415 255 255 255
  2.10703   3.75749 -0.296284 255 255 255
  2.11606   3.70912 -0.294328 255 255 255
  2.06314   3.24482 -0.220293 255 255 255
   2.1916   3.57634 -0.315669 255 255 255
  1.67018   4.13476 -0.184098 255 255 255
  1.67875   3.56571 -0.124721 255 255 255
  1.78329   3.83022 -0.216919 255 255 255
    1.778   3.82835 -0.207016 255 255 255
  2.07355   3.26384 -0.146263 255 255 255
  1.72943   3.75441 -0.144529 255 255 255
  1.82238   3.80572 -0.219744 255 255 255
  1.56508   3.26471 0.0491743 255 255 255
  2.02994   3.50445 -0.228587 255 255 255
 2.09718  3.79244 -0.32203 255 255 255
  1.78872   3.73388 -0.187789 255 255 255
  1.94408   3.43844 -0.199322 255 255 255
  1.73314   4.21314 -0.176875 255 255 255
  1.51554   4.30845 -0.116365 255 255 255
  1.61341   3.45299 -0.114017 255 255 255
  1.63933   4.14277 -0.177977 255 255 255
  1.88182   3.36225 -0.351772 255 255 255
  1.51483   3.60675 -0.261853 255 255 255
  1.86078    3.5336 -0.256417 255 255 255
 2.03719  3.40338 -0.19453 255 255 255
  2.39425   3.25217 -0.118164 255 255 255
 2.48316  3.23713 -0.23826 255 255 255
  1.49087   4.25286 -0.137774 255 255 255
  2.01602   3.82002 -0.319199 255 255 255
  1.49396   3.52248 -0.112759 255 255 255
  2.03907   3.46591 -0.223322 255 255 255
  2.16982   3.64043 -0.263394 255 255 255
   1.33809    4.29937 -0.0675536 255 255 255
  2.32203   3.71202 -0.346581 255 255 255
  1.89108   3.62175 -0.295126 255 255 255
 2.20371  3.82431 -0.34557 255 255 255
  1.51963   3.28024 0.0431718 255 255 255
  2.00993   3.21176 -0.268579 255 255 255
  1.80318   4.11223 -0.209962 255 255 255
  2.09048   3.37685 -0.203233 255 255 255
   2.0432   3.34659 -0.274594 255 255 255
  1.80552   3.67525 -0.216398 255 255 255
  2.06931   3.65381 -0.260009 255 255 255
  1.53446   4.08656 -0.229171 255 255 255
    1.617   3.82377 -0.173003 255 255 255
  1.56396   4.02106 -0.216075 255 255 255
  2.04442   3.46052 -0.205695 255 255 255
  1.66064   3.84921 -0.183571 255 255 255
  2.00116   3.80782 -0.300575 255 255 255
  2.19169   3.68421 -0.296678 255 255 255
  1.83774   3.67372 -0.179234 255 255 255
  1.87294   3.42799 -0.245819 255 255 255
  2.00377   3.82207 -0.313053 255 255 255
  1.52888   3.71018 -0.177873 255 255 255
    1.5821    4.55489 -0.0565763 255 255 255
  1.66345    3.9957 -0.199664 255 255 255
  1.60322   4.11055 -0.208815 255 255 255
  1.58948   4.04611 -0.200273 255 255 255
    1.993   3.19477 -0.251929 255 255 255
  1.55733   3.69287 -0.194883 255 255 255
   1.44241    3.49481 -0.0390416 255 255 255
    1.5738     3.3261 -0.0482517 255 255 255
  1.52483   4.07306 -0.241705 255 255 255
1.56161 4.05099 -0.2195 255 255 255
   1.53162     4.4618 -0.0760032 255 255 255
   1.9285   3.69357 -0.317546 255 255 255
  1.78098   4.13266 -0.199842 255 255 255
  2.15627   3.57531 -0.250507 255 255 255
  1.84648   3.76345 -0.214462 255 255 255
  2.00017   3.78216 -0.333966 255 255 255
  1.76863   3.87404 -0.213496 255 255 255
  1.61161   4.14587 -0.206248 255 255 255
  1.74503   4.00822 -0.212391 255 255 255
  1.85234   3.87805 -0.221276 255 255 255
  1.56185   4.05612 -0.238061 255 255 255
   1.5556   3.65738 -0.128633 255 255 255
  2.17603   3.96504 -0.498459 255 255 255
  1.68549   3.91689 -0.195535 255 255 255
  1.54702   3.99472 -0.209817 255 255 255
1.93831 3.73474 -0.2869 255 255 255
  1.57608   4.05653 -0.206534 255 255 255
 2.05312  3.60484 -0.24948 255 255 255
  1.41369   3.70587 -0.192953 255 255 255
   1.48752     3.5717 -0.0662365 255 255 255
  1.54094   3.69084 -0.210413 255 255 255
  2.02693   3.36081 -0.210976 255 255 255
  1.61136   3.98935 -0.181636 255 255 255
 2.23513  3.56363 -0.26697 255 255 255
  1.52499   3.61929 -0.238955 255 255 255
  1.93875   3.36695 -0.346907 255 255 255
  1.68404   3.91985 -0.224537 255 255 255
   2.34872    3.02349 -0.0437766 255 255 255
  1.69056   3.70016 -0.180513 255 255 255
  2.20193   3.75397 -0.322191 255 255 255
   1.6814   3.98335 -0.210164 255 255 255
  1.56268   3.69437 -0.185193 255 255 255
  1.67762   4.09176 -0.193973 255 255 255
  1.54076   4.23704 -0.166779 255 255 255
 1.76703  3.89761 -0.22296 255 255 255
  1.75238   3.88107 -0.236428 255 255 255
  2.16985   3.72009 -0.301161 255 255 255
  1.75155   4.01694 -0.206304 255 255 255
  1.62384   4.07252 -0.176861 255 255 255
  2.41438   3.26013 -0.126942 255 255 255
  2.38371   3.20373 -0.095073 255 255 255
  2.34422   3.09494 -0.105102 255 255 255
  2.31081   3.71033 -0.343329 255 255 255
  1.71099   4.11882 -0.195274 255 255 255
   1.36792    4.25615 -0.0778655 255 255 255
   1.8132   3.45732 -0.249644 255 255 255
  1.56909    4.0099 -0.185874 255 255 255
 1.52583  3.62396 -0.13191 255 255 255
  1.79748   3.42738 -0.232484 255 255 255
1.91498 3.61914 -0.3055 255 255 255
  1.69197   4.11011 -0.189645 255 255 255
  1.75402   3.95538 -0.230407 255 255 255
  2.04069   3.49186 -0.223743 255 255 255
   1.9934   3.79275 -0.327903 255 255 255
  2.01789   3.47112 -0.220867 255 255 255
  2.10121   3.40804 -0.183774 255 255 255
  1.59002   3.56075 -0.127973 255 255 255
  2.40263    3.2422 -0.140844 255 255 255
   2.1797    3.8273 -0.341522 255 255 255
 1.3857 3.67182 -0.1921 255 255 255
  2.30156    3.7289 -0.344388 255 255 255
   1.55509    3.32911 0.00094627 255 255 255
  1.93134   3.25121 -0.283875 255 255 255
  1.65893   4.39525 -0.170369 255 255 255
  1.59021   3.75539 -0.165709 255 255 255
    2.1022    3.18851 -0.0839613 255 255 255
  1.59929   3.51871 -0.126045 255 255 255
  1.60252   4.16951 -0.151212 255 255 255
   1.46293    4.35489 -0.0916786 255 255 255
1.68909  4.1291 -0.1861 255 255 255
    1.835   3.48498 -0.247044 255 255 255
  2.04314   3.49964 -0.226581 255 255 255
  1.99618   3.30417 -0.263579 255 255 255
  1.51894   4.30024 -0.115364 255 255 255
  2.04544   3.44991 -0.217113 255 255 255
  1.57422   4.06757 -0.208814 255 255 255
  1.77085   3.89162 -0.211986 255 255 255
  2.06101   3.33061 -0.221006 255 255 255
  1.91758    3.4367 -0.204134 255 255 255
  1.92224   3.43914 -0.214858 255 255 255
  1.66456   3.93738 -0.218265 255 255 255
  2.05972   3.57235 -0.236519 255 255 255
 1.83747  3.66581 -0.18206 255 255 255
   1.5214    3.9639 -0.209636 255 255 255
  1.77192   3.94963 -0.221754 255 255 255
 1.78948  3.98513 -0.21752 255 255 255
   1.7493   3.97292 -0.215167 255 255 255
  2.08845   3.66824 -0.275287 255 255 255
   1.48224     4.3476 -0.0957573 255 255 255
  2.06122   3.59611 -0.253691 255 255 255
  1.99736   3.84235 -0.308163 255 255 255
  1.80788   3.63431 -0.175602 255 255 255
  2.01852   3.73236 -0.284535 255 255 255
  2.20969     3.826 -0.341576 255 255 255
  1.84957    3.8844 -0.227659 255 255 255
  2.28303    3.7811 -0.345123 255 255 255
 1.93523  3.38118 -0.32934 255 255 255
  2.09135   3.34803 -0.194434 255 255 255
  1.48033   3.49642 -0.115748 255 255 255
  2.06658   3.32397 -0.220825 255 255 255
  2.03479   3.42949 -0.227053 255 255 255
  1.68219   3.93313 -0.198793 255 255 255
  2.26439    3.6871 -0.308616 255 255 255
   1.8526   3.45973 -0.250409 255 255 255
  1.66056   4.08996 -0.178194 255 255 255
  1.80701   3.67193 -0.179652 255 255 255
  1.86122   3.55072 -0.278475 255 255 255
 1.91458   3.7798 -0.27789 255 255 255
  1.55812   3.48499 -0.115886 255 255 255
  1.55824   3.48555 -0.118033 255 255 255
 1.60962  4.06831 -0.16659 255 255 255
-0.104982  0.450497   1.78257 255 255 255
0.0739941  0.379299   1.71975 255 255 255
0.0326094  0.195714   1.79564 255 255 255
-0.540562   0.99012   1.57849 255 255 255
-0.465498  0.157819   1.98956 255 255 255
-0.17702 0.392469  1.81734 255 255 255
-0.574455   1.01096   1.53761 255 255 255
-0.298233  0.499484   1.75162 255 255 255
-0.616484 0.0705768   2.12338 255 255 255
0.225969 0.290684  1.74199 255 255 255
0.0672733  0.216832   1.79845 255 255 255
-0.0206142 -0.0241949    1.89519 255 255 255
-0.0274214    0.43642    1.75596 255 255 255
-0.0969677   0.264758    1.82589 255 255 255
0.187404 0.259334  1.74042 255 255 255
 0.11503 0.348926  1.74027 255 255 255
0.103315 0.196039  1.79682 255 255 255
-0.466041  0.302905   1.96956 255 255 255
-0.0251111   0.364478    1.77155 255 255 255
0.0478241   0.15085    1.8244 255 255 255
-0.0364753   0.202929    1.80698 255 255 255
  -0.110512 -0.00416863     1.91885 255 255 255
-0.313321  0.324504   1.89622 255 255 255
 -0.129467 -0.0508661    1.91554 255 255 255
-0.250985  0.263071   1.84678 255 255 255
0.24251 0.30634  1.7526 255 255 255
-0.0627118  0.0169881    1.86378 255 255 255
-0.0169485   0.229352    1.81409 255 255 255
-0.428074  0.936008   1.58745 255 255 255
-0.183102 0.0216084   1.92811 255 255 255
0.0841847  0.167783   1.82702 255 255 255
-0.675282  0.738262   1.71776 255 255 255
0.012462 0.547432  1.66141 255 255 255
0.175011 0.127763  1.83577 255 255 255
-0.0127009  0.0764663    1.87875 255 255 255
 -0.207136 -0.0631263    1.91907 255 255 255
-0.214617  0.254385   1.85468 255 255 255
  -0.535967 -0.00408572     2.09076 255 255 255
0.250066 0.255938  1.75965 255 255 255
0.0455351  0.360352   1.76304 255 255 255
-0.76794 0.510896  1.90181 255 255 255
-0.00677687    0.464726     1.73007 255 255 255
-0.0138273   0.519775    1.68206 255 255 255
 -0.145474 -0.0154783    1.91683 255 255 255
 -0.163593 -0.0577227    1.94013 255 255 255
-0.354157  0.163574   1.96835 255 255 255
0.0843617  0.246712   1.81048 255 255 255
-0.783207  0.482266   1.91999 255 255 255
0.225693 0.393484  1.69341 255 255 255
  -0.20723 -0.0448731      1.943 255 255 255
-0.903863  0.970087   1.67083 255 255 255
0.118277  0.13979  1.82059 255 255 255
0.138294 0.260519   1.7838 255 255 255
-0.525103  0.897481   1.63701 255 255 255
-0.127006  0.328766   1.84705 255 255 255
0.0148832  0.426873   1.71949 255 255 255
0.0772937  0.391959   1.74314 255 255 255
-1.10097 0.883181  1.75874 255 255 255
-0.331246 -0.216582   2.02186 255 255 255
-0.639287  0.422597   1.90075 255 255 255
 -0.174994 -0.0807727    1.94739 255 255 255
-0.310372 -0.211788   2.02108 255 255 255
0.109799 0.100916  1.83859 255 255 255
-1.10092 0.972704  1.69754 255 255 255
-0.674436  0.142644   2.13182 255 255 255
0.244292 0.339196   1.7318 255 255 255
-0.746852  0.474409   1.90645 255 255 255
-0.153694 0.0504135   1.91289 255 255 255
-0.718159  0.797411   1.70174 255 255 255
0.208518 0.386126  1.69524 255 255 255
-0.227304  0.225519   1.86207 255 255 255
0.0889629 0.0847159   1.86144 255 255 255
-0.481879  0.329115   1.87143 255 255 255
-0.237807 -0.101208   1.96403 255 255 255
-0.332395  0.293535   1.87579 255 255 255
0.201946 0.304218  1.76479 255 255 255
-0.416657  0.842516   1.64279 255 255 255
-0.356062  0.892559    1.6023 255 255 255
-0.00810362    0.186556     1.82338 255 255 255
0.0279395 0.0859123   1.84534 255 255 255
-0.62976  1.09748  1.54062 255 255 255
-0.157508  0.149933   1.88464 255 255 255
0.118308 0.417683   1.7236 255 255 255
0.0562265 0.0964659   1.84421 255 255 255
-0.0397394    0.50123    1.69629 255 255 255
-0.342379  0.520203   1.79308 255 255 255
0.108556  0.36918  1.73493 255 255 255
-0.537331 -0.086849   2.10583 255 255 255
-0.386424  0.305564   1.93568 255 255 255
-0.681888 0.0254054   2.17287 255 255 255
0.00968012   0.338601    1.78098 255 255 255
-0.359157  0.208969   1.94262 255 255 255
0.0774556  0.410373   1.73588 255 255 255
-0.206999    0.2983   1.84804 255 255 255
-0.368206  0.099078   1.97344 255 255 255
0.0276272  0.138276   1.84217 255 255 255
0.0494886  0.398778   1.75923 255 255 255
-0.459658  0.987404   1.55677 255 255 255
-0.47754 0.227909  1.99411 255 255 255
0.0260392  0.318086   1.78733 255 255 255
0.185063 0.222668  1.78824 255 255 255
0.114099  0.43427  1.70155 255 255 255
-0.530979  0.196683   2.00268 255 255 255
-0.374666 -0.213827   2.06503 255 255 255
0.136635 0.293638  1.75965 255 255 255
0.0640172  0.502568   1.68467 255 255 255
0.0912092   0.54297   1.68975 255 255 255
  -0.32347 -0.0861949    1.98652 255 255 255
-0.370485  0.123921   1.97597 255 255 255
-0.112349  0.390753   1.79934 255 255 255
0.0358354  0.565683   1.65524 255 255 255
0.0339298  0.298241   1.77646 255 255 255
-0.591409  0.316728   1.92509 255 255 255
0.0216478  0.544399   1.65169 255 255 255
-0.0300535   0.151765    1.84479 255 255 255
-0.829802   0.49381   1.93391 255 255 255
 0.129276 0.0767516    1.8395 255 255 255
0.0877963  0.363097   1.75098 255 255 255
0.116462 0.344162  1.74054 255 255 255
-0.00254423    0.156552     1.83494 255 255 255
-0.678862 0.0591655   2.04971 255 255 255
  -0.56299 -0.0708288     2.1037 255 255 255
-0.281327 0.0957747   1.94929 255 255 255
-0.336201 -0.185731   2.00829 255 255 255
-0.675957   1.10839   1.53765 255 255 255
-0.693639  0.822812   1.68271 255 255 255
-0.46401 0.230957  2.00277 255 255 255
0.103142 0.113842  1.84092 255 255 255
-0.186348 -0.144016   1.94809 255 255 255
-0.0307607  -0.140935    1.90716 255 255 255
0.0915398  0.481535   1.68415 255 255 255
  -0.639 0.928708  1.62685 255 255 255
-0.0961724   0.402471    1.80177 255 255 255
-0.506623 0.0785271   2.05247 255 255 255
0.076065 0.428603   1.7211 255 255 255
-0.0209009   0.417335    1.71816 255 255 255
0.190304 0.159135  1.81834 255 255 255
 -0.13817 0.0521651    1.8751 255 255 255
-0.214538  0.185639   1.89864 255 255 255
-0.606325  0.824621   1.66324 255 255 255
0.0607672 0.0531345   1.86264 255 255 255
0.171285  0.32554    1.736 255 255 255
-0.548455  0.996737     1.558 255 255 255
-0.062116  0.304705   1.80959 255 255 255
-0.854392  0.813876   1.72549 255 255 255
  -0.126008 -0.00131309     1.91725 255 255 255
-0.00312428  -0.0326855     1.89532 255 255 255
-0.104763  0.244708    1.8273 255 255 255
-0.125657  0.270884   1.84073 255 255 255
 -0.168128 -0.0239901    1.94592 255 255 255
-0.285964  0.289862   1.88679 255 255 255
-0.659166  0.579224   1.82821 255 255 255
-0.326098 0.0171723    1.9676 255 255 255
0.0573448  0.436815   1.70985 255 255 255
0.272823 0.257681  1.78323 255 255 255
-0.861297  0.605792   1.85046 255 255 255
-0.0182418   0.588266    1.63338 255 255 255
0.0274665  0.388733   1.74893 255 255 255
-0.464331  0.213597   1.99196 255 255 255
0.109462 0.354205  1.74898 255 255 255
0.145518 0.281061  1.76226 255 255 255
 -0.149425 -0.0343424    1.92852 255 255 255
-0.792837   1.01459   1.60974 255 255 255
 -0.323492 -0.0146797     1.9709 255 255 255
-0.74212  1.01913  1.59077 255 255 255
-0.00351519    0.177149     1.80724 255 255 255
0.0613002    0.3887   1.74554 255 255 255
0.027609 0.187325  1.79807 255 255 255
-0.760653   1.03075   1.59659 255 255 255
 0.17645 0.251033  1.77385 255 255 255
-0.338943 -0.156664   2.01018 255 255 255
-0.626181 0.0965486   2.12815 255 255 255
-0.627459  0.239922   1.96674 255 255 255
0.226138 0.217744  1.79623 255 255 255
0.0997765  0.214985   1.79412 255 255 255
0.167429 0.302528  1.75948 255 255 255
-0.464274 0.0857421   1.99406 255 255 255
-0.553714 0.0046282   2.09431 255 255 255
-0.0212389   0.603865    1.63843 255 255 255
-0.448363 -0.197947   2.10318 255 255 255
-0.555266  0.832576   1.64895 255 255 255
-0.180624 0.0715999   1.90432 255 255 255
0.0582892   0.36147   1.73137 255 255 255
 -0.522393 -0.0658213    2.08029 255 255 255
-0.808324  0.473519   1.93529 255 255 255
0.0855079  0.141289   1.83686 255 255 255
-0.0809945   0.246678    1.82921 255 255 255
0.0338449  0.151357   1.80221 255 255 255
-0.483657 0.0897187    2.0324 255 255 255
0.147803 0.378913  1.72275 255 255 255
-0.0502992   0.419254    1.76265 255 255 255
0.207978 0.153211  1.82458 255 255 255
-0.0426199   0.411605    1.76231 255 255 255
0.0802984  0.504737   1.70596 255 255 255
-0.512741  0.906556   1.63225 255 255 255
-0.692342    1.1052   1.54802 255 255 255
0.0916101  0.354651   1.73453 255 255 255
0.137486 0.223133  1.79773 255 255 255
0.142839 0.338153  1.74273 255 255 255
-0.256684 0.0935197   1.93864 255 255 255
0.047422  0.25953    1.803 255 255 255
-0.310888  0.566199   1.73724 255 255 255
-0.106303  0.138934    1.8774 255 255 255
-0.639266  0.559361   1.82047 255 255 255
 -1.004 1.00589 1.64977 255 255 255
0.252705 0.337076  1.70227 255 255 255
-0.959401  0.892902   1.71475 255 255 255
-0.990068    1.0093   1.64171 255 255 255
 -0.267662 -0.0480972    1.95777 255 255 255
-0.420956  0.304012   1.90029 255 255 255
-0.247916 -0.193682    1.9587 255 255 255
-0.540636   1.00337   1.55398 255 255 255
0.0684143  0.320543   1.75644 255 255 255
-0.641258  0.177414   2.11232 255 255 255
-0.432573  0.362864   1.87456 255 255 255
-0.0277758   0.506213    1.69208 255 255 255
0.256307 0.271689  1.77592 255 255 255
-0.484187  0.909247   1.62196 255 255 255
  -0.61113 -0.0914821    2.13633 255 255 255
-0.735143  0.948334   1.62141 255 255 255
-0.495946  0.956406   1.60261 255 255 255
-0.497809  0.164314   2.01144 255 255 255
0.126861 0.405356  1.71339 255 255 255
0.00204097 -0.0225977    1.90406 255 255 255
-0.671901 0.0113852   2.16217 255 255 255
-0.333526  0.210874   1.92198 255 255 255
-0.00516197    0.170162     1.82957 255 255 255
-0.761828  0.939003   1.63504 255 255 255
0.129876 0.413327  1.71128 255 255 255
-0.869015   0.50142   1.94086 255 255 255
-0.22829 0.104699   1.9248 255 255 255
-0.631242  0.808275   1.67941 255 255 255
-0.702497  0.083357   2.15771 255 255 255
-0.692331   0.17191   2.01732 255 255 255
-0.235885  0.571513   1.71927 255 255 255
-0.435501  0.406816   1.85571 255 255 255
-0.665648  0.560875   1.83467 255 255 255
-0.372768  0.909723   1.60016 255 255 255
-0.0790143 0.00127432    1.90573 255 255 255
-0.291753  0.621339   1.73339 255 255 255
-0.164271  0.465225   1.78966 255 255 255
0.167174 0.312314  1.75449 255 255 255
 -0.13591 -0.042747   1.94065 255 255 255
-1.06736 0.831069  1.77097 255 255 255
-0.242869  0.635317   1.69946 255 255 255
-0.199661  0.422852   1.78126 255 255 255
-0.0358731   0.375886    1.76976 255 255 255
-0.149943  0.360227   1.81585 255 255 255
-0.179265  0.107302   1.90874 255 255 255
-0.0864224  0.0795263    1.87818 255 255 255
-0.177452  0.125056   1.88797 255 255 255
0.0952107  0.245969   1.78202 255 255 255
0.253198 0.326237  1.73814 255 255 255
0.0740413  0.447974   1.72565 255 255 255
0.202388 0.299049  1.76275 255 255 255
-0.665041  0.746706   1.71389 255 255 255
 -0.176983 -0.0879164    1.94901 255 255 255
0.0849626  0.232764   1.79785 255 255 255
0.0269003  0.434128   1.72044 255 255 255
-0.593307  0.143021   2.09658 255 255 255
 0.10853 0.317716  1.75453 255 255 255
-0.429221  0.351982    1.8771 255 255 255
-0.238393 -0.170852   1.94307 255 255 255
-0.276678  0.253773   1.90544 255 255 255
-0.195274 0.0393989   1.92666 255 255 255
-0.502615  0.184373   2.02437 255 255 255
-1.16994 0.939476  1.71309 255 255 255
 0.14196 0.120053  1.81496 255 255 255
-0.126428  0.293757   1.83125 255 255 255
0.0860009  0.336586   1.74256 255 255 255
0.0526708  0.504115   1.68241 255 255 255
-0.0704396   0.310912    1.80778 255 255 255
0.0941228  0.207552   1.80426 255 255 255
-0.121467  0.396606   1.79577 255 255 255
0.128946 0.119484  1.83057 255 255 255
-0.111865  0.361071   1.79347 255 255 255
-0.687677  0.779691   1.70499 255 255 255
 -0.7991 0.987331  1.62335 255 255 255
-0.993833  0.875929   1.73778 255 255 255
 -0.328608 -0.0984494    1.98592 255 255 255
0.000262319    0.218119     1.82193 255 255 255
0.177929 0.213121  1.81029 255 255 255
0.106329 0.326054  1.74912 255 255 255
0.123205 0.380572  1.67302 255 255 255
0.0458253  0.470154   1.69382 255 255 255
-0.73354 0.901891  1.65265 255 255 255
-0.198637 -0.137771   1.96155 255 255 255
0.195198 0.196671  1.81157 255 255 255
-0.637944   0.18072   2.00508 255 255 255
-0.0666586   0.140423    1.85824 255 255 255
0.114663 0.324624  1.74343 255 255 255
-0.659564  0.823341     1.676 255 255 255
-0.472535  0.182998   2.00863 255 255 255
-0.179032  0.258365    1.8448 255 255 255
-0.288518    0.1563   1.94107 255 255 255
0.0827129  0.305304   1.76011 255 255 255
0.0805775  0.154931   1.82568 255 255 255
-0.325361 -0.194213   2.00479 255 255 255
-0.271267  0.227404   1.89264 255 255 255
-0.726356  0.762277   1.72465 255 255 255
0.166454 0.335488  1.73054 255 255 255
-0.86512 0.640594  1.83927 255 255 255
-0.90476 0.821353  1.72908 255 255 255
0.0333493 0.0469053   1.80265 255 255 255
 0.037054 0.0359407   1.84961 255 255 255
-0.0961291   0.319679    1.79766 255 255 255
-0.535425  0.130231   2.07522 255 255 255
 -0.668677 -0.0465252    2.16507 255 255 255
-0.171477 -0.162495   1.94388 255 255 255
-0.0990874 -0.0288347    1.88059 255 255 255
0.0849871  0.431071   1.72259 255 255 255
-0.952773   1.00319   1.65411 255 255 255
-0.443069  0.281385   1.89112 255 255 255
-0.773774  0.813732    1.7115 255 255 255
-0.217703 -0.192601   1.95047 255 255 255
-0.664659  0.919938   1.62724 255 255 255
0.122217 0.162046  1.81968 255 255 255
-0.911845  0.612668   1.84117 255 255 255
 0.0669824 -0.0688793    1.87042 255 255 255
-0.0481208    0.57108    1.65234 255 255 255
-0.00796268    0.368518     1.75873 255 255 255
-0.899446   0.58909   1.88016 255 255 255
-0.386797 -0.137006   2.06011 255 255 255
-0.334224 -0.241677   2.02426 255 255 255
-0.974156   1.05542    1.6143 255 255 255
-0.0976734    0.29625    1.82236 255 255 255
-0.0508719 -0.0955693    1.90879 255 255 255
-0.0181565   0.566144      1.654 255 255 255
-0.13048  0.23702  1.84131 255 255 255
-0.403576  0.139079   1.98212 255 255 255
-0.384209 -0.156459   2.06005 255 255 255
-0.416594  0.885404   1.62327 255 255 255
-0.124958  0.129907    1.8815 255 255 255
-0.0398674   0.229223    1.80838 255 255 255
-0.286331  0.137266   1.93399 255 255 255
-0.584151  0.171133   2.08019 255 255 255
-0.641555   1.01194   1.57736 255 255 255
-1.05181  0.90662  1.73734 255 255 255
0.0166972 0.0823087   1.84815 255 255 255
-0.581234  0.447839   1.85688 255 255 255
-0.604667   1.01096   1.56565 255 255 255
0.166381   0.1882  1.81869 255 255 255
-0.424671 -0.204263   2.04569 255 255 255
-0.406112  0.858647    1.6376 255 255 255
-0.576011 0.0660917   2.11609 255 255 255
-1.02078 0.986862  1.66159 255 255 255
-0.912274   1.08248   1.58162 255 255 255
-0.124551  0.354052   1.79927 255 255 255
-0.423977   0.35986   1.87767 255 255 255
-0.292902  0.058615   1.95418 255 255 255
-0.184739  0.286808   1.86203 255 255 255
  -0.41436 -0.0788447    2.03839 255 255 255
-0.759329  0.832892   1.69215 255 255 255
-0.642864 0.0925282     2.135 255 255 255
-0.136371 -0.180198   1.94489 255 255 255
-0.690995 0.0867481    2.1654 255 255 255
-0.116516   0.36844   1.79559 255 255 255
-0.635435   1.04535    1.5704 255 255 255
-0.673519   0.75425   1.71239 255 255 255
-0.576118   0.93576   1.59585 255 255 255
0.0665416  0.426442   1.73431 255 255 255
-0.0247922 -0.0979183    1.91032 255 255 255
-1.09804  1.00071  1.67026 255 255 255
-0.358367   0.54325   1.77411 255 255 255
-0.792867  0.846098   1.69206 255 255 255
-0.561168  0.148443   2.07885 255 255 255
-0.603392  0.998256   1.57031 255 255 255
-0.0796606   0.325024    1.80477 255 255 255
-0.201989 0.0744979     1.909 255 255 255
-0.00171275  -0.0287744     1.89386 255 255 255
-0.0475681 -0.0680914    1.91039 255 255 255
0.0839773  0.437385   1.73006 255 255 255
0.151006 0.141103  1.82926 255 255 255
-0.906863  0.586714   1.87628 255 255 255
0.0365226  0.328696   1.76279 255 255 255
-0.00198558  -0.0782858     1.90478 255 255 255
 -0.26003 0.0743146   1.94017 255 255 255
-0.0937152   0.223312    1.84402 255 255 255
-0.445883  0.835058   1.65598 255 255 255
-0.0413259   0.364559    1.76906 255 255 255
 -0.277149 -0.0428537    1.96209 255 255 255
 -0.547537 -0.0282356    2.08274 255 255 255
-0.0446749    0.37794    1.76591 255 255 255
0.0743578  0.183692    1.8021 255 255 255
 0.0227568 -0.0340533    1.89521 255 255 255
-0.982611   0.68848   1.84256 255 255 255
-0.624686   1.11085   1.52331 255 255 255
-0.0411742   0.143217    1.84875 255 255 255
   -0.2773 -0.0220026    1.96193 255 255 255
-0.0900119   0.381413    1.78914 255 255 255
-0.0774332   0.334172     1.8028 255 255 255
-0.0107836  0.0962458    1.86032 255 255 255
0.0284395  0.312472   1.78396 255 255 255
-0.452182 0.0750165   2.02624 255 255 255
-0.00139805    0.626124     1.60134 255 255 255
0.0994175  0.517103   1.66099 255 255 255
-0.741853    1.1356   1.54421 255 255 255
-0.304735   0.24563   1.92531 255 255 255
0.151915 0.182854  1.80945 255 255 255
0.0941181  0.231194   1.78972 255 255 255
0.285806 0.355696  1.68766 255 255 255
-0.0416737   0.355025    1.77122 255 255 255
-0.706258  0.135849   2.15613 255 255 255
-0.249666   0.17763   1.92377 255 255 255
-0.236133  0.150958   1.91646 255 255 255
-0.207902  0.221492   1.88242 255 255 255
-0.128832 -0.027436   1.90459 255 255 255
0.0681523  0.381026   1.73889 255 255 255
-0.656695  0.929386   1.62039 255 255 255
-1.05915  0.83032  1.77514 255 255 255
0.240415 0.278047  1.73434 255 255 255
-0.0399301  -0.104756    1.90021 255 255 255
-1.06843  1.01382  1.65889 255 255 255
-0.473382  0.223179   1.99451 255 255 255
-0.702249   1.13256   1.53268 255 255 255
0.0520293  0.281869   1.77382 255 255 255
0.0615262 0.0953192   1.86007 255 255 255
-0.52706 0.942773  1.61041 255 255 255
-0.196852   0.51768   1.72968 255 255 255
-1.07633 0.895157   1.7509 255 255 255
0.208833 0.234096  1.79375 255 255 255
-0.0193914   0.386188    1.76515 255 255 255
-0.0805121   0.469129    1.74483 255 255 255
-0.00293862    0.338285     1.77698 255 255 255
0.0958088 0.0736384   1.86358 255 255 255
0.261841 0.244434  1.77349 255 255 255
-0.697465   0.79158   1.69993 255 255 255
 -0.258503 -0.0260464    1.97156 255 255 255
-0.250569 0.0535314   1.94374 255 255 255
-0.189526 0.0807997   1.91094 255 255 255
-0.229617  0.241822   1.85249 255 255 255
0.207967 0.385485   1.6563 255 255 255
-0.323421  0.263635   1.88962 255 255 255
-0.831262  0.467747   1.94369 255 255 255
-0.0909142  -0.169769    1.94656 255 255 255
-0.62146  1.04044  1.55256 255 255 255
 -0.295833 -0.0475719    2.00131 255 255 255
-0.41992 0.188753  1.94255 255 255 255
-0.110795  0.715334   1.64734 255 255 255
0.174779 0.271123  1.76137 255 255 255
-0.0581615   0.232202    1.83269 255 255 255
-0.80292 0.732188  1.76577 255 255 255
0.202958 0.199963  1.79204 255 255 255
-1.12427 0.902117  1.75863 255 255 255
