ply
format ascii 1.0
element vertex 1157
property float x
property float y
property float z
property uchar red
property uchar green
property uchar blue
end_header
-1.08261 -1.69042  1.27205 255 255 255
 0.263299 -0.769901   1.22242 255 255 255
 -0.60961 -0.862976    1.1065 255 255 255
0.873809 -1.25406  1.74488 255 255 255
-1.00075 -1.37927  1.19794 255 255 255
-0.0341383   0.752692   0.857322 255 255 255
-0.105817   1.06143   0.69951 255 255 255
0.0191619   1.16569  0.690514 255 255 255
0.181058  1.11943 0.754957 255 255 255
-0.568263  0.977088  0.611249 255 255 255
-0.0715311    1.54414    0.47247 255 255 255
-0.782788   1.30477  0.300468 255 255 255
0.463155  1.53593 0.672397 255 255 255
-0.236138   2.03579  0.213649 255 255 255
-0.233555   1.66762  0.397456 255 255 255
-0.00501503     1.87488    0.365767 255 255 255
-0.0414641    0.90642   0.795765 255 255 255
0.179538 0.786108 0.857226 255 255 255
-0.137117   1.57371  0.462193 255 255 255
0.614329  1.35955 0.794764 255 255 255
0.0630658  0.352707  0.922843 255 255 255
0.107924   1.1731 0.740151 255 255 255
0.268467  1.71636 0.526534 255 255 255
0.310072 0.364638 0.979524 255 255 255
-0.331699   1.91617   0.21121 255 255 255
-0.888351   1.43625  0.252395 255 255 255
-0.443395  0.990498  0.638465 255 255 255
0.308332  1.36674 0.695462 255 255 255
-0.107199    1.7724  0.378111 255 255 255
-0.185947   1.76548  0.314036 255 255 255
0.123714 0.843866 0.824685 255 255 255
 0.18073  1.27802 0.669385 255 255 255
0.473619  1.46114 0.712026 255 255 255
-0.632173  0.800478  0.654659 255 255 255
0.345077   1.4029 0.706259 255 255 255
0.479244  1.37187 0.751062 255 255 255
0.194085   1.5819 0.583509 255 255 255
 0.14629 0.529998 0.924623 255 255 255
-0.295524   1.85075  0.242927 255 255 255
  0.1158  1.21604 0.706297 255 255 255
0.267909  1.24799 0.727449 255 255 255
-0.350261   1.96124  0.183528 255 255 255
-0.12492  1.84411 0.239883 255 255 255
0.194275  1.67609 0.558082 255 255 255
0.201921  1.67515 0.542767 255 255 255
-0.0497227    1.88411   0.353349 255 255 255
-0.588436   1.63299  0.261276 255 255 255
0.369183  1.43946 0.689292 255 255 255
-0.427234   1.50113  0.378273 255 255 255
-0.481269   1.71949  0.252778 255 255 255
-0.741698   1.12991  0.495321 255 255 255
0.237657  1.37771 0.681306 255 255 255
0.162852  1.58993 0.573361 255 255 255
-0.378179   1.77507  0.257223 255 255 255
-0.518371   1.41717  0.404321 255 255 255
-0.277382   2.04241  0.179613 255 255 255
0.392097  0.52023 0.944272 255 255 255
0.331633  1.36388 0.741267 255 255 255
0.696843  1.27653 0.836076 255 255 255
-0.443762   1.71517  0.259933 255 255 255
0.0993635   1.09931  0.714003 255 255 255
-0.136478  0.344095  0.926291 255 255 255
-0.0984456    1.28134   0.609905 255 255 255
0.501974  1.46108 0.719629 255 255 255
-0.723948  0.927257  0.556544 255 255 255
-0.0951756    1.84954   0.327799 255 255 255
0.245298  1.41552  0.67495 255 255 255
0.189802  1.06137 0.752653 255 255 255
-0.194107   1.97681  0.239558 255 255 255
-0.858127   1.34888  0.272036 255 255 255
0.200197  1.61667 0.577436 255 255 255
-0.288249   1.98255  0.185957 255 255 255
-0.80943  1.26115 0.287384 255 255 255
0.465622  1.21844 0.737686 255 255 255
0.392988  1.48912 0.697563 255 255 255
-0.334992   1.62124  0.332745 255 255 255
-0.713349   1.32497  0.272558 255 255 255
0.488124  1.33726 0.776015 255 255 255
-0.518024    1.6191    0.2844 255 255 255
-0.406716   1.09807  0.551218 255 255 255
-0.00769888     1.95225     0.27253 255 255 255
0.515577 0.787181 0.933617 255 255 255
0.638891  1.33245 0.782214 255 255 255
0.464252  1.43112 0.698296 255 255 255
0.652736  1.29104 0.769292 255 255 255
-0.930667   1.30325  0.270428 255 255 255
0.519897  1.41405 0.752253 255 255 255
-0.216331   2.06832  0.179101 255 255 255
0.347067 0.336764 0.995991 255 255 255
0.592506  1.33541 0.789724 255 255 255
-0.32716  1.67468 0.280549 255 255 255
-0.179947   2.08468  0.199535 255 255 255
-0.24899  1.08612  0.63648 255 255 255
-0.488481   1.08294  0.564029 255 255 255
0.0512771   1.52771  0.561951 255 255 255
-0.0224576    1.40693    0.58251 255 255 255
-0.576585   1.59168   0.26114 255 255 255
0.372887  1.65816 0.631021 255 255 255
0.590276 0.799811 0.907883 255 255 255
-0.00614644    0.495779    0.883143 255 255 255
0.0805231  0.896123  0.799555 255 255 255
-0.0945575    1.83425   0.287048 255 255 255
0.404614  1.57165 0.652533 255 255 255
0.519302 0.740928 0.931035 255 255 255
-0.322797  0.573369  0.827233 255 255 255
-0.252856   1.57631  0.432918 255 255 255
-0.196844   2.03609  0.218871 255 255 255
  0.5528 0.791247 0.930093 255 255 255
0.573049  1.46281 0.735414 255 255 255
0.755955  1.13905 0.890563 255 255 255
0.0834853  0.766666  0.821059 255 255 255
-0.376687   1.39878  0.482423 255 255 255
-0.0645335   0.914508   0.758117 255 255 255
-0.52555  1.48237 0.346853 255 255 255
0.0988106  0.844952  0.834602 255 255 255
-0.752069   1.55773   0.24559 255 255 255
0.219155 0.247154 0.960318 255 255 255
-0.0313077     1.9213   0.298825 255 255 255
-0.352596   1.19861  0.492734 255 255 255
-0.418954    1.7424  0.254354 255 255 255
-1.05067  1.42974 0.227055 255 255 255
-0.475012   1.50828  0.300582 255 255 255
-0.0705372   0.856278   0.778334 255 255 255
-0.488644    1.6768  0.259999 255 255 255
-0.198031   0.48194  0.823292 255 255 255
0.0165573   1.88204   0.38029 255 255 255
-0.768457   1.44982  0.255488 255 255 255
-0.216997  0.858918  0.747861 255 255 255
0.00119694    1.56747   0.468195 255 255 255
-0.0962916    1.13791   0.660723 255 255 255
-0.450175   1.52021  0.364726 255 255 255
-0.163052   2.09138  0.205724 255 255 255
-0.425171    1.6783  0.259384 255 255 255
-0.543266   1.60518  0.281028 255 255 255
0.0570483   1.26815  0.690124 255 255 255
-0.614444   1.45701  0.262936 255 255 255
 0.30915   1.4207 0.705516 255 255 255
0.011163  1.36846 0.636555 255 255 255
-0.983793   1.36327  0.247664 255 255 255
-0.501295   0.97956  0.618364 255 255 255
-0.00453415     1.93664     0.27919 255 255 255
-0.757514   1.25631  0.360192 255 255 255
-0.440985   1.65167  0.254276 255 255 255
0.575824  1.34749  0.79117 255 255 255
-0.695085   1.53528  0.271645 255 255 255
-0.88591  1.28076 0.268907 255 255 255
-0.0202634    1.97361   0.310341 255 255 255
0.512122   1.1592 0.823314 255 255 255
-0.325272  0.823937  0.738006 255 255 255
-0.153875    1.2997   0.57019 255 255 255
0.483995  1.48581 0.693329 255 255 255
-0.527302    1.4465  0.361459 255 255 255
-0.240103   1.70133  0.363043 255 255 255
0.456546  1.56692 0.672723 255 255 255
-0.0569072     1.3793   0.620039 255 255 255
0.533054 0.847255 0.929741 255 255 255
-0.282419   2.00039   0.20984 255 255 255
-0.701411   1.49984  0.252523 255 255 255
0.442425  1.57889  0.67046 255 255 255
-0.193278   1.83834  0.226981 255 255 255
-0.277133   1.84317    0.2527 255 255 255
-0.518524   1.54251  0.261414 255 255 255
-0.135627   2.10371  0.211129 255 255 255
-0.0383175   0.661144   0.825511 255 255 255
-0.39493  1.84906 0.229008 255 255 255
-0.126156   1.59949  0.474161 255 255 255
0.0801748   1.57235  0.552826 255 255 255
-0.531282  0.877004  0.658216 255 255 255
0.115622 0.661311 0.885455 255 255 255
0.421349  1.31519 0.758763 255 255 255
0.348611 0.831067 0.837534 255 255 255
0.477234  1.43939 0.711299 255 255 255
0.343583 0.402024 0.999229 255 255 255
0.445983 0.732575 0.913655 255 255 255
0.588093 0.829248 0.948205 255 255 255
-0.36181  1.58994 0.297304 255 255 255
-0.237739   1.61575  0.409811 255 255 255
-0.40555  1.70741 0.258462 255 255 255
-0.235604  0.860468  0.715732 255 255 255
-0.0567985    1.95355   0.228996 255 255 255
0.734235  1.15848 0.874592 255 255 255
0.0784992  0.585324  0.887939 255 255 255
-0.0748248    1.01381    0.73557 255 255 255
-0.857799   1.18566  0.338128 255 255 255
0.373776 0.774638 0.934322 255 255 255
-0.0320082    1.56171   0.472793 255 255 255
-0.175023   0.68617  0.784766 255 255 255
-0.320316   1.04718  0.638452 255 255 255
-0.00792224     1.38149    0.616698 255 255 255
-0.790909   1.16062  0.427127 255 255 255
-0.157436   1.87945   0.23481 255 255 255
-0.142633   1.79087  0.332335 255 255 255
-0.784161   1.11567  0.483674 255 255 255
-0.386133    1.1069  0.645138 255 255 255
0.167591 0.356922  0.93217 255 255 255
-0.370436   1.48783  0.420915 255 255 255
-0.00539229     1.69176    0.473788 255 255 255
-0.439223   1.54217  0.276976 255 255 255
0.266655  2.30989 0.234253 255 255 255
0.150778 0.443872 0.933776 255 255 255
-0.0162111    1.82782   0.386596 255 255 255
-0.673323   1.34695  0.293898 255 255 255
0.126128 0.874718  0.81976 255 255 255
-0.79557  1.25362 0.358198 255 255 255
0.350044  1.49496 0.698534 255 255 255
0.364933  1.15955 0.759243 255 255 255
0.483603   1.5336 0.711298 255 255 255
-0.645189   1.35762  0.301343 255 255 255
0.174181 0.119463  1.00598 255 255 255
-0.325519  0.878011  0.706299 255 255 255
-0.216827   1.73292  0.328433 255 255 255
0.337141  1.47316 0.688833 255 255 255
0.396877  1.41083 0.719886 255 255 255
0.175563  0.74168 0.873097 255 255 255
0.424099   1.6138 0.657071 255 255 255
0.0489863   1.46445  0.600216 255 255 255
0.445665   1.5909 0.678262 255 255 255
-0.580863   1.53901  0.269036 255 255 255
-0.807261   1.23446  0.306524 255 255 255
 0.42173  1.11943 0.806384 255 255 255
-0.730473   1.59796  0.240107 255 255 255
-0.0201481    1.84512   0.384394 255 255 255
-0.688799   1.32232  0.303558 255 255 255
-0.701452   1.30707  0.281087 255 255 255
-0.177524   1.72861  0.372519 255 255 255
0.383107 0.757222 0.920709 255 255 255
0.266864   1.4401 0.687282 255 255 255
-0.462574   1.54352  0.354095 255 255 255
0.0837007  0.274635  0.920704 255 255 255
-0.0208665    1.75467   0.457484 255 255 255
-0.694662   1.45954  0.278861 255 255 255
-0.171425   1.34017  0.551308 255 255 255
-0.420069   1.76032  0.265596 255 255 255
0.0643416   1.52347    0.5754 255 255 255
-0.14616 0.916498  0.72984 255 255 255
-0.570082  0.907948  0.634277 255 255 255
0.493922  1.22766  0.73114 255 255 255
-0.139661   1.80404  0.341221 255 255 255
0.134948 0.856511 0.837165 255 255 255
-0.708844    1.5712  0.251807 255 255 255
-0.703688   1.57226  0.249361 255 255 255
-0.156606  0.304181  0.929332 255 255 255
0.493401  1.54524 0.697408 255 255 255
0.479244  1.28188 0.794163 255 255 255
-0.7358 1.42651 0.29526 255 255 255
-0.272372   1.86117   0.25294 255 255 255
0.465879   1.1598 0.815335 255 255 255
-0.576747   1.41296  0.293963 255 255 255
-0.125297   1.81334  0.333981 255 255 255
-0.17299  2.07863 0.207622 255 255 255
-0.240909    1.7639  0.237499 255 255 255
-0.0546549    1.88993   0.330271 255 255 255
0.352609  1.56611 0.654627 255 255 255
-0.202759  0.818362  0.750761 255 255 255
0.407394  1.10646 0.806941 255 255 255
-0.718526    1.3717  0.274121 255 255 255
-0.187608  0.974008  0.704894 255 255 255
-0.340968  0.944645  0.691468 255 255 255
-0.171506   1.06885  0.680314 255 255 255
0.135305 0.801367 0.838312 255 255 255
-0.568636    1.5119  0.275269 255 255 255
0.190196  1.72105 0.497013 255 255 255
0.499779 0.668016 0.915185 255 255 255
-0.182973   1.92266  0.271009 255 255 255
0.102555  1.36342 0.623044 255 255 255
0.607981  1.33953 0.800764 255 255 255
-0.400007   0.82783  0.696336 255 255 255
0.313676 0.298283 0.994898 255 255 255
0.132587 0.774503  0.84549 255 255 255
0.304167  1.43535 0.687614 255 255 255
-0.0402131    1.88028   0.353042 255 255 255
-0.234949   1.76905   0.29316 255 255 255
-0.114095  0.413139  0.849776 255 255 255
-0.0151541    1.92554   0.299712 255 255 255
-0.320999   1.63567  0.334528 255 255 255
-0.547258   1.42497  0.370695 255 255 255
0.153328  1.86299 0.451948 255 255 255
-0.265785   1.63064  0.384727 255 255 255
-0.0940166    0.54066   0.856277 255 255 255
 0.72446  1.27392 0.848195 255 255 255
-0.135902   1.73508   0.39855 255 255 255
-0.0881401   0.815359   0.781054 255 255 255
-0.0102189    1.95604   0.293822 255 255 255
-0.143864   1.66595  0.453991 255 255 255
-0.179512   2.10073  0.205308 255 255 255
-0.398409  0.851671  0.695158 255 255 255
0.126326 0.710627 0.846107 255 255 255
0.100516 0.336304 0.904108 255 255 255
-0.241131   1.21727   0.58211 255 255 255
 0.35265  1.65151 0.628617 255 255 255
0.419047 0.776575  0.91411 255 255 255
-0.561533  0.908424  0.591796 255 255 255
-0.376458   1.56935  0.332977 255 255 255
-0.485718   1.70399  0.255558 255 255 255
0.103523  1.55438 0.555506 255 255 255
-0.591371    1.3603  0.410395 255 255 255
-0.537079   1.37953  0.414725 255 255 255
0.0922475  0.833052  0.813898 255 255 255
-0.596068   1.32602  0.424046 255 255 255
-0.214835  0.767509  0.786426 255 255 255
-0.276198    2.0135  0.211278 255 255 255
-0.0864179   0.986518   0.724299 255 255 255
-0.442556    1.8006  0.234492 255 255 255
0.127553  0.35725 0.910372 255 255 255
-0.429346    1.5519  0.311982 255 255 255
0.373532  1.33766 0.725786 255 255 255
-0.228486   1.65975  0.383579 255 255 255
-0.681209   1.35026  0.360272 255 255 255
-0.276648    1.5947  0.414941 255 255 255
-0.0783496    1.82818   0.364685 255 255 255
-1.03069  1.32256 0.259703 255 255 255
-0.670628   1.26717  0.419648 255 255 255
-0.675126   1.39286   0.29773 255 255 255
-0.599651    1.6501  0.251809 255 255 255
 0.04347 0.474542 0.925044 255 255 255
-0.0599035    1.78544   0.409568 255 255 255
-0.0740458    1.96203   0.226959 255 255 255
-0.26786  1.70589 0.323668 255 255 255
-0.491404   1.63813  0.270996 255 255 255
0.260288  0.22054  1.01595 255 255 255
-0.357465   1.47455  0.446009 255 255 255
0.00355672    1.40001   0.613506 255 255 255
0.351149  1.63948 0.630048 255 255 255
-0.313403   1.79306  0.260046 255 255 255
-0.21018  1.62962  0.42157 255 255 255
-0.0698441    1.90626   0.308044 255 255 255
-0.831604   1.46266  0.261876 255 255 255
0.743011  1.08512 0.905141 255 255 255
 0.67265  1.06715 0.810174 255 255 255
-0.212171   1.82735  0.235874 255 255 255
0.180646 0.296236 0.929825 255 255 255
-0.0339582    1.91044    0.32629 255 255 255
 0.04403  1.74873 0.467723 255 255 255
-0.148912   1.81092  0.305942 255 255 255
-0.0551387    1.74715   0.412056 255 255 255
0.560881 0.810832 0.925137 255 255 255
-0.726475   1.22134  0.435584 255 255 255
-0.748002   1.03242  0.506562 255 255 255
-0.692046  0.850766  0.618729 255 255 255
-0.214922   1.49451  0.497492 255 255 255
0.239685  1.39593 0.692789 255 255 255
-0.299804   1.69009  0.257934 255 255 255
-0.453061  0.929702  0.655187 255 255 255
-0.538363  0.877757  0.607336 255 255 255
-0.47367  1.00456 0.621257 255 255 255
-0.394102   1.48758  0.409746 255 255 255
-0.616669   1.38611  0.340289 255 255 255
0.0810931   1.23361   0.70757 255 255 255
-0.18741  0.70163 0.798374 255 255 255
-0.690531   1.26913  0.416814 255 255 255
-0.692837   1.26898  0.418674 255 255 255
0.0667648  0.870433  0.785925 255 255 255
0.558821 0.782735 0.930606 255 255 255
0.357467 0.339905  1.01994 255 255 255
-0.154348   1.77046  0.363549 255 255 255
-0.228289   1.47786  0.495569 255 255 255
-0.607666   1.22518  0.494588 255 255 255
0.0797168  0.444459  0.951776 255 255 255
 0.33297  1.66884 0.614159 255 255 255
0.731778  1.09872 0.894613 255 255 255
0.498197  1.16802 0.822816 255 255 255
-0.223987  0.838807  0.734043 255 255 255
0.164483 0.340236 0.900998 255 255 255
0.125619  1.56208 0.579358 255 255 255
-0.155234   1.36879  0.542644 255 255 255
0.609283  1.38379 0.786357 255 255 255
0.273642  1.70083  0.58287 255 255 255
0.258203  1.73692 0.559025 255 255 255
 0.19949  1.39529 0.671744 255 255 255
0.0477113   1.98808  0.248378 255 255 255
-0.172275   1.87748  0.228661 255 255 255
0.0877409  0.384974  0.905242 255 255 255
-0.320778    1.6192  0.367876 255 255 255
-0.302044   1.80536  0.249743 255 255 255
-0.00334742     1.35553    0.627546 255 255 255
-0.0896689    1.13817   0.697626 255 255 255
-0.181592  0.800129  0.756943 255 255 255
-0.0556288   0.930895   0.743841 255 255 255
0.0839081  0.860776  0.823365 255 255 255
0.277023  1.44653 0.695051 255 255 255
0.0164381  0.781941  0.759881 255 255 255
0.0497824  0.930688  0.782093 255 255 255
-0.551689   1.48824  0.287594 255 255 255
-0.139845   1.79871  0.362413 255 255 255
-0.321312  0.640326  0.739734 255 255 255
-0.302359   1.63923  0.377636 255 255 255
-0.150781   1.80734  0.285333 255 255 255
  0.4541  1.17115 0.816552 255 255 255
-0.0863581   0.424352   0.899287 255 255 255
-0.183554  0.889291  0.733109 255 255 255
-0.399251   1.32434    0.5045 255 255 255
-0.174926   1.36104  0.499509 255 255 255
0.472148 0.687985 0.942654 255 255 255
-0.0589526    1.49917   0.475323 255 255 255
-0.23731  1.09541 0.657543 255 255 255
0.300581   1.4573 0.689526 255 255 255
-0.126963  0.909093  0.749166 255 255 255
-0.685716   1.50254  0.265318 255 255 255
-0.238589   1.71854  0.340652 255 255 255
-0.342278    1.2948  0.516928 255 255 255
-0.344576   1.00379  0.665652 255 255 255
-0.315023   1.82596  0.246171 255 255 255
-0.167499  0.884012  0.731738 255 255 255
-0.544796  0.978418  0.596131 255 255 255
-0.354188   1.93099   0.21345 255 255 255
0.115764  1.14199 0.753969 255 255 255
-0.391923   1.87719  0.226111 255 255 255
-0.311083   1.00016  0.670794 255 255 255
0.0639638  0.851987  0.793057 255 255 255
-0.00209336     1.97785    0.308375 255 255 255
0.0895478   1.17123  0.734749 255 255 255
-0.409262    1.6417  0.254776 255 255 255
-0.032731   1.90788  0.347093 255 255 255
-0.24656  1.09599  0.64126 255 255 255
-0.165679   0.81323  0.784315 255 255 255
-0.392134   1.66808  0.256009 255 255 255
-0.48684  1.76054 0.238508 255 255 255
0.191721 0.740446 0.875326 255 255 255
-0.286902   1.62995  0.381509 255 255 255
0.301568   1.4701 0.682972 255 255 255
0.291632  1.66926 0.598076 255 255 255
0.121333 0.934616 0.812422 255 255 255
0.475715  1.34677 0.750154 255 255 255
-0.146689   1.78231  0.320319 255 255 255
-0.324193   1.54555  0.395161 255 255 255
-0.128085   0.88839  0.750009 255 255 255
0.199634  1.48663 0.628657 255 255 255
-0.760505   1.45169  0.276646 255 255 255
0.0948908   1.21314  0.719515 255 255 255
0.314302  1.48565 0.688547 255 255 255
-0.251466    2.0153   0.21153 255 255 255
 0.20998 0.168849  1.01353 255 255 255
0.493359 0.817533 0.922393 255 255 255
-0.382073   1.76026  0.252083 255 255 255
-0.49749  1.27188 0.502315 255 255 255
-0.0237233    1.67733   0.481135 255 255 255
-0.934749   1.35639  0.267674 255 255 255
-0.150569   1.76324  0.370138 255 255 255
-0.492903   1.32155  0.487887 255 255 255
 -0.2906 0.538567 0.834164 255 255 255
0.217593  1.26491 0.729544 255 255 255
-0.442838   1.80853  0.228121 255 255 255
0.235695  1.61107  0.61304 255 255 255
-0.393072   1.74711  0.267291 255 255 255
0.0932972   1.19717  0.724834 255 255 255
-0.103154  0.867689  0.755816 255 255 255
-0.00471036     1.93183    0.262585 255 255 255
0.307356  1.66341 0.602769 255 255 255
-0.370766   1.75725  0.256333 255 255 255
0.330912 0.418786 0.944508 255 255 255
-0.497104    1.2414  0.512041 255 255 255
-0.461284   1.41458  0.414298 255 255 255
-0.47693  1.51668 0.284609 255 255 255
-1.07837  1.41552 0.211162 255 255 255
-0.0146923    1.80342   0.407968 255 255 255
-0.587178   1.68661  0.241627 255 255 255
-0.80879  1.38747 0.280195 255 255 255
-0.895023   1.32004  0.263907 255 255 255
-0.102411   1.84967  0.258834 255 255 255
-0.45094   1.5504 0.354138 255 255 255
-0.433293  0.767085  0.701216 255 255 255
 0.19682 0.337239 0.930954 255 255 255
0.0538313   1.84062  0.437546 255 255 255
-0.594083   1.30208  0.450662 255 255 255
0.145168 0.126905  1.00695 255 255 255
-0.691412   1.38049   0.27161 255 255 255
-0.275828   0.55283  0.837697 255 255 255
0.0317748   1.94592    0.3406 255 255 255
-0.0543529    1.90732   0.276282 255 255 255
0.0795851   1.06209  0.673694 255 255 255
-0.908651   1.33367  0.276932 255 255 255
-0.779915   1.26665  0.356655 255 255 255
-0.0652795    1.87089   0.303574 255 255 255
0.0318861   1.98018  0.309373 255 255 255
  0.3982  1.33153 0.752988 255 255 255
-0.0388252   0.287924   0.954765 255 255 255
0.444394  1.50526  0.70282 255 255 255
-0.504968  0.819026  0.687379 255 255 255
-0.141215  0.915604  0.748225 255 255 255
0.387676  1.14527 0.796417 255 255 255
0.0388586  0.919524  0.805376 255 255 255
 0.22284 0.566393 0.880045 255 255 255
-0.405751   1.65961  0.259832 255 255 255
-0.215677   1.72085  0.375028 255 255 255
-0.18329  1.51728 0.489122 255 255 255
-0.526905    1.2915  0.489647 255 255 255
-0.287235   2.02343  0.200365 255 255 255
0.279446  1.21655 0.719724 255 255 255
0.595584  1.28268 0.778547 255 255 255
-0.302698   1.80266  0.261743 255 255 255
-0.593728   1.40924  0.341988 255 255 255
 -0.7908  1.30279 0.265606 255 255 255
-0.0178675    1.37657   0.624866 255 255 255
-0.313794   1.83679  0.243391 255 255 255
-0.439406   1.02847  0.613987 255 255 255
-0.266324   1.10133  0.654426 255 255 255
-0.213174   1.72982  0.302914 255 255 255
-0.124481   1.87341  0.254679 255 255 255
-0.0786642    1.75495    0.39755 255 255 255
-0.548006   1.88428  0.183434 255 255 255
-0.414251   1.90672  0.209476 255 255 255
-0.266954   1.10105     0.655 255 255 255
0.0965284   1.31137  0.669766 255 255 255
-0.373138   1.68377   0.25436 255 255 255
-0.0973228   0.640621    0.78181 255 255 255
0.535621  1.39456 0.766466 255 255 255
 0.48994  1.52388 0.711299 255 255 255
-0.0808068    1.79514    0.38056 255 255 255
-0.207277  0.866806  0.746721 255 255 255
-0.799586   1.16933  0.423273 255 255 255
-0.191114   1.93946  0.236392 255 255 255
0.311641 0.727494 0.831641 255 255 255
0.187199 0.416277 0.902041 255 255 255
-0.0816989   0.546185   0.867666 255 255 255
-0.00439957     1.93229    0.342905 255 255 255
-0.00780121     1.94942    0.317334 255 255 255
-0.714352    1.5691  0.241109 255 255 255
-0.735802   1.54094  0.258411 255 255 255
-0.0816538    1.66508   0.474599 255 255 255
0.117463 0.993963 0.799774 255 255 255
0.444072 0.860248 0.860676 255 255 255
-0.320344   1.92095  0.221559 255 255 255
-0.0850988     1.6967   0.454604 255 255 255
-0.682051   1.28976  0.413644 255 255 255
-0.0556876     1.8978   0.251041 255 255 255
-0.416719   1.38605  0.483821 255 255 255
0.339184  1.69257 0.606125 255 255 255
0.461319 0.692986  0.86932 255 255 255
0.0553065   1.96939  0.336358 255 255 255
-0.0710215    1.12466   0.706166 255 255 255
0.396296 0.741582 0.848932 255 255 255
-0.338647    0.9912  0.668506 255 255 255
-0.486298   0.96515  0.650025 255 255 255
0.0391675   1.99238  0.309951 255 255 255
-0.501962  0.728984  0.714812 255 255 255
0.436549 0.950677 0.867229 255 255 255
-0.324544  0.812702  0.696887 255 255 255
-0.563791   1.17194  0.516225 255 255 255
-0.105874   1.84828   0.32823 255 255 255
-0.239006   1.71569  0.272019 255 255 255
-0.218065   1.92195  0.227754 255 255 255
-0.501276  0.771941  0.702459 255 255 255
-0.161201     1.987  0.232033 255 255 255
-0.0532537    1.90772   0.265101 255 255 255
0.403671  1.12191 0.818809 255 255 255
0.0467308   1.96296  0.342267 255 255 255
-0.0698315    1.38465    0.59883 255 255 255
-0.600864   1.40866  0.362567 255 255 255
-0.306701   1.84869  0.245373 255 255 255
-0.823868   1.17077  0.413871 255 255 255
0.0320303   1.81763  0.441218 255 255 255
0.0410839    1.8296  0.441754 255 255 255
0.367157 0.848201 0.823913 255 255 255
0.341857  1.65457 0.620662 255 255 255
-0.26636  1.69215 0.279091 255 255 255
-0.910883   1.34656  0.280302 255 255 255
0.444342 0.714975 0.836163 255 255 255
0.339321  1.63745 0.631335 255 255 255
0.468231 0.703018 0.904449 255 255 255
-0.248094   1.70705  0.275262 255 255 255
-0.0293713     1.7185   0.459541 255 255 255
0.507572 0.733755 0.931884 255 255 255
0.390072    1.331 0.745572 255 255 255
-0.058348   1.36168  0.622048 255 255 255
-0.486009  0.768115   0.69905 255 255 255
0.404432  1.49141 0.702683 255 255 255
0.375952 0.920869  0.86637 255 255 255
-0.365183    1.5951  0.281724 255 255 255
-0.806865   1.54447  0.226616 255 255 255
-0.0434018    1.89366   0.324978 255 255 255
-0.575471   1.40705  0.363694 255 255 255
0.551044  1.44295 0.747833 255 255 255
-0.171703   1.37473  0.498575 255 255 255
0.110014  1.56251 0.562798 255 255 255
0.192506  1.58318 0.598706 255 255 255
0.0833919   1.91261  0.415222 255 255 255
-0.708193   1.19711  0.449873 255 255 255
0.0945798  0.374787  0.899581 255 255 255
-0.839761   1.09211  0.440241 255 255 255
0.100295  1.90429 0.422445 255 255 255
-0.862141   1.46563  0.251091 255 255 255
 0.52072   1.4216 0.750772 255 255 255
-0.377342   1.56576  0.347178 255 255 255
0.555128  1.43682 0.760512 255 255 255
0.370838  1.63406 0.639281 255 255 255
0.104461  1.89597 0.431632 255 255 255
-0.155173    1.7112  0.394309 255 255 255
0.280834   1.7575 0.554137 255 255 255
 0.28071  1.75765 0.555324 255 255 255
0.490963 0.678188 0.904083 255 255 255
0.0615583   1.48588  0.594199 255 255 255
-0.218168    1.6402  0.400022 255 255 255
-0.673894  0.766174  0.656663 255 255 255
-0.383255   1.78912  0.253061 255 255 255
0.0943396    1.8844  0.432509 255 255 255
0.117042  1.54399 0.570804 255 255 255
-0.96582  1.36498 0.260461 255 255 255
0.249583  1.43468 0.687967 255 255 255
-0.441725   1.09832  0.538486 255 255 255
-0.0560659    1.10983   0.708992 255 255 255
-0.056791    1.8959  0.319936 255 255 255
-0.0943929    1.78856   0.380768 255 255 255
-0.439073   1.73483  0.256733 255 255 255
-0.365838    1.5786  0.347429 255 255 255
0.492866  1.14974 0.839874 255 255 255
 0.19566 0.165969  1.00918 255 255 255
0.107808  1.30174 0.681979 255 255 255
0.0418144  0.430573  0.931706 255 255 255
-0.237429   1.70962  0.342889 255 255 255
-0.684003   1.48541  0.270317 255 255 255
-0.451445    1.7236  0.258031 255 255 255
-0.666717   1.33124  0.336543 255 255 255
-0.145326   1.81708  0.315945 255 255 255
-0.438264   1.80982  0.215399 255 255 255
-0.0214626    1.74214   0.458259 255 255 255
0.640131  1.18178 0.800998 255 255 255
-0.0928153    1.15223    0.66924 255 255 255
-0.475255   1.70297  0.260534 255 255 255
-0.231622  0.586703  0.829639 255 255 255
0.0156713  0.360171  0.948168 255 255 255
-0.201118   1.66355  0.392698 255 255 255
-0.210387   1.66457  0.401289 255 255 255
0.251699   1.7509 0.561878 255 255 255
0.138054 0.717032 0.849116 255 255 255
-1.03725   1.3642  0.24976 255 255 255
 0.48556 0.769692 0.910712 255 255 255
-0.314809   1.54395  0.403383 255 255 255
-0.328597   1.46531  0.478019 255 255 255
0.109134  1.86705 0.445429 255 255 255
-0.319259   1.53153  0.427532 255 255 255
0.674344  1.05682 0.790131 255 255 255
0.361964  1.36795 0.732921 255 255 255
-0.835572  0.976104  0.511189 255 255 255
-0.0782902    1.82301   0.374451 255 255 255
0.411709   1.3138 0.747407 255 255 255
0.0840539   1.87348  0.434248 255 255 255
-0.0610941    1.83179   0.369291 255 255 255
0.631725  1.35946 0.809667 255 255 255
0.466968 0.695296 0.897836 255 255 255
-0.173802   1.72506  0.381172 255 255 255
-0.0779138   0.537141   0.822761 255 255 255
-0.702184   1.32017  0.288811 255 255 255
0.386973  1.33792 0.733688 255 255 255
0.246546 0.226601 0.998827 255 255 255
-0.210909   1.04565  0.642799 255 255 255
-0.101282   1.01502   0.73789 255 255 255
-0.337342   1.66989  0.254927 255 255 255
-0.290595   1.64674  0.378521 255 255 255
-0.383527   1.77933  0.256952 255 255 255
0.0623172    1.8517  0.438656 255 255 255
0.242861  1.71091 0.552857 255 255 255
-0.269557  0.922771  0.682137 255 255 255
0.572272  1.34985 0.781621 255 255 255
-0.59838  1.63124 0.261854 255 255 255
0.0236285    1.8073  0.441534 255 255 255
0.204767   1.7445 0.478838 255 255 255
0.0438709   1.85222  0.403653 255 255 255
0.409666 0.906407 0.799366 255 255 255
-0.587525   1.42752   0.35796 255 255 255
-0.952697   1.34051  0.264754 255 255 255
-0.013064   1.71754  0.461352 255 255 255
-0.164563   1.72309  0.383765 255 255 255
-0.373685   1.80048  0.252545 255 255 255
-0.107429   1.79987  0.372043 255 255 255
0.070517  1.78505 0.462923 255 255 255
 0.43836  1.34481 0.746583 255 255 255
-0.0927054   0.237271   0.956949 255 255 255
-0.688671  0.925617  0.569054 255 255 255
-0.188674  0.819808  0.757886 255 255 255
-0.243097   1.05495  0.657634 255 255 255
-0.16412  1.65216 0.441287 255 255 255
0.391532  1.32637 0.733102 255 255 255
0.582543  1.34241 0.782566 255 255 255
-0.363701   1.78472  0.256558 255 255 255
0.325339 0.718089 0.847416 255 255 255
0.365275  1.58492 0.650594 255 255 255
-0.177706  0.529908  0.851489 255 255 255
-0.493299  0.995171   0.60657 255 255 255
-0.0449601     1.9163   0.251749 255 255 255
-0.968124   1.38504  0.244232 255 255 255
0.0476365    1.9862  0.307136 255 255 255
-0.357929   1.88929   0.22074 255 255 255
-0.348487   1.48424  0.452501 255 255 255
0.540374  1.35496 0.774998 255 255 255
-0.225078   1.72218  0.317998 255 255 255
-0.484214   1.69274  0.260202 255 255 255
-0.582666   1.38476  0.357938 255 255 255
0.379222  1.34536 0.729889 255 255 255
-0.630775   1.25256  0.458408 255 255 255
0.369773  1.57979 0.653024 255 255 255
-0.41503  1.52054 0.391587 255 255 255
-0.826092   1.52197  0.219449 255 255 255
0.338577  1.66499 0.619085 255 255 255
-0.0995075    1.79494    0.37828 255 255 255
-0.919702   1.29551   0.28922 255 255 255
0.135415   1.3379 0.656414 255 255 255
-0.538705  0.886672   0.61725 255 255 255
-0.630225   1.55492  0.270131 255 255 255
0.602306  1.39056 0.779887 255 255 255
0.556415  1.45877 0.733853 255 255 255
-0.14987  2.13889  0.19299 255 255 255
-0.251054   1.67653  0.376471 255 255 255
-0.143438   1.46073  0.485363 255 255 255
-0.585852      1.62  0.266972 255 255 255
-0.0702986    1.37981   0.588253 255 255 255
-0.269804   1.06961  0.661577 255 255 255
0.0827466  0.819933  0.815796 255 255 255
-0.518161    1.6186   0.28274 255 255 255
0.686369  1.21002 0.803149 255 255 255
-0.346082    1.6187  0.281531 255 255 255
-0.384866   1.44328  0.466789 255 255 255
0.0880388   1.84132  0.444776 255 255 255
0.181291 0.128805  1.01983 255 255 255
0.0701795   1.45779  0.619651 255 255 255
-0.117041   1.86604  0.286672 255 255 255
-0.137031   1.99047  0.240255 255 255 255
-0.298209   1.94701  0.214509 255 255 255
-0.102832   1.16797  0.672861 255 255 255
-0.0634835    1.71605   0.451639 255 255 255
0.497805  1.13897 0.781225 255 255 255
0.168074 0.718358 0.859523 255 255 255
-0.160505  0.960494  0.725395 255 255 255
0.0281711   1.89212  0.376585 255 255 255
-0.0542096     1.7276   0.452673 255 255 255
-0.0987694    1.76766   0.386089 255 255 255
0.675188  1.05995 0.803392 255 255 255
-0.341842   1.16522  0.579181 255 255 255
-0.345222    1.5927  0.378302 255 255 255
0.319758 0.741711 0.852102 255 255 255
-0.932091   1.39123  0.250927 255 255 255
-0.325913   1.52954   0.42262 255 255 255
-0.0488615    1.91136   0.249929 255 255 255
-1.02473  1.33161 0.245278 255 255 255
0.414643  1.09321 0.814806 255 255 255
0.512464 0.716392 0.941712 255 255 255
0.0182222   1.88524  0.365396 255 255 255
-0.588887   1.37587  0.410228 255 255 255
0.115538  1.90638 0.428967 255 255 255
-0.572382  0.887746   0.58872 255 255 255
-0.332125   1.81687   0.23692 255 255 255
-0.145724    1.6574  0.453022 255 255 255
-0.489911   1.50851  0.352338 255 255 255
 0.52748 0.839402 0.919026 255 255 255
-0.0405829    1.92475   0.276754 255 255 255
-0.0492533    1.85619   0.364069 255 255 255
0.547162  1.44921 0.751607 255 255 255
-0.0425596    1.35913   0.615915 255 255 255
-0.525518  0.900168  0.648173 255 255 255
0.0958719  0.757195  0.835355 255 255 255
 0.34963 0.866183 0.883006 255 255 255
-0.251461   1.63619  0.389044 255 255 255
0.0487958   1.55111  0.557542 255 255 255
-0.226708   1.62535  0.411083 255 255 255
-0.79447  1.13994 0.438142 255 255 255
0.182273  1.24809 0.726721 255 255 255
0.167791  1.52141 0.625855 255 255 255
-0.225027   1.75343   0.25913 255 255 255
-0.350249   1.61006  0.281504 255 255 255
0.773639  1.21811 0.898643 255 255 255
0.797324  1.22559 0.872991 255 255 255
0.515473 0.761527  0.92383 255 255 255
0.509383  1.41383 0.740893 255 255 255
-0.43149  1.69415 0.267297 255 255 255
-0.709574   1.55965  0.255706 255 255 255
0.172309 0.591629 0.877779 255 255 255
0.0643278   1.47071  0.603811 255 255 255
-0.196387  0.780292  0.739555 255 255 255
-0.43012  1.85206 0.230858 255 255 255
-0.186689   1.40756  0.525401 255 255 255
0.751184  1.11989 0.907304 255 255 255
0.149718 0.375415 0.900094 255 255 255
0.557407  1.31597 0.683754 255 255 255
-0.068282  0.531371  0.821603 255 255 255
 0.14024  1.55875 0.590227 255 255 255
0.0290783   1.20701  0.646538 255 255 255
-0.0678012    1.91399   0.313345 255 255 255
-0.0921142    1.10882   0.708777 255 255 255
0.509594 0.833103 0.922574 255 255 255
0.000208975     1.94998    0.324315 255 255 255
-0.838612    1.5296  0.219503 255 255 255
-0.012429   1.88134  0.361679 255 255 255
-0.205657   1.32665  0.555727 255 255 255
0.520634 0.794599 0.952387 255 255 255
0.264251  1.65822 0.587988 255 255 255
0.264388  1.65847 0.588929 255 255 255
0.272041  1.68106 0.576326 255 255 255
-0.273439   1.86058  0.242683 255 255 255
-0.535076     1.461  0.352895 255 255 255
0.442651 0.716403 0.884515 255 255 255
-0.290866  0.911603  0.691775 255 255 255
-0.293774   1.94941  0.219828 255 255 255
0.271908  1.65979 0.594344 255 255 255
0.010187   1.8476 0.410334 255 255 255
-0.594152   1.28242  0.459859 255 255 255
-0.532397   1.39133  0.416881 255 255 255
-0.710363   1.25336  0.412859 255 255 255
0.438602 0.724833 0.895593 255 255 255
-0.0845484   0.996848   0.744863 255 255 255
-0.0151925    1.50196   0.508521 255 255 255
0.503961 0.817684 0.937884 255 255 255
-0.478773   1.77468  0.231058 255 255 255
-0.326609  0.853601  0.687206 255 255 255
0.607207  1.03915 0.888962 255 255 255
-0.592529   1.46948  0.265657 255 255 255
0.0312312  0.792274  0.780549 255 255 255
0.299871 0.754367 0.870768 255 255 255
-0.325816    1.8219  0.250268 255 255 255
0.315252 0.728865  0.84531 255 255 255
-0.689182   1.51548  0.269748 255 255 255
0.0302554   1.89223  0.390444 255 255 255
-0.0251648    1.90808   0.349383 255 255 255
-0.297532   1.51522  0.466235 255 255 255
-0.491432  0.743061  0.711608 255 255 255
-0.960668   1.38805  0.254361 255 255 255
0.0454506  0.795031  0.819611 255 255 255
-0.312956    1.8638  0.247451 255 255 255
-0.322442   1.54562  0.410251 255 255 255
0.00671611    1.93119   0.341296 255 255 255
0.0243605   1.93081  0.344626 255 255 255
-0.633454   1.54278  0.273471 255 255 255
-0.189704   1.64284  0.404884 255 255 255
 0.13572 0.904963 0.809906 255 255 255
 -0.4231  1.11427 0.595881 255 255 255
-0.41018  1.11954 0.583389 255 255 255
-0.0297145    1.89013   0.353351 255 255 255
0.181453  1.51617 0.618845 255 255 255
-0.268597   1.77449  0.242302 255 255 255
-0.162037   1.69851   0.39344 255 255 255
0.169879 0.447162 0.921177 255 255 255
0.0744726   1.09662  0.729558 255 255 255
0.000518149     1.96305    0.314127 255 255 255
0.00525361    1.96117    0.30924 255 255 255
0.584973  1.34638 0.797747 255 255 255
-0.440048   1.01972  0.630065 255 255 255
 0.10327 0.742597  0.83419 255 255 255
0.417522 0.736151  0.85873 255 255 255
-0.327377   1.59523  0.383348 255 255 255
0.275419   1.6534 0.594333 255 255 255
0.216239  1.58351 0.625537 255 255 255
0.401544 0.762855 0.892685 255 255 255
-0.184183   1.10779  0.607245 255 255 255
-0.662773    1.3613  0.364461 255 255 255
-0.335679   1.78932  0.264578 255 255 255
-0.119015   1.82023  0.331298 255 255 255
-0.0818525    1.80124   0.377328 255 255 255
0.241268  1.16312 0.704909 255 255 255
0.102342  1.40206 0.662336 255 255 255
-0.281819   1.20501  0.606729 255 255 255
-0.391768   1.70574  0.262253 255 255 255
-0.0670736   0.521311   0.793822 255 255 255
-0.496992   1.45245  0.395931 255 255 255
-0.491582   1.64425  0.271307 255 255 255
-0.0928926    1.61171   0.472593 255 255 255
-0.0664115    1.09632   0.713636 255 255 255
-0.141326   1.00753  0.725405 255 255 255
0.609059 0.837871 0.925035 255 255 255
0.380606 0.844873 0.833977 255 255 255
-0.0581251    1.90466   0.251876 255 255 255
-0.464822   1.48175  0.396246 255 255 255
-0.556923  0.990631  0.571297 255 255 255
-0.657603   1.36056  0.291521 255 255 255
0.0988134  0.380092  0.922479 255 255 255
0.478794 0.865335 0.854658 255 255 255
0.357389  1.37603 0.732348 255 255 255
-0.867491   1.37849  0.278674 255 255 255
-0.313415  0.889534   0.70485 255 255 255
-0.00769373     1.97375    0.306227 255 255 255
-0.0731942   0.889158   0.757837 255 255 255
0.0770051  0.914407  0.785462 255 255 255
-0.78193  1.24728 0.341554 255 255 255
-0.492744    1.5027  0.337078 255 255 255
-0.604953   1.55013  0.267938 255 255 255
0.104779  1.53011 0.583531 255 255 255
-0.257876   1.67753  0.373807 255 255 255
-0.352745   1.06228  0.594674 255 255 255
 0.24334  2.22057 0.223201 255 255 255
-0.548638  0.934694  0.624042 255 255 255
-0.881192   1.31238  0.295231 255 255 255
-0.35265  1.89255  0.22494 255 255 255
-0.695547   1.61629  0.241732 255 255 255
-0.580801   1.40433  0.357237 255 255 255
0.261889 0.219037 0.982609 255 255 255
-0.174847    1.5246  0.491754 255 255 255
-0.301142   1.87519  0.246467 255 255 255
0.697435  1.21723 0.798521 255 255 255
-0.786983   1.56245  0.242491 255 255 255
0.212622  1.61395  0.58863 255 255 255
-0.216396   1.75212  0.300521 255 255 255
0.600016  1.11221 0.768188 255 255 255
-0.104103   1.77035  0.381643 255 255 255
0.0492466   1.84498  0.435639 255 255 255
-0.792609   1.52161  0.243847 255 255 255
-0.586484   1.41628  0.284117 255 255 255
-0.226043   1.76077  0.301927 255 255 255
-0.689251   1.57967   0.25223 255 255 255
-0.390792   1.85762  0.223711 255 255 255
-0.232861   1.76456  0.275271 255 255 255
0.0884276   1.31577  0.686152 255 255 255
 0.33294 0.718691  0.83074 255 255 255
-0.0559315   0.559905   0.882064 255 255 255
-0.383906  0.839894  0.688265 255 255 255
-0.0208235    1.86925   0.366541 255 255 255
0.486887  0.60788 0.849622 255 255 255
 0.36747  1.15885 0.788444 255 255 255
-0.47341  1.77815 0.235493 255 255 255
-0.275264   1.53533  0.464775 255 255 255
-0.342635   1.02751  0.649335 255 255 255
0.281257 0.739775   0.8602 255 255 255
0.406603 0.919059 0.827981 255 255 255
0.251879  1.63862 0.604059 255 255 255
0.520409 0.943635 0.829636 255 255 255
0.303471  1.65205 0.614376 255 255 255
0.459866 0.872542  0.86207 255 255 255
-0.0905992    1.79825   0.378105 255 255 255
-0.15102 0.894474 0.738577 255 255 255
-0.191163   1.34748  0.482382 255 255 255
0.348954   2.0728 0.413239 255 255 255
-0.282018    1.6112  0.390253 255 255 255
-0.426976  0.954419   0.64995 255 255 255
-0.965433   1.42383  0.232699 255 255 255
 0.62184 0.951341 0.816728 255 255 255
-0.0772251    1.46579   0.486151 255 255 255
0.00894975    1.95177   0.333035 255 255 255
-0.227472   1.64082  0.396176 255 255 255
-0.699706   1.46566  0.280508 255 255 255
 0.65577  1.16093 0.811389 255 255 255
-0.0522989    1.82664   0.373718 255 255 255
-0.664604     1.212  0.487367 255 255 255
0.0496056   1.94026  0.352024 255 255 255
-0.0679898    1.81334   0.380263 255 255 255
-0.619496    1.3524  0.364258 255 255 255
-0.209603   1.74227  0.313725 255 255 255
-0.350582    1.7839   0.25457 255 255 255
-0.219586   1.69454  0.383586 255 255 255
0.463419 0.880743 0.905167 255 255 255
-0.447147   1.57763  0.311879 255 255 255
-0.198538  0.630181  0.818522 255 255 255
-0.317336   1.22082  0.534202 255 255 255
-0.981706   1.29479  0.279859 255 255 255
0.398812  1.47685  0.70543 255 255 255
0.0217445   1.20828  0.631397 255 255 255
-0.458824   1.65848   0.27139 255 255 255
-0.0937749    1.81124   0.368692 255 255 255
-0.373952   1.92028  0.215408 255 255 255
0.565447  1.47926 0.735443 255 255 255
0.592295  1.02801 0.796187 255 255 255
-0.792784   1.36354  0.273867 255 255 255
-0.357364   1.30234  0.526802 255 255 255
-0.252672    1.6856  0.331325 255 255 255
-0.492324  0.823935  0.690097 255 255 255
-0.0849044   0.832349   0.804194 255 255 255
-0.725666   1.15365  0.484797 255 255 255
-0.202787   1.60848  0.450033 255 255 255
-0.927972   1.29105  0.285926 255 255 255
0.0901101   1.18557  0.639181 255 255 255
-0.439188   1.56192  0.314826 255 255 255
-0.130694      1.88  0.247838 255 255 255
-0.301077   1.23602  0.559785 255 255 255
-0.333021   1.20459  0.523161 255 255 255
-0.0400088    1.89781   0.348952 255 255 255
-0.327646    1.9178  0.218545 255 255 255
0.0605072   1.31111  0.692844 255 255 255
-0.450769    1.3883  0.466976 255 255 255
-0.528572   1.44187  0.395346 255 255 255
-0.0431248    1.84777   0.368967 255 255 255
-0.0811414    1.82514   0.368778 255 255 255
-0.28799   1.6547 0.381422 255 255 255
0.218794 0.100773 0.988435 255 255 255
-0.278445   1.66282  0.379665 255 255 255
0.384973  1.39536 0.719571 255 255 255
0.409859 0.730584 0.834088 255 255 255
0.0644259   1.93246  0.363584 255 255 255
 0.24477  1.70471 0.557171 255 255 255
-0.631613   1.39208  0.298194 255 255 255
-0.414332     1.723  0.258337 255 255 255
-0.573771     1.387  0.406126 255 255 255
0.039414   1.9743 0.333041 255 255 255
0.576502  1.10057 0.804999 255 255 255
0.0243901    1.9073   0.36141 255 255 255
0.0785922   1.52875  0.575564 255 255 255
-0.508069   1.47148  0.362837 255 255 255
-0.405115   1.77065  0.254558 255 255 255
-0.954987   1.37693  0.256585 255 255 255
-0.222453   1.49755  0.481674 255 255 255
-0.233379   1.71464  0.345905 255 255 255
-0.577922   1.40248  0.398104 255 255 255
0.112315 0.929332 0.802746 255 255 255
0.229971  1.17087 0.692942 255 255 255
0.0880057   1.03451  0.626937 255 255 255
0.436381 0.718122 0.860536 255 255 255
-0.945713   1.44378  0.232169 255 255 255
-0.308621   1.62993  0.378216 255 255 255
0.0782761   1.20825  0.642234 255 255 255
-0.0563246   0.277967    0.95001 255 255 255
 0.22993  1.72716 0.539173 255 255 255
-0.0499037    1.76586   0.444919 255 255 255
-0.0490462    1.67562   0.474745 255 255 255
 0.32887 0.714023 0.862028 255 255 255
-0.136755   1.89621  0.270441 255 255 255
0.023687  1.96001 0.311908 255 255 255
-0.466388   1.74632  0.251493 255 255 255
0.265759 0.229424  1.02645 255 255 255
0.269633 0.240207  1.01379 255 255 255
0.108807  1.53679 0.573195 255 255 255
-0.892684   1.36032  0.279453 255 255 255
-0.161354   1.71024  0.386521 255 255 255
-0.784368   1.53752   0.24528 255 255 255
-0.21535  0.85022 0.729962 255 255 255
-0.956323   1.38146  0.247196 255 255 255
0.0814736  0.641836  0.858537 255 255 255
0.304636 0.408899 0.951478 255 255 255
-0.585083   1.30036  0.456705 255 255 255
-0.546056  0.900596  0.636369 255 255 255
-0.764769   1.30323  0.284361 255 255 255
 0.22106 0.719976 0.866076 255 255 255
0.227141 0.625865 0.872295 255 255 255
-0.262731   1.27399  0.535549 255 255 255
0.012682  1.91386 0.357554 255 255 255
0.307069 0.259297  1.00413 255 255 255
-0.772082   1.55554  0.241238 255 255 255
0.610188  1.15195 0.817983 255 255 255
-0.0174196    1.85762   0.373518 255 255 255
0.389645  1.29376 0.735134 255 255 255
-0.386682   1.85801  0.234625 255 255 255
-0.428478   1.72357  0.261418 255 255 255
-0.428135    1.1016   0.60074 255 255 255
-0.190902   1.74449  0.340589 255 255 255
-0.432838   1.45047  0.410363 255 255 255
 0.1951 1.68148 0.55275 255 255 255
0.479501 0.683049 0.913648 255 255 255
0.365725 0.918312 0.868914 255 255 255
-1.07567   1.3852 0.215716 255 255 255
-0.494195   1.25507  0.506306 255 255 255
-0.662837    1.4841  0.277597 255 255 255
-0.06373  1.86803 0.303624 255 255 255
-0.128324   1.69315  0.422358 255 255 255
-0.330587   1.00438  0.667424 255 255 255
-0.594253  0.994703  0.565319 255 255 255
 -0.4511  1.53123 0.357293 255 255 255
-0.278695   1.04748  0.675037 255 255 255
-0.786653    1.2531  0.363362 255 255 255
-0.493629    1.6841  0.260626 255 255 255
0.0472942   1.98891    0.2509 255 255 255
-0.420246    1.4392  0.426869 255 255 255
-0.831854   1.15365  0.413167 255 255 255
-0.614311   1.52261  0.273735 255 255 255
-0.109573    1.8595   0.26337 255 255 255
-0.0243148   0.364513   0.914939 255 255 255
-0.00420197     1.95373    0.317139 255 255 255
0.0240827   1.85962  0.385628 255 255 255
0.551794  1.32329 0.695139 255 255 255
-0.861173   1.10023  0.434205 255 255 255
-0.438752   1.26289  0.518154 255 255 255
 0.09511 0.409572 0.944796 255 255 255
-0.387693   1.13887  0.599771 255 255 255
-0.181386   0.98084  0.712089 255 255 255
-0.0115916     1.7945   0.438481 255 255 255
-0.334159   1.57649   0.39179 255 255 255
-0.303885   1.55191  0.412325 255 255 255
0.00214442   0.401561   0.932447 255 255 255
-0.380218   1.68026  0.250718 255 255 255
-0.298309   1.50539  0.466599 255 255 255
-0.0889029    1.85289   0.360328 255 255 255
-0.0340237   0.364897   0.930066 255 255 255
0.404341  1.13045 0.823425 255 255 255
0.00327415    1.91568   0.348396 255 255 255
0.503795 0.781495 0.929983 255 255 255
0.0417939  0.763327   0.72469 255 255 255
0.408622 0.530941 0.935666 255 255 255
0.0584453   1.42223  0.632235 255 255 255
-0.738703   1.24108  0.416945 255 255 255
0.135356  1.17481 0.735884 255 255 255
-0.0382743   0.380244   0.938167 255 255 255
-0.0261788    1.97154   0.274395 255 255 255
-0.0848299    1.71585   0.447577 255 255 255
-0.138413   1.76607  0.376088 255 255 255
-0.331743   1.58329   0.38729 255 255 255
0.655613 0.940879 0.821489 255 255 255
-0.124186   1.72101  0.416626 255 255 255
0.148198  1.54309 0.600791 255 255 255
-0.465491   1.66635  0.272825 255 255 255
0.399371 0.737366  0.83975 255 255 255
-0.138759   1.75937  0.378634 255 255 255
-0.180246   1.73628  0.376212 255 255 255
-1.04187  1.39929 0.227876 255 255 255
0.0527673   1.92821  0.352082 255 255 255
-0.26198  1.79748 0.306188 255 255 255
-0.0959683    1.80433   0.377287 255 255 255
-0.0647803    1.84101   0.360818 255 255 255
0.310555  1.65344 0.616095 255 255 255
-0.438111  0.785845  0.712887 255 255 255
-0.222309   1.74907  0.338323 255 255 255
-0.38729  1.45527  0.45062 255 255 255
-0.242583    1.6989  0.376422 255 255 255
0.338684 0.700339 0.809396 255 255 255
0.544687 0.781185 0.899942 255 255 255
-0.00641765     1.92436    0.343741 255 255 255
0.604769  1.01869 0.785076 255 255 255
-0.412442   1.44829  0.424237 255 255 255
0.46861  0.6793   0.815 255 255 255
0.431122  1.40051 0.717488 255 255 255
-0.226317  0.843719  0.718313 255 255 255
0.323442 0.713814 0.811952 255 255 255
-0.378644   1.54721  0.389328 255 255 255
-0.153084   1.81153  0.296587 255 255 255
-0.596403   1.56667  0.272469 255 255 255
0.286966  1.66134 0.613049 255 255 255
0.323139 0.731497  0.87923 255 255 255
-0.22493   1.7285 0.340557 255 255 255
 -0.3296  1.02601 0.647147 255 255 255
-0.911342    1.3754  0.269534 255 255 255
0.465941 0.785446 0.891499 255 255 255
0.480222 0.773681 0.915605 255 255 255
0.238083 0.873357 0.844285 255 255 255
0.467018  1.52862 0.702102 255 255 255
0.074267  1.44896 0.633691 255 255 255
-0.866804   1.17157  0.407683 255 255 255
0.451988 0.734846 0.919056 255 255 255
 0.57056 0.768549 0.901775 255 255 255
-0.57041 0.990496 0.572083 255 255 255
-0.338036   1.77162  0.259386 255 255 255
-0.191164   1.66339  0.401753 255 255 255
0.199094 0.377892 0.904667 255 255 255
-0.340387   1.59756  0.382904 255 255 255
-0.669055    1.6361  0.240818 255 255 255
0.148894 0.966087 0.808583 255 255 255
-0.473269   1.64506  0.267282 255 255 255
-0.751844    1.5889  0.235791 255 255 255
0.131314 0.441355  0.92995 255 255 255
-0.750785   1.46585  0.272771 255 255 255
0.443643 0.705002 0.838154 255 255 255
-0.115241   1.72912  0.420279 255 255 255
0.434014 0.790432  0.90821 255 255 255
0.256506 0.334784 0.980905 255 255 255
0.354195   1.6136 0.646514 255 255 255
-0.957885   1.29568  0.278737 255 255 255
-0.152381   1.78591  0.367426 255 255 255
-0.238907   1.49933  0.478407 255 255 255
 0.44344 0.897084 0.897968 255 255 255
-0.881969   1.33795   0.28076 255 255 255
-0.17165  1.76839 0.336642 255 255 255
-0.170774  0.297035    0.9373 255 255 255
-0.159541   1.78513  0.365537 255 255 255
0.253445  1.68701 0.569025 255 255 255
-0.268267   1.67504  0.373434 255 255 255
-0.0139704    1.08944   0.717783 255 255 255
-0.148492   1.80684  0.274108 255 255 255
0.429739 0.723072 0.844557 255 255 255
-0.141972   1.79769  0.353751 255 255 255
-0.184459   1.69988  0.388258 255 255 255
0.209101  1.58561 0.614173 255 255 255
-0.88403  1.14376 0.405933 255 255 255
-0.147574   1.72006      0.39 255 255 255
0.127532  1.83529 0.455395 255 255 255
-0.144351   1.75401  0.381276 255 255 255
-0.0232719   0.409364   0.921833 255 255 255
-0.158657   1.62112   0.46025 255 255 255
