ply
format ascii 1.0
element vertex 1156
property float x
property float y
property float z
property uchar red
property uchar green
property uchar blue
end_header
  0.17937 -0.975848    3.3377 255 255 255
0.429976  -0.5408  2.69655 255 255 255
 0.437097 -0.444995   3.01914 255 255 255
-0.191648 -0.713704   2.62158 255 255 255
 0.202097 -0.566246   2.78934 255 255 255
-0.192294 -0.686641   2.59337 255 255 255
-0.391069 -0.780058   2.68116 255 255 255
 0.240544 -0.820164   3.05762 255 255 255
-0.040159 -0.980352   3.17859 255 255 255
 0.129423 -0.906253   3.18828 255 255 255
-0.0382091  -0.893565    2.98135 255 255 255
 0.252349 -0.993795   3.43821 255 255 255
-0.439219 -0.865451   2.77674 255 255 255
-0.205897 -0.752268   2.66023 255 255 255
0.0694072 -0.888746   3.06303 255 255 255
-0.301732 -0.784996   2.67317 255 255 255
-0.104112 -0.820072   2.77463 255 255 255
-0.387648 -0.973492   2.77983 255 255 255
 0.286609 -0.575956   2.61283 255 255 255
 0.572294 -0.648875   2.95274 255 255 255
-0.343153 -0.688644   2.57891 255 255 255
-0.329525 -0.948759   2.82824 255 255 255
-0.240226 -0.853455   2.67739 255 255 255
-0.205229  -0.73632   2.64394 255 255 255
-0.0870465  -0.705651    2.64831 255 255 255
-0.495553 -0.829018    2.7302 255 255 255
 0.508879 -0.603821   2.84571 255 255 255
0.351093 -1.05032  3.61063 255 255 255
0.0756973 -0.652869   2.75495 255 255 255
 0.217234 -0.525777   2.48874 255 255 255
-0.382453 -0.727191   2.56861 255 255 255
 0.157993 -0.703003   2.77925 255 255 255
-0.133238 -0.889965   2.90463 255 255 255
-0.0194045   -0.83332    2.90187 255 255 255
 0.234548 -0.541437   2.80814 255 255 255
-0.262649 -0.847626   2.69797 255 255 255
 0.515424 -0.555072   2.77662 255 255 255
  0.44091 -0.527851   2.68132 255 255 255
0.0604661 -0.900856   3.06134 255 255 255
-0.297979  -0.80046   2.69584 255 255 255
-0.423389 -0.753906   2.64845 255 255 255
0.0542965 -0.948715   3.13624 255 255 255
-0.124759 -0.853781   2.86491 255 255 255
 0.143736 -0.978076   3.32021 255 255 255
-0.218359 -0.719797   2.61686 255 255 255
-0.236541 -0.679003   2.56286 255 255 255
-0.127856 -0.649564   2.57813 255 255 255
0.0342877 -0.681621   2.75242 255 255 255
 0.300578 -0.513835   2.86645 255 255 255
 0.145824 -0.485453   2.42325 255 255 255
-0.185486 -0.816676   2.73517 255 255 255
 0.220856 -0.562225    2.5493 255 255 255
 0.257958 -0.484338   2.79902 255 255 255
 0.283738 -0.552907   2.89478 255 255 255
-0.162627 -0.716895   2.63663 255 255 255
 0.219331 -0.535672   2.52366 255 255 255
 0.499178 -0.516355   2.71684 255 255 255
-0.0661056  -0.830814    2.86663 255 255 255
-0.287222 -0.796196   2.68813 255 255 255
 0.380495 -0.520305   2.61813 255 255 255
-0.214714 -0.725423   2.62599 255 255 255
-0.173952 -0.704766   2.61918 255 255 255
 0.293779 -0.515776   2.85947 255 255 255
 0.297653 -0.764857   2.98567 255 255 255
-0.270297 -0.702318   2.58365 255 255 255
0.0209165 -0.880271    3.0157 255 255 255
 0.183446 -0.849757   3.14212 255 255 255
-0.112583 -0.942221   3.04279 255 255 255
-0.346681 -0.699879   2.59154 255 255 255
-0.223871  -0.73688   2.63723 255 255 255
-0.211704 -0.700343    2.6015 255 255 255
-0.187847 -0.650782   2.55846 255 255 255
 0.198598 -0.753072   2.92049 255 255 255
-0.354991  -0.80127   2.67796 255 255 255
0.0167522 -0.746381   2.76392 255 255 255
-0.134248   -0.7105   2.63872 255 255 255
0.0661774 -0.595987   2.67003 255 255 255
 0.107035 -0.838217   3.03497 255 255 255
-0.150054 -0.653926    2.5786 255 255 255
-0.327554 -0.941862   2.80507 255 255 255
-0.0390154  -0.795029    2.83772 255 255 255
-0.121037 -0.862126   2.90447 255 255 255
 0.483261 -0.606947   2.83555 255 255 255
 0.472659 -0.608884   2.82919 255 255 255
0.0643443 -0.526395   2.40414 255 255 255
-0.313568 -0.990823   3.02054 255 255 255
 -0.15326 -0.698659   2.61994 255 255 255
-0.219614 -0.749151   2.65867 255 255 255
 0.267686 -0.749278   2.93141 255 255 255
-0.436637 -0.850904   2.75819 255 255 255
-0.0807364  -0.870176    2.93795 255 255 255
-0.376303 -0.838846   2.72617 255 255 255
-0.103446 -0.715763   2.65453 255 255 255
 -0.14117 -0.736247   2.66484 255 255 255
-0.0673779  -0.891254    2.94062 255 255 255
-0.492051 -0.905792   2.82202 255 255 255
-0.189551 -0.907967   2.76627 255 255 255
0.291834 -1.07425  3.59265 255 255 255
-0.152961 -0.974498   3.07043 255 255 255
-0.173446 -0.695757   2.61066 255 255 255
 0.203209 -0.614077   2.87655 255 255 255
-0.182646  -0.73785   2.65264 255 255 255
 0.407279 -0.425946   2.94186 255 255 255
 0.248432 -0.809956   3.04053 255 255 255
0.00862299  -0.891382    3.01881 255 255 255
-0.212727 -0.721003     2.619 255 255 255
 0.217008 -0.957326   3.36327 255 255 255
-0.321197 -0.939496   2.80629 255 255 255
 0.311845 -0.842502   3.16821 255 255 255
-0.0735824  -0.820273    2.85428 255 255 255
 0.221401 -0.567297   2.80405 255 255 255
-0.166238 -0.921477   2.97427 255 255 255
-0.557664 -0.846877   2.73686 255 255 255
 -0.26831 -0.642596   2.50849 255 255 255
-0.142689 -0.731924   2.66216 255 255 255
-0.568324 -0.842415   2.74009 255 255 255
 0.138828 -0.586989   2.72643 255 255 255
0.080117 -0.99177   3.2696 255 255 255
-0.203667 -0.713981   2.61471 255 255 255
0.0158013 -0.791821   2.89211 255 255 255
-0.459326 -0.849805   2.75661 255 255 255
 0.136812 -0.556524    2.7104 255 255 255
 0.312043 -0.506319   2.85918 255 255 255
-0.219099  -0.71452   2.61421 255 255 255
-0.204579 -0.690774   2.59199 255 255 255
0.290795 -1.06232  3.57186 255 255 255
0.00669487  -0.955758    3.15416 255 255 255
-0.446464 -0.859713   2.76968 255 255 255
0.234337 -0.99729  3.43234 255 255 255
0.0366868 -0.862562   2.99671 255 255 255
-0.196454 -0.710269   2.61549 255 255 255
 0.519823 -0.599119   2.83701 255 255 255
 0.423849 -0.675754   2.90806 255 255 255
-0.197976 -0.738223   2.64533 255 255 255
  0.13327 -0.553499   2.70037 255 255 255
0.0563386  -0.63069   2.71336 255 255 255
-0.488444  -0.83415   2.73673 255 255 255
-0.114812 -0.893288   2.94388 255 255 255
-0.287719 -0.692632   2.56136 255 255 255
0.0546391 -0.870685    3.0242 255 255 255
-0.50104 -0.84946  2.75304 255 255 255
 0.367672 -0.444556   2.90783 255 255 255
-0.188335 -0.754788   2.67223 255 255 255
 0.242615 -0.517893   2.79225 255 255 255
 0.168919 -0.739233   2.84687 255 255 255
-0.428834 -0.766353   2.66334 255 255 255
-0.239962  -0.74336   2.62109 255 255 255
 0.174464 -0.604649    2.8144 255 255 255
-0.107049 -0.786067   2.73903 255 255 255
0.378806  -0.5299  2.62792 255 255 255
 0.298808 -0.507484   2.85636 255 255 255
-0.122961 -0.803403   2.75619 255 255 255
-0.429287   -0.8155   2.71935 255 255 255
 0.27468 -1.00796  3.47461 255 255 255
-0.0990117  -0.681787    2.61667 255 255 255
0.219695 -0.66987  2.78567 255 255 255
-0.318918  -0.85343   2.73655 255 255 255
 0.126268 -0.944947   3.25066 255 255 255
-0.0381713  -0.990718    3.20606 255 255 255
-0.119994  -0.85487    2.8725 255 255 255
-0.391245  -1.00909    2.8492 255 255 255
 0.263661 -0.770186   2.98537 255 255 255
0.0285434 -0.979711   3.15797 255 255 255
-0.348446 -0.862732   2.75014 255 255 255
0.000496754   -0.941548     3.12702 255 255 255
 0.194745 -0.624961   2.88093 255 255 255
 -0.10632 -0.856092   2.89779 255 255 255
  0.29887 -0.941202   3.35857 255 255 255
-0.114502 -0.788345   2.73778 255 255 255
0.0105052 -0.930873   3.07401 255 255 255
 0.168488 -0.653345   2.70407 255 255 255
0.0886803 -0.843902   3.02194 255 255 255
-0.544721 -0.963378   2.88745 255 255 255
-0.165702 -0.713026   2.63287 255 255 255
-0.238341 -0.722077   2.61057 255 255 255
-0.462832 -0.856184   2.76518 255 255 255
-0.174405 -0.924983   2.91862 255 255 255
-0.303916  -0.83144   2.73312 255 255 255
-0.372703 -0.699858   2.59547 255 255 255
-0.107117 -0.876178   2.92819 255 255 255
-0.100257 -0.683437   2.63707 255 255 255
-0.0244912  -0.662497    2.66562 255 255 255
 0.342809 -0.839579   3.17067 255 255 255
-0.242542 -0.762552   2.66452 255 255 255
 0.152645 -0.989513   3.32923 255 255 255
0.0813671 -0.850137   3.02032 255 255 255
-0.247806 -0.717841   2.60271 255 255 255
-0.241578 -0.886761   2.68788 255 255 255
 0.359302 -0.451099    2.8999 255 255 255
-0.032185 -0.779379   2.81714 255 255 255
0.00690455  -0.731246     2.7971 255 255 255
-0.165417 -0.743021   2.66902 255 255 255
 0.294296 -0.546925   2.89984 255 255 255
-0.217117 -0.703973   2.60366 255 255 255
-0.123069  -0.77616   2.71884 255 255 255
 0.134311 -0.578216   2.71676 255 255 255
 0.169448 -0.942634   3.28967 255 255 255
0.0793023  -1.01808   3.31431 255 255 255
0.00598198  -0.964614    3.11236 255 255 255
0.271771  -1.0451  3.52424 255 255 255
 0.260715 -0.796932   3.02103 255 255 255
 0.033774 -0.914306   3.06216 255 255 255
0.0444725 -0.955443   3.12671 255 255 255
-0.068125 -0.964559   3.13933 255 255 255
 0.236396 -0.551588    2.8106 255 255 255
-0.153915  -0.82952   2.75237 255 255 255
-0.378868 -0.712913   2.60268 255 255 255
-0.0795395  -0.677545    2.63478 255 255 255
-0.0113218  -0.708787    2.71426 255 255 255
 0.286761 -0.514342   2.85398 255 255 255
-0.120794 -0.780357   2.71353 255 255 255
 0.182056 -0.599422   2.81684 255 255 255
 0.260753 -0.791484   3.00633 255 255 255
-0.319385 -0.848877   2.72483 255 255 255
 0.335584 -0.474697   2.87268 255 255 255
0.0122973 -0.716825   2.78051 255 255 255
-0.179627 -0.733529   2.64903 255 255 255
-0.158734 -0.939441   2.94653 255 255 255
-0.137069 -0.918024   2.96999 255 255 255
-0.0387158  -0.782787     2.8094 255 255 255
-0.114704 -0.704951   2.64368 255 255 255
-0.256049 -0.775676   2.67506 255 255 255
-0.116312 -0.933467   2.96985 255 255 255
-0.0966644  -0.862649    2.88966 255 255 255
 0.277678 -0.510606   2.84388 255 255 255
-0.0980618  -0.858305    2.88425 255 255 255
 0.200599 -0.506549   2.74941 255 255 255
-0.208555 -0.734468   2.63527 255 255 255
0.0193889 -0.634436   2.66335 255 255 255
-0.236801 -0.732485   2.62603 255 255 255
-0.195836 -0.745583   2.66087 255 255 255
 0.208812 -0.606778   2.87174 255 255 255
-0.216261 -0.729768   2.62283 255 255 255
0.0586694 -0.670495   2.77137 255 255 255
-0.0711562  -0.677769    2.64662 255 255 255
0.303794  -0.8453  3.16573 255 255 255
-0.192495 -0.762325   2.67223 255 255 255
-0.212802 -0.715231    2.6119 255 255 255
-0.0874987  -0.678352    2.63126 255 255 255
-0.236539 -0.884852   2.70686 255 255 255
-0.272444 -0.777832   2.66991 255 255 255
-0.0398124  -0.948825    3.06342 255 255 255
-0.169989  -0.69801   2.61385 255 255 255
-0.240404 -0.882204   2.68792 255 255 255
 0.033962 -0.858126   2.99366 255 255 255
-0.0937146  -0.670775    2.62584 255 255 255
 0.197545 -0.601001   2.62577 255 255 255
0.0188809 -0.740103   2.81939 255 255 255
-0.445641 -0.742855   2.62741 255 255 255
-0.15287 -0.90115    2.902 255 255 255
-0.265623 -0.774317   2.66829 255 255 255
0.0594833 -0.856395   3.01461 255 255 255
-0.157215 -0.731294   2.65521 255 255 255
-0.0342159  -0.801088    2.85507 255 255 255
0.450631 -0.44712  3.03754 255 255 255
-0.114798  -0.85009   2.86506 255 255 255
-0.285686 -0.808275   2.70036 255 255 255
 0.400323 -0.443683   2.94517 255 255 255
0.0953434 -0.843833   3.02837 255 255 255
-0.279266 -0.791935    2.6884 255 255 255
-0.0543857  -0.895249    2.96865 255 255 255
-0.0797881  -0.817228    2.84398 255 255 255
-0.257148 -0.843876   2.70893 255 255 255
-0.258027 -0.866427   2.67828 255 255 255
-0.143348  -0.88472   2.88813 255 255 255
0.262286 -1.08721  3.57336 255 255 255
-0.00429335   -0.839059     2.92295 255 255 255
-0.396935 -0.967181   2.77415 255 255 255
 0.327606 -0.955722   3.44462 255 255 255
-0.104373  -0.89552   2.91747 255 255 255
-0.093743 -0.683252   2.63775 255 255 255
0.00570028  -0.756201    2.81873 255 255 255
 0.164993 -0.729778   2.96523 255 255 255
  0.15795 -0.693254   2.91208 255 255 255
0.0703983 -0.869738   3.04498 255 255 255
-0.0224962  -0.820197      2.888 255 255 255
-0.265765 -0.770621   2.65971 255 255 255
-0.397922 -0.875669   2.76462 255 255 255
 0.31175 -1.04846  3.55986 255 255 255
-0.226139 -0.755007   2.65783 255 255 255
-0.0732511  -0.675201    2.63818 255 255 255
-0.183092 -0.698388   2.61019 255 255 255
 0.354066 -0.488108   2.93254 255 255 255
-0.209235 -0.741701   2.64589 255 255 255
-0.150441  -0.82605   2.74888 255 255 255
0.0125903 -0.987458   3.16569 255 255 255
 -0.28941 -0.812766   2.70897 255 255 255
-0.193977 -0.726388   2.63223 255 255 255
-0.00341318   -0.933672     3.06714 255 255 255
0.00569402  -0.772766     2.8432 255 255 255
 -0.13398 -0.847906   2.78748 255 255 255
-0.109254 -0.725601   2.67301 255 255 255
-0.380243 -0.928857   2.75507 255 255 255
-0.186587 -0.729778   2.64084 255 255 255
-0.130483 -0.951725   3.05341 255 255 255
 0.134252 -0.588939   2.72468 255 255 255
-0.0860547  -0.875321    2.90225 255 255 255
0.0555954 -0.904875   3.06416 255 255 255
 0.281809 -0.983132   3.45747 255 255 255
-0.168309 -0.737764   2.65601 255 255 255
 0.346942 -0.450617   2.88438 255 255 255
-0.469201 -0.883063   2.79774 255 255 255
-0.112931 -0.872878   2.89154 255 255 255
-0.143038 -0.716797   2.64359 255 255 255
-0.275767 -0.710148   2.58255 255 255 255
-0.179616 -0.699872   2.61037 255 255 255
-0.140747 -0.651914   2.58583 255 255 255
 0.303177 -0.971266   3.44446 255 255 255
0.324918 -1.09432  3.64353 255 255 255
0.0621212  -0.74609   2.84683 255 255 255
 0.05005 0.556046  1.69843 255 255 255
-0.132345 0.0888292   1.94277 255 255 255
-0.0734046   0.460311     1.7663 255 255 255
-0.213938  0.321516   1.88681 255 255 255
0.0556831  0.486977   1.76485 255 255 255
-0.033558  0.299816   1.86632 255 255 255
-0.313471  0.152207   1.96661 255 255 255
-0.0135191   0.237105    1.86612 255 255 255
-0.291737   0.65366   1.73388 255 255 255
-0.54323 0.498852  1.88195 255 255 255
-0.0227112    0.47693    1.79161 255 255 255
-0.252589    0.4262   1.83504 255 255 255
-0.0815732  0.0842775    1.92892 255 255 255
-0.230376  0.080956   1.98114 255 255 255
-0.321688  0.224731   1.94275 255 255 255
-0.10407 0.262022  1.89148 255 255 255
0.038011 0.452263  1.75822 255 255 255
0.00822179   0.458694    1.80348 255 255 255
  -0.185254 -0.00464286     1.99473 255 255 255
-0.228711 0.0376082   1.98689 255 255 255
-0.239359   0.16017   1.96031 255 255 255
-0.0409566   0.256695    1.87847 255 255 255
-0.273335  0.522685   1.81888 255 255 255
-0.00331584    0.277331     1.86038 255 255 255
-0.227882  0.195188   1.96598 255 255 255
0.0416262  0.706215   1.63996 255 255 255
-0.518882  0.477087   1.90271 255 255 255
0.0943812  0.487145   1.75206 255 255 255
-0.0297672   0.675812    1.67364 255 255 255
-0.0292487   0.228218    1.88096 255 255 255
-0.0760971   0.202217    1.88527 255 255 255
-0.201216  0.186453   1.94985 255 255 255
-0.0861753  0.0461289    1.95212 255 255 255
-0.0669961   0.761974    1.63676 255 255 255
0.0641038  0.515191   1.76905 255 255 255
-0.221949  0.253442   1.92144 255 255 255
0.119652 0.548131  1.73709 255 255 255
0.158344 0.389819   1.7377 255 255 255
-0.0858681   0.292645     1.8808 255 255 255
0.0141491  0.686778    1.6522 255 255 255
-0.271291  0.171089   1.98005 255 255 255
  -0.155021 -0.00580767     1.97272 255 255 255
-0.164053  0.275835   1.90984 255 255 255
-0.0664173   0.274576     1.8733 255 255 255
 0.15382 0.482198  1.73726 255 255 255
0.154292 0.558699  1.73167 255 255 255
-0.621731  0.654297   1.82635 255 255 255
0.202961 0.497579  1.72104 255 255 255
-0.523866  0.330563   1.99528 255 255 255
-0.157937  0.112097    1.9531 255 255 255
-0.281555  0.305899   1.91495 255 255 255
-0.479453  0.199511   2.04911 255 255 255
0.174803  0.54701  1.72585 255 255 255
0.128055 0.398247  1.73599 255 255 255
-0.178523 0.0669714   1.96338 255 255 255
-0.591264  0.372016   1.98703 255 255 255
0.0798868  0.409995   1.79156 255 255 255
0.212655 0.406158  1.72249 255 255 255
-0.0977458   0.279571     1.8752 255 255 255
-0.172533  0.356801   1.86996 255 255 255
-0.517442  0.359066   1.97301 255 255 255
-0.549904  0.486989    1.8829 255 255 255
-0.27062 0.285408  1.93932 255 255 255
-0.234858  0.639186   1.77433 255 255 255
-0.151842  0.370585   1.86294 255 255 255
-0.133872  0.381042   1.85833 255 255 255
-0.464049  0.711831   1.74919 255 255 255
-0.26582 0.195944  1.96725 255 255 255
0.150168 0.530524  1.74157 255 255 255
-0.131811  0.682883   1.72486 255 255 255
-0.30157 0.297662  1.93223 255 255 255
-0.132338   0.11197   1.94345 255 255 255
-0.019509  0.771328   1.60195 255 255 255
-0.254413  0.632526   1.77805 255 255 255
-0.629659  0.439424   1.95924 255 255 255
-0.277067  0.547921   1.79541 255 255 255
-0.585179  0.198618   2.17549 255 255 255
-0.530379  0.461238   1.89991 255 255 255
0.0652125  0.423654   1.79915 255 255 255
-0.44098 0.374094  1.94291 255 255 255
0.0643081  0.407632    1.7914 255 255 255
0.141318  0.48314  1.75357 255 255 255
-0.0302663   0.641933    1.68025 255 255 255
-0.184677  0.124632   1.95934 255 255 255
-0.545259  0.182472   2.15792 255 255 255
0.156178 0.351575  1.80977 255 255 255
-0.609719  0.631334   1.83438 255 255 255
-0.355962  0.518727   1.84561 255 255 255
-0.649727  0.587269   1.87489 255 255 255
-0.0518294   0.249932    1.88431 255 255 255
-0.314901  0.311042   1.92456 255 255 255
-0.0686393   0.285796    1.87296 255 255 255
-0.15246  0.29476  1.88744 255 255 255
-0.621798  0.292834   2.00095 255 255 255
-0.302725  0.107789   2.00388 255 255 255
-0.129894  0.234234   1.90404 255 255 255
0.290969 0.547608  1.70347 255 255 255
-0.652788  0.289424   1.99864 255 255 255
0.047932 0.415116  1.79695 255 255 255
-0.450639  0.426061   1.90525 255 255 255
-0.144333  0.223253   1.91512 255 255 255
-0.350377  0.530877   1.84568 255 255 255
-0.182236   0.36671   1.86745 255 255 255
-0.087813  0.259505   1.88421 255 255 255
-0.113199  0.118146   1.93413 255 255 255
0.0452858  0.499802   1.77122 255 255 255
0.0856279  0.515676   1.76025 255 255 255
-0.22351 0.167927  1.95116 255 255 255
-0.00741805    0.307567     1.84139 255 255 255
-0.234996  0.108685   1.98554 255 255 255
-0.303297 0.0870923   2.00931 255 255 255
-0.0789378   0.283086    1.87299 255 255 255
-0.109544  0.305408   1.87685 255 255 255
0.184854 0.507534  1.74396 255 255 255
-0.036712  0.283215   1.86553 255 255 255
0.222384 0.726485  1.60474 255 255 255
0.186946 0.531909  1.74739 255 255 255
0.00541667   0.221136    1.87562 255 255 255
-0.122627  0.225512    1.9111 255 255 255
-0.0429558  0.0821431    1.92891 255 255 255
0.129041  0.52973  1.72492 255 255 255
-0.0609416    0.80847    1.64645 255 255 255
-0.247696  0.637523   1.77146 255 255 255
-0.0582535   0.274349    1.87313 255 255 255
-0.188853  0.104228   1.95561 255 255 255
-0.536491  0.343827   1.98034 255 255 255
-0.119166  0.681556   1.72726 255 255 255
0.0236434  0.483007   1.79065 255 255 255
-0.634143  0.558564   1.88215 255 255 255
-0.0335696   0.274979     1.8701 255 255 255
-0.459822  0.447739   1.90007 255 255 255
-0.355443  0.577845   1.83129 255 255 255
-0.021443  0.268373   1.87102 255 255 255
 0.10827 0.447722  1.76074 255 255 255
-0.253503 0.0439843   1.99353 255 255 255
0.0122923 0.0867795    1.8994 255 255 255
-0.100271  0.286668   1.88438 255 255 255
-0.427164  0.128122   2.05853 255 255 255
0.0901833   0.43152   1.77803 255 255 255
-0.174294  0.257974   1.92134 255 255 255
-0.172003  0.202473   1.92791 255 255 255
-0.143609  0.211414     1.919 255 255 255
-0.0750025    0.12724    1.91367 255 255 255
-0.109444  0.236832   1.90239 255 255 255
0.0994823  0.438707   1.78281 255 255 255
 -0.057924 -0.0394872    1.96014 255 255 255
-0.00659523    0.192965     1.88193 255 255 255
 -0.079518 -0.0437482    1.96795 255 255 255
-0.126577  0.293832    1.8948 255 255 255
0.167572  0.51885  1.74179 255 255 255
-0.108303  0.209117   1.91158 255 255 255
0.0152259  0.444496   1.74848 255 255 255
0.0046932  0.303096   1.85108 255 255 255
-0.163268  0.199086   1.93272 255 255 255
-0.175135 -0.063266   1.99751 255 255 255
-0.279114 0.0174524   2.00299 255 255 255
-0.55972 0.580086  1.84636 255 255 255
0.113617 0.517861  1.73238 255 255 255
-0.124553  0.112496   1.93783 255 255 255
-0.118264  0.131507   1.93619 255 255 255
-0.293288 0.0809941   2.01528 255 255 255
-0.137868  0.185188   1.93203 255 255 255
-0.0681586   0.297131    1.87282 255 255 255
0.160905 0.495206  1.74698 255 255 255
0.154716 0.490174  1.75563 255 255 255
-0.193504    0.1852   1.94471 255 255 255
-0.0100083   0.451898    1.80143 255 255 255
-0.0981883   0.252577    1.88972 255 255 255
-0.0579493   0.431633    1.81874 255 255 255
0.0855044   0.30997   1.80559 255 255 255
-0.0262352   0.258798    1.87579 255 255 255
-0.251647  0.102626   1.98083 255 255 255
 0.16913 0.488207  1.74148 255 255 255
-0.12556 0.199061  1.91918 255 255 255
0.0127552   0.27191   1.85154 255 255 255
0.214969 0.504414  1.72575 255 255 255
-0.124796  0.206952   1.91656 255 255 255
-0.0798757    0.32323    1.87012 255 255 255
-0.0121855    0.20802    1.88506 255 255 255
-0.0386527   0.292427    1.86669 255 255 255
-0.256332  0.174057   1.96893 255 255 255
-0.599664  0.469244   1.92675 255 255 255
0.0326964  0.376961   1.82254 255 255 255
-0.16135 0.167597  1.94056 255 255 255
0.178674 0.496159  1.73895 255 255 255
-0.286448 0.0696966   2.00967 255 255 255
0.135569 0.345979   1.7443 255 255 255
-0.204147  0.118446   1.96271 255 255 255
-0.176451 0.0812177   1.96168 255 255 255
-0.144051  0.428185   1.83389 255 255 255
0.0749368   0.48123   1.76282 255 255 255
-0.112825 0.0963569   1.92507 255 255 255
-0.236177  0.328961    1.9108 255 255 255
 -0.25321 0.0787028   1.98738 255 255 255
-0.105412  0.125831   1.92763 255 255 255
-0.142387  0.719906   1.70719 255 255 255
-0.610159  0.335088   2.02199 255 255 255
-0.0144054   0.772742     1.6031 255 255 255
-0.152664  0.168023   1.93706 255 255 255
-0.0382164   0.299229    1.86649 255 255 255
0.0799838  0.522763    1.7476 255 255 255
-0.00282595     0.31305     1.84916 255 255 255
-0.19024 0.145372  1.95986 255 255 255
-0.295568  0.303277   1.91675 255 255 255
0.219403 0.578939  1.71129 255 255 255
-0.252074   0.37337   1.87663 255 255 255
-0.0402024  0.0872907    1.93524 255 255 255
-0.247149  0.173921   1.96484 255 255 255
-0.00634245    0.203109     1.87734 255 255 255
-0.0505685   0.238748    1.88403 255 255 255
-0.246368   0.04954   1.98629 255 255 255
-0.0989395   0.131836    1.92419 255 255 255
-0.0888737   0.138601    1.91989 255 255 255
-0.324935  0.274262   1.96146 255 255 255
-0.298737 0.0709116    2.0108 255 255 255
-0.157752  0.252534   1.91765 255 255 255
-0.419916  0.292072   1.95048 255 255 255
-0.0835173   0.224953    1.89864 255 255 255
 -0.2531 0.128549  1.97365 255 255 255
  -0.16066 -0.0762931    2.01992 255 255 255
-0.0660654   0.149835    1.91139 255 255 255
-0.138664  0.176875    1.9329 255 255 255
-0.177471  0.199705   1.92853 255 255 255
-0.171645  0.337516   1.86856 255 255 255
 1.23331  2.51261 0.473744 255 255 255
0.456841  2.36832 0.641997 255 255 255
 1.16429  2.43419 0.508839 255 255 255
0.964156  2.93058 0.505633 255 255 255
 1.10584  2.58028 0.442742 255 255 255
0.432418  2.33289 0.680015 255 255 255
  1.1109  2.72544 0.359476 255 255 255
 1.23357  2.56508 0.444468 255 255 255
0.443878  2.19415 0.757163 255 255 255
 1.05206  2.92443 0.274217 255 255 255
 0.91972  2.33334 0.603516 255 255 255
0.471986  2.67042 0.527928 255 255 255
0.235757  2.06261 0.801716 255 255 255
0.463099  2.38876  0.59408 255 255 255
1.04398 2.76223 0.31536 255 255 255
 1.48554   2.6761 0.324909 255 255 255
1.13615 2.61206 0.43508 255 255 255
0.493994  2.18765 0.729415 255 255 255
0.339614  2.11311 0.787825 255 255 255
 1.07058  2.54928 0.464005 255 255 255
0.402973  2.21836 0.731313 255 255 255
  1.2747  2.02929 0.582572 255 255 255
 1.24279  2.06886 0.575172 255 255 255
0.808098  1.59526 0.970945 255 255 255
0.509113  2.43779  0.55951 255 255 255
 1.13222  2.74804 0.509446 255 255 255
0.319921  1.98114 0.878879 255 255 255
 1.27349  2.35257 0.403737 255 255 255
 1.34277   2.6734 0.378956 255 255 255
 1.24392  2.63464 0.401088 255 255 255
1.23663 2.62654 0.40629 255 255 255
  1.1387  2.34267 0.466036 255 255 255
 1.22091  2.35899 0.519376 255 255 255
 1.00787  2.93003 0.277303 255 255 255
 1.08352  2.55712 0.457893 255 255 255
0.458764  2.27647 0.726112 255 255 255
  1.1232  2.49644 0.493361 255 255 255
 1.21136  1.96888 0.638352 255 255 255
0.573788  2.41457  0.63347 255 255 255
0.375539  2.26773 0.709385 255 255 255
0.767998  2.74406 0.619602 255 255 255
0.680172  2.88637    0.671 255 255 255
 1.09175  2.61407 0.421812 255 255 255
 1.06186  2.35591 0.546752 255 255 255
  1.1202  2.89468 0.274215 255 255 255
0.680089  2.36072 0.615497 255 255 255
 0.39686  2.13981 0.779249 255 255 255
0.524545  2.47177  0.55758 255 255 255
0.385528  2.18612 0.741904 255 255 255
 1.16676   1.9809 0.624599 255 255 255
0.533886  2.78645  1.11538 255 255 255
0.790011  2.95542 0.626748 255 255 255
0.955843  2.70704 0.405628 255 255 255
 1.33617  2.65912 0.378013 255 255 255
 1.14276  2.51961 0.468085 255 255 255
 1.46807  2.70152 0.344708 255 255 255
0.890447  1.67778 0.922494 255 255 255
0.693917  2.89144 0.668126 255 255 255
 1.09622   2.5496 0.461188 255 255 255
  1.4957  2.65241 0.336557 255 255 255
 1.06579  2.54382 0.475036 255 255 255
 1.25457  2.84211 0.302622 255 255 255
 1.26576  2.76081 0.335335 255 255 255
0.687126  2.37297 0.622912 255 255 255
 1.30578  2.59114 0.408258 255 255 255
0.239794  1.99297 0.850559 255 255 255
 1.01144  1.99833 0.745776 255 255 255
0.707046   1.5134  1.02921 255 255 255
0.569676  2.42125 0.634391 255 255 255
0.815285  2.54101 0.488031 255 255 255
 0.19635  2.03712 0.815719 255 255 255
  1.2323   2.4585 0.482028 255 255 255
 1.17815  2.71956 0.363861 255 255 255
 1.02234  1.96202 0.753751 255 255 255
 1.25127   2.6805 0.358693 255 255 255
0.971446  2.53017 0.518988 255 255 255
 1.09026  2.66275 0.416425 255 255 255
  1.0777  2.63072 0.408797 255 255 255
 1.01643  2.62659 0.539092 255 255 255
0.958807  2.34343 0.592451 255 255 255
0.999217  2.49003 0.534045 255 255 255
 1.22245  2.70154 0.384411 255 255 255
0.831893  2.92009 0.595469 255 255 255
0.952604  1.79419 0.866847 255 255 255
 1.13435  2.68697 0.440423 255 255 255
 1.39206  2.49526 0.420732 255 255 255
 1.10403  2.49366 0.497956 255 255 255
 1.31722  2.28242 0.555067 255 255 255
 0.31051  2.02645 0.866441 255 255 255
 1.17734  2.50799 0.481494 255 255 255
 1.32504  2.51776 0.454854 255 255 255
 1.18011  2.49234 0.485553 255 255 255
 1.21358  2.73048 0.377995 255 255 255
 1.31886  2.40245 0.516084 255 255 255
   1.191  2.47894 0.488994 255 255 255
 1.01475  2.65464 0.443652 255 255 255
0.832689  2.47799 0.442812 255 255 255
 1.33116  2.42815 0.490486 255 255 255
0.845289  1.74515 0.789629 255 255 255
 1.24519  2.55464 0.440376 255 255 255
 1.24156   2.0421 0.618831 255 255 255
0.915945  2.92234 0.310235 255 255 255
 1.07952  2.54927 0.466905 255 255 255
  1.2248  2.60189 0.442613 255 255 255
 1.27929  2.43395 0.469746 255 255 255
0.202806  2.05371 0.816425 255 255 255
0.378026  2.06493 0.829933 255 255 255
0.904015  2.69825 0.388313 255 255 255
 1.03007   2.6911 0.507906 255 255 255
0.790543  2.79983 0.615267 255 255 255
0.941456  2.38076  0.57934 255 255 255
 1.40596  2.65935 0.382951 255 255 255
 1.02458  2.45931 0.533407 255 255 255
 1.20044  2.80116 0.306777 255 255 255
1.12222 2.52526 0.48077 255 255 255
0.308004  2.15886 0.753641 255 255 255
 1.26468  2.71955 0.368945 255 255 255
0.690073  2.38637 0.617625 255 255 255
0.701849  2.89769 0.670464 255 255 255
0.560174  2.35331 0.662414 255 255 255
0.989341  2.40584   0.5492 255 255 255
0.842316    2.915 0.593178 255 255 255
 1.20526  2.71828 0.332604 255 255 255
 1.31831  2.57223 0.419719 255 255 255
 1.17358  2.64428 0.389706 255 255 255
0.356122  2.12214 0.781926 255 255 255
  1.1714  2.48672 0.490517 255 255 255
0.952686   2.4739 0.512036 255 255 255
 1.24412   2.5954 0.422774 255 255 255
0.473282  2.30192 0.682785 255 255 255
0.974896  2.55812 0.517623 255 255 255
 1.14227  2.54355 0.458651 255 255 255
 1.24317  2.62016 0.395755 255 255 255
0.443791  2.20489 0.747205 255 255 255
0.405828  2.15636 0.758936 255 255 255
 1.09971  2.52497 0.481999 255 255 255
1.10702 2.56635  0.4667 255 255 255
 1.26786  2.69596 0.415219 255 255 255
 1.19028  2.73572 0.379911 255 255 255
 1.42821  2.71854 0.374381 255 255 255
1.11452 2.47207 0.49502 255 255 255
 1.11139  2.47702 0.503756 255 255 255
 1.22947  2.77598 0.282355 255 255 255
 1.37043  2.69121 0.332012 255 255 255
 1.12846  2.67226 0.375838 255 255 255
0.539487  2.67593 0.519544 255 255 255
1.20839 2.71489 0.33818 255 255 255
 1.16929  2.77582 0.389454 255 255 255
 1.05415  2.34849 0.574753 255 255 255
1.06279 2.34507 0.56022 255 255 255
0.950559  1.51854 0.965832 255 255 255
 1.00229   2.5913 0.540922 255 255 255
 1.15689  2.47884 0.496541 255 255 255
0.975203  2.49021 0.546141 255 255 255
 1.19416  2.32433 0.438099 255 255 255
 1.17018   2.6807 0.440833 255 255 255
 1.13599  2.56879 0.482684 255 255 255
 1.09686  2.33167 0.473251 255 255 255
 0.34158  2.07736 0.824315 255 255 255
 1.12877  2.67971 0.370079 255 255 255
 1.12433  2.59947 0.423254 255 255 255
 1.10261  2.65104 0.509428 255 255 255
 1.06025  2.55706 0.463257 255 255 255
 1.13663  2.66459 0.382321 255 255 255
  1.0935   2.3846 0.535737 255 255 255
 1.04598  2.49608 0.515594 255 255 255
0.668661  3.11696 0.666282 255 255 255
 1.25863  2.40754 0.520403 255 255 255
0.997226  1.99305 0.758726 255 255 255
 1.05457  2.70052 0.438881 255 255 255
 1.25767  2.69268 0.346436 255 255 255
1.12309   2.645 0.50046 255 255 255
0.484826  2.22266 0.731797 255 255 255
 1.18346  2.50397 0.480321 255 255 255
 1.07844  2.94842 0.274979 255 255 255
 1.14667  2.49813 0.484205 255 255 255
 1.18293  2.76605 0.401017 255 255 255
 1.16318  2.63764 0.418837 255 255 255
 1.07956  2.45174 0.501519 255 255 255
 1.00648  2.93548 0.295941 255 255 255
 1.06012  2.98837 0.260406 255 255 255
0.974207  2.92476 0.287539 255 255 255
 1.11655  2.50257 0.484947 255 255 255
 1.07258  2.63259 0.404716 255 255 255
 1.18259  2.58782 0.425546 255 255 255
0.981222  2.87598 0.321497 255 255 255
 1.00215  2.28304 0.614354 255 255 255
0.879286  2.23965 0.666116 255 255 255
1.05886 2.71773 0.50505 255 255 255
0.406926  2.30447 0.705506 255 255 255
0.961501  2.38783 0.575813 255 255 255
 1.07889  2.54462 0.471501 255 255 255
 1.15804  2.39036 0.461562 255 255 255
 1.01996  2.47261 0.526276 255 255 255
0.940283  2.53594  0.43827 255 255 255
 1.20756  2.52592 0.465608 255 255 255
0.543869  2.34073  0.65034 255 255 255
 1.2337 2.55852 0.43958 255 255 255
 1.21338  2.78694 0.275032 255 255 255
 1.31911  2.42141 0.505616 255 255 255
1.06937 2.60478 0.45345 255 255 255
-0.121648  0.186065   1.93827 255 255 255
-0.201187  0.842967   1.63802 255 255 255
-0.139984   1.02276   1.53168 255 255 255
-0.000430817     0.990979      1.48081 255 255 255
-0.711047  0.673852   1.83485 255 255 255
0.262534 0.832604  1.56286 255 255 255
0.436326 0.480326  1.70905 255 255 255
-0.216539   1.27098   1.39566 255 255 255
-0.743825   1.02264   1.66686 255 255 255
-0.224909  0.770749   1.64475 255 255 255
-0.0381664   0.715515    1.66617 255 255 255
0.214674 0.237079  1.81802 255 255 255
-0.222558   0.89351   1.61213 255 255 255
0.248654 0.752898  1.58124 255 255 255
-0.303902   1.04378   1.55332 255 255 255
-0.497568   1.18551   1.52197 255 255 255
0.202066 0.795732  1.59162 255 255 255
-0.95761 0.856189  1.79406 255 255 255
-0.0628314   0.991999    1.51859 255 255 255
0.0525365  0.771733   1.58023 255 255 255
0.124523 0.381993  1.73291 255 255 255
0.000824014    0.609581      1.7262 255 255 255
-0.253791  0.651997   1.78431 255 255 255
-0.423579   1.14916   1.47918 255 255 255
-0.0734046   0.460311     1.7663 255 255 255
0.269462 0.539016  1.65294 255 255 255
-0.601301   1.01316   1.60373 255 255 255
-0.387005   0.79971   1.71786 255 255 255
0.0622914  0.826921   1.57804 255 255 255
0.202715 0.931464  1.52933 255 255 255
-0.423912  0.952017   1.63045 255 255 255
-0.484405  0.881839   1.72322 255 255 255
0.208256 0.883577  1.54824 255 255 255
-0.354944   1.48752   1.27199 255 255 255
-0.615328   1.07512   1.60186 255 255 255
-0.36119  1.35411  1.38637 255 255 255
-0.460929  0.740791   1.76049 255 255 255
-0.584382   1.34448   1.35125 255 255 255
-0.0601677   0.834926    1.64263 255 255 255
-0.360053  0.706995   1.79389 255 255 255
-0.486327  0.949567   1.65141 255 255 255
0.148635   0.2732   1.8648 255 255 255
-0.896843   1.01329   1.68107 255 255 255
-0.944836  0.805476   1.82655 255 255 255
-0.483138  0.694467   1.76012 255 255 255
-0.507366  0.732224   1.74246 255 255 255
-0.791599  0.877815   1.72719 255 255 255
-0.133331   1.14232   1.48247 255 255 255
-0.432299   1.44099   1.32455 255 255 255
-1.04221 0.906423  1.79674 255 255 255
-0.854359  0.962628   1.72879 255 255 255
-0.919646   0.94088   1.74547 255 255 255
0.0784067   1.12323   1.43459 255 255 255
-0.469016  0.788648    1.7002 255 255 255
-0.680437   1.24672   1.42957 255 255 255
0.0276899   1.17715   1.47021 255 255 255
-0.382731  0.994943   1.60632 255 255 255
-0.958223  0.942433     1.734 255 255 255
-0.0555906    1.22148    1.40545 255 255 255
-0.91834 0.704776  1.83811 255 255 255
-0.36567  1.12155  1.51566 255 255 255
-0.0850927  0.0719081    1.96036 255 255 255
0.168845 0.252498  1.82858 255 255 255
-0.14996 0.181854   1.9282 255 255 255
0.179777 0.612797  1.70105 255 255 255
-0.643903  0.653108   1.83985 255 255 255
0.333023 0.733364  1.57879 255 255 255
-0.426788   1.45977   1.28437 255 255 255
-1.12715  1.01463  1.61972 255 255 255
-0.0987518   0.390345    1.85221 255 255 255
  -0.857 0.841519  1.78147 255 255 255
0.298321 0.721777  1.57772 255 255 255
-0.90869  1.04109  1.64957 255 255 255
0.248851 0.352691   1.7956 255 255 255
-0.422408   1.41727   1.33515 255 255 255
-0.649624   1.12473   1.59749 255 255 255
-0.253064  0.263998   1.91104 255 255 255
-0.500531    1.3972   1.30828 255 255 255
0.190806 0.318705  1.81171 255 255 255
0.0160845  0.858934   1.60311 255 255 255
-0.441221   1.25461   1.46355 255 255 255
-0.446126   0.65414   1.73889 255 255 255
-0.0353048   0.361478    1.82503 255 255 255
-0.547064  0.386212   1.95291 255 255 255
-0.0974286   0.221412    1.89851 255 255 255
-0.254003  0.494266    1.8261 255 255 255
0.259087 0.907958   1.5257 255 255 255
-0.563548    1.1179   1.56939 255 255 255
-0.0801135     1.0024    1.52861 255 255 255
-0.784751  0.837702   1.75184 255 255 255
-0.570458   1.08177    1.5999 255 255 255
-0.285564  0.987497   1.59071 255 255 255
-0.736073  0.820495   1.75816 255 255 255
0.178566  0.95865  1.50546 255 255 255
-0.569233  0.418104   1.98904 255 255 255
-0.729582   0.62043   1.80655 255 255 255
-0.650541  0.750201   1.77755 255 255 255
-0.256499   1.08099   1.52917 255 255 255
-0.562975   1.34272   1.38048 255 255 255
-0.305516  0.331478    1.8957 255 255 255
-0.446396  0.856817   1.70237 255 255 255
-0.054973   0.87918    1.6004 255 255 255
-0.81179  1.14745  1.49825 255 255 255
0.251394 0.969241  1.50042 255 255 255
-0.646357   1.04346   1.62406 255 255 255
-0.402844  0.774747   1.71886 255 255 255
-0.969058  0.905491   1.77669 255 255 255
-0.320894  0.877469     1.659 255 255 255
0.109639 0.631869  1.66358 255 255 255
-0.982527  0.825337   1.82155 255 255 255
-0.830706  0.921361   1.73094 255 255 255
-0.360401  0.971853   1.61893 255 255 255
-0.203302    1.0212   1.55166 255 255 255
-0.829578  0.739169   1.82675 255 255 255
-0.53279 0.904903  1.68478 255 255 255
0.0774803  0.991529   1.51378 255 255 255
-0.322896  0.250311   1.98047 255 255 255
-0.640565   1.15491   1.57921 255 255 255
-0.148189  0.142815   1.94035 255 255 255
-0.648834   1.09536   1.59326 255 255 255
-0.58189 0.849809  1.68943 255 255 255
-0.0294318  0.0732814      1.947 255 255 255
-0.0766493   0.902739    1.59425 255 255 255
0.0874821   1.05826   1.48825 255 255 255
-0.637813  0.833797   1.72177 255 255 255
-0.30871  0.85569   1.6681 255 255 255
-0.147082   1.24946   1.43729 255 255 255
-0.321081   1.41518   1.36295 255 255 255
-0.255414   1.04704   1.56378 255 255 255
-0.527033   1.14741   1.54752 255 255 255
-0.542885  0.829707   1.70761 255 255 255
-0.795146    1.1652   1.45306 255 255 255
0.127191 0.853054  1.57951 255 255 255
-0.932545  0.669017   1.90822 255 255 255
-0.39541  1.46613  1.29548 255 255 255
-0.345491  0.838484   1.69317 255 255 255
-0.917016  0.909851   1.76112 255 255 255
-0.109214  0.971151   1.56306 255 255 255
-0.59031  1.03693  1.60802 255 255 255
0.0815243  0.727553   1.62122 255 255 255
-0.396486  0.521338   1.81124 255 255 255
-0.644704   1.27721   1.42404 255 255 255
-0.87604  0.86709  1.76999 255 255 255
-0.230871   1.08613   1.52558 255 255 255
-0.864625   1.07938   1.61992 255 255 255
0.222513 0.970147  1.51294 255 255 255
-1.09816 0.978267  1.66052 255 255 255
-0.213178  0.974447   1.59276 255 255 255
-0.713952  0.806168    1.7794 255 255 255
-0.513869   0.85782   1.66903 255 255 255
-0.170293  0.128228   1.95169 255 255 255
-0.452268   1.47835   1.30278 255 255 255
-0.298729     1.019   1.65229 255 255 255
-0.3473 1.44473 1.31271 255 255 255
-0.0625579    1.11413    1.47283 255 255 255
-0.169181   1.11957   1.49952 255 255 255
-0.481863   1.17574   1.51031 255 255 255
-0.680737  0.525225   1.91807 255 255 255
-0.615964   1.30401   1.41425 255 255 255
-0.4061 1.39626 1.34218 255 255 255
-0.165731  0.635015   1.69541 255 255 255
-0.844049  0.869798   1.76985 255 255 255
-0.153352     1.227   1.42476 255 255 255
-1.02305 0.852799  1.82463 255 255 255
0.200734 0.972242  1.51611 255 255 255
-0.363923  0.394533   1.87639 255 255 255
-0.787494   1.21242   1.41097 255 255 255
-0.617594  0.859309   1.71024 255 255 255
-0.684279  0.797671   1.75834 255 255 255
-0.0829636   0.877471    1.57197 255 255 255
-0.480021   1.36465   1.37303 255 255 255
-0.580038  0.890387    1.6527 255 255 255
-0.901163  0.779343   1.80486 255 255 255
0.0632649   1.00893   1.51498 255 255 255
-0.394053   1.03867   1.58097 255 255 255
-0.0824235   0.409014    1.83134 255 255 255
-0.609646  0.821629   1.72798 255 255 255
-0.311824   1.47784   1.27409 255 255 255
-0.453511   1.38597   1.36071 255 255 255
-0.377728  0.465681   1.83613 255 255 255
0.178724 0.601139  1.62582 255 255 255
-0.727631   1.18693   1.54472 255 255 255
0.255528 0.486068   1.6582 255 255 255
-0.512575   1.40538   1.29204 255 255 255
-0.319398   1.46497    1.2846 255 255 255
-0.56748 0.548183  1.88708 255 255 255
-0.56176 0.878431  1.66706 255 255 255
-0.332484  0.340934   1.88475 255 255 255
0.0299779  0.727213   1.63424 255 255 255
-0.0689928   0.932393    1.56764 255 255 255
-0.159185   0.21697    1.9164 255 255 255
-0.0849412   0.123022    1.93007 255 255 255
-0.270847  0.171941    1.9753 255 255 255
-1.21853 0.971309  1.73407 255 255 255
-0.0232922   0.912074     1.5655 255 255 255
-1.09965  1.07412  1.60821 255 255 255
-0.113554   1.16782   1.46731 255 255 255
-1.12454 0.905268  1.76607 255 255 255
-0.0400124   0.958474    1.54152 255 255 255
-0.0144214   0.895703    1.61764 255 255 255
-0.680147  0.824906    1.7445 255 255 255
-0.769436  0.809646   1.76964 255 255 255
-0.00913753     0.95276     1.53747 255 255 255
-0.662685   1.19604   1.52944 255 255 255
-1.09605  0.96363  1.69121 255 255 255
0.0444817  0.274934   1.84429 255 255 255
0.06182 1.10787  1.4673 255 255 255
-0.0164815   0.459049     1.8056 255 255 255
-1.00783  1.02217  1.64407 255 255 255
0.237811 0.954638  1.50761 255 255 255
-0.495774  0.813844   1.71329 255 255 255
-0.359486  0.281107   1.96232 255 255 255
-0.830084  0.578739   1.91883 255 255 255
-0.575933  0.761078   1.75631 255 255 255
-0.976811   1.03925   1.64091 255 255 255
-0.362385   1.10843   1.49595 255 255 255
0.0160019  0.922621   1.55797 255 255 255
-0.508893   1.42431   1.24836 255 255 255
0.443905 0.381162  1.76621 255 255 255
0.234916 0.592802  1.68779 255 255 255
0.199374 0.465448  1.69922 255 255 255
-0.608481  0.742831   1.76442 255 255 255
0.211613 0.258198  1.86485 255 255 255
-0.910804   1.07358   1.58162 255 255 255
-0.25078  1.12804  1.50166 255 255 255
0.274573 0.487383  1.66864 255 255 255
-0.527982  0.880971    1.6517 255 255 255
-0.281333   1.34017   1.37876 255 255 255
-0.344666   1.46501   1.28951 255 255 255
-0.981545   1.02632   1.68335 255 255 255
-1.14074 0.938227  1.73501 255 255 255
-0.92816 0.953194  1.74619 255 255 255
-0.626022   1.08556   1.60195 255 255 255
-0.644793   1.22274   1.49223 255 255 255
-0.593101   1.24983   1.48691 255 255 255
-0.535256   0.51656   1.87491 255 255 255
-0.295026  0.186279   1.96634 255 255 255
-0.256728   1.32084   1.40478 255 255 255
0.243034 0.707233  1.60839 255 255 255
0.0187013   1.17087   1.45913 255 255 255
-0.37465  1.48551  1.27692 255 255 255
-0.476574  0.778474   1.69264 255 255 255
-1.10461 0.868812  1.83265 255 255 255
0.145597 0.413712  1.71304 255 255 255
-0.373317   1.53439   1.24402 255 255 255
-0.0898411   0.213027    1.90334 255 255 255
-0.0200891   0.785153      1.596 255 255 255
-1.05551 0.994218  1.68821 255 255 255
-0.016564  0.856109   1.61903 255 255 255
-0.43456  1.38157  1.35268 255 255 255
-0.0561885   0.947733    1.55174 255 255 255
-0.223725  0.926312   1.61963 255 255 255
-0.109486   0.89708   1.58555 255 255 255
-0.676919   1.19243   1.52064 255 255 255
-0.373983    1.5125   1.23843 255 255 255
0.0312137  0.481865   1.79262 255 255 255
-0.340366   1.52564    1.2381 255 255 255
-1.04191  1.08738  1.57439 255 255 255
-0.512333   1.41357   1.25998 255 255 255
0.102879 0.854062   1.5687 255 255 255
-0.219181   1.22765   1.38911 255 255 255
-0.901565  0.942489   1.74225 255 255 255
0.259308 0.450147  1.70181 255 255 255
-1.04112 0.963552  1.73757 255 255 255
-0.807063  0.762947    1.8216 255 255 255
0.00927208    1.18764    1.42949 255 255 255
-0.299917   1.06898   1.55085 255 255 255
-0.427346   1.47284   1.28843 255 255 255
0.0997813  0.377942   1.75085 255 255 255
-0.841997  0.778669   1.80451 255 255 255
-0.902438   1.08928    1.5596 255 255 255
-0.0330178    1.23928     1.4271 255 255 255
0.178861 0.433477  1.68824 255 255 255
-0.654439  0.811531   1.72976 255 255 255
0.126493 0.873506  1.55344 255 255 255
0.0202692  0.942981    1.5148 255 255 255
0.18348 0.37471 1.72228 255 255 255
-0.463946   1.13558     1.515 255 255 255
-0.354998   1.45766   1.29757 255 255 255
0.0617459   1.02445   1.51964 255 255 255
-0.846179   1.12344   1.57591 255 255 255
-0.163236 0.0931193   1.94798 255 255 255
-0.669733  0.460057   1.94392 255 255 255
-0.531197    1.3169   1.41949 255 255 255
0.0799877  0.980178   1.51414 255 255 255
-0.975386  0.784527   1.83742 255 255 255
-0.926193   0.63977   1.91686 255 255 255
-0.920611  0.978095   1.73095 255 255 255
-0.278404   1.20676   1.36851 255 255 255
0.409058 0.756779  1.51504 255 255 255
-0.890422   1.08614    1.5695 255 255 255
-0.614755   1.32122   1.34852 255 255 255
-0.399052   1.01007    1.6042 255 255 255
0.194717  0.51547  1.71988 255 255 255
-0.0606545    1.24027    1.41718 255 255 255
-0.0272381   0.892633    1.57096 255 255 255
  0.2482 0.859065  1.55145 255 255 255
0.0690199  0.918518   1.57386 255 255 255
-0.103132   1.18508   1.45044 255 255 255
-0.20928  1.24588  1.41813 255 255 255
0.213059  0.41929  1.68652 255 255 255
-0.290462  0.242926   1.91874 255 255 255
-0.703175  0.476098   1.94476 255 255 255
-0.624461  0.688164   1.78025 255 255 255
0.0247758   1.15558   1.43598 255 255 255
-0.144642   1.15742   1.48816 255 255 255
-0.26896  1.44714  1.32942 255 255 255
-0.396776   1.41696   1.32307 255 255 255
0.176101 0.527481  1.75117 255 255 255
-0.371453  0.581774   1.80186 255 255 255
-0.720404   0.52241    1.9412 255 255 255
-0.92453  1.16293  1.50838 255 255 255
-0.447854   1.30485   1.44794 255 255 255
-0.169203  0.737026   1.68517 255 255 255
-0.140845   1.11461   1.47612 255 255 255
-0.510516  0.949516   1.66407 255 255 255
-0.661498  0.431733   1.96058 255 255 255
-0.379142   1.48247   1.25472 255 255 255
-0.0524221   0.214686    1.87576 255 255 255
-0.332617   1.44266   1.29935 255 255 255
-0.365237   1.46501   1.29993 255 255 255
0.160129 0.426119  1.70064 255 255 255
-0.0829265    1.11595    1.48699 255 255 255
-1.12372  0.85433   1.8373 255 255 255
0.000338484     0.91505     1.55287 255 255 255
-0.460242   1.19334   1.49526 255 255 255
-0.909421  0.700281   1.88319 255 255 255
-1.09747 0.893347  1.80831 255 255 255
-0.391314   1.47503   1.26527 255 255 255
-0.587405    1.2638   1.45246 255 255 255
-0.881942   1.12892   1.52024 255 255 255
-0.325777  0.828243   1.68932 255 255 255
-0.36089  1.37969  1.38434 255 255 255
-0.383507   1.42805   1.32063 255 255 255
-0.33524  1.47263  1.28118 255 255 255
-0.366231   1.36829   1.38743 255 255 255
-0.321741   1.30609   1.40918 255 255 255
-0.460628  0.794844   1.74123 255 255 255
-0.666435  0.957966   1.65705 255 255 255
-0.156964   1.07089   1.59235 255 255 255
-0.461985   1.43092   1.29297 255 255 255
-0.43123  1.47944  1.28159 255 255 255
-0.423198  0.835412   1.70585 255 255 255
-0.093678 0.0879829   1.96778 255 255 255
-0.294927  0.704128   1.71942 255 255 255
0.104442 0.472521  1.75473 255 255 255
-0.428799  0.970207   1.59584 255 255 255
-0.63041 0.687512  1.75264 255 255 255
-0.717815   1.21561   1.48214 255 255 255
-0.403341  0.937707   1.64389 255 255 255
-1.12537 0.938841  1.76666 255 255 255
-0.60465  1.06285  1.61007 255 255 255
-0.381362   1.25679   1.45014 255 255 255
-0.474739   0.99221   1.59329 255 255 255
-0.388709   1.44769   1.30911 255 255 255
-0.66989  1.17078   1.5371 255 255 255
-0.39899  1.24278  1.45733 255 255 255
-0.484031   1.27661   1.47531 255 255 255
-0.483038   1.39385    1.3142 255 255 255
-0.0685649   0.733826    1.65944 255 255 255
0.200929 0.397955  1.72705 255 255 255
-0.0826164   0.949284    1.56965 255 255 255
-1.08616 0.879428  1.82806 255 255 255
 0.18893 0.445495  1.69045 255 255 255
-0.615293   1.04428    1.6123 255 255 255
-0.019571  0.937042   1.54413 255 255 255
-0.725776   0.95702   1.66479 255 255 255
-0.928346   1.14696   1.49774 255 255 255
-0.360235    1.0359   1.56797 255 255 255
0.00602838   0.875555     1.5987 255 255 255
-0.0917573    1.06562    1.50615 255 255 255
-0.95718  1.03297  1.67731 255 255 255
-0.87353 0.697472  1.94429 255 255 255
-0.471163   1.31461   1.41874 255 255 255
-0.672102   0.47461   1.95926 255 255 255
-0.896997   1.11659    1.5314 255 255 255
-0.700072  0.676251   1.73897 255 255 255
-0.571187   1.36421   1.37708 255 255 255
-0.320705   1.06865   1.56731 255 255 255
-0.654587   1.25478   1.43875 255 255 255
0.0506264  0.971674   1.50629 255 255 255
-0.937837  0.972359    1.7258 255 255 255
-0.613096   1.34135   1.31791 255 255 255
-0.182772  0.956818    1.5828 255 255 255
-0.411797   0.82608    1.7097 255 255 255
-0.427291   1.43861   1.28127 255 255 255
0.118228 0.190895  1.84769 255 255 255
-0.049445  0.810968   1.63941 255 255 255
-0.332934   1.50611   1.26002 255 255 255
0.0853549   1.07876   1.47723 255 255 255
-0.243689   1.43448   1.32808 255 255 255
0.290105 0.809399  1.55805 255 255 255
-0.441113  0.833629   1.71536 255 255 255
-0.623541   1.16289   1.55617 255 255 255
-0.166086    1.3018   1.34899 255 255 255
-0.240029   1.04643   1.62002 255 255 255
-0.782156   1.19867   1.45908 255 255 255
-0.209359   1.33171   1.36142 255 255 255
-0.0240531     1.0237    1.52977 255 255 255
-0.910468  0.724944   1.86223 255 255 255
-0.372918   1.38276   1.36433 255 255 255
-0.125151  0.896585   1.58742 255 255 255
0.231279 0.746789   1.6046 255 255 255
-1.12353 0.835778  1.85428 255 255 255
-0.672067    1.2433   1.49491 255 255 255
  -0.642 0.637126  1.82266 255 255 255
0.266789 0.794686  1.56989 255 255 255
-0.194278  0.343895   1.89102 255 255 255
-1.07338  1.01552  1.59772 255 255 255
-0.4722 1.32928  1.4005 255 255 255
0.0314673   1.03561   1.51248 255 255 255
-0.358291  0.893954   1.66574 255 255 255
-0.808657   1.13945   1.53524 255 255 255
-0.193511   1.28577   1.31398 255 255 255
-0.543955   1.24483   1.47447 255 255 255
-0.993988   1.00813     1.696 255 255 255
-0.116474  0.136652   1.95734 255 255 255
0.215131 0.981467  1.50976 255 255 255
-0.560279   1.22979   1.48516 255 255 255
-0.0446269   0.306603    1.86719 255 255 255
-0.198431    1.0523    1.5422 255 255 255
