ply
format ascii 1.0
element vertex 1155
property float x
property float y
property float z
property uchar red
property uchar green
property uchar blue
end_header
 1.31143  2.52325 0.440534 255 255 255
 1.14237  2.62042 0.425675 255 255 255
 1.12125  2.48091 0.492341 255 255 255
 1.17772  2.64406 0.408854 255 255 255
 1.18833   2.5575 0.451329 255 255 255
 1.08768  2.66878 0.383202 255 255 255
 1.22847  2.52751 0.452942 255 255 255
 1.11604  2.70829 0.370827 255 255 255
 1.14822  2.48289 0.486797 255 255 255
 1.12338  2.47426 0.510566 255 255 255
  1.1385  2.64524 0.410343 255 255 255
 1.19388  2.56196 0.444473 255 255 255
1.24306  2.3725 0.50481 255 255 255
 1.20994  2.48092 0.517305 255 255 255
 1.11204  2.46926 0.523636 255 255 255
 1.20439   2.5904 0.423429 255 255 255
 1.73251  2.37105 0.306912 255 255 255
 1.68281  2.75256 0.181558 255 255 255
  1.97075   2.71687 0.0556014 255 255 255
 2.17181  2.48283 0.243576 255 255 255
 1.76922  2.81689 0.147973 255 255 255
1.92528 2.28473 0.29611 255 255 255
 2.06382  2.55467 0.237519 255 255 255
 1.86021  2.71877 0.162579 255 255 255
  2.0288   2.5789 0.216023 255 255 255
  1.57104   3.08915 0.0934536 255 255 255
   1.75153     3.0437 -0.0241853 255 255 255
 1.40485  2.82005 0.305328 255 255 255
 1.83116   2.6971 0.188796 255 255 255
 1.17732  2.77733 0.332449 255 255 255
 1.24424  2.79591 0.332412 255 255 255
 1.80971  2.23287 0.306754 255 255 255
    1.7697    2.88784 0.00602651 255 255 255
 2.09975  2.34431 0.267727 255 255 255
 1.10399   2.5964 0.434013 255 255 255
   1.40984      3.502 -0.0540121 255 255 255
  1.4138  2.50129 0.413402 255 255 255
  1.76908   3.10274 -0.038155 255 255 255
 1.44143  2.79649 0.307931 255 255 255
   1.49586    3.40556 -0.0581658 255 255 255
 1.28125  2.38498 0.473865 255 255 255
1.32753  3.1976 0.10113 255 255 255
 1.88899  2.17137 0.384337 255 255 255
 2.52921  2.37505 0.251334 255 255 255
  1.45105   3.26622 0.0308125 255 255 255
0.965299  2.94592 0.271184 255 255 255
 1.69526  2.34869 0.425076 255 255 255
   1.6726   3.06235 0.0666295 255 255 255
 1.19961  2.77182 0.333804 255 255 255
 1.39084  2.50709 0.420066 255 255 255
   1.84535    2.83879 -0.0154897 255 255 255
 1.32956  2.47183 0.456118 255 255 255
 1.36376  2.43445 0.454359 255 255 255
1.88768  2.2091 0.37141 255 255 255
  2.2236  2.49487 0.089747 255 255 255
 1.34059  2.68112 0.367967 255 255 255
 1.36882  2.49718 0.425688 255 255 255
 1.73875  2.81276 0.166419 255 255 255
1.03099 2.58404 0.45625 255 255 255
 1.82621  2.22719 0.298541 255 255 255
 1.58234  2.30126 0.500405 255 255 255
0.911228  3.09066 0.217977 255 255 255
 1.36728  2.74589 0.341199 255 255 255
 1.21578  2.77103 0.339635 255 255 255
 1.57814  3.00142 0.114624 255 255 255
  1.0963  2.55623 0.461993 255 255 255
 1.45157  3.07128 0.110526 255 255 255
 1.37919  2.44311 0.452424 255 255 255
 1.28309  2.49255 0.459999 255 255 255
  1.2463  2.71766 0.367888 255 255 255
 1.54567  3.00403 0.133465 255 255 255
0.943382  2.91626 0.275714 255 255 255
 1.24462  3.03777 0.175639 255 255 255
 1.49058  2.67832 0.340039 255 255 255
1.40828 2.61638 0.38288 255 255 255
 1.96326  2.25801 0.323997 255 255 255
 1.13925  2.48288 0.488205 255 255 255
 1.76567  2.29408 0.343228 255 255 255
0.892887  3.02264 0.258127 255 255 255
 1.15778  2.97567 0.230675 255 255 255
 1.16466  2.58227 0.435481 255 255 255
1.34729 2.87891 0.28486 255 255 255
 1.46625  2.80083 0.305856 255 255 255
 1.73513  2.89363 0.147018 255 255 255
 1.29462  2.63961 0.392704 255 255 255
 1.20083  2.48074 0.480987 255 255 255
 1.18626  2.44758 0.496126 255 255 255
1.42905 2.81116  0.2998 255 255 255
0.934044  3.09113 0.210868 255 255 255
1.65755 2.97401 0.12167 255 255 255
 1.60801  2.99122 0.125262 255 255 255
   1.75089    3.10723 -0.0512066 255 255 255
 1.60508  2.93283 0.149611 255 255 255
   1.87702    2.78922 0.00403372 255 255 255
 2.13162  2.48017 0.115125 255 255 255
 1.00138  2.94608 0.275472 255 255 255
 2.13899  2.47154 0.117741 255 255 255
1.47007 2.72448 0.36157 255 255 255
 1.77565  2.36187 0.435597 255 255 255
 1.24333   2.8162 0.317011 255 255 255
 1.56866  3.26686 0.018253 255 255 255
1.50896 2.71231 0.32299 255 255 255
 1.35959  2.41641 0.461395 255 255 255
0.856965  2.99916 0.457039 255 255 255
 1.18538  2.48977 0.477498 255 255 255
 1.18762  2.77469 0.335059 255 255 255
 1.60394  2.14888 0.505804 255 255 255
 1.45616  2.60402 0.372969 255 255 255
0.925327  2.94841 0.268907 255 255 255
 1.39411   2.8295 0.299816 255 255 255
  1.55926   3.26183 0.0289675 255 255 255
 1.12934  2.54172 0.459177 255 255 255
 1.57111  3.00489 0.128108 255 255 255
 1.29716  2.33908 0.505591 255 255 255
 1.16101  2.55247 0.448516 255 255 255
1.60645 2.27939 0.45116 255 255 255
  2.15912   2.56201 0.0597179 255 255 255
 1.34158  2.42981 0.459224 255 255 255
 1.33174  2.86903 0.291202 255 255 255
 0.94675  2.90667 0.290629 255 255 255
 1.64385  2.18133 0.486768 255 255 255
 1.46567    3.047 0.130855 255 255 255
 1.55395  3.01856 0.124428 255 255 255
   1.84323    2.81667 0.00467546 255 255 255
1.68782 2.93384 0.13439 255 255 255
 1.32069  2.60643 0.371676 255 255 255
 1.20752  2.38942 0.512945 255 255 255
 1.26603  2.72521 0.367236 255 255 255
1.31751 2.68154 0.37714 255 255 255
1.60685 2.91014 0.15942 255 255 255
0.887858  2.92874 0.297489 255 255 255
 1.76323  2.33983 0.450723 255 255 255
0.970958  2.86132 0.319389 255 255 255
 1.54192  2.83938 0.333798 255 255 255
 1.20348  2.74271 0.367142 255 255 255
 1.39488  3.13154 0.108883 255 255 255
 1.23199  3.04298 0.177231 255 255 255
 1.02834  2.59884 0.451116 255 255 255
  1.0633  2.56013 0.469011 255 255 255
0.840708  2.91672 0.309033 255 255 255
 1.29585  2.53878 0.440618 255 255 255
 1.89933  2.27187 0.303874 255 255 255
0.954937  2.90943 0.288977 255 255 255
 1.22164  2.45177 0.491545 255 255 255
 1.84106  2.25602 0.329615 255 255 255
1.16393 2.75695 0.30849 255 255 255
 1.11455  2.49795 0.486369 255 255 255
 1.52782  2.73048 0.323425 255 255 255
 1.19269  2.75547 0.356746 255 255 255
 1.29455  2.55447 0.432447 255 255 255
 1.17876  2.64405 0.406091 255 255 255
    1.33213     3.41487 -0.00031392 255 255 255
0.921254  3.09584 0.214145 255 255 255
  1.8696  2.21245 0.369926 255 255 255
   1.75078    3.11531 -0.0999987 255 255 255
 1.29384   2.3058 0.520396 255 255 255
0.801331   2.9234   0.3018 255 255 255
  1.1986  2.56564 0.442489 255 255 255
 1.39179   3.0731 0.117183 255 255 255
0.786534  2.84475 0.365002 255 255 255
 1.22809  2.63183 0.403095 255 255 255
 1.23633  2.70263 0.381104 255 255 255
 1.80406  2.25612 0.323172 255 255 255
 1.08941  3.03595 0.215834 255 255 255
 1.22542  2.58906 0.426229 255 255 255
 1.05557  2.58903 0.450897 255 255 255
 1.12617  2.49352 0.486478 255 255 255
  1.0913  3.05621 0.204723 255 255 255
 1.18967  2.42191 0.506572 255 255 255
0.889311   2.7829 0.373125 255 255 255
  1.37269    3.2554 0.0610394 255 255 255
0.951873  2.91528 0.292646 255 255 255
   1.72875    3.10083 -0.0238302 255 255 255
 1.38362   2.4685 0.434672 255 255 255
 1.17481  2.53885 0.457363 255 255 255
 1.07394  2.68064 0.369093 255 255 255
1.13271 2.58241 0.43096 255 255 255
 1.65116  2.15253 0.467916 255 255 255
 1.55108   2.2552 0.503749 255 255 255
 1.20057  3.03476 0.195011 255 255 255
 1.40756  3.07663 0.127857 255 255 255
 1.58312  2.26058 0.456961 255 255 255
1.29977 2.34433 0.50695 255 255 255
 1.71176  2.91631 0.137157 255 255 255
0.864453  2.95318 0.284078 255 255 255
 1.96506  2.64236 0.198607 255 255 255
 1.38836  2.66034 0.371893 255 255 255
  1.71471   3.12185 0.0537399 255 255 255
 1.67385  2.39133 0.406466 255 255 255
 1.83418  2.70805 0.210967 255 255 255
 1.00786  2.95641 0.263671 255 255 255
 1.53036  3.01302 0.132203 255 255 255
 0.96441   2.9456 0.264677 255 255 255
 1.32546  2.43482 0.487794 255 255 255
  2.25263   2.56868 0.0408469 255 255 255
 1.26747   2.8201 0.320505 255 255 255
1.15548 2.57411 0.44037 255 255 255
  1.2554  2.65068 0.392748 255 255 255
  1.68972   3.02883 0.0940626 255 255 255
 1.22527   3.0417 0.179893 255 255 255
   1.94101    2.82765 -0.0138189 255 255 255
 1.29625  2.86388 0.287737 255 255 255
  1.27645   3.34915 0.0390786 255 255 255
   1.56756    3.34499 -0.0274631 255 255 255
 1.18683    2.562 0.444161 255 255 255
0.811197  2.89317 0.335247 255 255 255
1.71851 2.97165 0.11253 255 255 255
1.64241 2.92898 0.14155 255 255 255
 1.16637  2.71533 0.342126 255 255 255
 1.16921  2.43526 0.502059 255 255 255
 0.88007  2.76855 0.375497 255 255 255
 1.05716  2.60946 0.441361 255 255 255
 1.54524  2.99685 0.136179 255 255 255
0.898155  2.79116 0.361278 255 255 255
0.925268   2.6994 0.406358 255 255 255
 1.26482  2.58447 0.418752 255 255 255
 1.43692  2.80449 0.302593 255 255 255
 1.56394  2.85069 0.197933 255 255 255
 1.34664  2.66323 0.364203 255 255 255
0.948327  2.71994 0.392737 255 255 255
1.21893 3.04584 0.18169 255 255 255
 1.12682  2.47526 0.493218 255 255 255
 1.06384  2.57345 0.463298 255 255 255
 2.26504  2.40957 0.262335 255 255 255
 2.19838  2.39982 0.168312 255 255 255
 1.17804   2.6558 0.380588 255 255 255
  1.47251    3.2081 0.0661738 255 255 255
 1.1793  2.5156 0.46854 255 255 255
 1.71414  2.89261 0.145312 255 255 255
 1.25932  2.48924 0.463416 255 255 255
  1.7106  2.90701 0.140474 255 255 255
 1.35099  2.40023 0.469242 255 255 255
 1.28699  2.35609 0.501912 255 255 255
 1.40377    3.054 0.128772 255 255 255
 1.69881  2.88103 0.154165 255 255 255
 1.07565  2.61842 0.434529 255 255 255
 1.26852   2.4442 0.480473 255 255 255
 1.50841  2.81848 0.311994 255 255 255
  1.73364   3.00543 0.0922625 255 255 255
0.820424  2.92949 0.297734 255 255 255
  1.4492  3.02678 0.142618 255 255 255
 1.28321  2.31737 0.518796 255 255 255
 1.29553  2.29969 0.523865 255 255 255
2.31548 2.35932 0.30094 255 255 255
 1.11052  2.70106 0.375399 255 255 255
  1.1419  2.68743 0.390536 255 255 255
 1.15761  2.59429 0.431402 255 255 255
 1.39092  2.48543 0.428903 255 255 255
 1.18691  2.52129 0.464554 255 255 255
  1.64377   3.04626 0.0993135 255 255 255
 1.59688  3.01486 0.118215 255 255 255
 1.87201  2.69457 0.190731 255 255 255
   1.51293    3.29009 0.00495519 255 255 255
 1.32471  2.85634 0.288288 255 255 255
 1.30561  2.83899 0.309713 255 255 255
 1.04649  2.59803 0.447869 255 255 255
 1.56793  2.84832 0.187179 255 255 255
 1.24844  2.64509 0.392909 255 255 255
   1.306  2.43203 0.491382 255 255 255
1.52579 3.03862 0.12331 255 255 255
  1.92437   2.77428 0.0048568 255 255 255
   1.92855    2.84374 -0.0359646 255 255 255
  1.5954  3.00821 0.121423 255 255 255
 1.22068  2.57819 0.432228 255 255 255
  1.1367  2.56132 0.448673 255 255 255
 1.41201  2.82333 0.298406 255 255 255
 1.10751   2.6504 0.415065 255 255 255
1.20492 2.39606 0.51115 255 255 255
 1.22359  2.61177 0.411116 255 255 255
1.20171 2.66294 0.39481 255 255 255
 1.29237  2.42712 0.471366 255 255 255
  2.13608   2.71644 0.0813314 255 255 255
1.19944 2.62136 0.39841 255 255 255
  1.7136  2.84554 0.163658 255 255 255
 2.16867  2.42151 0.134287 255 255 255
 2.54642  2.36403 0.247465 255 255 255
 1.25472  2.77564 0.347402 255 255 255
 1.28165  2.84215 0.306191 255 255 255
 1.06913  2.61489 0.437797 255 255 255
 1.74407  2.92415 0.125138 255 255 255
   1.68862    3.45927 -0.0822104 255 255 255
1.32639 2.86279 0.29527 255 255 255
0.955233  2.72755 0.385569 255 255 255
 1.13835  2.60857 0.426865 255 255 255
    1.87308     2.80051 -0.00945076 255 255 255
  2.32924   2.44459 0.0979246 255 255 255
   1.58941    3.39655 -0.0646796 255 255 255
0.938267  2.70774  0.40021 255 255 255
 0.80823  2.92114 0.303812 255 255 255
  1.2516  3.04151 0.179444 255 255 255
  1.2566  2.63044 0.405488 255 255 255
  1.71584   3.15874 0.0292404 255 255 255
 1.07102  2.59305 0.446743 255 255 255
 1.19721  2.60159 0.419876 255 255 255
 1.58791  3.04653 0.107796 255 255 255
  1.8031  2.71563 0.200676 255 255 255
 1.21175  2.63749 0.402888 255 255 255
 2.11211  2.54873 0.212058 255 255 255
0.00443493  -0.638653    2.32252 255 255 255
0.0595311 -0.709133    2.4385 255 255 255
-0.0014604   -0.82854    2.56334 255 255 255
 0.296042 -0.858051   2.81752 255 255 255
 0.365871 -0.706397   2.70025 255 255 255
 0.409709 -0.517387   2.56712 255 255 255
 0.200839 -0.686996   2.55612 255 255 255
 0.138177 -0.468306   2.17048 255 255 255
 0.291824 -0.578643   2.49144 255 255 255
-0.000704328    -0.899457       2.6423 255 255 255
-0.0710054   -0.70716    2.38478 255 255 255
-0.0215939  -0.879947    2.60796 255 255 255
  0.20399 -0.495664   2.21708 255 255 255
0.0276028 -0.695222   2.38075 255 255 255
-0.113066 -0.715135   2.37714 255 255 255
 -0.17259 -0.737022   2.37512 255 255 255
0.0704012 -0.869564     2.682 255 255 255
  0.30886 -0.535258   2.47183 255 255 255
  0.22101 -0.608233   2.47749 255 255 255
  0.54653 -0.652377   2.67946 255 255 255
0.0195479 -0.783551   2.52318 255 255 255
-0.0718944  -0.910828    2.60974 255 255 255
-0.0668225  -0.938246    2.66284 255 255 255
-0.0976869   -0.93936    2.61131 255 255 255
-0.0418847  -0.799814     2.4721 255 255 255
-0.439168 -0.899342   2.49175 255 255 255
 0.339176 -0.515491   2.48918 255 255 255
0.0864465 -0.661691   2.36752 255 255 255
  0.31583 -0.585751   2.51896 255 255 255
-0.0853062   -1.02203     2.7885 255 255 255
-0.215602 -0.935276    2.4534 255 255 255
  -0.3881 -0.904549   2.47834 255 255 255
 0.215402 -0.440531   2.14948 255 255 255
-0.185504 -0.974329    2.6218 255 255 255
 0.254816 -0.553649   2.32654 255 255 255
 0.128236 -0.917492   2.74707 255 255 255
 0.324759 -0.502494    2.4752 255 255 255
-0.420758  -0.93377   2.51941 255 255 255
 0.226538 -0.634869   2.39843 255 255 255
-0.130115 -0.810848     2.457 255 255 255
0.0817527 -0.917902   2.71354 255 255 255
-0.286164 -0.708627   2.34369 255 255 255
 0.151761 -0.435982   2.14638 255 255 255
 0.346646 -0.546225   2.51631 255 255 255
-0.0423319  -0.826684    2.51015 255 255 255
-0.438674 -0.927909   2.51276 255 255 255
 0.427445 -0.460218   2.50882 255 255 255
0.0564101 -0.923185   2.69237 255 255 255
-0.478858 -0.924937   2.49764 255 255 255
-0.247001 -0.720438    2.3489 255 255 255
 0.258898 -0.569375   2.33148 255 255 255
-0.021714  -0.80237   2.51652 255 255 255
 0.259428 -0.673764   2.58194 255 255 255
-0.0521278  -0.736756    2.40439 255 255 255
-0.194567 -0.811945    2.4327 255 255 255
 0.628032 -0.704114   2.95104 255 255 255
-0.000126764     -1.01589      2.81121 255 255 255
0.00993315   -1.03762    2.84321 255 255 255
-0.486447 -0.889571   2.47871 255 255 255
    0.547 -0.630399   2.65217 255 255 255
0.0301685  -0.86623   2.61809 255 255 255
-0.0274461  -0.848751    2.56907 255 255 255
 0.634878 -0.682225   2.84428 255 255 255
 0.432672 -0.539162   2.59597 255 255 255
 0.312574 -0.552151   2.48852 255 255 255
-0.226372 -0.663308   2.29597 255 255 255
-0.337367 -0.883227   2.46998 255 255 255
0.203824 -1.09377  3.01209 255 255 255
-0.139401 -0.734531   2.39238 255 255 255
-0.249929 -0.838246   2.44114 255 255 255
-0.304357 -0.868611   2.46227 255 255 255
 0.129957 -0.942248   2.75761 255 255 255
 0.049416 -0.864072   2.61925 255 255 255
-0.138266 -0.713703   2.37452 255 255 255
 0.224038 -0.833725   2.66998 255 255 255
-0.138013 -0.906173   2.53052 255 255 255
 0.460282 -0.509896   2.58505 255 255 255
0.291456 -0.81353  2.68389 255 255 255
-0.240646 -0.823271    2.4358 255 255 255
-0.182247 -0.889961   2.50187 255 255 255
-0.199301 -0.769807   2.39726 255 255 255
-0.0132603   -1.00557    2.74577 255 255 255
-0.213551 -0.807024   2.43185 255 255 255
 0.375977 -0.550614   2.55303 255 255 255
-0.180658 -0.717036   2.35984 255 255 255
 0.612794 -0.715991   2.78053 255 255 255
 0.464591 -0.462488   2.54287 255 255 255
 0.186498 -0.872325   2.72738 255 255 255
-0.155278  -1.00708    2.7174 255 255 255
-0.393453 -0.923071   2.48777 255 255 255
 0.320983 -0.761257    2.6587 255 255 255
 0.148977 -0.783644   2.61063 255 255 255
 -0.51874 -0.848172    2.4321 255 255 255
0.0740086 -0.797627     2.561 255 255 255
  0.16949 -0.920759   2.76736 255 255 255
-0.324012 -0.890382   2.48526 255 255 255
-0.227344 -0.839404   2.45015 255 255 255
-0.184117 -0.760172   2.40142 255 255 255
 0.045047 -0.908169   2.67455 255 255 255
 0.108123 -0.648706   2.36368 255 255 255
0.205023 -0.89942  2.77609 255 255 255
-0.358824  -1.03942    2.5446 255 255 255
 -0.22439 -0.819825   2.43727 255 255 255
 0.27846 -0.57298  2.48285 255 255 255
-0.011877  -0.76276   2.43679 255 255 255
 0.582051 -0.679888   2.77438 255 255 255
-0.447918 -0.882992   2.47621 255 255 255
0.0813012 -0.982363   2.78608 255 255 255
 0.186689 -0.658489   2.40996 255 255 255
 0.212385 -0.871376   2.77428 255 255 255
 0.160728 -0.678212   2.43704 255 255 255
 0.236196 -0.812949   2.64917 255 255 255
-0.015209 -0.974209   2.71788 255 255 255
-0.277887 -0.694035   2.33353 255 255 255
-0.176544 -0.903062   2.50758 255 255 255
 0.681561 -0.795772   2.97028 255 255 255
 0.249181 -0.599258   2.36294 255 255 255
-0.177654 -0.727667   2.37294 255 255 255
-0.350789 -0.762522   2.37897 255 255 255
-0.288928 -0.826072   2.43537 255 255 255
 0.418997 -0.656939   2.67531 255 255 255
-0.220617 -0.730587   2.37016 255 255 255
 0.489247 -0.681749    2.7426 255 255 255
 0.390113 -0.860193   2.84864 255 255 255
 0.544177 -0.601234   2.55207 255 255 255
-0.129871 -0.724763   2.38229 255 255 255
0.0235311 -0.839084   2.57537 255 255 255
 0.403902 -0.726474   2.61659 255 255 255
0.0900613 -0.896181    2.6919 255 255 255
 0.196582 -0.760226   2.56533 255 255 255
-0.199692 -0.741718   2.38262 255 255 255
0.0236586 -0.962475   2.74155 255 255 255
 0.215007 -0.635747   2.50435 255 255 255
0.0357428 -0.945791   2.71865 255 255 255
 0.545705 -0.628733    2.7907 255 255 255
-0.146756 -0.725319   2.37824 255 255 255
 0.370161 -0.564391   2.55938 255 255 255
-0.115594 -0.819316   2.47139 255 255 255
 0.244198 -0.610226   2.37667 255 255 255
-0.345239 -0.873693   2.48049 255 255 255
-0.234803 -0.805052   2.42857 255 255 255
-0.0740144  -0.868976    2.56999 255 255 255
0.302378 -1.07805  3.05567 255 255 255
 0.184624 -0.675675   2.51704 255 255 255
 0.343611 -0.758801   2.74691 255 255 255
 0.285877 -0.525219   2.43681 255 255 255
0.218545 -0.71439  2.52992 255 255 255
-0.141964 -0.769531   2.41881 255 255 255
0.00150947  -0.756069    2.45681 255 255 255
-0.146136 -0.987242   2.65784 255 255 255
-0.419611 -0.843872   2.44353 255 255 255
 0.537326 -0.592611    2.5412 255 255 255
-0.202069 -0.919259   2.45021 255 255 255
-0.050964 -0.821646   2.48561 255 255 255
 0.162685 -0.751034   2.57632 255 255 255
-0.165984 -0.781659    2.4253 255 255 255
 0.135462 -0.688969   2.48577 255 255 255
-0.321362 -0.989985    2.5017 255 255 255
 0.555919 -0.708508   2.73671 255 255 255
-0.297691 -0.882886   2.47239 255 255 255
  -0.3315 -0.980608   2.49979 255 255 255
-0.209812 -0.914666   2.44387 255 255 255
 -0.37642 -0.997708   2.48789 255 255 255
-0.0113732    -0.9587    2.68981 255 255 255
 -0.21318 -0.748212   2.37829 255 255 255
0.0605676  -0.87064   2.64587 255 255 255
0.227688 -1.01959  2.94466 255 255 255
 0.210744 -0.831914   2.71468 255 255 255
-0.345498 -0.894824   2.47098 255 255 255
-0.220007 -0.919571   2.44607 255 255 255
 0.191651 -0.749914   2.55013 255 255 255
 0.159532 -0.774179   2.60472 255 255 255
 -0.23438 -0.858125   2.46124 255 255 255
-0.135435 -0.959746   2.62601 255 255 255
-0.261198 -0.863988   2.47107 255 255 255
-0.423536 -0.784572   2.39276 255 255 255
-0.160253  -1.00046   2.67155 255 255 255
 0.502982 -0.609446   2.54189 255 255 255
-0.0829593  -0.966113    2.66475 255 255 255
-0.401917 -0.765264   2.38015 255 255 255
 0.486398 -0.707878    2.8104 255 255 255
-0.201643 -0.947496   2.48835 255 255 255
 0.439461 -0.512717   2.58208 255 255 255
-0.0255085  -0.897877    2.62587 255 255 255
-0.0540445  -0.984965    2.74028 255 255 255
-0.142598 -0.747746   2.40083 255 255 255
-0.262068 -0.810301   2.42574 255 255 255
 0.371097 -0.766038    2.7512 255 255 255
0.343676 -1.11044  3.10781 255 255 255
0.0895262  -1.05634    2.9026 255 255 255
0.0194354 -0.826305   2.57033 255 255 255
-0.0765575  -0.738831    2.40187 255 255 255
0.165154 -1.11495  3.01578 255 255 255
 0.218202 -0.990434   2.91038 255 255 255
 0.133387 -0.809151   2.60852 255 255 255
 0.152853 -0.975024   2.84536 255 255 255
0.148794  -1.0375  2.91837 255 255 255
-0.220298 -0.758253   2.39594 255 255 255
-0.255962 -0.814118   2.43119 255 255 255
 0.271049 -0.946413   2.85928 255 255 255
 0.122524 -0.632976   2.35547 255 255 255
-0.0377017   -1.00683     2.7798 255 255 255
 0.354779 -0.796361   2.77502 255 255 255
0.157897 -1.05859  2.93224 255 255 255
 0.602852 -0.746748   2.94818 255 255 255
-0.228012 -0.790971   2.41976 255 255 255
-0.0834808  -0.728995     2.3987 255 255 255
-0.139711 -0.728695    2.3842 255 255 255
-0.0611015  -0.639448      2.291 255 255 255
0.0724231 -0.707463   2.42514 255 255 255
0.0138994 -0.842962   2.58257 255 255 255
-0.0819812  -0.881634    2.57804 255 255 255
-0.243832 -0.794397   2.41962 255 255 255
0.258609  -1.0644  2.99961 255 255 255
-0.175509 -0.763728   2.40651 255 255 255
-0.0196156  -0.644145    2.36479 255 255 255
-0.0249892   -1.00588    2.78283 255 255 255
 -0.38939 -0.793068   2.40541 255 255 255
0.141675 -0.80069  2.61968 255 255 255
 0.689806 -0.740302    2.9462 255 255 255
-0.176284 -0.795555   2.43332 255 255 255
-0.0821973   -1.02413    2.79527 255 255 255
 0.306196 -0.594766    2.5273 255 255 255
 0.417283 -0.478215   2.51411 255 255 255
  0.19055 -0.663628    2.5103 255 255 255
 0.162443 -0.781352   2.56698 255 255 255
-0.162879 -0.983109   2.63363 255 255 255
-0.372964 -0.755881    2.3747 255 255 255
-0.102341 -0.758752   2.41923 255 255 255
 0.275723 -0.980944   2.94115 255 255 255
-0.101945 -0.932935   2.63111 255 255 255
-0.182913 -0.869373   2.48734 255 255 255
-0.413761 -0.830412   2.43566 255 255 255
 0.175988 -0.625336   2.44272 255 255 255
 0.158675 -0.598632   2.41324 255 255 255
 0.300152 -0.582031   2.49894 255 255 255
-0.474484 -0.888759   2.48109 255 255 255
 0.221795 -0.799397   2.69253 255 255 255
-0.0735507  -0.819351    2.48179 255 255 255
0.00456311   -0.86099    2.59753 255 255 255
 0.536538 -0.586359   2.53473 255 255 255
 0.165085 -0.908078   2.74781 255 255 255
 0.27876 -1.08187  3.04209 255 255 255
-0.295268 -0.863154   2.46407 255 255 255
-0.133815 -0.785253   2.44214 255 255 255
0.322819  -0.8976  2.81546 255 255 255
  0.22403 -0.929717    2.8353 255 255 255
 0.31098 -1.00397  2.98848 255 255 255
-0.415054 -0.803406   2.41363 255 255 255
-0.0895129  -0.884558    2.57989 255 255 255
 0.637967 -0.688718   2.93436 255 255 255
   0.2989 -0.726648   2.57437 255 255 255
 0.204126 -0.648028   2.41061 255 255 255
-0.264976 -0.905133   2.44408 255 255 255
-0.225237 -0.869684   2.43633 255 255 255
-0.195204 -0.696457   2.34166 255 255 255
 0.373872 -0.520172   2.51583 255 255 255
-0.534005 -0.936625   2.52114 255 255 255
 0.155575 -0.593197   2.41297 255 255 255
-0.386193  -0.76173   2.37734 255 255 255
-0.439803 -0.787979   2.39491 255 255 255
 0.262641 -0.592372   2.48216 255 255 255
-0.527802 -0.876585   2.46516 255 255 255
 0.346516 -0.791344   2.76552 255 255 255
0.0459669 -0.995674   2.77419 255 255 255
-0.089051 -0.816548   2.47557 255 255 255
 0.243672 -0.997555   2.92781 255 255 255
 0.398719 -0.551401   2.56655 255 255 255
-0.459803 -0.830682   2.43175 255 255 255
-0.0454192   -1.04193     2.8373 255 255 255
 0.235263 -0.560537   2.43924 255 255 255
  0.19725 -0.610714   2.45083 255 255 255
 -0.11205 -0.763898   2.42228 255 255 255
 0.265054 -0.565963   2.32749 255 255 255
 0.334108 -0.698102   2.66666 255 255 255
-0.0841832  -0.803443    2.46539 255 255 255
-0.463589 -0.874683   2.47142 255 255 255
-0.0443047  -0.922435    2.63059 255 255 255
0.323551 -1.02228  2.99556 255 255 255
-0.215997 -0.742235   2.37529 255 255 255
-0.261766  -0.81799   2.43094 255 255 255
-0.055406  -1.04895   2.84336 255 255 255
-0.166784 -0.682871   2.34466 255 255 255
 0.301283 -0.842255   2.78221 255 255 255
 0.460122 -0.528609   2.59761 255 255 255
0.230003 -1.00292  2.93007 255 255 255
 0.19886 -1.01378  2.91745 255 255 255
 0.450378 -0.588567   2.48731 255 255 255
 0.438657 -0.521256   2.58482 255 255 255
-0.17838 -0.74854  2.39012 255 255 255
0.220876  -0.6177  2.47264 255 255 255
-0.179483 -0.720901   2.36797 255 255 255
-0.372836 -0.810554   2.42259 255 255 255
 0.257055 -0.866915   2.73623 255 255 255
-0.0150736   -1.01454    2.79985 255 255 255
0.149974 -0.94644  2.80888 255 255 255
-0.0183749  -0.931751    2.66538 255 255 255
0.269154 -1.03134  2.98715 255 255 255
 0.498458 -0.541309    2.6617 255 255 255
 -0.41654 -0.894486   2.49162 255 255 255
-0.192678 -0.787251   2.42182 255 255 255
0.626109 -0.59463  2.82254 255 255 255
0.0894434 -0.928855   2.72307 255 255 255
 0.365551 -0.785085   2.79352 255 255 255
-0.288403 -0.818158   2.42875 255 255 255
-0.088074 -0.857856   2.51019 255 255 255
-0.367126  -1.00157     2.492 255 255 255
 0.303984 -0.621774   2.42195 255 255 255
 0.595275 -0.704874   2.70139 255 255 255
 -0.32851 -0.719474   2.34671 255 255 255
-0.308327 -0.979019   2.53343 255 255 255
-0.228119 -0.888351   2.43306 255 255 255
-0.192228 -0.771103   2.40896 255 255 255
-0.0721212  -0.742562    2.41203 255 255 255
-0.473239 -0.856995   2.45376 255 255 255
0.362141 -1.08443  3.09816 255 255 255
0.0956254  -0.69626   2.47297 255 255 255
 0.231005 -0.566231   2.31267 255 255 255
 0.299878 -0.866772   2.81753 255 255 255
 0.664835 -0.622456   2.87821 255 255 255
 0.577502 -0.674084   2.88025 255 255 255
  0.17397 -0.747672   2.53467 255 255 255
-0.114662 -0.926393   2.60896 255 255 255
-0.000423073    -0.872767      2.60488 255 255 255
 0.252229 -0.595973   2.47834 255 255 255
-0.249165 -0.881883    2.4472 255 255 255
 0.557607 -0.640024   2.81278 255 255 255
  0.57475 -0.591455   2.73468 255 255 255
0.491653 -0.49731  2.61247 255 255 255
0.0804008 -0.940598   2.72231 255 255 255
-0.283117 -0.833847   2.44411 255 255 255
-0.405565 -0.783544   2.39579 255 255 255
0.0748659 -0.986928   2.77844 255 255 255
-0.106666 -0.890833   2.57892 255 255 255
 0.509581 -0.535665   2.66904 255 255 255
0.164333 -1.01551  2.90771 255 255 255
-0.206172 -0.753944   2.38788 255 255 255
-0.225786 -0.711746   2.34527 255 255 255
-0.114295 -0.684355   2.35624 255 255 255
0.0537459 -0.723274   2.47773 255 255 255
 0.314749 -0.574207   2.50741 255 255 255
 0.158805 -0.521517   2.25587 255 255 255
-0.170919 -0.852617   2.48009 255 255 255
 0.235487 -0.603732   2.36071 255 255 255
 0.274621 -0.543546    2.4598 255 255 255
 0.299183 -0.610192   2.53684 255 255 255
-0.148822  -0.75242   2.40252 255 255 255
0.234272 -0.57616   2.3409 255 255 255
0.521455 -0.56545  2.50726 255 255 255
-0.0475893  -0.869343    2.57894 255 255 255
-0.273528 -0.829742   2.44058 255 255 255
 -0.20179 -0.759879   2.39397 255 255 255
 -0.16072 -0.739777   2.38893 255 255 255
 0.308366 -0.575598   2.50349 255 255 255
 0.313747 -0.813942   2.69135 255 255 255
-0.258697 -0.735478   2.35782 255 255 255
0.0411946 -0.919734   2.68808 255 255 255
 0.690958 -0.786141   2.97448 255 255 255
 0.482954 -0.680048   2.73355 255 255 255
 0.202599 -0.892669   2.76574 255 255 255
-0.0885971  -0.976784    2.70088 255 255 255
-0.331683 -0.730781   2.35634 255 255 255
  0.65442 -0.816695   2.98353 255 255 255
-0.210798 -0.771322   2.40263 255 255 255
-0.199144 -0.734518   2.37404 255 255 255
-0.175572 -0.684225   2.34013 255 255 255
 0.215224 -0.799313   2.63549 255 255 255
-0.340202 -0.833543   2.42855 255 255 255
0.0320799  -0.78742   2.51308 255 255 255
-0.120132 -0.746505   2.40452 255 255 255
0.0859609 -0.639173   2.40348 255 255 255
 0.422457 -0.710494   2.76031 255 255 255
 0.127138 -0.880118   2.69399 255 255 255
-0.136531 -0.688495   2.35555 255 255 255
-0.309265  -0.97278   2.52107 255 255 255
 0.357703 -0.683776   2.66652 255 255 255
-0.0206834   -0.83424    2.55616 255 255 255
-0.100366 -0.898725    2.6022 255 255 255
 0.517706 -0.671646   2.67928 255 255 255
0.0749104  -0.56133   2.23498 255 255 255
-0.284554  -1.01963   2.67545 255 255 255
-0.139491 -0.734087   2.38896 255 255 255
 -0.20595 -0.783987   2.41852 255 255 255
 0.283806 -0.797415   2.64934 255 255 255
-0.414666 -0.880104    2.4778 255 255 255
-0.0600749   -0.90757    2.62844 255 255 255
-0.358675 -0.870392   2.46137 255 255 255
-0.0888126  -0.752519    2.41722 255 255 255
-0.126756 -0.772561   2.42473 255 255 255
-0.0483455  -0.929044    2.63582 255 255 255
-0.466506 -0.933174   2.52292 255 255 255
-0.173335 -0.942149   2.49397 255 255 255
0.306552 -1.10713  3.09539 255 255 255
-0.12714 -1.00703  2.71822 255 255 255
-0.160278 -0.730608   2.38211 255 255 255
 0.222345 -0.664441   2.54408 255 255 255
-0.169173 -0.773191   2.41577 255 255 255
 0.411365 -0.502536   2.52435 255 255 255
  0.26519 -0.860201   2.76164 255 255 255
0.0288524 -0.930433    2.6918 255 255 255
-0.200441 -0.755298   2.38963 255 255 255
 0.235492 -0.996218   2.93091 255 255 255
-0.303068 -0.970648   2.52263 255 255 255
 0.327577 -0.890883   2.82099 255 255 255
-0.0551249  -0.858685    2.56924 255 255 255
 0.239435 -0.619774   2.48081 255 255 255
-0.142747 -0.955647   2.64964 255 255 255
-0.534065 -0.873346   2.45587 255 255 255
-0.128287 -0.768197   2.42233 255 255 255
 0.447839 -0.701735   2.73422 255 255 255
-0.544193  -0.86871    2.4579 255 255 255
 0.158569 -0.634121   2.43626 255 255 255
0.101663 -1.02819  2.87585 255 255 255
-0.191265 -0.748368   2.38614 255 255 255
0.0355963 -0.832491   2.59188 255 255 255
-0.436887 -0.878497   2.47549 255 255 255
  0.15695 -0.604423   2.42074 255 255 255
 0.325246 -0.567797   2.49866 255 255 255
-0.206379 -0.748699   2.38456 255 255 255
-0.192105 -0.724889   2.36661 255 255 255
0.305519 -1.09588  3.07932 255 255 255
0.0296467 -0.992141   2.78553 255 255 255
-0.423829 -0.888619   2.48589 255 255 255
0.251981 -1.03454  2.98423 255 255 255
0.278977 -0.52877  2.43562 255 255 255
0.0567541 -0.902694   2.67246 255 255 255
-0.183824 -0.744785   2.38658 255 255 255
-0.184941 -0.773183   2.41023 255 255 255
 0.153402 -0.601205   2.41319 255 255 255
0.0761907 -0.673442   2.44093 255 255 255
 0.581773 -0.645671   2.77659 255 255 255
-0.466102 -0.862283   2.45916 255 255 255
 0.468586 -0.529464   2.62231 255 255 255
-0.0934271  -0.929362    2.63043 255 255 255
-0.277055 -0.724803   2.34194 255 255 255
0.0745665 -0.910931    2.6945 255 255 255
 0.439188 -0.547138    2.5968 255 255 255
-0.477807   -0.8772   2.47073 255 255 255
 0.376193 -0.515112   2.51584 255 255 255
0.602151 -0.75638  2.87376 255 255 255
 -0.17425 -0.790291   2.43037 255 255 255
   0.2599 -0.573962   2.46198 255 255 255
 0.185427 -0.784774   2.58818 255 255 255
-0.410082 -0.795886   2.40647 255 255 255
-0.228388 -0.777333   2.39135 255 255 255
 0.194078 -0.653623   2.50024 255 255 255
 0.712784 -0.748519   3.06296 255 255 255
-0.0913156  -0.823718    2.48218 255 255 255
 0.397732 -0.575313   2.42882 255 255 255
 0.313017 -0.568125   2.49908 255 255 255
-0.106533 -0.840335   2.49288 255 255 255
-0.408764 -0.845056   2.44903 255 255 255
0.290375 -1.04489  3.01202 255 255 255
 0.268538 -0.853838   2.76711 255 255 255
-0.0847364  -0.717324    2.38902 255 255 255
 0.235828 -0.715933    2.5394 255 255 255
-0.303183 -0.886099   2.47381 255 255 255
 0.146336 -0.985539   2.87011 255 255 255
 0.627705 -0.713555   2.95729 255 255 255
-0.0125091   -1.02432    2.81889 255 255 255
-0.101698    -0.892   2.58455 255 255 255
-0.367055  -1.03501   2.54085 255 255 255
 0.281906 -0.822536   2.72044 255 255 255
0.049376 -1.01661   2.7969 255 255 255
 -0.33113 -0.894492     2.481 255 255 255
0.0231776  -0.97843   2.76646 255 255 255
0.214134 -0.67459  2.54991 255 255 255
-0.0861419  -0.893141    2.59812 255 255 255
 0.314378 -0.985032   2.94859 255 255 255
-0.0989061  -0.825829    2.48142 255 255 255
0.0310048 -0.968994   2.73374 255 255 255
 0.183635 -0.697161   2.47415 255 255 255
   0.1084 -0.885133   2.69024 255 255 255
-0.515285 -0.988568   2.56905 255 255 255
 0.316422 -0.718959   2.66744 255 255 255
-0.152088 -0.748411   2.39963 255 255 255
-0.226662 -0.755775   2.38295 255 255 255
 -0.43997 -0.884746   2.48171 255 255 255
 0.634182 -0.682152   2.93351 255 255 255
-0.155618 -0.959911   2.61839 255 255 255
-0.288394 -0.864581   2.47292 255 255 255
-0.356776 -0.730214    2.3574 255 255 255
-0.0861996   -0.91282    2.61984 255 255 255
-0.0847167  -0.720267    2.39937 255 255 255
-0.00666588   -0.701729      2.4151 255 255 255
 0.358025 -0.888988    2.8261 255 255 255
-0.228876 -0.796934   2.42312 255 255 255
 0.619766 -0.580492   2.80292 255 255 255
 0.437834 -0.690464   2.75782 255 255 255
0.172804  -1.0267  2.91454 255 255 255
  0.36061 -0.764722   2.76831 255 255 255
 0.101088 -0.891159    2.6898 255 255 255
-0.235793 -0.751381   2.37532 255 255 255
 -0.23028 -0.921696   2.44187 255 255 255
 0.368731 -0.520294   2.50911 255 255 255
-0.0137228  -0.818914    2.53797 255 255 255
0.0261265 -0.771953   2.51772 255 255 255
-0.151205 -0.778916   2.42803 255 255 255
 0.309804 -0.605576   2.53459 255 255 255
-0.204533 -0.738003   2.37617 255 255 255
-0.107758 -0.813328   2.46688 255 255 255
 0.154188 -0.625326   2.42848 255 255 255
 0.189223 -0.981928   2.88421 255 255 255
0.101117 -1.05328  2.90947 255 255 255
0.0266099  -1.00174   2.76335 255 255 255
0.287524  -1.0798  3.04672 255 255 255
 0.277789 -0.846901   2.76402 255 255 255
0.0540148 -0.953268   2.72339 255 255 255
0.0648819 -0.993406   2.77209 255 255 255
-0.0428906  -0.998949    2.77142 255 255 255
 0.253896 -0.605679   2.48124 255 255 255
-0.139057 -0.866215   2.49371 255 255 255
-0.362832  -0.74319   2.36266 255 255 255
-0.0641065  -0.714561    2.39797 255 255 255
0.00647105  -0.748652    2.45465 255 255 255
 0.301823 -0.573813   2.50044 255 255 255
-0.105807 -0.817579   2.46317 255 255 255
 0.201508 -0.648936   2.50036 255 255 255
 0.277574 -0.841953   2.76109 255 255 255
-0.304135 -0.881596   2.46503 255 255 255
 0.346959 -0.540143   2.50007 255 255 255
0.0315079 -0.757701   2.50374 255 255 255
-0.166144 -0.768882   2.41286 255 255 255
-0.139551 -0.974383   2.63963 255 255 255
-0.114526 -0.952939   2.64773 255 255 255
-0.0208909   -0.82197    2.53457 255 255 255
-0.0998072  -0.741589    2.40622 255 255 255
-0.242792 -0.809787   2.43215 255 255 255
-0.0969056   -0.96943    2.65826 255 255 255
-0.0781754  -0.900219    2.59743 255 255 255
  0.29331 -0.569713   2.49394 255 255 255
-0.0796206  -0.895889    2.59333 255 255 255
 0.219715 -0.560487   2.43462 255 255 255
-0.195476 -0.769192   2.40141 255 255 255
0.0381661 -0.675265   2.40699 255 255 255
-0.224679 -0.766438   2.39491 255 255 255
-0.182348 -0.780735   2.42224 255 255 255
 0.227746 -0.657627   2.53877 255 255 255
 0.468571 -0.547475   2.64064 255 255 255
-0.204084  -0.76411   2.39273 255 255 255
0.0786569 -0.713191   2.48886 255 255 255
-0.0547646  -0.715469    2.40472 255 255 255
 0.670304 -0.678964    2.8712 255 255 255
 0.319612 -0.893356    2.8183 255 255 255
-0.178987 -0.797735   2.43127 255 255 255
-0.200662 -0.749404   2.38407 255 255 255
-0.0722508  -0.715164    2.39552 255 255 255
-0.221569 -0.918196   2.44745 255 255 255
-0.259411 -0.811585   2.42773 255 255 255
-0.0191857  -0.985621    2.72766 255 255 255
-0.156709 -0.732999   2.38453 255 255 255
-0.229026 -0.917161   2.44203 255 255 255
0.0538885 -0.898214   2.67197 255 255 255
-0.0780499  -0.707613    2.38966 255 255 255
 0.212513 -0.643921   2.41751 255 255 255
0.0383401  -0.78115   2.53419 255 255 255
-0.427813 -0.771793   2.37782 255 255 255
-0.134421 -0.937001    2.6066 255 255 255
-0.252614 -0.808193   2.42672 255 255 255
0.0794208 -0.896937   2.68656 255 255 255
-0.143214 -0.767176   2.41732 255 255 255
-0.0153291  -0.840502    2.56763 255 255 255
 0.450122 -0.525707   2.58886 255 255 255
-0.0966524  -0.887391    2.57887 255 255 255
-0.271695  -0.84189    2.4499 255 255 255
 0.405644 -0.516854    2.5372 255 255 255
 0.115033 -0.885178   2.69468 255 255 255
 0.488439 -0.734823    2.8337 255 255 255
-0.265576 -0.825641   2.44126 255 255 255
-0.0347705  -0.933128    2.65642 255 255 255
-0.0615552   -0.85552    2.56173 255 255 255
-0.243769 -0.878219   2.45718 255 255 255
-0.246536 -0.900923   2.43382 255 255 255
-0.125093 -0.921029    2.5964 255 255 255
0.278361 -1.11948  3.08552 255 255 255
0.0149249 -0.878743   2.62039 255 255 255
-0.375987 -0.995105   2.48664 255 255 255
 0.340461 -0.995522   2.97576 255 255 255
-0.0858198  -0.932539     2.6189 255 255 255
-0.0780914   -0.72026    2.39958 255 255 255
0.0247565  -0.79678   2.53574 255 255 255
 0.471254 -0.569295   2.65813 255 255 255
 0.184727 -0.775523    2.6275 255 255 255
 0.177872 -0.739552   2.58546 255 255 255
0.0907213 -0.910261   2.70601 255 255 255
-0.00353074   -0.859666     2.59412 255 255 255
-0.253076 -0.804447   2.42021 255 255 255
-0.377582 -0.905807   2.48585 255 255 255
0.325342 -1.08325   3.0714 255 255 255
 -0.21316 -0.789562   2.41968 255 255 255
-0.0576054  -0.712386    2.40021 255 255 255
-0.170162 -0.733033   2.38201 255 255 255
0.364314 -0.55421  2.54358 255 255 255
-0.196376 -0.776439   2.41078 255 255 255
-0.135623 -0.862823   2.49108 255 255 255
0.033779 -1.02372  2.80274 255 255 255
-0.275023 -0.846298   2.45608 255 255 255
-0.180757 -0.761319   2.39913 255 255 255
0.0170834 -0.971509   2.72933 255 255 255
 0.024887 -0.813288   2.55519 255 255 255
-0.118366  -0.88501   2.52062 255 255 255
-0.0939281  -0.762703     2.4294 255 255 255
-0.361525 -0.958621   2.47772 255 255 255
  0.34778 -0.735152   2.71972 255 255 255
-0.173397 -0.764887   2.40657 255 255 255
-0.105694 -0.985571   2.70763 255 255 255
 0.154046 -0.635777   2.43586 255 255 255
-0.0675963  -0.913004    2.60708 255 255 255
0.0757174 -0.944429   2.72337 255 255 255
0.297335 -1.02113  2.99322 255 255 255
0.413322 -0.56211  2.58334 255 255 255
-0.154588 -0.773443   2.41834 255 255 255
0.357793 -0.51872  2.50121 255 255 255
-0.445005 -0.911221   2.50576 255 255 255
-0.0945357  -0.909991     2.5991 255 255 255
-0.128879 -0.752818   2.40765 255 255 255
-0.166679 -0.734614   2.38218 255 255 255
-0.126581 -0.686924   2.35982 255 255 255
 0.31749 -1.01022  2.98713 255 255 255
  0.3375 -1.12584  3.12848 255 255 255
0.0816742 -0.788304   2.55138 255 255 255
0.0642331   0.56907   1.59241 255 255 255
-0.12017 0.079553  1.84797 255 255 255
-0.0639021   0.469885     1.6657 255 255 255
-0.208431  0.327774   1.78575 255 255 255
0.0719885  0.497433   1.66129 255 255 255
-0.0185418    0.30308     1.7657 255 255 255
-0.311944  0.148678    1.8729 255 255 255
0.00243396   0.236351    1.76727 255 255 255
-0.294545  0.674871   1.62969 255 255 255
-0.557507  0.518687   1.77569 255 255 255
-0.00941937    0.488076     1.68869 255 255 255
-0.248507  0.437793   1.72674 255 255 255
-0.0675799  0.0748665     1.8355 255 255 255
-0.223983 0.0725109   1.88891 255 255 255
-0.32116 0.225392   1.8488 255 255 255
-0.0921949   0.263783    1.79267 255 255 255
0.0530123  0.460895   1.65527 255 255 255
0.0236442   0.46892   1.70175 255 255 255
-0.175712 -0.019155   1.90482 255 255 255
-0.222004 0.0264402   1.89644 255 255 255
-0.233405  0.158168   1.86152 255 255 255
-0.0260101   0.257558    1.77925 255 255 255
-0.272848  0.539401   1.71508 255 255 255
0.0131462  0.279074   1.75957 255 255 255
-0.221037  0.195295   1.86682 255 255 255
0.0531569  0.723932   1.53252 255 255 255
-0.531194  0.496077   1.79676 255 255 255
0.112098 0.497019  1.64857 255 255 255
-0.0201995   0.693416    1.56806 255 255 255
-0.0135531   0.227065    1.78331 255 255 255
-0.0629741   0.201647    1.78296 255 255 255
-0.193301  0.185548     1.851 255 255 255
-0.0717983  0.0343108    1.85989 255 255 255
-0.0612523   0.782521    1.53552 255 255 255
0.0815749  0.528598   1.66017 255 255 255
-0.215734  0.256602   1.82014 255 255 255
0.138307 0.559824  1.63625 255 255 255
0.178488 0.395892  1.63049 255 255 255
-0.0732843   0.295923    1.78096 255 255 255
0.0249047  0.704116   1.54572 255 255 255
-0.266441  0.170081   1.88123 255 255 255
 -0.144189 -0.0205033    1.88185 255 255 255
-0.154945  0.279275   1.81026 255 255 255
-0.0529884   0.276853    1.77237 255 255 255
0.173893 0.490479  1.63568 255 255 255
0.174482 0.570421  1.63098 255 255 255
-0.641154   0.68282    1.7158 255 255 255
0.225079 0.507961  1.61321 255 255 255
-0.53486 0.342851  1.89113 255 255 255
-0.14791 0.104965  1.86067 255 255 255
-0.27814 0.310786  1.81752 255 255 255
-0.482429   0.20512   1.93947 255 255 255
0.195395 0.560031  1.61609 255 255 255
0.146722 0.404709  1.62932 255 255 255
-0.169501 0.0572718   1.87139 255 255 255
-0.606917  0.387363   1.88178 255 255 255
0.0986681  0.418351   1.68414 255 255 255
0.234859 0.412511  1.61433 255 255 255
-0.0861243   0.281885    1.77663 255 255 255
-0.16498  0.36382  1.77044 255 255 255
-0.526788  0.374158   1.86306 255 255 255
-0.564635  0.506137   1.77682 255 255 255
-0.26644 0.291354  1.83624 255 255 255
-0.233144  0.660783   1.66917 255 255 255
-0.143324  0.378209   1.76302 255 255 255
-0.124384  0.389358   1.75691 255 255 255
-0.475829  0.738812   1.64179 255 255 255
-0.260944  0.195226   1.87131 255 255 255
 0.17073 0.542775  1.63529 255 255 255
-0.126061  0.703862    1.6197 255 255 255
-0.299949  0.304368   1.83047 255 255 255
-0.121097  0.104685   1.84985 255 255 255
-0.0118426   0.790305    1.49514 255 255 255
-0.25353 0.654006  1.67148 255 255 255
-0.646453  0.460034   1.84753 255 255 255
-0.27749 0.565279  1.69174 255 255 255
-0.586807  0.210976   2.02513 255 255 255
-0.542643  0.479941   1.79123 255 255 255
0.0830028  0.432354   1.69221 255 255 255
-0.446473  0.388357   1.83454 255 255 255
0.0821129  0.415168   1.68721 255 255 255
0.161732 0.493482   1.6474 255 255 255
-0.021465  0.657462   1.58099 255 255 255
-0.175779  0.119219   1.86362 255 255 255
-0.546986  0.192532   2.01605 255 255 255
0.173646 0.357246  1.68346 255 255 255
-0.628682  0.658432   1.72545 255 255 255
-0.359499  0.536894   1.74093 255 255 255
-0.670615  0.613553   1.76575 255 255 255
-0.037321  0.250496   1.78572 255 255 255
-0.312122  0.316257     1.827 255 255 255
-0.0553935   0.288522    1.77212 255 255 255
-0.143182  0.298805   1.78712 255 255 255
-0.62808 0.299042  1.90692 255 255 255
-0.299216   0.10221   1.91013 255 255 255
-0.119209  0.234551    1.8054 255 255 255
 0.31335 0.561484  1.58274 255 255 255
0.0649368  0.423316   1.69301 255 255 255
-0.458693  0.441188   1.80096 255 255 255
-0.13419 0.223165  1.81759 255 255 255
-0.353542  0.549803   1.74066 255 255 255
-0.175261  0.374265   1.76786 255 255 255
-0.0753117   0.260914    1.78433 255 255 255
-0.100996    0.1111   1.84036 255 255 255
0.0615702  0.511531   1.66724 255 255 255
0.102995 0.528134  1.64923 255 255 255
-0.216973  0.165112    1.8556 255 255 255
0.00822656   0.310716    1.74082 255 255 255
-0.228343  0.103105    1.8895 255 255 255
-0.299784 0.0802092   1.91603 255 255 255
-0.0662251   0.285644    1.77354 255 255 255
-0.0983278   0.309533    1.77561 255 255 255
0.206528 0.519539  1.63163 255 255 255
-0.0219455   0.285544    1.76456 255 255 255
0.240485 0.740703   1.5075 255 255 255
0.208611 0.545016  1.63532 255 255 255
0.0228799  0.219259   1.77799 255 255 255
-0.111375  0.225268   1.81411 255 255 255
-0.0267193  0.0718148    1.83714 255 255 255
0.147593 0.542087  1.61782 255 255 255
-0.0542774   0.831864    1.54391 255 255 255
-0.246824  0.659015   1.66643 255 255 255
-0.0444314   0.276461    1.77242 255 255 255
-0.180419 0.0981353   1.85859 255 255 255
-0.548658  0.356633   1.87603 255 255 255
-0.112658  0.702449   1.62207 255 255 255
0.0395348  0.495209   1.68285 255 255 255
-0.653059  0.583653   1.77108 255 255 255
-0.0184066   0.276836    1.77032 255 255 255
-0.468539  0.464258   1.79512 255 255 255
-0.359011  0.599312   1.72486 255 255 255
-0.00560264    0.269756     1.77143 255 255 255
0.126862 0.455783  1.65745 255 255 255
-0.248014 0.0335037   1.90311 255 255 255
0.0306723 0.0772497   1.80414 255 255 255
-0.0883556   0.289725    1.78478 255 255 255
-0.428575  0.128334   1.95412 255 255 255
 0.10889 0.439869   1.6733 255 255 255
-0.165472   0.26061   1.82208 255 255 255
-0.162964  0.201694   1.82977 255 255 255
-0.13321 0.210405  1.82254 255 255 255
-0.0612052   0.120606    1.81724 255 255 255
-0.097651  0.237231   1.80411 255 255 255
0.118726 0.448237  1.67435 255 255 255
-0.0414471   -0.05799    1.87383 255 255 255
0.0103165  0.189836   1.78358 255 255 255
 -0.064633 -0.0624879    1.88171 255 255 255
-0.115699  0.297594   1.79574 255 255 255
0.188797 0.530732  1.63431 255 255 255
-0.0963391   0.207663    1.81499 255 255 255
0.0285269  0.454082   1.64125 255 255 255
0.0212672  0.306211   1.74906 255 255 255
-0.153624  0.197797    1.8356 255 255 255
 -0.165287 -0.0822547    1.91202 255 255 255
 -0.274698 0.00584218    1.91345 255 255 255
-0.57552 0.603926  1.73889 255 255 255
0.131826 0.529568  1.62607 255 255 255
-0.112942  0.105222     1.844 255 255 255
-0.106078  0.125428   1.84162 255 255 255
-0.289257 0.0748224   1.91829 255 255 255
-0.126842  0.183088   1.83484 255 255 255
-0.0548288   0.300505     1.7724 255 255 255
0.181711 0.506241  1.63868 255 255 255
0.175924 0.501726  1.64549 255 255 255
-0.185262  0.183651   1.84713 255 255 255
0.0043988  0.462024   1.69877 255 255 255
-0.0860572   0.253835    1.79005 255 255 255
-0.0454361   0.441187    1.71696 255 255 255
0.104387 0.313071  1.70138 255 255 255
-0.0105292   0.259664    1.77663 255 255 255
-0.246129 0.0959006    1.8894 255 255 255
0.189311  0.49941  1.63052 255 255 255
-0.114294  0.197188   1.82336 255 255 255
0.0297186  0.272832   1.75215 255 255 255
0.236114 0.516339  1.61148 255 255 255
-0.113536  0.205556   1.82041 255 255 255
-0.0671869   0.327976    1.77049 255 255 255
0.00451056   0.205738    1.78737 255 255 255
-0.0239578   0.295265    1.76584 255 255 255
-0.250903  0.171973   1.87411 255 255 255
-0.616747   0.48923   1.81998 255 255 255
0.0498271  0.383781   1.71766 255 255 255
 -0.1514 0.164171  1.84541 255 255 255
0.199149 0.507706  1.62742 255 255 255
-0.282053 0.0615371   1.91666 255 255 255
0.154317 0.346682  1.64823 255 255 255
-0.196276  0.113193   1.86605 255 255 255
-0.167345 0.0723866   1.86932 255 255 255
-0.135737   0.43867   1.73133 255 255 255
0.0930018  0.493253   1.65218 255 255 255
-0.100924 0.0885759   1.82919 255 255 255
-0.230455    0.3358   1.80962 255 255 255
-0.247538  0.071868   1.89022 255 255 255
-0.0929195   0.119272    1.83302 255 255 255
-0.137697  0.742323   1.60257 255 255 255
-0.626556  0.349081   1.91716 255 255 255
-0.0064872   0.791819     1.4963 255 255 255
-0.142393  0.165105   1.83989 255 255 255
-0.0234654   0.302462    1.76582 255 255 255
0.0969195  0.534414   1.64446 255 255 255
0.0132844  0.316761   1.74685 255 255 255
-0.181558  0.141662   1.86287 255 255 255
-0.293647  0.307886    1.8211 255 255 255
0.240289 0.593743  1.59623 255 255 255
-0.248914  0.381258   1.77968 255 255 255
-0.0235187  0.0778343    1.84166 255 255 255
-0.241324  0.171732   1.86982 255 255 255
0.010404 0.200565  1.77836 255 255 255
-0.0359539   0.238408     1.7862 255 255 255
-0.240447 0.0396221   1.89613 255 255 255
-0.0861119   0.125599    1.82935 255 255 255
-0.0755872     0.1327    1.82467 255 255 255
-0.323058  0.280693   1.85674 255 255 255
-0.295011 0.0629592    1.9177 255 255 255
-0.148039   0.25414   1.81977 255 255 255
-0.420822  0.296972   1.85464 255 255 255
-0.0702665   0.224318    1.80104 255 255 255
-0.247585  0.123632   1.87926 255 255 255
 -0.149327 -0.0963246    1.93217 255 255 255
-0.0515611   0.144582    1.81545 255 255 255
-0.127691  0.173837    1.8369 255 255 255
-0.168786  0.198562   1.83154 255 255 255
-0.163965  0.344104   1.76573 255 255 255
  2.14116   3.67149 -0.255847 255 255 255
  2.45269   3.55052 -0.281773 255 255 255
  2.55032   3.62701 -0.248403 255 255 255
  2.47085   3.38309 -0.208175 255 255 255
   2.0969   3.60976 -0.265691 255 255 255
 2.17453  3.58769 -0.30869 255 255 255
  2.19722   3.55431 -0.256834 255 255 255
  2.69148   3.63189 -0.166835 255 255 255
  2.44739   3.33935 -0.219512 255 255 255
  2.13558   3.61471 -0.312073 255 255 255
  2.54159   4.05778 -0.160541 255 255 255
  2.45315   3.28305 -0.240059 255 255 255
  2.42395   3.24103 -0.242001 255 255 255
