ply
format ascii 1.0
element vertex 1198
property float x
property float y
property float z
property uchar red
property uchar green
property uchar blue
end_header
-0.446467   1.82448   1.06194 255 255 255
-0.325647   1.69402   1.10918 255 255 255
0.00331076    1.45054    1.22432 255 255 255
0.139733  2.18829 0.671648 255 255 255
-0.0679834    1.77081    1.06971 255 255 255
0.87203 1.24491  1.0606 255 255 255
-0.0494933    1.96844    0.86412 255 255 255
0.031962  1.61944  1.15051 255 255 255
-0.161185      1.79  0.953076 255 255 255
-0.0966757    1.80834   0.930488 255 255 255
0.299342  2.06096 0.764643 255 255 255
-0.328991   1.54798   1.24678 255 255 255
0.0565022   1.64675   1.11275 255 255 255
-0.214975   1.72123    1.0613 255 255 255
0.493625   2.1032 0.736844 255 255 255
-0.0452126    2.05753   0.812789 255 255 255
0.945121    1.762 0.780861 255 255 255
0.294964  1.65761  1.08121 255 255 255
-0.207051   1.70712    1.0314 255 255 255
0.989929  1.38777 0.969822 255 255 255
0.783655  2.09059 0.723261 255 255 255
0.371042  1.60484  1.11689 255 255 255
-0.164521   1.72616   1.03442 255 255 255
0.0913895   1.51934   1.19047 255 255 255
0.0338131    1.4796   1.20114 255 255 255
 0.16798  1.92891 0.875556 255 255 255
0.169125  1.92934 0.874694 255 255 255
0.596339  1.18595  1.18068 255 255 255
0.674087  1.55739  1.00658 255 255 255
0.264169  1.23184   1.3443 255 255 255
0.817501  1.53783 0.956534 255 255 255
 1.09158  1.67017 0.705968 255 255 255
-0.31624  1.61397  1.12781 255 255 255
0.785921  1.60067 0.925303 255 255 255
0.652974  1.10557  1.13148 255 255 255
0.0752839   2.02072   0.74494 255 255 255
 0.5594  1.1962 1.23388 255 255 255
0.326004  1.19491  1.26725 255 255 255
-0.24342  1.62536  1.14821 255 255 255
0.364738  1.58241  1.15701 255 255 255
0.898281  1.42125 0.960092 255 255 255
0.003148  1.82634 0.988715 255 255 255
0.805445  1.42136  1.06522 255 255 255
 1.07583  1.67877 0.753866 255 255 255
0.314213  2.20275  0.69897 255 255 255
-0.537708    1.8017   1.12341 255 255 255
 1.15119  1.61085 0.719936 255 255 255
-0.0261486    1.99252   0.839715 255 255 255
0.272983  2.22277 0.673974 255 255 255
0.678407  1.26907  1.04516 255 255 255
0.0243757   1.97188  0.789232 255 255 255
0.284816  1.12855  1.24569 255 255 255
0.746713   1.8729 0.525776 255 255 255
0.395293  2.24023 0.662135 255 255 255
0.286624  2.14037 0.609807 255 255 255
0.0433531   1.87264   0.92006 255 255 255
0.727067  1.17906  1.10097 255 255 255
0.290871  2.17039 0.586752 255 255 255
 1.10629  1.69409 0.754899 255 255 255
0.593081  1.06666  1.25247 255 255 255
-0.233153   1.62416   1.15814 255 255 255
0.129731  1.48333   1.2477 255 255 255
-0.298326   1.71078   1.09104 255 255 255
0.293584  1.49284  1.16112 255 255 255
0.650719   1.9217 0.825726 255 255 255
0.760086  1.13209  1.05472 255 255 255
0.687236  2.16843 0.646916 255 255 255
-0.164239   1.69232   1.05462 255 255 255
0.657373  1.34546   1.1237 255 255 255
0.0974019   1.95502  0.766928 255 255 255
0.631791 0.943224   1.2807 255 255 255
0.937575  1.64609 0.867479 255 255 255
0.703326  2.09557 0.742056 255 255 255
0.282815  2.14644 0.717729 255 255 255
0.581909  2.21586 0.663505 255 255 255
-0.195037   1.65995   1.18708 255 255 255
0.117653  2.06529 0.702596 255 255 255
-0.131688   2.00636  0.808705 255 255 255
0.251051  1.62798  1.11124 255 255 255
0.823146  1.47567 0.945888 255 255 255
0.292845  1.68474  1.06479 255 255 255
 0.93379  1.85608 0.543671 255 255 255
0.171113  2.05316 0.786256 255 255 255
0.852496  1.94589 0.532749 255 255 255
0.605923 0.926416  1.31988 255 255 255
0.370693  1.29823  1.22316 255 255 255
0.0703542   2.08766  0.745729 255 255 255
0.413652  1.29918  1.17896 255 255 255
0.242377  2.15783 0.704027 255 255 255
0.282939  2.15212 0.631204 255 255 255
 1.02043   1.4848 0.796232 255 255 255
0.725868  2.14363 0.706232 255 255 255
0.391114  1.98447 0.833089 255 255 255
0.258819  2.12415 0.707112 255 255 255
-0.134739   2.05448  0.831373 255 255 255
0.891712   1.7903 0.759753 255 255 255
0.59102 1.22344 1.16974 255 255 255
0.558688  1.18334  1.29244 255 255 255
0.942953  1.23008  1.02967 255 255 255
-0.142286   1.70059   1.08678 255 255 255
-0.25052  1.86851 0.986946 255 255 255
0.472864  2.23452 0.681476 255 255 255
0.203603  2.11253 0.773231 255 255 255
0.224843  2.10947 0.733473 255 255 255
0.897518  1.78631 0.798278 255 255 255
 1.04271  1.41021 0.893957 255 255 255
0.558886  1.94245 0.781196 255 255 255
0.255846  2.09368 0.727931 255 255 255
0.797494  1.18903  1.12772 255 255 255
1.00793 1.56029 0.85255 255 255 255
-0.258542   1.66581   1.15308 255 255 255
0.959585  1.70336 0.834469 255 255 255
0.313277  1.66947  1.09011 255 255 255
0.889403  1.19243  1.02733 255 255 255
1.09873 1.68387 0.77481 255 255 255
0.431707  2.23385 0.701562 255 255 255
-0.0354185    1.83829   0.984172 255 255 255
0.45133 1.32185 1.15015 255 255 255
0.932315  1.56502 0.907229 255 255 255
0.471641  1.27286  1.22741 255 255 255
0.632684   1.3436   1.1315 255 255 255
 1.03622   1.7838 0.762905 255 255 255
0.774817  1.53012 0.966148 255 255 255
0.546921 0.876008   1.3868 255 255 255
0.639243  1.11537  1.27873 255 255 255
0.0385726    1.7745   1.03026 255 255 255
0.156987   1.5574  1.09237 255 255 255
0.970274  1.78287 0.716098 255 255 255
0.300029  2.02581 0.830167 255 255 255
0.45399 1.14209 1.28657 255 255 255
-0.244507    1.6381   1.14476 255 255 255
0.400592  1.59794  1.09509 255 255 255
-0.207418   1.98364  0.928738 255 255 255
0.638594   1.9276 0.819693 255 255 255
0.0383523    2.0205  0.785287 255 255 255
0.200435  1.92173  0.91498 255 255 255
0.517116  1.37475   1.1517 255 255 255
0.549138  1.16899  1.26522 255 255 255
 0.16697  2.11649 0.658264 255 255 255
0.729831  1.10509  1.13485 255 255 255
0.862862  1.87744 0.573671 255 255 255
0.239953  2.00497 0.803138 255 255 255
0.475627  1.92529 0.779821 255 255 255
0.279979  2.15331 0.615789 255 255 255
 1.13916  1.59975 0.739661 255 255 255
-0.0340128    1.93357   0.856039 255 255 255
0.525126  2.14604  0.70906 255 255 255
0.659864   1.2986  1.12651 255 255 255
-0.210178    1.9694  0.907341 255 255 255
-0.0811848    1.87051   0.888202 255 255 255
0.291439  2.04078  0.79257 255 255 255
0.206474  1.59195  1.07926 255 255 255
 1.04695  1.54039 0.852892 255 255 255
0.0350439   1.87347  0.913669 255 255 255
-0.221518   1.74366   1.01537 255 255 255
0.410575  1.80039 0.937905 255 255 255
0.431212  1.82452 0.912741 255 255 255
-0.267927   1.60705   1.17721 255 255 255
0.758313  1.47379   1.0184 255 255 255
0.230173  2.07655 0.760895 255 255 255
-0.154913   2.02829  0.837903 255 255 255
0.617002   2.0727 0.717973 255 255 255
0.0826602   1.94521  0.862272 255 255 255
0.580302  1.44579  1.09714 255 255 255
0.516641  1.61459  1.05214 255 255 255
0.852751  1.57071 0.926607 255 255 255
0.419667  2.23023 0.657823 255 255 255
0.093315  1.98608 0.740429 255 255 255
-0.358079   1.66323   1.13183 255 255 255
-0.0123618    1.84978   0.911817 255 255 255
0.295881  2.14024 0.672468 255 255 255
0.949858  1.70292 0.831909 255 255 255
0.30336 1.16966 1.25325 255 255 255
0.408525  2.25956 0.685468 255 255 255
0.332405  2.18107  0.63613 255 255 255
0.128981   1.9982 0.837196 255 255 255
0.430636  1.56389  1.11865 255 255 255
-0.138464   1.81349  0.926292 255 255 255
0.0631391   2.00952  0.756435 255 255 255
0.194924  2.02713 0.754439 255 255 255
0.345954  1.92991 0.865127 255 255 255
0.973304  1.52146 0.903196 255 255 255
-0.0328259    1.23167    1.42586 255 255 255
0.532698  2.15481 0.702456 255 255 255
-0.124307   1.61102   1.23783 255 255 255
0.985597  1.80001 0.745311 255 255 255
0.200957  1.92047 0.887806 255 255 255
-0.363163   1.90503  0.956582 255 255 255
0.607842  1.40868  1.09526 255 255 255
0.000268764     1.90971    0.868545 255 255 255
-0.021788    1.8325  0.976685 255 255 255
0.555799  1.42648  1.06616 255 255 255
0.762519  1.51832 0.984414 255 255 255
-0.072659   1.78519   1.02583 255 255 255
0.736274  1.22541  1.10291 255 255 255
0.247708  2.07618 0.786596 255 255 255
0.180172  2.04064 0.696557 255 255 255
0.376343  1.75338  1.00982 255 255 255
0.323942  2.19156 0.622989 255 255 255
-0.119657   1.82224  0.924076 255 255 255
0.361973  2.22099 0.634632 255 255 255
0.586964  1.89314 0.884936 255 255 255
-0.136767    1.7062   1.09488 255 255 255
-0.175242   1.80999  0.964369 255 255 255
0.783081  2.05695  0.73378 255 255 255
0.418393  2.22544 0.691612 255 255 255
0.378512  1.63529  1.09132 255 255 255
  1.0595  1.49611 0.881582 255 255 255
0.895768  1.78017 0.771981 255 255 255
-0.321231   1.84867   1.03666 255 255 255
-0.0514979    2.00966   0.841306 255 255 255
0.817403  1.30622  1.03581 255 255 255
-0.252289   1.71527   1.04898 255 255 255
0.313039  1.89459 0.898848 255 255 255
0.95142 1.76749  0.7799 255 255 255
0.201225  1.95717 0.844792 255 255 255
0.252936  1.63562   1.0793 255 255 255
-0.204632   1.79466    1.0055 255 255 255
0.276777  2.10007 0.760814 255 255 255
0.092716  2.11635 0.719538 255 255 255
-0.177373   1.84371  0.977355 255 255 255
-0.288966   1.74108   1.08014 255 255 255
-0.365288   1.76849   1.08968 255 255 255
0.667178  1.89863 0.827133 255 255 255
0.00287959    1.91187   0.822083 255 255 255
0.0317842   1.86338   0.97471 255 255 255
0.177497  2.14251 0.706302 255 255 255
0.787235  2.06455 0.724033 255 255 255
-0.0162967    1.71188    1.08643 255 255 255
0.345746  1.72303   1.0326 255 255 255
-0.00327396     1.80923     1.00682 255 255 255
0.681225  1.27437  1.10945 255 255 255
0.070889  1.49159  1.19369 255 255 255
-0.0130206    1.80687    1.02146 255 255 255
 1.04023   1.7591 0.760343 255 255 255
-0.299788   1.62873   1.08583 255 255 255
 0.27671  1.85763 0.933698 255 255 255
0.273286  1.66625  1.01395 255 255 255
0.519737 0.947084  1.39276 255 255 255
 0.42512  2.30802 0.623623 255 255 255
0.619239   1.4635  1.02289 255 255 255
0.325574  1.90858  0.88491 255 255 255
0.359675  2.12069 0.742184 255 255 255
0.663672  1.28048  1.07917 255 255 255
-0.149619   1.62379     1.188 255 255 255
-0.0564953    1.97465   0.856478 255 255 255
-0.0216912    1.83954   0.885901 255 255 255
0.631411 0.877543  1.33712 255 255 255
0.321491  1.67914   1.0935 255 255 255
0.111502  1.78972   1.0386 255 255 255
0.299648  1.78923 0.882434 255 255 255
-0.0932107    1.71849    1.10521 255 255 255
0.328846  1.62857  1.08863 255 255 255
0.456918  1.33616  1.16396 255 255 255
0.442282  1.11797  1.22512 255 255 255
  1.0181   1.8119 0.759954 255 255 255
0.42798 1.59248 1.10313 255 255 255
0.029926  1.88251 0.932367 255 255 255
0.0635774   1.80806   1.00133 255 255 255
0.595773 0.839704  1.36517 255 255 255
0.269635  1.79345 0.948469 255 255 255
0.225997  1.27715  1.37149 255 255 255
-0.267022   1.75229   1.05616 255 255 255
0.526926   1.4201   1.3321 255 255 255
0.339537  1.24196  1.26152 255 255 255
 0.61345  1.85841 0.859056 255 255 255
-0.313556   1.61874   1.14837 255 255 255
0.106865  2.11539 0.717931 255 255 255
 1.10989  1.68618 0.694119 255 255 255
0.782628  2.06647   0.7105 255 255 255
0.215747  2.16386 0.600765 255 255 255
0.42501 2.15444 0.74185 255 255 255
0.864737  1.81717 0.753018 255 255 255
0.737006  1.50026  1.01541 255 255 255
0.942365  1.44553 0.948432 255 255 255
0.335227  2.12766 0.715558 255 255 255
0.0954521   1.96733  0.799868 255 255 255
0.102549  1.96717 0.767118 255 255 255
0.747968   1.8621 0.544558 255 255 255
0.299436  1.43768  1.12673 255 255 255
0.973211    1.689 0.815215 255 255 255
0.617673  1.37782   1.1152 255 255 255
0.784483  1.13094  1.14985 255 255 255
 1.07651  1.49176 0.852844 255 255 255
0.966329  1.39604 0.964933 255 255 255
0.581497  1.87065  0.81648 255 255 255
0.452993  2.06814 0.787571 255 255 255
0.952016   1.5619 0.896468 255 255 255
0.085651  1.93819 0.872382 255 255 255
0.0867074   1.93874  0.871873 255 255 255
0.771144  1.39783 0.936891 255 255 255
-0.335151    1.9121  0.930391 255 255 255
0.39687 1.74917 1.00553 255 255 255
0.287523  1.33947  1.31043 255 255 255
0.622542   2.0818 0.722824 255 255 255
0.184793  2.07881 0.653527 255 255 255
0.0513662   1.30348   1.36856 255 255 255
-0.00586026     1.69652     1.10861 255 255 255
0.697819 0.858467  1.44465 255 255 255
-0.0635413    1.79388     1.0108 255 255 255
-0.117715   1.94909  0.903896 255 255 255
0.720967  1.15736  1.12433 255 255 255
-0.443777     1.841   1.08099 255 255 255
0.233684  1.57412  1.18751 255 255 255
-0.119593   1.66229   1.15731 255 255 255
-0.227822   1.91456  0.949985 255 255 255
-0.155478   1.92988  0.949652 255 255 255
0.0124014   1.90015  0.906465 255 255 255
0.396787  1.76989 0.989533 255 255 255
-0.243049   1.60928    1.1725 255 255 255
-0.310656   1.81771   1.04324 255 255 255
0.275909  1.45391    1.209 255 255 255
-0.120981   1.74553  0.970762 255 255 255
0.237323  1.98597 0.831791 255 255 255
 0.72817  2.11704 0.695382 255 255 255
-0.198341   1.93852  0.949565 255 255 255
0.885608  1.50968 0.917903 255 255 255
0.950175  1.65768 0.856178 255 255 255
0.389666  2.17906  0.68318 255 255 255
0.462385  1.05423  1.29486 255 255 255
0.360722  1.32998   1.2905 255 255 255
1.04671 1.77696 0.73454 255 255 255
0.275759  2.18025 0.691659 255 255 255
0.133921  1.98891 0.832515 255 255 255
-0.0835881    1.51819    1.26667 255 255 255
-0.0223627    2.00337   0.827641 255 255 255
0.894313  1.35844 0.964182 255 255 255
0.774198  1.07052   1.0808 255 255 255
-0.0526422    1.89423   0.868879 255 255 255
-0.175837    1.7747  0.968298 255 255 255
 1.07467  1.57125 0.801163 255 255 255
-0.451767    1.7977    1.0937 255 255 255
0.580762  1.98751 0.787082 255 255 255
0.794743  1.12883  1.11008 255 255 255
0.451546   1.8407 0.898929 255 255 255
0.0345117   1.85368  0.976025 255 255 255
-0.209747   1.70029   1.04436 255 255 255
-0.236029   1.64322   1.08073 255 255 255
0.423763  1.50485   1.1725 255 255 255
0.0556451   2.10467  0.752878 255 255 255
-0.126572   1.73611   1.06821 255 255 255
-0.335997   1.87408  0.990662 255 255 255
0.497015  1.85867 0.915789 255 255 255
0.885407  1.22955  1.07933 255 255 255
-0.130219   1.72759   1.02965 255 255 255
0.0865269   1.93563  0.847293 255 255 255
 1.12041  1.71598 0.749225 255 255 255
-0.0115228    1.46135    1.20951 255 255 255
0.59797 1.50581 1.13682 255 255 255
0.867879  1.96524 0.525876 255 255 255
0.209582   1.9647 0.843055 255 255 255
0.0867409   2.01205  0.732923 255 255 255
0.657432  2.01038 0.786123 255 255 255
0.0617262   1.48354    1.1884 255 255 255
0.806931  1.12853  1.13765 255 255 255
-0.0883294    1.75345    1.03928 255 255 255
 1.01374  1.50227 0.914249 255 255 255
0.629509  1.86575 0.853286 255 255 255
-0.103697   1.73918   1.11125 255 255 255
0.959491  1.72302 0.816694 255 255 255
0.918905  1.62751 0.900873 255 255 255
0.531864 0.850243  1.39359 255 255 255
0.430005  1.86344 0.824797 255 255 255
-0.278159   1.84503   1.01568 255 255 255
0.311005   1.4592  1.16401 255 255 255
-0.406613   1.76621   1.12935 255 255 255
0.149408  1.95628 0.868659 255 255 255
-0.145024   1.81938  0.946473 255 255 255
-0.00141513     1.92671    0.869364 255 255 255
0.757102  1.86046 0.533993 255 255 255
0.920096  1.65004 0.865668 255 255 255
0.419408  1.57927 0.994845 255 255 255
0.862857  1.82877 0.722388 255 255 255
 1.08501  1.75205 0.748646 255 255 255
-0.192952   1.98471  0.903597 255 255 255
0.466825  1.31648  1.10088 255 255 255
0.192355  2.05617 0.686291 255 255 255
0.450936  2.20638 0.692932 255 255 255
0.134429  1.96604 0.851134 255 255 255
0.0444833   2.10045  0.755043 255 255 255
0.437472  1.60746  1.07415 255 255 255
0.453307  1.83074 0.931185 255 255 255
-0.276761   1.88257  0.978155 255 255 255
 1.04529  1.43131 0.883491 255 255 255
0.0846839   1.95569  0.870247 255 255 255
0.575893 0.878373  1.39595 255 255 255
0.204168  1.93098 0.893189 255 255 255
0.29423   1.152 1.26917 255 255 255
-0.092773   1.80316  0.932218 255 255 255
0.823344  1.35406  1.00882 255 255 255
-0.193196   1.70548   1.08298 255 255 255
0.142354  2.15006 0.726942 255 255 255
0.156565  1.90455 0.933551 255 255 255
0.273394  2.06502  0.75992 255 255 255
0.00498043    1.44924     1.2628 255 255 255
0.621574  1.34517  1.13142 255 255 255
0.485594  1.86617 0.885029 255 255 255
0.927791  1.74728 0.792176 255 255 255
0.559196  1.91462 0.776341 255 255 255
 0.67511  2.07976 0.750871 255 255 255
0.981177   1.2947  1.01346 255 255 255
-0.275791   1.54019   1.23867 255 255 255
-0.0562823    1.68897    1.12834 255 255 255
0.0357195   1.86372  0.921071 255 255 255
0.966348  1.36812 0.935874 255 255 255
0.178524  2.06021 0.795764 255 255 255
 1.04592  1.51615 0.865685 255 255 255
0.0164394   1.84477  0.992157 255 255 255
0.686997  1.58894 0.971637 255 255 255
0.277535  1.36982  1.27052 255 255 255
0.878354   1.1843  1.01222 255 255 255
0.798639  1.91727  0.52647 255 255 255
 1.03276  1.82191 0.732372 255 255 255
1.04709 1.76749  0.7519 255 255 255
0.641547  1.99227 0.803387 255 255 255
0.958365  1.53832 0.907993 255 255 255
0.957579  1.28461 0.969199 255 255 255
0.466602  1.40224  1.17397 255 255 255
0.0270886   1.84621  0.939947 255 255 255
0.0869051   1.86613  0.941758 255 255 255
0.883372  1.25733  1.04279 255 255 255
0.304149   1.6337  1.12446 255 255 255
0.139273  1.84628 0.989975 255 255 255
0.0907667   1.99092  0.736064 255 255 255
 1.12782  1.71986 0.738229 255 255 255
 1.01282  1.84348 0.736286 255 255 255
 0.18854  2.03655 0.789145 255 255 255
0.465379  1.33015  1.18717 255 255 255
0.0840178   1.50963   1.13492 255 255 255
 1.02847  1.82645 0.728661 255 255 255
0.193226  1.89887   0.9405 255 255 255
0.390613  2.22035 0.658813 255 255 255
0.921235  1.58464 0.845076 255 255 255
0.269679  1.67465  1.01804 255 255 255
0.295638  1.16479  1.31057 255 255 255
0.835953  1.52784 0.895735 255 255 255
0.421018  2.20565 0.712285 255 255 255
-0.200889   1.64841   1.16086 255 255 255
0.360582  2.12384 0.762678 255 255 255
0.341826  2.22851 0.636819 255 255 255
0.366921  1.19292  1.21923 255 255 255
0.597619  1.48708  1.05866 255 255 255
-0.155299   1.57315   1.20077 255 255 255
-0.00122564     2.05319    0.802778 255 255 255
-0.0724136     1.6748     1.1574 255 255 255
0.398846  2.26672 0.684113 255 255 255
0.411873  1.62081  1.08753 255 255 255
0.886414  1.18834  1.01311 255 255 255
0.334531  1.91735 0.873815 255 255 255
0.632921  2.03262 0.703688 255 255 255
0.718283  1.19585  1.10804 255 255 255
0.660517  2.16669 0.648559 255 255 255
-0.135793   1.89377  0.944095 255 255 255
-0.263368   1.77121   1.03421 255 255 255
-0.23788  1.72804  1.03201 255 255 255
0.767149  1.42049 0.929981 255 255 255
0.834402  1.44636 0.987463 255 255 255
0.680237  1.57116 0.997581 255 255 255
0.873156    1.243  1.02395 255 255 255
0.801461  1.13163  1.07456 255 255 255
-0.112183   1.75702  0.958194 255 255 255
0.414864  1.80321 0.951278 255 255 255
-0.249777    1.4831   1.27552 255 255 255
 1.04104    1.528 0.874568 255 255 255
-0.332815    1.8279    1.0418 255 255 255
0.992899  1.65375 0.805381 255 255 255
-0.0858475    1.80331   0.971571 255 255 255
0.428857  1.59779  1.17078 255 255 255
0.988662  1.65501  0.83534 255 255 255
-0.0320259    2.02136   0.831182 255 255 255
0.0711575   1.76643   1.05124 255 255 255
-0.00654236     1.84157    0.972281 255 255 255
0.604979  1.96885 0.812876 255 255 255
1.07447 1.45539 0.87638 255 255 255
0.460304  1.32199  1.16377 255 255 255
0.215563  1.65278  1.01996 255 255 255
0.596718  1.00172  1.27795 255 255 255
-0.292946   1.67817   1.07856 255 255 255
0.427923  2.28596 0.657733 255 255 255
 1.04387  1.38777 0.929488 255 255 255
0.29553 1.24976 1.34661 255 255 255
0.268957  1.64097  1.08554 255 255 255
0.687556  2.08965 0.747757 255 255 255
0.792952   2.0515 0.724525 255 255 255
0.587224  1.43205  1.10303 255 255 255
0.714979 0.805196  1.46466 255 255 255
0.187046  2.04347  0.78377 255 255 255
0.174166  2.04481 0.808418 255 255 255
0.333345  2.04312 0.823919 255 255 255
0.882166  1.76416 0.587859 255 255 255
0.347485  1.97783 0.838021 255 255 255
0.774018    1.746 0.560942 255 255 255
0.207915  1.95666 0.860729 255 255 255
0.0880187   1.43092   1.17396 255 255 255
-0.166605   1.89032  0.949548 255 255 255
-0.293605   1.92333  0.870682 255 255 255
0.321362  2.17057 0.672768 255 255 255
0.0153457   1.72287   1.07045 255 255 255
0.287858  2.23341 0.602418 255 255 255
0.222082  2.08926 0.759048 255 255 255
0.000354587     2.02386    0.809685 255 255 255
0.292523  2.17405 0.603823 255 255 255
0.617304   1.4468  1.33887 255 255 255
-0.0240711    2.03221   0.824576 255 255 255
0.943549  1.46103 0.967566 255 255 255
0.457137  2.20749 0.689636 255 255 255
0.457204  2.20828 0.691917 255 255 255
0.820018  1.20945  1.10971 255 255 255
0.677224 0.823028  1.45556 255 255 255
0.164202  1.94264 0.865122 255 255 255
-0.203866   1.77933  0.989326 255 255 255
0.483567  2.08452  0.74291 255 255 255
0.220352  2.05425  0.78774 255 255 255
-0.331902   1.62644    1.1162 255 255 255
0.00932174    1.89733   0.844196 255 255 255
0.140527  1.97863 0.838316 255 255 255
0.435022  2.04347 0.782717 255 255 255
0.792107  1.80343  0.52704 255 255 255
0.485809  1.89773 0.815295 255 255 255
0.968895  1.76556 0.737407 255 255 255
0.476119  1.85769 0.904394 255 255 255
 0.5315 1.47814 1.11976 255 255 255
0.193362    1.474  1.20942 255 255 255
-0.0280769    1.94578   0.868489 255 255 255
0.965855  1.29415 0.948225 255 255 255
0.413418  2.09796 0.770856 255 255 255
0.619092   1.8753  0.84814 255 255 255
   1.085  1.69249 0.750847 255 255 255
0.213604  1.92749 0.911409 255 255 255
0.916792  1.90028 0.536185 255 255 255
 1.11391  1.69131 0.759802 255 255 255
0.198042  1.55003  1.10332 255 255 255
-0.033141   1.42837   1.28053 255 255 255
-0.124819   1.85153  0.944628 255 255 255
 0.40612  2.08696 0.774323 255 255 255
0.200112  2.07866 0.751538 255 255 255
0.659845  1.61315  0.98545 255 255 255
 1.08711  1.50157 0.853352 255 255 255
0.256582  2.01685 0.820093 255 255 255
-0.0664004    1.78487   0.993271 255 255 255
0.770202  2.07169 0.732989 255 255 255
0.287647  1.38513   1.2686 255 255 255
0.779646  1.76581 0.549892 255 255 255
 1.04064  1.82428 0.755925 255 255 255
 1.00574  1.53678 0.890752 255 255 255
0.615852 0.847164    1.349 255 255 255
-0.0782647     1.5237    1.27223 255 255 255
 0.36679   2.1868 0.686785 255 255 255
 1.01714  1.33219 0.960905 255 255 255
-0.0891454    1.60839    1.18142 255 255 255
0.648238  2.05625 0.731484 255 255 255
0.454826  1.33133   1.1522 255 255 255
-0.13523  1.70587  1.07567 255 255 255
 0.39171  2.26117 0.699969 255 255 255
0.293638  2.13326 0.731353 255 255 255
0.24294 1.29819 1.35838 255 255 255
0.0682593    1.8926  0.951431 255 255 255
0.78309 1.17053 1.15119 255 255 255
-0.0779742    1.69392    1.12284 255 255 255
0.719091  2.11379 0.710691 255 255 255
0.114363  2.13049 0.702287 255 255 255
-0.0584176     1.9611   0.862874 255 255 255
0.136088  2.14021 0.695328 255 255 255
0.257596  1.68937  1.02585 255 255 255
0.591558  1.41042  1.13049 255 255 255
0.469875  2.08651 0.752476 255 255 255
0.808444  1.81319  0.52165 255 255 255
0.440784  1.56998 0.997235 255 255 255
0.039963  1.78673  1.02754 255 255 255
0.120309  2.00126  0.78165 255 255 255
 0.70199  2.18034 0.590349 255 255 255
0.718754  1.50123  1.00541 255 255 255
0.531444  1.96861 0.720559 255 255 255
-0.0433419    2.01198   0.842115 255 255 255
0.0269267   1.80807  0.989282 255 255 255
-0.155036   1.91581  0.940936 255 255 255
0.725024 0.849461  1.43075 255 255 255
0.337845  2.18786 0.690993 255 255 255
0.756657  1.75749 0.566428 255 255 255
0.420882  2.27729 0.661343 255 255 255
-0.230924   1.47716   1.30197 255 255 255
0.411315  1.79137 0.964112 255 255 255
0.619573  1.50519  1.01518 255 255 255
0.901051  1.38984  1.01533 255 255 255
-0.00988348     1.86085    0.898857 255 255 255
0.759414 0.986441  1.22524 255 255 255
0.861313  1.89923 0.534562 255 255 255
0.360785  2.10478  0.75721 255 255 255
0.269048  1.70077 0.983848 255 255 255
0.198997  1.46819  1.20882 255 255 255
0.144785  1.75008  1.00561 255 255 255
-0.225504   1.65776   1.07599 255 255 255
0.670136  1.28075  1.09702 255 255 255
0.179489  1.97128 0.839261 255 255 255
0.479598  1.88656 0.807006 255 255 255
0.483354  1.60112   1.0683 255 255 255
-0.454623   1.84223   1.00524 255 255 255
0.46354 1.55198 1.20522 255 255 255
 0.55883 0.862536  1.38521 255 255 255
0.145647  1.48333  1.19894 255 255 255
0.708637  1.18526  1.11887 255 255 255
-0.152299   2.01298  0.849052 255 255 255
0.133567  1.73529  1.01005 255 255 255
 0.63549  2.04766 0.707562 255 255 255
0.789972  1.13583  1.11279 255 255 255
-0.011224   2.04424  0.812516 255 255 255
0.794786  1.81751 0.533274 255 255 255
0.558087  2.00078 0.707291 255 255 255
0.396228  2.22828 0.655038 255 255 255
-0.362552   1.72678   1.12277 255 255 255
0.305238  2.11567 0.730055 255 255 255
0.0406533   2.06595  0.792082 255 255 255
0.523308  2.06169 0.745381 255 255 255
-0.0776802    1.89044   0.894098 255 255 255
0.00842952    1.29913    1.37645 255 255 255
0.618214 0.878756  1.35912 255 255 255
-0.297752   1.85156   1.01821 255 255 255
0.386863  2.12551 0.766784 255 255 255
 1.04167  1.82146 0.725388 255 255 255
0.831141  1.11528  1.13614 255 255 255
0.677878  2.10105 0.700795 255 255 255
0.318327  1.36929  1.27886 255 255 255
0.391912  1.41997  1.21016 255 255 255
0.880959  1.79294 0.782032 255 255 255
-0.0556345    1.63432    1.19558 255 255 255
 0.68594  2.07215 0.752022 255 255 255
0.612235  1.95694 0.821632 255 255 255
-0.289182   1.59077   1.21072 255 255 255
0.139944  1.91686 0.888644 255 255 255
0.224008  1.86391 0.971979 255 255 255
-0.436106   1.83763   1.00577 255 255 255
0.568443  1.88265 0.865625 255 255 255
0.903877   1.6001 0.865497 255 255 255
0.921157  1.56856 0.920684 255 255 255
-0.29464  1.55463  1.28464 255 255 255
0.139739  1.94488 0.873147 255 255 255
0.17605 1.20801 1.38894 255 255 255
 1.06811  1.50135 0.873593 255 255 255
0.607724  1.32483  1.23741 255 255 255
0.141281  2.15702 0.728086 255 255 255
-0.26172  1.79877  1.04391 255 255 255
-0.0299273    1.80194   0.981007 255 255 255
0.409148  2.11004 0.778792 255 255 255
0.511813  1.91157 0.836426 255 255 255
-0.0251683     1.4341    1.22739 255 255 255
-0.00167076     1.77966      1.0409 255 255 255
0.0763637   1.97038  0.754753 255 255 255
0.171606  1.92732 0.889012 255 255 255
 1.09327  1.69653 0.743757 255 255 255
-0.231092   1.75372   1.04093 255 255 255
-0.100909    1.9584  0.895361 255 255 255
 0.62391  2.26654 0.629355 255 255 255
0.754538  1.41109 0.937188 255 255 255
0.285595  2.13608 0.685615 255 255 255
-0.0624127    1.74964    1.08369 255 255 255
0.651249  1.94679 0.808666 255 255 255
-0.33944  1.80824  1.05606 255 255 255
0.202492  1.94186 0.874373 255 255 255
0.496796  1.59294  1.06124 255 255 255
-0.328917   1.64265   1.10026 255 255 255
0.309168  2.13784  0.72139 255 255 255
0.0784317   1.91204  0.893805 255 255 255
 0.46317  2.19716 0.709578 255 255 255
0.413752  2.20597 0.697087 255 255 255
0.284572  1.94687 0.882141 255 255 255
0.154055  2.16425 0.688009 255 255 255
0.745214  1.40903 0.956013 255 255 255
 1.07861  1.73887 0.743367 255 255 255
-0.143238   1.90994  0.939128 255 255 255
0.55238  0.9982 1.35617 255 255 255
-0.210801   1.94463  0.956201 255 255 255
0.909345  1.58003 0.891566 255 255 255
0.296854  2.03984 0.799737 255 255 255
0.464871  1.42759  1.17769 255 255 255
0.0849491   2.13137  0.716664 255 255 255
0.00519431    1.73008    1.07505 255 255 255
0.892412  1.98938  0.50341 255 255 255
 1.06623  1.74299 0.758137 255 255 255
0.240863  2.04269 0.800789 255 255 255
 1.05899  1.53544 0.848054 255 255 255
0.211803  1.87367 0.954603 255 255 255
0.219306  1.46723   1.2326 255 255 255
0.0951524   1.90933  0.913426 255 255 255
0.778861 0.931477  1.38267 255 255 255
0.53893 1.55656 1.03707 255 255 255
0.766141  1.40335 0.929067 255 255 255
0.383965  2.11256 0.764099 255 255 255
0.741595   1.4247 0.955822 255 255 255
-0.285859   1.86383    1.0075 255 255 255
-0.196878     1.867  0.981145 255 255 255
0.683086  2.11297  0.69873 255 255 255
0.0374392   2.07075  0.763124 255 255 255
0.697544  1.56855 0.966591 255 255 255
-0.358345   1.78019   1.08044 255 255 255
-0.445855   1.83031   1.02459 255 255 255
0.926192  1.63093 0.881627 255 255 255
 0.15055  1.89927 0.896349 255 255 255
0.125198  1.39307  1.29698 255 255 255
0.853957  1.44274 0.908206 255 255 255
0.542185  1.18241  1.26117 255 255 255
0.277494  1.58766  1.13468 255 255 255
0.654856  1.95713 0.814457 255 255 255
0.604984  1.47311  1.28948 255 255 255
-0.0595671    2.00099   0.860105 255 255 255
0.119027  1.97065 0.882099 255 255 255
0.696413   1.2639 0.999151 255 255 255
0.461802  1.30873  1.10039 255 255 255
0.464106  2.16373 0.728516 255 255 255
-0.364393   1.68424   1.13783 255 255 255
0.865751  1.49101 0.941691 255 255 255
0.224927   1.1366  1.34804 255 255 255
0.219045  1.13209  1.36165 255 255 255
0.655258  2.03071 0.766362 255 255 255
0.234301  2.08982 0.747176 255 255 255
-0.231472   1.63278   1.16816 255 255 255
 0.99976  1.34115 0.963621 255 255 255
0.291721  1.42785   1.1353 255 255 255
0.944746  1.43109  0.96588 255 255 255
0.415812  2.19343 0.695394 255 255 255
0.951251  1.72097 0.825564 255 255 255
0.840417   1.8406 0.503859 255 255 255
0.876065  1.63174 0.847907 255 255 255
0.293325  1.95769  0.87526 255 255 255
0.415188  2.02117 0.800113 255 255 255
 0.48222  2.09869 0.738293 255 255 255
0.857843  1.99358 0.523102 255 255 255
0.0493296   2.09334  0.747953 255 255 255
0.059443  1.83528  0.97575 255 255 255
0.426468  1.61415  1.09211 255 255 255
 1.04542  1.78519 0.752879 255 255 255
-0.23074  1.54576  1.27486 255 255 255
0.821519  1.10992  1.15142 255 255 255
0.958665   1.6418 0.867158 255 255 255
0.791689  1.15199  1.12972 255 255 255
 1.03239  1.77663 0.767095 255 255 255
0.575963  1.93991 0.837889 255 255 255
0.513447  2.14154 0.718137 255 255 255
-0.283953   1.84901   1.01182 255 255 255
0.184699  1.61534  1.07325 255 255 255
0.86307   1.196 1.03154 255 255 255
0.671135  1.60187 0.971108 255 255 255
0.989604  1.80806 0.763529 255 255 255
0.537683  1.97589 0.750176 255 255 255
0.322103  1.98922 0.849435 255 255 255
0.735214  1.45683  1.04072 255 255 255
-0.343183   1.73676    1.1132 255 255 255
0.460782  2.07554 0.761898 255 255 255
0.300484  1.67408  1.06276 255 255 255
0.685519  2.07765 0.750635 255 255 255
 1.02171  1.54465 0.870589 255 255 255
-0.344933   1.69269   1.11698 255 255 255
-0.0949764    1.63887    1.18645 255 255 255
0.734631  2.12889 0.708331 255 255 255
0.925363  1.50256 0.867424 255 255 255
0.773308  1.49427  1.01694 255 255 255
0.703361  2.18306 0.602849 255 255 255
-0.242698    1.8255    1.0219 255 255 255
 1.00612  1.71081 0.814147 255 255 255
0.152446  2.00442 0.826562 255 255 255
0.160215  2.00392 0.811535 255 255 255
0.914354   1.2611  1.03603 255 255 255
-0.31058  1.71074  1.09159 255 255 255
0.577613  1.34621  1.22796 255 255 255
0.404553  2.21345 0.667527 255 255 255
0.468855  1.43815  1.17319 255 255 255
0.752647  1.50187  1.00028 255 255 255
-0.0920521    1.66384    1.12396 255 255 255
0.995129  1.55071 0.860309 255 255 255
0.758204  1.41743 0.934204 255 255 255
0.655956  1.27154  1.06984 255 255 255
 1.03671  1.38962 0.937212 255 255 255
-0.438615    1.8465   1.00036 255 255 255
0.239683  1.96014 0.876788 255 255 255
0.773727  1.41347 0.944271 255 255 255
0.899501   1.1889   1.0316 255 255 255
0.427318  1.64825  1.06509 255 255 255
 0.30622  2.10205 0.741619 255 255 255
-0.0864481    1.81148   0.971614 255 255 255
0.101112  2.10534 0.724801 255 255 255
0.014392  1.74763   1.0558 255 255 255
0.265331  1.92589 0.900676 255 255 255
0.922581  1.22248  1.04736 255 255 255
0.695713  2.12833 0.685215 255 255 255
0.968782  1.57343 0.855477 255 255 255
0.959307    1.709  0.82465 255 255 255
-0.439826     1.802   1.08092 255 255 255
0.702909  2.07763 0.754138 255 255 255
0.734551  2.14258  0.70127 255 255 255
0.327642  2.09119 0.767225 255 255 255
0.580822   1.2333  1.16556 255 255 255
-0.193046   1.78995  0.977005 255 255 255
0.876082  1.24071  1.04644 255 255 255
0.217499   1.4848  1.18965 255 255 255
-0.153743   1.90762  0.941524 255 255 255
0.627656  1.83423 0.861873 255 255 255
 1.02782  1.52418 0.880645 255 255 255
0.327182  1.40263  1.26289 255 255 255
0.177261  1.95016  0.86294 255 255 255
0.396047  2.01321 0.834643 255 255 255
0.127664    1.836 0.971411 255 255 255
0.118051   1.8343 0.987685 255 255 255
0.126573  2.01228   0.7797 255 255 255
0.787928  1.76802 0.543926 255 255 255
0.342245  1.31905  1.28203 255 255 255
0.28054 1.53791 1.18175 255 255 255
0.928728  1.70967 0.856929 255 255 255
0.776129  1.85819 0.532188 255 255 255
0.999986  1.65418 0.812762 255 255 255
0.337418  2.03833 0.819418 255 255 255
0.364427  1.45604  1.32903 255 255 255
0.411153  2.22813 0.663673 255 255 255
-0.228223   1.83659   1.00785 255 255 255
0.582835  1.93236 0.861554 255 255 255
-0.234848   1.51738   1.24141 255 255 255
0.958028  1.93582 0.513318 255 255 255
0.899572  1.99497 0.501896 255 255 255
-0.107117   1.94786  0.897948 255 255 255
0.611522  1.84236  0.86706 255 255 255
 1.07135  1.43109 0.881358 255 255 255
0.876913  1.18015 0.981185 255 255 255
-0.0100964    1.85599    0.87552 255 255 255
0.327595  1.14115  1.24529 255 255 255
0.709262  2.16407 0.624099 255 255 255
-0.46704  1.72621  1.12875 255 255 255
-0.133763   1.90854  0.935733 255 255 255
0.179912   1.8502 0.999907 255 255 255
0.438086  1.56231 0.969941 255 255 255
0.229793  1.91069 0.922914 255 255 255
0.0744321    1.8229   1.00201 255 255 255
0.641346  1.11611  1.29069 255 255 255
0.32215 1.66469 1.06763 255 255 255
0.441996  1.57385 0.962108 255 255 255
0.966798  1.36035 0.984128 255 255 255
0.434426  1.52811  1.05656 255 255 255
0.286649  1.37927  1.26211 255 255 255
0.421072  2.22983 0.699817 255 255 255
-0.255978   1.58144   1.25074 255 255 255
0.730981  1.41972 0.963848 255 255 255
0.431317    1.658  1.03478 255 255 255
0.870628  1.73865 0.602085 255 255 255
0.725668  2.17181  0.61454 255 255 255
0.898739  1.98934 0.500691 255 255 255
0.855564  1.88367 0.552666 255 255 255
0.203894  1.48331  1.23579 255 255 255
0.327717  2.04915 0.814285 255 255 255
0.244585  2.07752 0.747197 255 255 255
-0.233261   1.65148   1.11569 255 255 255
-0.019506   1.81397   0.90855 255 255 255
0.907414  1.99849 0.508364 255 255 255
-0.294726   1.83305   1.02155 255 255 255
0.340233  2.16544 0.697564 255 255 255
0.0435473    1.8848  0.924194 255 255 255
0.0201524   2.02105  0.806505 255 255 255
0.380142  1.97274 0.832633 255 255 255
-0.322834   1.91914  0.943368 255 255 255
0.313027  1.56605  1.15788 255 255 255
0.0586602   1.55803   1.11891 255 255 255
0.916763  1.67558 0.862187 255 255 255
0.319796  1.73544 0.990907 255 255 255
0.161088  1.91672 0.903266 255 255 255
0.871374  1.81413 0.554101 255 255 255
0.510438  1.01265  1.36904 255 255 255
0.610818  1.45856   1.0762 255 255 255
0.520079  1.57176   1.0653 255 255 255
-0.309272   1.76687    1.0821 255 255 255
0.597432  1.09805  1.20392 255 255 255
0.285535  1.95961 0.881271 255 255 255
0.600415  1.40322  1.09615 255 255 255
0.478757  1.92209 0.747288 255 255 255
0.196916  2.11688 0.658801 255 255 255
0.319606  2.20138 0.655663 255 255 255
0.152179  1.81153  1.00795 255 255 255
0.359772  2.07313 0.801627 255 255 255
0.382163  2.12143 0.742187 255 255 255
0.811574  1.36772 0.897524 255 255 255
0.122959  2.00802 0.742261 255 255 255
0.565987  1.51578  1.06627 255 255 255
0.335283  2.09623 0.752177 255 255 255
-0.291539     1.913  0.916531 255 255 255
0.277689  2.04539 0.778904 255 255 255
0.718423  1.58202 0.947688 255 255 255
0.529921  1.44406  1.18933 255 255 255
0.944336  1.25103  1.02069 255 255 255
0.221391  2.07032  0.80916 255 255 255
0.633329  1.45327  1.34745 255 255 255
0.207976  2.08825 0.755175 255 255 255
0.817048  1.83623 0.512162 255 255 255
0.642378   2.0479 0.755576 255 255 255
-0.327579   1.83638   1.03521 255 255 255
0.253635  1.51156  1.19113 255 255 255
0.297781  1.41715  1.10853 255 255 255
0.456483  1.53757  1.10769 255 255 255
0.460843  2.20602 0.697409 255 255 255
0.487937  1.88224  0.87091 255 255 255
0.294438  2.01149 0.827407 255 255 255
0.436568  1.31036  1.12335 255 255 255
0.62379 1.83837 0.85002 255 255 255
0.958951  1.57788 0.861546 255 255 255
 0.36432  2.20359 0.672855 255 255 255
 1.05404  1.53207 0.851182 255 255 255
0.460119  2.21107 0.696694 255 255 255
0.402544  1.80745 0.927675 255 255 255
0.733725  1.02142  1.11426 255 255 255
0.102392  1.19117  1.31885 255 255 255
 1.08979  1.49571 0.828137 255 255 255
0.384888  2.14644  0.70003 255 255 255
0.750929  1.39897 0.932061 255 255 255
0.792177   1.1233  1.08506 255 255 255
-0.434983   1.71682   1.13863 255 255 255
0.0646714   2.15584  0.712517 255 255 255
0.341746  2.18393 0.692167 255 255 255
0.971183  1.64538 0.859757 255 255 255
0.603755  1.84981 0.865442 255 255 255
0.313871  2.11016 0.729539 255 255 255
0.788951  1.44637 0.946196 255 255 255
0.0751194   2.16899  0.701383 255 255 255
-0.530611   1.76492   1.14206 255 255 255
0.887773  1.41748  1.00477 255 255 255
0.221473  1.31512  1.31448 255 255 255
0.259912  1.23394  1.32669 255 255 255
0.250176  1.96684  0.87623 255 255 255
0.783756   1.3271  1.47823 255 255 255
0.830228  1.90398 0.562777 255 255 255
0.0423995   1.88934  0.932245 255 255 255
 1.08923  1.48778 0.841204 255 255 255
0.277497  1.96442 0.878169 255 255 255
0.413833  1.75635 0.986955 255 255 255
0.197575  1.94622 0.858098 255 255 255
0.921244  1.50653 0.863394 255 255 255
-0.110689   1.48356   1.25666 255 255 255
 1.06854  1.75306 0.745081 255 255 255
0.101188  1.90691 0.927745 255 255 255
-0.0631644    1.78923    1.02285 255 255 255
0.815444  1.14547  1.14709 255 255 255
0.939534  1.71192 0.833079 255 255 255
-0.331096   1.72903   1.11352 255 255 255
0.809239  1.36211 0.870232 255 255 255
0.604521   1.9973 0.781252 255 255 255
0.280446  1.71799  1.02795 255 255 255
0.597489  1.99929  0.72395 255 255 255
0.467364  1.29181  1.26337 255 255 255
0.135643  1.97108 0.839574 255 255 255
0.124269  2.01725 0.779413 255 255 255
0.0624678   1.87882  0.950244 255 255 255
-0.115153   2.02466  0.889042 255 255 255
0.274247  1.40449  1.15006 255 255 255
 0.47026  1.80809 0.933577 255 255 255
0.307429  2.01673  0.83916 255 255 255
0.243845  2.07545 0.773882 255 255 255
0.388926  1.68025  1.07809 255 255 255
0.309319  1.16778  1.29403 255 255 255
0.725379  1.01298  1.11759 255 255 255
0.238302  1.91317 0.917655 255 255 255
-0.279203   1.82298   1.03385 255 255 255
0.0817658   1.91962  0.904238 255 255 255
0.100405  2.01872 0.795628 255 255 255
0.571412 0.946817  1.40656 255 255 255
0.872115  1.95247 0.509649 255 255 255
-0.258826    1.8888  0.987906 255 255 255
0.0196549   2.10261  0.755659 255 255 255
0.973402  1.49318 0.932036 255 255 255
-0.0118584    1.77269    1.04491 255 255 255
0.184199  2.11994 0.699605 255 255 255
0.604694  1.00822   1.2434 255 255 255
0.382529  1.44087   1.2214 255 255 255
0.588406  1.18627   1.2202 255 255 255
0.769611  1.40358 0.905437 255 255 255
 0.31363  2.11839 0.730844 255 255 255
0.925676  1.94215 0.484067 255 255 255
0.655913  2.11773 0.586049 255 255 255
-0.00387545     1.91425    0.847855 255 255 255
 1.12834  1.54368 0.812721 255 255 255
-0.0566503    1.58101    1.18935 255 255 255
0.61799 1.96142 0.81369 255 255 255
0.422668  2.24957 0.658916 255 255 255
 1.07208  1.73806 0.753232 255 255 255
0.339278   2.1593 0.702013 255 255 255
 0.98378  1.39207 0.979146 255 255 255
0.807966  1.34576  1.36982 255 255 255
0.446159  1.30395  1.12978 255 255 255
0.560036  1.16328  1.22971 255 255 255
-0.343231   1.65348   1.11674 255 255 255
0.481405  1.83462 0.924694 255 255 255
0.558314   1.5335  1.05489 255 255 255
0.408469  1.76611 0.956382 255 255 255
0.823464  1.87911  0.49417 255 255 255
0.802651  1.38301 0.863196 255 255 255
0.142394  1.64313  1.06718 255 255 255
0.266744  2.05736 0.772321 255 255 255
-0.14047  1.49034  1.27635 255 255 255
-0.316614   1.85681   1.03242 255 255 255
 0.72033  2.11144 0.738169 255 255 255
0.751909  2.12765 0.718833 255 255 255
0.729276 0.864515  1.43074 255 255 255
 1.10156  1.69698 0.761739 255 255 255
0.591183  2.22243 0.652897 255 255 255
0.727889  2.07176  0.74418 255 255 255
0.285103  2.12633 0.700046 255 255 255
-0.0801869    1.80859   0.971769 255 255 255
0.905721  1.45689  1.26166 255 255 255
0.0298217   1.81892   1.00143 255 255 255
0.769535   1.1616  1.05983 255 255 255
-0.0838857    1.80779   0.929459 255 255 255
0.502413  1.48906   1.2791 255 255 255
0.48349 1.11531 1.37958 255 255 255
0.450807  1.44012  1.18597 255 255 255
0.118172    2.014 0.762385 255 255 255
-0.284493   1.78681   1.05838 255 255 255
0.67137 1.07306 1.13717 255 255 255
  1.1238  1.69052 0.745154 255 255 255
-0.0892141    1.95055   0.894934 255 255 255
0.373726   2.2088  0.66424 255 255 255
0.280476  2.16002  0.59432 255 255 255
0.47679 0.96427 1.31832 255 255 255
 0.76186  1.40555 0.904037 255 255 255
-0.214148   1.61451   1.17117 255 255 255
0.257086  2.01858 0.798626 255 255 255
0.312777  2.12171 0.726291 255 255 255
0.468942  2.07162 0.754873 255 255 255
 0.55093 0.987556  1.34958 255 255 255
0.749676  2.11844 0.723938 255 255 255
0.685393   1.2709 0.994457 255 255 255
0.606061   1.8654 0.862245 255 255 255
0.668754  1.29927  1.09607 255 255 255
0.170334  1.15986  1.41208 255 255 255
0.684885  1.47965  1.03176 255 255 255
-0.14368  1.63663  1.15115 255 255 255
0.622018  1.52635  1.04922 255 255 255
0.582008  2.21208 0.667917 255 255 255
0.914517  1.95755  0.51779 255 255 255
0.361286  1.94331 0.855245 255 255 255
-0.0539733    1.79255    1.01785 255 255 255
-0.306825   1.89356  0.945769 255 255 255
0.447025  2.05428 0.766033 255 255 255
0.729871  2.08528  0.73617 255 255 255
-0.362323   1.71352   1.12964 255 255 255
0.381884  2.10627 0.756222 255 255 255
0.951335  1.62307  0.84813 255 255 255
 0.27299  1.98651 0.840778 255 255 255
0.215829  2.10744 0.692018 255 255 255
0.964309   1.9275 0.515363 255 255 255
0.802331  1.43965 0.879383 255 255 255
0.250596  1.31311  1.20046 255 255 255
0.354509  2.14973 0.704738 255 255 255
0.483898  1.84583 0.911836 255 255 255
0.688661  1.27413   1.0311 255 255 255
0.342356  2.12682 0.721569 255 255 255
0.425273  1.77225 0.977913 255 255 255
0.537447  1.86059 0.915231 255 255 255
0.508399  1.12175  1.25665 255 255 255
-0.0715221    1.79756   0.917644 255 255 255
-0.327499   1.74828   1.09677 255 255 255
0.376974  2.18352 0.682843 255 255 255
0.487458  2.20073 0.698141 255 255 255
0.792855  1.50966 0.992525 255 255 255
0.909841  1.26433  1.04267 255 255 255
0.383428  2.15927 0.709156 255 255 255
0.818732  1.89445 0.526131 255 255 255
0.856056  1.95515 0.538173 255 255 255
0.963855  1.52868  0.91459 255 255 255
0.272177  2.04618 0.779536 255 255 255
0.758931  1.40676 0.918592 255 255 255
-0.296139   1.57224   1.24052 255 255 255
 1.10099  1.53218 0.840895 255 255 255
-0.0962048    1.82095   0.923805 255 255 255
0.804457  1.75936 0.547827 255 255 255
0.295344  1.17961  1.26773 255 255 255
0.664119  1.33865  1.13867 255 255 255
0.577668  1.12619  1.16936 255 255 255
0.557528  1.91012 0.748354 255 255 255
0.375236  1.04405  1.32978 255 255 255
0.906845  1.57573 0.889182 255 255 255
 0.22943  1.90502 0.926895 255 255 255
0.130137  1.85041 0.949923 255 255 255
0.413385  1.30143  1.15812 255 255 255
-0.00301478     1.28121     1.38796 255 255 255
0.755324  2.07225 0.729502 255 255 255
-0.279884   1.85505    1.0081 255 255 255
0.423661  1.60761  1.15687 255 255 255
0.0543684   1.83399  0.973288 255 255 255
0.141961  1.95413 0.869597 255 255 255
0.751747  1.40888  0.91501 255 255 255
-0.0740502    1.80256   0.937938 255 255 255
0.227162  2.02999  0.80185 255 255 255
0.357464  2.19589 0.671288 255 255 255
0.276661  1.99802 0.842208 255 255 255
0.383258  2.18995 0.678213 255 255 255
-0.29004  1.77138   1.0657 255 255 255
-0.00482874     1.77942     1.03001 255 255 255
0.716493  1.59304 0.925765 255 255 255
0.605125  2.00166 0.778874 255 255 255
0.69303 1.48014 1.29766 255 255 255
0.468647  2.07663 0.755335 255 255 255
-0.0592043    1.76696    1.01764 255 255 255
0.118922  1.96842  0.77561 255 255 255
0.556636  1.36134  1.14924 255 255 255
0.0403134   2.12609  0.737668 255 255 255
-0.181422   1.59051   1.22393 255 255 255
-0.378028   1.65856   1.14108 255 255 255
0.451828   1.5415  1.11309 255 255 255
0.321789  2.10396 0.726825 255 255 255
 1.04317  1.62122 0.796186 255 255 255
0.723202  2.04837 0.740923 255 255 255
0.219218  1.13975  1.36073 255 255 255
0.829632  1.56871 0.933417 255 255 255
0.200805   1.8909 0.936981 255 255 255
0.934051  1.79156 0.776537 255 255 255
-0.140675   1.58011   1.19056 255 255 255
0.295854  1.43761  1.16866 255 255 255
0.0354992   1.97114  0.776645 255 255 255
0.144754    1.441  1.25522 255 255 255
0.135873  1.43719  1.27494 255 255 255
0.470511  1.82771 0.919914 255 255 255
0.957563  1.69934 0.829973 255 255 255
0.14477  1.0979 1.43108 255 255 255
0.520777 0.942067  1.38189 255 255 255
0.919664  1.73861 0.799967 255 255 255
0.578003  1.93482  0.83428 255 255 255
0.624397   1.3818  1.11849 255 255 255
0.410943  1.81079 0.942235 255 255 255
0.491553   1.5912  1.04856 255 255 255
0.730953  1.22915   1.0965 255 255 255
0.595457  1.40281  1.11956 255 255 255
0.51852 1.10132 1.19249 255 255 255
0.579935  1.14553  1.20415 255 255 255
-0.536692   1.79531   1.12403 255 255 255
0.505194   1.5705  1.04822 255 255 255
0.426542  1.78784 0.972552 255 255 255
 1.02209   1.6852 0.793413 255 255 255
0.368464  2.16733  0.68128 255 255 255
 1.02991  1.81559 0.740908 255 255 255
0.684816  1.55957 0.993668 255 255 255
0.762934  2.01625 0.529791 255 255 255
 1.07594  1.50741 0.844353 255 255 255
0.535004  1.75958 0.993312 255 255 255
0.276632  1.52858  1.20803 255 255 255
0.374242  1.67803  1.09154 255 255 255
-0.140766   1.90273  0.931951 255 255 255
-0.230571   1.81972    1.0223 255 255 255
0.379193  1.68572  1.08138 255 255 255
0.147323    1.928  0.87763 255 255 255
0.342554  1.28889  1.25803 255 255 255
0.773811  1.24056  1.05643 255 255 255
 0.47821  1.84621 0.912517 255 255 255
0.00740702    1.83936   0.959445 255 255 255
0.918649  1.26215  1.04116 255 255 255
0.896951  1.19819  1.03262 255 255 255
0.233685  1.99439 0.801107 255 255 255
0.273672  1.43146  1.13199 255 255 255
-0.145845   1.53744   1.25008 255 255 255
0.320183  2.14011 0.709731 255 255 255
 0.57627  1.89738 0.858806 255 255 255
0.369549   2.1213 0.745862 255 255 255
0.933404  1.93082 0.520485 255 255 255
 0.301254 -0.537249   3.00247 255 255 255
 0.488629 -0.530951   2.76613 255 255 255
 0.450623 -0.543669   2.75632 255 255 255
 0.412734 -0.671969   2.94765 255 255 255
   0.4883 -0.524152   2.75244 255 255 255
 0.297944 -0.818446   3.19309 255 255 255
 0.440712 -0.428942   3.13399 255 255 255
  0.18543 -0.187019   1.91899 255 255 255
 0.181786 -0.276982   1.95132 255 255 255
0.358974  0.45315  1.74473 255 255 255
 0.087425 0.0171955   1.90734 255 255 255
0.00877617   0.188986    1.88999 255 255 255
0.155764 0.183926   1.8489 255 255 255
0.209826  0.17354  1.83304 255 255 255
0.380882 0.271688  1.77906 255 255 255
0.410334 0.200495   1.7484 255 255 255
-0.060273 0.0526851   1.94555 255 255 255
0.499057  0.17559  1.71806 255 255 255
0.187073 0.278122  1.81098 255 255 255
0.129242 0.225917  1.84824 255 255 255
0.122643 0.264905  1.83883 255 255 255
-0.0382923   0.355479    1.85793 255 255 255
0.139932 0.137069   1.8689 255 255 255
-0.00236226    0.150483     1.89884 255 255 255
-0.193644 0.0261165   1.98948 255 255 255
0.0870812  0.235622   1.85524 255 255 255
0.633097 0.138473  1.79241 255 255 255
 0.0521067 -0.0666479    1.94558 255 255 255
-0.0877088  0.0713273    1.94578 255 255 255
0.064659 0.179645  1.87878 255 255 255
 0.413153 0.0502204    1.7896 255 255 255
0.327246 -0.20632  1.87882 255 255 255
0.394889  -0.1881  1.85826 255 255 255
 0.191001 0.0496448    1.8768 255 255 255
0.0988055  0.528577    1.7723 255 255 255
0.0733628  0.111959   1.89151 255 255 255
 0.295581 -0.201685   1.88619 255 255 255
0.0595603  0.250867   1.86106 255 255 255
  0.40755 0.0882616    1.7835 255 255 255
0.718683 0.495302     1.64 255 255 255
 0.15035 0.284071  1.82786 255 255 255
-0.139197 0.0272458   1.97443 255 255 255
0.539514 0.215975  1.69537 255 255 255
0.0952443 -0.055128   1.92894 255 255 255
