ply
format ascii 1.0
element vertex 1146
property float x
property float y
property float z
property uchar red
property uchar green
property uchar blue
end_header
0.207047  1.00935  1.50609 255 255 255
0.0401383   1.83396   1.00541 255 255 255
-0.14139  1.58296  1.18769 255 255 255
0.213555 0.939336  1.52832 255 255 255
0.390321 0.882088  1.50572 255 255 255
-0.111301   1.67853   1.11783 255 255 255
0.572351  1.34463  1.21989 255 255 255
0.306806  1.60565  1.14105 255 255 255
-0.401125   1.22467   1.47932 255 255 255
0.110901  1.82039  1.03833 255 255 255
0.0689767   1.88549  0.965558 255 255 255
0.153229  1.48662  1.22386 255 255 255
0.19891 1.50401 1.20755 255 255 255
0.0187113   1.31958   1.36162 255 255 255
0.0186616   1.80998   1.02158 255 255 255
-0.126813   1.68987    1.1136 255 255 255
0.303061  1.20012  1.36112 255 255 255
0.0165056    1.8409   1.00507 255 255 255
0.27221 1.61424  1.1399 255 255 255
0.209928 0.743851  1.60418 255 255 255
0.521993 0.708918  1.50771 255 255 255
-0.781014   1.34042   1.43026 255 255 255
0.166061  1.85593  1.00947 255 255 255
-0.580998   1.33188   1.39386 255 255 255
0.0211408   1.70458    1.1241 255 255 255
0.388054  1.61259  1.12706 255 255 255
-0.0563097     1.6652    1.13455 255 255 255
0.13186 1.80164 1.04203 255 255 255
0.000349353     1.78466     1.04224 255 255 255
0.253622  1.69749  1.02451 255 255 255
-0.218258    1.4629   1.31664 255 255 255
-0.0340079    1.65072    1.16742 255 255 255
-0.0446395   0.819325    1.64662 255 255 255
0.278034  1.56424  1.16096 255 255 255
0.152255  1.47592  1.23254 255 255 255
0.462102  1.31417  1.27937 255 255 255
-0.635638     1.164   1.55697 255 255 255
-0.434336   1.42254   1.30989 255 255 255
0.0396101   1.70081   1.10991 255 255 255
0.437139  1.32964  1.26233 255 255 255
-0.0979289    1.61241    1.19968 255 255 255
0.0406427   1.84703  0.994942 255 255 255
-0.282597   1.40113   1.35844 255 255 255
-0.0503953   0.844555    1.64441 255 255 255
0.139578    1.501  1.21876 255 255 255
0.0667959    1.8792  0.971951 255 255 255
-0.138917   1.61588   1.16297 255 255 255
0.275867  1.62839  1.13016 255 255 255
-0.68801  1.22098  1.52121 255 255 255
0.344376   1.3829  1.26583 255 255 255
0.032117  1.82458  1.01269 255 255 255
0.0482182   1.88219  0.968757 255 255 255
-0.727812   1.36804   1.38641 255 255 255
0.390727 0.421978  1.71996 255 255 255
0.469926 0.784723  1.49008 255 255 255
0.536529 0.811142   1.4813 255 255 255
0.408485 0.365595  1.72864 255 255 255
-0.0419498    1.69543    1.11235 255 255 255
0.487565  1.57957  1.12358 255 255 255
0.0109577   1.68766   1.12263 255 255 255
0.293588  1.20663  1.36289 255 255 255
-0.288488   1.51832    1.2555 255 255 255
-0.14209  1.68577  1.12753 255 255 255
0.131306  1.89093 0.959322 255 255 255
0.522498 0.739327  1.48432 255 255 255
-0.521536   1.63313   1.21231 255 255 255
-0.607213   1.56866   1.26179 255 255 255
0.107767  1.88689  0.96016 255 255 255
0.404404 0.342041  1.74446 255 255 255
0.428614  1.58923  1.13879 255 255 255
-0.522891  0.990838   1.62713 255 255 255
0.668148 0.952706  1.29853 255 255 255
 0.03535  1.82837 0.999965 255 255 255
0.165394 0.968478  1.50974 255 255 255
0.041741  1.65842  1.13481 255 255 255
0.389905 0.446994  1.66132 255 255 255
0.479389  1.27879  1.27227 255 255 255
-0.355423   1.51071   1.25144 255 255 255
-0.186646   1.52444   1.26904 255 255 255
-0.0363412    1.56532    1.20546 255 255 255
0.122542 0.947265  1.56252 255 255 255
0.223356  1.49097  1.22809 255 255 255
0.356795  1.62699   1.1244 255 255 255
-0.103913   1.69547    1.1111 255 255 255
-0.0101733    1.81652    1.02057 255 255 255
0.528994 0.814452  1.48077 255 255 255
-0.506865   1.65763   1.19566 255 255 255
0.078425  1.78022  1.07591 255 255 255
0.048659  1.69125  1.11382 255 255 255
0.121727  1.89583 0.954926 255 255 255
0.117902  1.79685   1.0364 255 255 255
-0.750772   1.43908   1.37596 255 255 255
-0.0877288     1.5709    1.22664 255 255 255
0.549741 0.689745  1.43542 255 255 255
0.414394 0.346366  1.74124 255 255 255
0.0761357   1.75941   1.07965 255 255 255
0.268498   1.4691   1.2142 255 255 255
-0.34304  1.37329  1.39888 255 255 255
-0.0633013    1.76304    1.06306 255 255 255
-0.189323   1.60654   1.18182 255 255 255
-0.0489089     1.6419     1.1709 255 255 255
0.172127 0.939632  1.51652 255 255 255
-0.362552   1.41794   1.32884 255 255 255
0.114525 0.464432  1.77293 255 255 255
-0.0399142    1.01939    1.54437 255 255 255
0.543287 0.961933  1.44723 255 255 255
-0.207723   1.58451   1.19889 255 255 255
0.135691  1.49076  1.22384 255 255 255
0.15987 1.22742 1.36807 255 255 255
-0.696289   1.52608   1.31558 255 255 255
0.0218301   1.77272   1.05083 255 255 255
0.45991 1.56711 1.13765 255 255 255
-0.181932   1.68723   1.10057 255 255 255
0.0181502   1.76758   1.05497 255 255 255
-0.540281   1.55526   1.24967 255 255 255
-0.497451    1.3602   1.39738 255 255 255
-0.142893   1.15738   1.48915 255 255 255
-0.0954361    1.68296    1.11119 255 255 255
-0.497601   1.30492   1.42665 255 255 255
-0.235706   1.02173   1.57253 255 255 255
-0.237288   1.58822   1.20837 255 255 255
-0.52459  1.65035  1.20641 255 255 255
-0.434809   1.39925   1.35454 255 255 255
-0.233763   1.31804   1.38686 255 255 255
0.335533  1.63015  1.12146 255 255 255
0.538962 0.705514  1.45466 255 255 255
0.348924  1.63405  1.12025 255 255 255
0.435391  1.32063  1.25067 255 255 255
0.020597  1.87697 0.973006 255 255 255
0.196416 0.951472  1.54355 255 255 255
-0.335887  0.898093   1.66808 255 255 255
-0.0580934    1.61191    1.19509 255 255 255
0.537948 0.689244  1.44471 255 255 255
0.133963  1.83352   1.0101 255 255 255
-0.588368   1.26458   1.46648 255 255 255
0.496282 0.717482  1.41473 255 255 255
0.139923  1.48268  1.23076 255 255 255
-0.774169   1.35211   1.42268 255 255 255
-0.268402   1.07175   1.51477 255 255 255
0.459577  1.11236  1.36036 255 255 255
-0.21295  1.47956  1.28443 255 255 255
0.0918475    1.8953  0.955819 255 255 255
-0.172745   1.65072   1.15344 255 255 255
-0.0531262    1.65878    1.15545 255 255 255
-0.210212     1.083   1.52754 255 255 255
0.125314 0.463221  1.76273 255 255 255
-0.232635   1.46543   1.31989 255 255 255
0.155409 0.969569  1.53735 255 255 255
0.0104349   1.71108   1.09971 255 255 255
0.666776 0.964383  1.34866 255 255 255
-0.498463   1.37356   1.39088 255 255 255
0.054627 0.904806  1.57523 255 255 255
-0.00402179     1.82813     1.01853 255 255 255
-0.149267   1.63188    1.1553 255 255 255
0.0748954   1.76545   1.05911 255 255 255
-0.439741   1.46037   1.29411 255 255 255
-0.182614   1.51911   1.28124 255 255 255
0.0382143   1.72641   1.10729 255 255 255
-0.280397   1.42163   1.35344 255 255 255
-0.611563   1.47139   1.31357 255 255 255
0.426719 0.296091  1.69505 255 255 255
-0.505279   1.00274   1.61453 255 255 255
-0.11606  1.66408  1.12994 255 255 255
-0.168246   1.54722   1.22906 255 255 255
0.590349 0.816543   1.4776 255 255 255
0.149512  1.87076 0.978399 255 255 255
-0.806212    1.3016   1.44978 255 255 255
0.497832  0.73352  1.45035 255 255 255
-0.586368   1.24699   1.47597 255 255 255
0.212673   1.5016   1.1982 255 255 255
-0.0784859    1.65904    1.13695 255 255 255
0.528816 0.689293  1.45135 255 255 255
-0.309255  0.867394   1.67939 255 255 255
-0.584483   1.49371   1.29635 255 255 255
0.189991  1.82962  1.01718 255 255 255
0.427337 0.858188  1.38718 255 255 255
-0.633082   1.20126   1.51495 255 255 255
-0.0989936   0.727238    1.68798 255 255 255
0.350769  1.62637  1.12409 255 255 255
 0.46926 0.937331  1.38535 255 255 255
-0.372055   1.44019   1.31329 255 255 255
0.0969343  0.450854   1.78411 255 255 255
-0.466522   1.35903   1.38249 255 255 255
-0.806253   1.30826   1.44981 255 255 255
-0.222909   1.48999   1.27793 255 255 255
-0.0571136    1.75967    1.06441 255 255 255
0.78515 1.06477 1.34502 255 255 255
0.292279  1.57325  1.16731 255 255 255
0.180804   1.8718 0.998791 255 255 255
-0.0391843    1.79786    1.03662 255 255 255
-0.00659713     1.82187      1.0172 255 255 255
-0.0365488    1.74635    1.07331 255 255 255
0.302202  1.67306  1.09423 255 255 255
-0.802005   1.39641   1.40492 255 255 255
0.136981    1.415  1.28602 255 255 255
-0.0277168    1.67332    1.15946 255 255 255
0.545753 0.691776  1.41982 255 255 255
0.0126344   1.78744   1.03988 255 255 255
0.508508  1.35656  1.22328 255 255 255
0.453646 0.396043  1.71088 255 255 255
0.525367 0.883752  1.41108 255 255 255
0.400573   0.7465  1.50579 255 255 255
-0.134529  0.735049   1.70011 255 255 255
0.363497  0.37029  1.72668 255 255 255
-0.0560249    1.63335    1.17936 255 255 255
-0.414006   1.44253   1.32529 255 255 255
-0.0383291    1.79261    1.04069 255 255 255
0.332591  1.59884  1.14632 255 255 255
-0.520105   1.33755   1.41299 255 255 255
-0.664526   1.21661   1.51886 255 255 255
-0.701549    1.2167   1.49841 255 255 255
0.219957 0.849098  1.58891 255 255 255
-0.22616  1.39744    1.355 255 255 255
0.00837503    1.84649   0.998002 255 255 255
-0.197293   1.60714    1.1836 255 255 255
 0.67342 0.952872  1.31714 255 255 255
-0.0623965    1.67653    1.12372 255 255 255
0.171571 0.487608  1.73603 255 255 255
-0.199849   1.41923   1.31831 255 255 255
-0.639849   1.53564   1.28323 255 255 255
-0.126015   1.57218   1.23874 255 255 255
0.714318  1.04041  1.21854 255 255 255
-0.129752   1.51257   1.24377 255 255 255
-0.636704   1.44051   1.33197 255 255 255
0.366328 0.254268  1.77944 255 255 255
-0.419658   1.32865   1.41409 255 255 255
-0.0824866    1.70529    1.10201 255 255 255
0.0149519   1.85238  0.991945 255 255 255
-0.220451   1.05412   1.55423 255 255 255
 -0.3466 0.984245  1.61607 255 255 255
0.287451  1.55172  1.18517 255 255 255
0.414155  0.42085  1.72112 255 255 255
-0.449464    1.3886   1.36502 255 255 255
-0.0916572    1.61875    1.16528 255 255 255
-0.0882992   0.716842    1.69075 255 255 255
-0.515598   1.30963   1.42679 255 255 255
-0.436087   1.31802   1.52171 255 255 255
-0.30949  1.37214  1.38655 255 255 255
-0.029214   1.80479   1.02878 255 255 255
-0.605517   1.60364   1.24156 255 255 255
0.0915392    1.9382  0.898016 255 255 255
0.547941  1.12074  1.27316 255 255 255
0.252312 0.782508  1.58357 255 255 255
-0.386569   1.41963   1.32744 255 255 255
0.103789  1.22457  1.38075 255 255 255
-0.542581   1.33115   1.41322 255 255 255
0.216819  1.02275   1.4941 255 255 255
-0.302874    1.5259   1.24872 255 255 255
0.477853  1.55965  1.13999 255 255 255
0.287863  1.21256  1.36683 255 255 255
-0.773504   1.39121   1.40399 255 255 255
0.466705  1.12199  1.37232 255 255 255
-0.184539   1.51652   1.27156 255 255 255
-0.264673   1.01428   1.58363 255 255 255
-0.441177  0.894636   1.69186 255 255 255
-0.455108  0.885293   1.70851 255 255 255
0.000124295     1.83852     1.00625 255 255 255
0.227867  1.54007  1.19942 255 255 255
-0.455574   1.30643   1.43331 255 255 255
-0.858716    1.3462   1.45495 255 255 255
-0.416203   1.35744   1.38508 255 255 255
-0.765302   1.39862   1.39881 255 255 255
-0.577269   1.20579   1.51639 255 255 255
0.507613  0.72389  1.43097 255 255 255
-0.355566   1.42164   1.32958 255 255 255
0.337998   1.6986   1.0752 255 255 255
-0.0837359    1.61682    1.17018 255 255 255
-0.518272   1.00149   1.62217 255 255 255
-0.612934   1.17426   1.56618 255 255 255
-0.530482  0.999445   1.59659 255 255 255
-0.267148   1.43771   1.33883 255 255 255
-0.37562  1.43287  1.31974 255 255 255
0.150678 0.488943  1.75976 255 255 255
-0.053018   1.69929   1.10665 255 255 255
-0.588212   1.27357   1.46821 255 255 255
-0.559755   1.28817   1.44997 255 255 255
  0.2722 0.850718  1.57007 255 255 255
-0.861041   1.35256   1.44466 255 255 255
0.414115 0.371712  1.72868 255 255 255
0.456959 0.458335  1.70606 255 255 255
-0.364179   1.51684   1.24938 255 255 255
0.522428  1.98915 0.901993 255 255 255
-0.263651   1.48531   1.27909 255 255 255
-0.365388    1.3894   1.36815 255 255 255
-0.257532    1.0056   1.66987 255 255 255
-0.101093   1.63654    1.1413 255 255 255
0.13741 1.85205 0.99732 255 255 255
-0.0397951    1.66292    1.13857 255 255 255
-0.266222   1.44603   1.31206 255 255 255
0.554276  1.96601 0.944631 255 255 255
-0.540698   1.38052   1.34452 255 255 255
0.0954766      1.77   1.05943 255 255 255
-0.362982   1.05312   1.61557 255 255 255
0.453842  1.55452  1.14764 255 255 255
-0.33652  1.08301  1.61134 255 255 255
-0.194921   1.50507   1.26946 255 255 255
-0.0260835    1.75504    1.06882 255 255 255
0.500465  1.97449 0.947242 255 255 255
-0.0134844    1.73979    1.08022 255 255 255
-0.150717    1.6477   1.10238 255 255 255
-0.37945   1.3798  1.37503 255 255 255
0.514578  1.98122 0.926066 255 255 255
0.612588  1.95812 0.965373 255 255 255
0.533394  1.91084  1.04615 255 255 255
0.569187  1.93249  1.00902 255 255 255
0.596783  2.02125 0.845344 255 255 255
0.167897  1.89472 0.970201 255 255 255
0.0699862   1.78252    1.0451 255 255 255
0.527353  1.97032 0.933744 255 255 255
-0.0517979    1.75857    1.06578 255 255 255
-0.0500257    1.72704    1.08029 255 255 255
0.0354252   1.82892    1.0168 255 255 255
-0.175062   1.63757   1.07739 255 255 255
0.191282  1.95843 0.896437 255 255 255
0.0125904   1.64202   1.20855 255 255 255
-0.610624   1.06432   1.61307 255 255 255
-0.436386   1.32709   1.41357 255 255 255
-0.0311478    1.69364    1.11782 255 255 255
-0.161227   1.66192   1.06872 255 255 255
0.0336493    1.0405   1.52647 255 255 255
0.0510675   1.77137   1.06925 255 255 255
0.157093  1.74888  1.06469 255 255 255
 0.62741  1.98468 0.913656 255 255 255
-0.0805664    1.73739    1.05488 255 255 255
0.29047  1.6168 1.13552 255 255 255
-0.0711611    1.68168    1.11094 255 255 255
-0.396012   1.34186   1.40772 255 255 255
0.632085  2.07238 0.743514 255 255 255
-0.37079  1.43945   1.3171 255 255 255
0.602352  2.00677 0.877667 255 255 255
0.424182  1.73849  1.04121 255 255 255
-0.334574   1.42266   1.32867 255 255 255
-0.173684   1.61242   1.10269 255 255 255
0.589504  1.98998 0.891825 255 255 255
-0.113154   1.65004   1.10939 255 255 255
0.743704  1.96888 0.917582 255 255 255
0.494818  1.94868 0.983249 255 255 255
0.357046  1.97401  0.90187 255 255 255
0.240876  1.88101  1.03244 255 255 255
-0.158026   1.62941   1.15872 255 255 255
-0.0695492    1.69945    1.08799 255 255 255
0.0285446   1.83395   1.00444 255 255 255
-0.0947102     1.7037    1.10235 255 255 255
0.135056  1.91291 0.944821 255 255 255
-0.289779   1.45751    1.2976 255 255 255
-0.0753397    1.75776    1.03636 255 255 255
-0.492196   1.41826   1.33066 255 255 255
-0.338619   1.37349   1.38694 255 255 255
0.0343491   1.79114   1.05938 255 255 255
 0.21538  1.96451 0.874978 255 255 255
-0.477797   1.43556   1.31288 255 255 255
0.593213  2.01481 0.860033 255 255 255
-0.0299852    1.77095    1.03871 255 255 255
-0.0898883    1.75106    1.03185 255 255 255
0.0836672   1.85632   1.00495 255 255 255
0.725226   1.9823 0.916714 255 255 255
-0.377631   1.31821   1.42435 255 255 255
-0.42831   1.2775  1.46035 255 255 255
0.0295331   1.74531   1.09932 255 255 255
-0.131944   1.61899   1.10912 255 255 255
-0.366879   1.32681   1.41661 255 255 255
0.472319  1.83194 0.926802 255 255 255
-0.0138984    1.78679    1.03454 255 255 255
0.147099     1.92 0.945208 255 255 255
-0.0213626    1.76853    1.05315 255 255 255
-0.0146569    1.79234    1.02013 255 255 255
0.48093 1.92354 1.01232 255 255 255
0.531378  1.96319 0.958053 255 255 255
-0.136639   1.57657   1.15468 255 255 255
0.150288   1.8732  1.00429 255 255 255
0.0351241   1.76379   1.08739 255 255 255
-0.412289   1.49292   1.26969 255 255 255
0.510409  1.95035 0.981477 255 255 255
0.510242  1.94833 0.980632 255 255 255
-0.644034   1.01701   1.64524 255 255 255
0.0850247   1.85945  0.980514 255 255 255
-0.143724   1.62761    1.0993 255 255 255
-0.497936   1.41886    1.3249 255 255 255
-0.155646   1.64541   1.15052 255 255 255
0.604541  1.95281 0.974252 255 255 255
0.508748  1.95409 0.969545 255 255 255
-0.0186059    1.77586    1.04001 255 255 255
-0.145539   1.56678   1.15994 255 255 255
-0.479765   1.05771   1.62603 255 255 255
0.506055  1.96265 0.955374 255 255 255
0.611032  2.00046 0.880606 255 255 255
-0.527815   1.14572   1.56135 255 255 255
0.155512  1.95731 0.906174 255 255 255
-0.129338   1.58475   1.15444 255 255 255
0.686264  2.00841 0.848289 255 255 255
0.0451687   1.74812   1.09412 255 255 255
-0.0728398    1.64155    1.14406 255 255 255
0.0227103    1.7526    1.0894 255 255 255
0.0312713   1.84777  0.984548 255 255 255
0.0807261   1.80221   1.05887 255 255 255
-0.493786   1.29623   1.43333 255 255 255
-0.260042   1.43817   1.33821 255 255 255
0.349871  1.96873 0.912751 255 255 255
-0.0239656    1.82416   0.990717 255 255 255
-0.391792   1.36584   1.37607 255 255 255
0.130107  1.90608 0.958955 255 255 255
-0.624622   1.19011   1.51821 255 255 255
-0.0283364    1.74563    1.07378 255 255 255
0.195694  1.96499 0.887692 255 255 255
-0.094549   1.59967   1.16702 255 255 255
0.039288  1.85515 0.974044 255 255 255
0.137926  1.93764 0.907552 255 255 255
0.628934  1.95282 0.980367 255 255 255
0.0265857   1.81827    1.0219 255 255 255
0.00689548     1.8139    1.01245 255 255 255
0.221862  1.89364  0.99576 255 255 255
0.165655  1.95808   0.8913 255 255 255
0.0600529    1.8373   1.01372 255 255 255
0.139344  1.84002  1.04049 255 255 255
0.115868  1.91038 0.943045 255 255 255
0.134211  1.83022  1.04104 255 255 255
-0.181046   1.65331   1.15145 255 255 255
-0.0781402    1.65159    1.14393 255 255 255
-0.350009   1.03768   1.64995 255 255 255
0.527249  1.95585 0.963983 255 255 255
0.14592 1.84492 1.03529 255 255 255
0.0466226   1.86737   0.96567 255 255 255
-0.444536    1.3569   1.38157 255 255 255
0.299335 0.927666  1.50627 255 255 255
-0.0915855    1.67688    1.10594 255 255 255
-0.485531   1.38019   1.36594 255 255 255
0.590881  1.96135 0.964037 255 255 255
-0.0303136    1.77388    1.02983 255 255 255
0.0135135   1.69089   1.14888 255 255 255
-0.114986    1.6757   1.08385 255 255 255
-0.115882   1.64041   1.12195 255 255 255
0.108902  1.88644 0.958414 255 255 255
-0.0667944    1.77818    1.02312 255 255 255
0.0938089   1.90643  0.954613 255 255 255
-0.0243376    1.69444     1.1213 255 255 255
-0.0514714    1.74819    1.07396 255 255 255
0.0672265   1.84518   1.00587 255 255 255
0.0406947   1.84717  0.995186 255 255 255
0.0142338   1.81123   1.00321 255 255 255
-0.0674328    1.69272    1.09703 255 255 255
0.0493549    1.7112    1.1011 255 255 255
-0.114786  0.440827   1.85742 255 255 255
0.0609513  0.372818   1.80302 255 255 255
0.0177416  0.196121   1.86507 255 255 255
-0.530002  0.962851   1.65969 255 255 255
-0.467543   0.15238   2.08238 255 255 255
-0.185038   0.38409    1.8927 255 255 255
-0.562173  0.984498   1.61842 255 255 255
-0.299912  0.487613    1.8266 255 255 255
-0.616883 0.0639635   2.23028 255 255 255
0.206245 0.289348  1.80918 255 255 255
0.0505605  0.216369   1.86862 255 255 255
-0.0367559 -0.0131268    1.95137 255 255 255
-0.0393516   0.427988    1.82875 255 255 255
-0.107912  0.261811   1.89804 255 255 255
0.169023 0.259051  1.80776 255 255 255
0.100401 0.342989  1.82485 255 255 255
0.084581 0.196478  1.86544 255 255 255
-0.468522  0.292566   2.06847 255 255 255
-0.0375493   0.358503    1.84228 255 255 255
0.0322141  0.151377   1.90032 255 255 255
-0.0490776    0.20294    1.87551 255 255 255
  -0.12322 0.00302618    1.98522 255 255 255
-0.318239  0.316371   1.97933 255 255 255
 -0.141274 -0.0389463    1.97105 255 255 255
-0.256995  0.259896   1.91713 255 255 255
0.227176 0.299882  1.85328 255 255 255
-0.076039 0.0246929   1.92641 255 255 255
-0.0306216   0.227746    1.88517 255 255 255
-0.42201 0.911443  1.66722 255 255 255
-0.192426 0.0281682    1.9916 255 255 255
0.0668588  0.168307   1.89998 255 255 255
-0.660907  0.715351   1.79862 255 255 255
0.0023335  0.537205   1.74278 255 255 255
0.155098 0.128911  1.91385 255 255 255
-0.0283384  0.0815983    1.94262 255 255 255
 -0.215666 -0.0523241    1.97954 255 255 255
-0.221711  0.250545   1.92708 255 255 255
  -0.535935 -0.00397314     2.17854 255 255 255
0.235146 0.250082  1.86347 255 255 255
0.0308723  0.354728   1.83535 255 255 255
-0.750996  0.492304   1.98113 255 255 255
-0.0184468   0.455637      1.807 255 255 255
-0.0237624   0.509844    1.76331 255 255 255
 -0.156161 -0.0072769    1.98074 255 255 255
-0.173965  -0.04766   2.00333 255 255 255
-0.358047  0.161495   2.04264 255 255 255
0.0672811  0.244602   1.88286 255 255 255
-0.765436   0.46461   1.99838 255 255 255
0.205407  0.38709   1.7699 255 255 255
 -0.216042 -0.0357682    2.00873 255 255 255
-0.879283  0.937108   1.75742 255 255 255
0.100431 0.140833  1.89695 255 255 255
0.121589 0.256904  1.86697 255 255 255
-0.516199  0.871778   1.71835 255 255 255
-0.137473  0.323157   1.91403 255 255 255
0.00310704   0.419108    1.79897 255 255 255
0.0624139  0.385406   1.81931 255 255 255
 -1.0666 0.849232  1.84591 255 255 255
-0.335751 -0.198145   2.07731 255 255 255
-0.628073  0.408852   1.97727 255 255 255
 -0.185173 -0.0698352    2.01188 255 255 255
-0.315679 -0.192773   2.07435 255 255 255
0.0911583  0.104174   1.90992 255 255 255
 -1.0668 0.937052   1.7856 255 255 255
-0.676208  0.131182   2.25431 255 255 255
0.230451 0.331881  1.83662 255 255 255
-0.73075 0.457678  1.98435 255 255 255
-0.164557 0.0550555   1.98089 255 255 255
-0.701783   0.77221   1.78365 255 255 255
0.189054 0.380046  1.77243 255 255 255
-0.233859  0.223658   1.93096 255 255 255
0.0695288 0.0900372   1.92475 255 255 255
-0.482643  0.323522   1.94351 255 255 255
  -0.24565 -0.0877839    2.02021 255 255 255
-0.335094  0.287483   1.94854 255 255 255
0.185266 0.298692  1.85592 255 255 255
-0.411749  0.819452   1.72124 255 255 255
-0.352861  0.869595   1.68112 255 255 255
-0.0223668   0.186943    1.89347 255 255 255
0.0117179  0.090586   1.91162 255 255 255
-0.618538   1.07015    1.6323 255 255 255
-0.167552  0.150157   1.95548 255 255 255
0.103803 0.410079  1.80698 255 255 255
0.0383067  0.100994   1.90875 255 255 255
-0.0493828   0.491532    1.77621 255 255 255
-0.343306  0.506001   1.86962 255 255 255
0.0941936  0.362744   1.81919 255 255 255
 -0.537166 -0.0833937    2.19173 255 255 255
-0.389807  0.296951   2.02302 255 255 255
-0.682663 0.0174992   2.29011 255 255 255
-0.00418487    0.333502     1.85257 255 255 255
-0.363257    0.2038   2.02786 255 255 255
0.0626108  0.403071   1.81227 255 255 255
-0.214485  0.292673   1.92414 255 255 255
-0.371956 0.0984654   2.05264 255 255 255
0.0112708  0.141023   1.90733 255 255 255
0.0350033   0.39165   1.83358 255 255 255
-0.451929  0.961878   1.63678 255 255 255
-0.479572  0.219811   2.09012 255 255 255
0.0111449  0.313399   1.85877 255 255 255
0.167441 0.219807  1.87452 255 255 255
0.100797 0.426407  1.78787 255 255 255
-0.526299   0.19265   2.07343 255 255 255
-0.377534 -0.203957   2.14783 255 255 255
0.121059 0.288973  1.84546 255 255 255
0.0517968   0.49321   1.76548 255 255 255
0.076995 0.532122  1.76943 255 255 255
 -0.328283 -0.0761768    2.05132 255 255 255
-0.374083  0.122658   2.05361 255 255 255
-0.122323  0.383142   1.87069 255 255 255
0.0252417  0.555108   1.73688 255 255 255
0.0197146  0.294315   1.85091 255 255 255
-0.59082 0.310934  1.99855 255 255 255
0.0118741  0.534487   1.73633 255 255 255
-0.0439858   0.153381    1.91257 255 255 255
-0.809754  0.474995   2.01278 255 255 255
 0.108157 0.0831923   1.90239 255 255 255
0.0731667  0.356827   1.83208 255 255 255
0.101863 0.338315  1.82564 255 255 255
-0.0173119   0.158018    1.90305 255 255 255
-0.675376 0.0602858   2.11688 255 255 255
  -0.56279 -0.0694925    2.19524 255 255 255
-0.287595 0.0977229   2.01846 255 255 255
-0.340679 -0.170963   2.07109 255 255 255
-0.659857   1.07725   1.62105 255 255 255
-0.67818  0.79738  1.76459 255 255 255
-0.465985  0.223327   2.09429 255 255 255
0.0847112   0.11649   1.91278 255 255 255
  -0.1962 -0.127773   2.00211 255 255 255
-0.0454832  -0.125705    1.97156 255 255 255
0.079189 0.472701  1.76967 255 255 255
-0.625384  0.901319    1.7093 255 255 255
-0.106869  0.394559     1.871 255 255 255
-0.507584 0.0755073   2.14313 255 255 255
0.0616595   0.42189   1.79218 255 255 255
-0.0312662   0.409577    1.80149 255 255 255
0.171281 0.158389  1.90197 255 255 255
-0.148594 0.0570598   1.94251 255 255 255
-0.222484  0.184636   1.96744 255 255 255
-0.594373  0.800418   1.74426 255 255 255
0.0426792 0.0593074   1.92757 255 255 255
0.156667 0.319545  1.82925 255 255 255
-0.537193  0.970019   1.63858 255 255 255
-0.0740936   0.300252    1.88145 255 255 255
-0.831992  0.786169   1.80902 255 255 255
 -0.137562 0.00641253    1.98115 255 255 255
-0.0200755 -0.0210151    1.95085 255 255 255
-0.115369  0.242533   1.89662 255 255 255
-0.13597 0.267456  1.90931 255 255 255
 -0.179073 -0.0161277    2.01198 255 255 255
-0.291164  0.283734    1.9609 255 255 255
-0.64654 0.559909  1.90759 255 255 255
-0.330832 0.0216272   2.03809 255 255 255
0.0446143  0.428963   1.78996 255 255 255
0.256791  0.25143  1.88809 255 255 255
-0.839309  0.583675   1.93154 255 255 255
-0.026524   0.57762   1.71894 255 255 255
0.0142283  0.381951   1.82497 255 255 255
-0.464767  0.208126   2.06917 255 255 255
0.094204 0.348322  1.82975 255 255 255
0.129807 0.276606  1.84922 255 255 255
-0.159971 -0.025301   1.99085 255 255 255
-0.772817  0.983158   1.69496 255 255 255
  -0.328402 -0.00768744     2.03831 255 255 255
-0.723997  0.988713   1.67501 255 255 255
-0.0174153   0.178039    1.87663 255 255 255
0.0465179  0.382027   1.82109 255 255 255
0.0133772  0.186669   1.87445 255 255 255
-0.741702  0.999394   1.68121 255 255 255
0.159877 0.247119  1.86266 255 255 255
-0.343364 -0.143498   2.07416 255 255 255
-0.626155 0.0893674   2.23368 255 255 255
-0.625516  0.235758   2.03654 255 255 255
0.208448 0.213915   1.8897 255 255 255
0.0834267  0.213327   1.87247 255 255 255
   0.151 0.297651  1.84545 255 255 255
-0.465261 0.0873609   2.06031 255 255 255
 -0.553519 0.00373791    2.18483 255 255 255
-0.0298503   0.592606    1.72101 255 255 255
-0.449639 -0.183849   2.16313 255 255 255
-0.545198  0.808916    1.7294 255 255 255
-0.189764 0.0757577   1.97059 255 255 255
0.0452571  0.355399   1.81349 255 255 255
-0.521633 -0.058498   2.14278 255 255 255
-0.78936 0.455799  2.01363 255 255 255
0.0674962  0.143345   1.90631 255 255 255
-0.0925946   0.244186        1.9 255 255 255
0.0193062  0.151966    1.8782 255 255 255
-0.484904 0.0870486   2.12018 255 255 255
0.133457  0.37206  1.81197 255 255 255
-0.0616282   0.411303    1.83463 255 255 255
0.188459 0.152418  1.90938 255 255 255
-0.0541975   0.403951    1.83426 255 255 255
0.066624 0.495052  1.78594 255 255 255
-0.503875  0.880562   1.71186 255 255 255
-0.675779   1.07358   1.63199 255 255 255
0.0776197  0.348731   1.81751 255 255 255
0.120501 0.220486  1.88124 255 255 255
0.127711 0.332318  1.82969 255 255 255
-0.263812 0.0957349   2.00777 255 255 255
0.0316043  0.257306   1.87265 255 255 255
-0.311888  0.551856   1.81367 255 255 255
-0.118199   0.14136   1.94024 255 255 255
-0.627413  0.541321   1.89918 255 255 255
-0.974566  0.971478   1.73697 255 255 255
0.233589  0.33522  1.76807 255 255 255
-0.932168  0.861237   1.80074 255 255 255
-0.961316  0.975209    1.7288 255 255 255
 -0.274323 -0.0393395    2.02249 255 255 255
-0.420095  0.296502   1.97445 255 255 255
 -0.25532 -0.177327   2.01865 255 255 255
-0.529605  0.976613   1.63447 255 255 255
0.0540197  0.315755   1.83504 255 255 255
-0.642656  0.166244   2.22937 255 255 255
-0.43083  0.35318  1.94969 255 255 255
-0.0376141   0.496458    1.77263 255 255 255
  0.2401 0.265642  1.87743 255 255 255
 -0.4765 0.883896  1.70254 255 255 255
 -0.610963 -0.0919125    2.23657 255 255 255
-0.717368  0.919606   1.70474 255 255 255
-0.487262   0.92963   1.68218 255 255 255
-0.499389  0.157963   2.10708 255 255 255
0.113068 0.398024  1.80095 255 255 255
-0.0153872 -0.0112684    1.95912 255 255 255
 -0.672594 0.00429195    2.27746 255 255 255
-0.338098  0.206212   2.00504 255 255 255
-0.0198123   0.171179    1.89729 255 255 255
-0.743187  0.909958   1.71892 255 255 255
  0.1162 0.405751  1.79987 255 255 255
-0.846964  0.481865   2.02007 255 255 255
-0.236059   0.10733   1.98999 255 255 255
-0.618434   0.78399   1.76064 255 255 255
-0.704667  0.072168   2.28464 255 255 255
-0.689313  0.169319   2.08668 255 255 255
-0.239315  0.557874    1.7947 255 255 255
-0.433379   0.39556   1.93156 255 255 255
-0.652988  0.542197   1.91409 255 255 255
-0.368741  0.885886   1.67827 255 255 255
-0.0920469  0.0095415    1.96815 255 255 255
-0.293511  0.604897    1.8107 255 255 255
-0.172246  0.454739    1.8664 255 255 255
0.151204 0.306995  1.84243 255 255 255
 -0.147952 -0.0305087    1.99306 255 255 255
-1.03453 0.799413  1.85679 255 255 255
-0.245649   0.61969   1.77563 255 255 255
-0.206346  0.413322    1.8678 255 255 255
-0.0477444   0.369315    1.84278 255 255 255
-0.158881  0.353334   1.88805 255 255 255
-0.188739  0.110433   1.97225 255 255 255
-0.099071 0.0843172   1.94181 255 255 255
-0.186799  0.126613   1.95755 255 255 255
0.0794268  0.243265   1.86133 255 255 255
0.233711 0.323271   1.8131 255 255 255
0.0598514  0.439747   1.80362 255 255 255
0.186112 0.293469  1.85576 255 255 255
-0.65115 0.723643  1.79486 255 255 255
 -0.187274 -0.0741289    2.00276 255 255 255
0.0685954   0.23088   1.87316 255 255 255
0.0144254  0.426313   1.79685 255 255 255
-0.593906  0.134893   2.20169 255 255 255
0.0934351   0.31271   1.83706 255 255 255
-0.427651  0.342756   1.95202 255 255 255
-0.245993 -0.155608   2.00349 255 255 255
-0.282568  0.249178   1.97927 255 255 255
-0.204376 0.0453412   1.98955 255 255 255
-0.503936  0.177528   2.11854 255 255 255
-1.13212 0.904265  1.80078 255 255 255
0.123979 0.121279   1.8943 255 255 255
-0.136487  0.289351   1.90168 255 255 255
0.0718763   0.33115   1.82482 255 255 255
0.040799 0.494752  1.76286 255 255 255
-0.082109  0.306421   1.87718 255 255 255
0.0772026  0.206631   1.87876 255 255 255
-0.130999  0.388724   1.86828 255 255 255
0.110389 0.121329  1.90618 255 255 255
-0.12165 0.354493  1.86653 255 255 255
-0.672718  0.755359   1.78653 255 255 255
-0.778861  0.956418   1.70833 255 255 255
-0.964929  0.843898   1.82396 255 255 255
-0.333336 -0.088659   2.05342 255 255 255
-0.0142813      0.217    1.89227 255 255 255
0.159053 0.211029  1.89198 255 255 255
0.0914736  0.320845   1.83182 255 255 255
0.109178 0.377008  1.74235 255 255 255
0.0340086  0.461514   1.77548 255 255 255
-0.716192  0.873916   1.73595 255 255 255
-0.208162 -0.121075   2.01278 255 255 255
0.176495 0.194461  1.89741 255 255 255
-0.63566 0.178081  2.07433 255 255 255
-0.0794076   0.142065    1.92679 255 255 255
0.0999715  0.319376   1.82783 255 255 255
-0.645519  0.798357   1.75759 255 255 255
-0.474159  0.177079   2.09843 255 255 255
-0.187404  0.254801   1.91651 255 255 255
-0.294282  0.155741   2.01055 255 255 255
0.068092 0.300698  1.84131 255 255 255
0.0630465  0.156528   1.89522 255 255 255
-0.330126 -0.178169   2.06475 255 255 255
-0.277341   0.22492   1.96198 255 255 255
-0.709796  0.737742   1.80636 255 255 255
0.152092 0.329325  1.82364 255 255 255
-0.842976   0.61709   1.92111 255 255 255
-0.880023  0.792843   1.81324 255 255 255
0.0184791 0.0532571   1.86951 255 255 255
0.0205896 0.0420276   1.91785 255 255 255
-0.106505  0.314552   1.87071 255 255 255
-0.535817  0.124935   2.16772 255 255 255
 -0.669012 -0.0513814    2.27698 255 255 255
 -0.18192 -0.145158   1.99728 255 255 255
-0.111286 -0.019366   1.94284 255 255 255
0.0702631  0.424237   1.79342 255 255 255
-0.925886  0.969092   1.74132 255 255 255
-0.441023  0.275423   1.96374 255 255 255
-0.755055  0.787081   1.79437 255 255 255
-0.226225 -0.175333   2.00778 255 255 255
-0.649968  0.892727   1.70968 255 255 255
0.104063 0.162532  1.89493 255 255 255
-0.887292  0.590277   1.92267 255 255 255
 0.0489455 -0.0587952     1.9362 255 255 255
-0.0562079   0.560363    1.73717 255 255 255
-0.0203381   0.362262    1.83386 255 255 255
-0.875704  0.566691   1.96137 255 255 255
-0.391136 -0.128537   2.14006 255 255 255
-0.338648 -0.222148   2.07987 255 255 255
-0.945991   1.02066   1.70118 255 255 255
-0.108565  0.291853   1.89369 255 255 255
-0.0660704 -0.0807571    1.96229 255 255 255
-0.0271347   0.555538    1.73737 255 255 255
-0.140424  0.234897   1.90997 255 255 255
-0.404839  0.138392   2.05194 255 255 255
-0.388735 -0.147494   2.14108 255 255 255
-0.411479  0.861431    1.7029 255 255 255
-0.13616 0.132542  1.94471 255 255 255
-0.0525579   0.227882    1.87888 255 255 255
-0.292137  0.137286   2.00482 255 255 255
-0.584827  0.162473   2.18442 255 255 255
-0.627058  0.983071    1.6598 255 255 255
-1.02009 0.872744  1.82461 255 255 255
0.000977472   0.0866704     1.91569 255 255 255
-0.57254 0.434354  1.93324 255 255 255
-0.591694  0.983031   1.64773 255 255 255
0.147485 0.187004  1.89924 255 255 255
-0.426711 -0.191927    2.1176 255 255 255
-0.401558  0.835188   1.71621 255 255 255
-0.575363 0.0626082   2.20828 255 255 255
-0.990605  0.952679    1.7489 255 255 255
-0.886654   1.04851   1.66748 255 255 255
-0.133984  0.347521   1.87333 255 255 255
-0.422768  0.350252   1.95274 255 255 255
-0.298725 0.0625922   2.02114 255 255 255
-0.193236  0.282169   1.93213 255 255 255
 -0.416672 -0.0700063    2.10422 255 255 255
-0.741171  0.806234   1.77504 255 255 255
 -0.64304 0.0847122    2.2441 255 255 255
-0.148458  -0.16095   1.99525 255 255 255
-0.692071  0.076747   2.28556 255 255 255
-0.126104  0.361353   1.87113 255 255 255
-0.619063   1.01547   1.64822 255 255 255
-0.659252  0.730858   1.79354 255 255 255
-0.564328  0.909742   1.67661 255 255 255
0.0518848  0.418509   1.81041 255 255 255
-0.0404295 -0.0844862    1.97094 255 255 255
-1.06402  0.96498  1.75801 255 255 255
-0.35825 0.528559  1.85081 255 255 255
-0.77325 0.818634   1.7755 255 255 255
-0.561645   0.14143   2.17748 255 255 255
-0.590257  0.970546    1.6519 255 255 255
-0.0907643   0.319753    1.87827 255 255 255
-0.210461 0.0783125   1.97531 255 255 255
-0.0187429 -0.0171341    1.94885 255 255 255
 -0.062288 -0.0565529     1.9711 255 255 255
0.068881 0.429193  1.80618 255 255 255
0.131765 0.142144  1.90545 255 255 255
-0.882698   0.56453   1.95743 255 255 255
0.0227055   0.32374   1.83887 255 255 255
-0.0185475 -0.0656023     1.9648 255 255 255
-0.266874 0.0778252   2.00697 255 255 255
-0.10513 0.221719  1.91329 255 255 255
-0.44024 0.811678  1.73585 255 255 255
-0.0529852   0.358598    1.84119 255 255 255
-0.283473 -0.034208   2.02616 255 255 255
 -0.546284 -0.0227629    2.14625 255 255 255
-0.0560531   0.371212    1.84053 255 255 255
0.0584599   0.18324    1.8786 255 255 255
0.00481972 -0.0226325    1.95233 255 255 255
-0.953894   0.66184   1.92523 255 255 255
-0.610357   1.08069   1.60578 255 255 255
-0.0547869   0.145139    1.91638 255 255 255
-0.283598 -0.014085   2.02537 255 255 255
-0.100625   0.37448   1.85885 255 255 255
-0.0886853   0.328705     1.8759 255 255 255
-0.0260554   0.100347    1.92482 255 255 255
0.0137134   0.30818   1.85639 255 255 255
-0.453835 0.0740606   2.10857 255 255 255
-0.00904321     0.61549     1.68914 255 255 255
0.0875639  0.507811   1.74671 255 255 255
-0.723095   1.10251   1.62844 255 255 255
-0.309955  0.240794   2.00111 255 255 255
0.133678 0.182011  1.88923 255 255 255
0.0779679  0.229128   1.86739 255 255 255
0.266291 0.353835  1.75185 255 255 255
-0.0533305   0.349117    1.84466 255 255 255
-0.708463  0.123411   2.28393 255 255 255
-0.256623  0.176862   1.99096 255 255 255
-0.243516  0.151202   1.98468 255 255 255
-0.215861  0.219397   1.95021 255 255 255
 -0.14035 -0.017563   1.96428 255 255 255
0.0544462  0.374352   1.81993 255 255 255
-0.642264  0.902116    1.7028 255 255 255
-1.02677 0.798594  1.86101 255 255 255
0.216197 0.275206  1.80407 255 255 255
-0.0547471 -0.0917409    1.96362 255 255 255
-1.03588 0.978201  1.74655 255 255 255
-0.475353  0.215461   2.08881 255 255 255
-0.684947   1.10047    1.6162 255 255 255
0.0370292  0.278751   1.84652 255 255 255
0.0432755  0.100044   1.92385 255 255 255
-0.517529  0.916204   1.69158 255 255 255
-0.202799   0.50639   1.82058 255 255 255
-1.04331 0.861109  1.83819 255 255 255
0.190608 0.230648  1.88163 255 255 255
-0.031779  0.379412   1.83751 255 255 255
-0.0903293   0.459575    1.81962 255 255 255
-0.0162283   0.333189    1.84818 255 255 255
0.0760537 0.0794347   1.92682 255 255 255
 0.24672 0.238336  1.87978 255 255 255
-0.682039  0.766852   1.78168 255 255 255
 -0.265696 -0.0181978    2.03598 255 255 255
-0.257712 0.0582092   2.00832 255 255 255
-0.198439  0.084474   1.97584 255 255 255
-0.235748  0.239337   1.91997 255 255 255
 0.19178 0.382826  1.72311 255 255 255
-0.326758  0.258697   1.96182 255 255 255
-0.811148  0.450016   2.02201 255 255 255
-0.104248 -0.153481   2.00609 255 255 255
-0.607705   1.01178     1.635 255 255 255
 -0.301977 -0.0389621    2.06473 255 255 255
-0.419727  0.186299   2.01336 255 255 255
-0.117017  0.699029    1.7226 255 255 255
0.159049 0.266436  1.85284 255 255 255
-0.0706762   0.230492    1.90231 255 255 255
-0.783361  0.707135   1.84826 255 255 255
0.185576 0.197029  1.88287 255 255 255
-1.08876 0.867093  1.84638 255 255 255
-0.109366  0.395382   1.86274 255 255 255
-0.277692  0.230299   1.98267 255 255 255
 -0.658807 -0.0289348    2.26433 255 255 255
-0.150915  0.230078   1.91658 255 255 255
0.277831  0.30971  1.78195 255 255 255
-0.605916   1.05115   1.62013 255 255 255
-0.531949  0.257732   2.01316 255 255 255
-0.427266  0.143059   2.07879 255 255 255
-0.75857 0.787441  1.78399 255 255 255
 -0.253462 -0.0599298    2.01506 255 255 255
-0.491369    0.1048   2.06755 255 255 255
-0.696693  0.109732   2.28081 255 255 255
0.0565894  0.417025   1.80082 255 255 255
0.0531114  0.186681   1.87918 255 255 255
-0.6165 1.07638 1.60941 255 255 255
-0.334574  0.076253   2.04197 255 255 255
-0.405428  0.115961   2.06255 255 255 255
-0.382075  0.853816   1.70213 255 255 255
-0.929789  0.920226   1.76239 255 255 255
-0.103908  0.271479   1.89533 255 255 255
0.221044 0.322682  1.77084 255 255 255
0.00750604   0.324794    1.85736 255 255 255
0.00685481   0.326641    1.84371 255 255 255
-0.559719 0.0919473    2.1795 255 255 255
-0.534569 -0.102804   2.17601 255 255 255
-0.255567  0.195689   1.98231 255 255 255
-0.00941427    0.511096     1.76296 255 255 255
-0.810109  0.838157   1.76537 255 255 255
-0.175139  0.345444   1.86617 255 255 255
0.0247192  0.186962   1.87508 255 255 255
  -0.660902 0.000462549     2.26115 255 255 255
-1.03063 0.866464  1.82936 255 255 255
-0.277558 -0.112363   2.02135 255 255 255
-0.207941  0.265226   1.90749 255 255 255
0.0302885  0.270856   1.86121 255 255 255
-0.157894  0.327856    1.8947 255 255 255
0.0205522  0.554932   1.73702 255 255 255
-0.570087  0.275685   2.04153 255 255 255
-0.346992   0.24103   2.02275 255 255 255
-0.913899  0.947286   1.75764 255 255 255
-0.104514  0.152152    1.9394 255 255 255
-0.581204   1.01815   1.62693 255 255 255
-0.461172  0.883821   1.69469 255 255 255
-0.426454  0.323345   1.94774 255 255 255
 -0.162608 -0.0396431    1.97656 255 255 255
-0.229574  0.229632   1.95417 255 255 255
-0.0611076 -0.0976792      1.958 255 255 255
 -1.1327 0.916339  1.80283 255 255 255
 -0.144046 0.00917724    1.97706 255 255 255
-0.753235   0.80993    1.7737 255 255 255
0.198434 0.317674  1.84032 255 255 255
-0.255343  0.159352   1.98146 255 255 255
-0.61756 0.758151  1.76952 255 255 255
-0.441455  0.174379   2.07082 255 255 255
-0.676862   0.12023    2.2693 255 255 255
0.164216 0.165169  1.90119 255 255 255
-0.269729  0.657951    1.7473 255 255 255
0.0181783  0.386424   1.81596 255 255 255
 -0.162627 -0.0771942     2.0164 255 255 255
-0.298069  0.113349   2.01985 255 255 255
-0.134581     0.299   1.89632 255 255 255
-0.134824  0.299567   1.89106 255 255 255
-0.889243   1.05343   1.66461 255 255 255
0.0465201  0.240053    1.8564 255 255 255
 -0.165147 0.00574661    1.97312 255 255 255
-0.983927  0.988174    1.7294 255 255 255
-0.0948918   0.209823    1.91232 255 255 255
-0.477782  0.257886   2.07987 255 255 255
-0.220747  0.142086    1.9672 255 255 255
-0.837594  0.610667   1.91611 255 255 255
-0.515377  0.931603   1.68578 255 255 255
-0.6694 1.09297 1.61646 255 255 255
 0.13922 0.304844  1.84666 255 255 255
-0.151954  0.237301   1.91929 255 255 255
0.0259076   0.17526   1.87737 255 255 255
-0.579368  0.147193   2.18512 255 255 255
0.105705 0.321865  1.82435 255 255 255
0.0442002  0.380937   1.82566 255 255 255
-0.250615  0.212872   1.97634 255 255 255
 -0.413712 -0.0461374    2.09056 255 255 255
-0.877434  0.923941   1.75907 255 255 255
-0.183746  0.399556   1.88111 255 255 255
-0.334444  0.260151   1.97163 255 255 255
-0.0504392  0.0641712    1.95202 255 255 255
-0.00838118    0.609479      1.6829 255 255 255
-0.161773  0.283924   1.91806 255 255 255
  0.040322 -0.0607967    1.93474 255 255 255
-0.319609  0.271469   1.99632 255 255 255
-0.468315  0.428508   1.89942 255 255 255
-0.316818  0.380215   1.96422 255 255 255
-0.287325  0.242131   1.98515 255 255 255
-0.968697  0.902712   1.79109 255 255 255
-0.480597  0.829975   1.73264 255 255 255
0.102677 0.448889  1.77115 255 255 255
-0.0221411   0.454466    1.79468 255 255 255
-0.151138  0.327622   1.89997 255 255 255
0.0636852  0.292947   1.84186 255 255 255
-0.217128 -0.123659   2.01782 255 255 255
-0.931488  0.638909   1.93692 255 255 255
-0.229572  0.117806   1.99455 255 255 255
-0.848671    1.0734   1.64267 255 255 255
0.028217 0.313799  1.84569 255 255 255
-0.571034    1.0339   1.61987 255 255 255
 -0.111126 -0.0636893    1.98524 255 255 255
-0.646805  0.716371   1.80035 255 255 255
0.147451 0.189761  1.84809 255 255 255
0.0906973   0.50049   1.77891 255 255 255
-0.277403 -0.121384   2.02716 255 255 255
 0.074925 0.0740082   1.91324 255 255 255
0.0765082  0.431201   1.80565 255 255 255
-0.955748  0.841103   1.81942 255 255 255
 -0.268283 -0.0884642      2.027 255 255 255
-0.886429   1.00736   1.71831 255 255 255
-0.696116  0.955042   1.68019 255 255 255
0.0792897  0.082496    1.8997 255 255 255
-0.703063  0.864323   1.73808 255 255 255
-0.514126 0.0140588   2.11563 255 255 255
-0.154786  0.425069   1.86104 255 255 255
0.0604388  0.231567   1.87352 255 255 255
-0.143236  0.123008   1.95388 255 255 255
-0.320637  0.324741   1.93739 255 255 255
0.0278613 0.0530649   1.92031 255 255 255
-0.0856471   0.112283    1.92094 255 255 255
 -0.303036 0.00914013     2.0279 255 255 255
-0.142503  0.429368   1.86041 255 255 255
0.0135855  0.328036     1.856 255 255 255
0.0143312  0.328108    1.8568 255 255 255
-0.163367  0.359928   1.89075 255 255 255
-0.681387   1.10602   1.61589 255 255 255
-0.234706  0.254736   1.95653 255 255 255
-0.8574 1.07404 1.64541 255 255 255
-0.494276 0.0144743   2.13932 255 255 255
-0.58488 0.183546  2.19017 255 255 255
0.176905 0.226424  1.88643 255 255 255
-0.474589 0.0636374   2.11684 255 255 255
-0.066942  0.216598   1.90224 255 255 255
-0.690272  0.101715   2.27414 255 255 255
-0.155865  0.342807    1.8976 255 255 255
-0.878559  0.667809   1.90296 255 255 255
0.223304 0.266008  1.79857 255 255 255
-0.826418  0.511866   2.00359 255 255 255
0.0716624  0.205426   1.86364 255 255 255
-0.903646  0.983526    1.7318 255 255 255
-0.248598   0.18706   1.98392 255 255 255
-0.604667  -0.06493   2.24009 255 255 255
-0.0836211   0.312632    1.88208 255 255 255
-0.112426  0.274566   1.89997 255 255 255
0.0152534  0.106271   1.91573 255 255 255
-0.246196 0.0301619   1.99088 255 255 255
-0.269288  0.144956   1.98411 255 255 255
-0.0230487    0.36888    1.83387 255 255 255
-0.0174327 -0.0574718    1.96059 255 255 255
 -0.430679 -0.0237866    2.10189 255 255 255
-0.656955  0.182604   2.22827 255 255 255
-0.688546  0.134783   2.27042 255 255 255
-0.0382724   0.375779    1.84313 255 255 255
-0.0826513  0.0335367    1.96444 255 255 255
-0.347904  0.277663   2.00606 255 255 255
-0.0162471   0.124898    1.91512 255 255 255
-0.0372239    0.38219    1.83692 255 255 255
-0.0349551   0.152631    1.89767 255 255 255
-0.218399 0.0338711    1.9819 255 255 255
0.0685226  0.485949   1.76499 255 255 255
-0.629554  0.923583   1.68595 255 255 255
-0.285497  0.206675   1.98282 255 255 255
-0.299351  0.194275   2.00165 255 255 255
-0.120189  0.089768   1.93673 255 255 255
 -0.477375 -0.0563637     2.1398 255 255 255
-0.56308  0.34348  1.95457 255 255 255
 -0.162695 -0.0203325    1.98619 255 255 255
-0.487424 -0.241386   2.19308 255 255 255
-0.0281272   0.285012    1.87629 255 255 255
-0.0913344   0.222647     1.9113 255 255 255
-0.202785 0.0670325   1.97992 255 255 255
-0.0189778   0.301902    1.86735 255 255 255
-0.0838725   0.342888    1.86833 255 255 255
-0.184756  0.228644   1.93335 255 255 255
-0.667921  0.116461   2.25377 255 255 255
-0.244201  0.203827   1.97573 255 255 255
 -0.550409 -0.0458419    2.19564 255 255 255
-0.00844306    0.349625     1.83768 255 255 255
-0.639706  0.909587   1.70083 255 255 255
-0.18857 0.351701  1.87434 255 255 255
-0.635678 0.0704186   2.13017 255 255 255
-0.690773  0.808576   1.76193 255 255 255
-0.174799  0.317189   1.88983 255 255 255
-0.196973  0.200572   1.95452 255 255 255
0.129258 0.186874  1.82923 255 255 255
 -0.289758 -0.0212769    2.02905 255 255 255
-0.0406385   0.393052    1.83361 255 255 255
-0.179043  0.179389   1.94288 255 255 255
-0.263553 0.0842898   2.01086 255 255 255
-0.0946173 -0.0862774    1.98515 255 255 255
-0.296274  0.298705   1.97356 255 255 255
-0.498746  0.165839   2.13394 255 255 255
  -0.658566 -0.00785979     2.25965 255 255 255
-0.240968 0.0509469   1.99131 255 255 255
 -0.07078 -0.131329    1.9562 255 255 255
-0.327357  0.211001   1.99367 255 255 255
-0.125546  0.374059   1.85163 255 255 255
-0.438404 -0.246517   2.12758 255 255 255
-0.153246  0.183336    1.9358 255 255 255
-0.169001  0.171569   1.94584 255 255 255
-0.188098  0.181285   1.94569 255 255 255
-0.704264  0.104765   2.28229 255 255 255
  -0.2655 0.0905455   1.99697 255 255 255
-0.114635  0.229967   1.91138 255 255 255
0.0373081  0.382016   1.83174 255 255 255
-0.201501    0.2414   1.94244 255 255 255
-0.177891  0.154394   1.95018 255 255 255
-0.178861  0.153154   1.95882 255 255 255
-0.922334  0.698094   1.90063 255 255 255
-0.277663  0.121792   2.00383 255 255 255
-0.292263  0.070716   2.01366 255 255 255
-0.160507  0.184038   1.93841 255 255 255
0.049452 0.236396  1.86725 255 255 255
-0.666833 0.0867359   2.26188 255 255 255
-0.577931  0.190013   2.18275 255 255 255
-0.0729953   0.280576    1.88578 255 255 255
-0.215867  0.169799   1.95047 255 255 255
-0.684978  0.049705   2.27715 255 255 255
-0.286521 0.0817922   2.00585 255 255 255
-0.426026 0.0994069    2.0469 255 255 255
0.0181957  0.205183   1.82882 255 255 255
   -0.1552 0.00795083    1.97871 255 255 255
 -0.15598 -0.138261   2.00408 255 255 255
-0.100742  0.194464    1.9049 255 255 255
-0.534033  0.115737   2.16248 255 255 255
-0.203802 -0.135508     2.017 255 255 255
-0.714092  0.148543   2.28841 255 255 255
-0.122838  0.344362     1.875 255 255 255
-0.243704  0.113023   1.97794 255 255 255
-0.141742  0.377777   1.87794 255 255 255
-0.213356  0.142202   1.96269 255 255 255
-0.457789  0.450549   1.90867 255 255 255
-0.0785704   0.137545    1.92182 255 255 255
-0.573766  0.153642   2.18087 255 255 255
 -0.331305 -0.0643046    2.05639 255 255 255
-0.0439474     0.5934    1.72603 255 255 255
-0.168383  0.167022   1.94513 255 255 255
-0.261594  0.155003   1.99253 255 255 255
-0.279294 0.0768033   2.00801 255 255 255
-0.284685 0.0767455   2.00794 255 255 255
0.00730988   0.474218    1.78089 255 255 255
-0.482891  0.112148   2.05467 255 255 255
-0.172238  0.185199   1.94043 255 255 255
 -0.19441 0.0701947   1.97391 255 255 255
-0.544188  0.151517   2.15928 255 255 255
-0.169534  0.225623   1.92691 255 255 255
-0.222237 0.0459692     1.995 255 255 255
-0.643352 0.0226651   2.25045 255 255 255
-0.0182184 -0.0982885    1.95013 255 255 255
-0.201247  0.224162   1.95497 255 255 255
-0.252895  0.153405   1.97007 255 255 255
-0.587855  0.144397    2.1846 255 255 255
-0.120453  0.200449    1.9222 255 255 255
0.238318 0.299594  1.79006 255 255 255
-0.24117 0.121531  1.97866 255 255 255
 -0.13408 0.0896779   1.93582 255 255 255
-0.0563232  0.0464067    1.94429 255 255 255
-0.692549  0.143769   2.26513 255 255 255
