ply
format ascii 1.0
element vertex 1226
property float x
property float y
property float z
property uchar red
property uchar green
property uchar blue
end_header
 -0.53955 -0.496498   2.36998 255 255 255
-0.783012 -0.272951   2.21739 255 255 255
-0.532158 -0.569069   2.40369 255 255 255
-0.526013 -0.376217   2.28038 255 255 255
-0.544103 -0.508953   2.37841 255 255 255
-0.520292 -0.427012   2.31165 255 255 255
 0.202931 -0.326404    2.2192 255 255 255
 1.22703  2.51019 0.467945 255 255 255
 2.07782  1.69862 0.405907 255 255 255
 1.46196  1.96885 0.509282 255 255 255
0.832901  2.48117 0.526903 255 255 255
1.35199 1.31553 1.08267 255 255 255
1.19177  2.3427 0.50183 255 255 255
 1.24554  2.64098 0.425658 255 255 255
0.945051  2.29803 0.607927 255 255 255
 1.08877  2.39012 0.521035 255 255 255
 2.11584  1.72643 0.379771 255 255 255
0.958977  2.46821 0.537609 255 255 255
 1.11148  2.59116 0.446313 255 255 255
  1.6708  2.17809 0.412544 255 255 255
 1.32666  2.03389 0.575882 255 255 255
 1.55185   1.4951 0.890477 255 255 255
 1.27545   1.7635 0.713872 255 255 255
1.46584 1.90803 0.53101 255 255 255
 1.44391  2.00272 0.507489 255 255 255
 1.24248  2.46274 0.498754 255 255 255
1.19871 2.49414 0.47803 255 255 255
 2.04088  1.82129 0.374937 255 255 255
2.01806 1.76542  0.4134 255 255 255
  1.5265    2.266 0.426717 255 255 255
 0.84244  1.84137 0.685083 255 255 255
 2.07415  1.84278 0.367902 255 255 255
 1.47668   2.1387 0.507684 255 255 255
 1.47858  2.10343 0.503452 255 255 255
 1.37103  2.00301 0.610565 255 255 255
  1.6233  1.68288 0.567871 255 255 255
0.729411  2.29238 0.631812 255 255 255
 2.02647  1.79339 0.399675 255 255 255
0.848791  2.38608 0.578963 255 255 255
 1.07976  2.52228 0.498644 255 255 255
0.851288  2.34677 0.613836 255 255 255
 1.18099  2.51677 0.476615 255 255 255
 1.57891  2.33127 0.247691 255 255 255
0.754224  2.27491 0.629002 255 255 255
0.687843  2.15083 0.673932 255 255 255
0.797501  2.28651 0.646673 255 255 255
1.99691 1.78524 0.40506 255 255 255
 2.06916  1.75502 0.405284 255 255 255
 1.76034  1.40177 0.822579 255 255 255
 1.28775  2.44592 0.458384 255 255 255
0.945758  2.47801 0.529348 255 255 255
0.833429  2.31928 0.625442 255 255 255
 1.10563  2.57899 0.435587 255 255 255
0.459442  2.44049 0.617757 255 255 255
 1.15462  2.37847 0.532124 255 255 255
 1.01531  2.58169 0.483405 255 255 255
0.990854  2.54316 0.501167 255 255 255
 1.03448  2.54475 0.505396 255 255 255
 2.01084  1.79594 0.398804 255 255 255
 1.84998   1.8979 0.504193 255 255 255
1.62639 1.61848 0.59129 255 255 255
0.481735  2.29266 0.756167 255 255 255
1.47364 1.92825 0.53089 255 255 255
 1.93297  1.39527 0.706639 255 255 255
 1.86456  1.90059 0.500402 255 255 255
 1.23269  1.67639 0.894449 255 255 255
0.533847  2.35288 0.715382 255 255 255
 1.70275  1.32475 0.857723 255 255 255
0.868261  2.37824 0.597509 255 255 255
0.315112   2.7131  0.45971 255 255 255
 0.91587  2.43832 0.561822 255 255 255
0.519575   2.3529 0.707596 255 255 255
 1.05996  2.35854 0.569675 255 255 255
0.485042  2.21409 0.790124 255 255 255
 1.65886  2.54335 0.172519 255 255 255
0.810959  2.29949 0.634576 255 255 255
0.453875  2.28393 0.766765 255 255 255
 2.03861  1.79037 0.397531 255 255 255
 1.82869  1.71904 0.608983 255 255 255
 1.11156  2.43099 0.513333 255 255 255
 1.54563  2.30551 0.414419 255 255 255
0.632667  2.16884 0.701315 255 255 255
1.09969 2.40478 0.49157 255 255 255
 1.44533  1.90118 0.535145 255 255 255
0.921709  2.50342 0.495478 255 255 255
0.399492  2.34132  0.74511 255 255 255
 1.02621  2.51139 0.512086 255 255 255
0.885124  2.38292  0.59583 255 255 255
   1.239  2.35872 0.478573 255 255 255
 1.47229  2.72201 0.326317 255 255 255
 1.07856  2.45489 0.519285 255 255 255
0.743751   2.4988 0.582416 255 255 255
  1.7672  1.05616 0.971798 255 255 255
0.998833    2.513 0.512041 255 255 255
 1.59464  2.39626 0.406716 255 255 255
0.524199  2.33262  0.66765 255 255 255
  1.7475  1.50587 0.754416 255 255 255
 1.27007  2.65334 0.404364 255 255 255
 1.30658  2.01882 0.519149 255 255 255
 2.01177   1.8265 0.387883 255 255 255
  1.1121   2.4165 0.514384 255 255 255
0.946329   2.5411 0.447256 255 255 255
  1.3128  2.55701 0.428914 255 255 255
 1.13336  2.36674 0.544313 255 255 255
 1.13222  2.36595 0.545249 255 255 255
0.393406  2.24758  0.79733 255 255 255
 1.38324  2.48143 0.428753 255 255 255
 1.35124  2.04382 0.501563 255 255 255
 1.63842  1.55192 0.621135 255 255 255
  1.5474  2.30862 0.328897 255 255 255
 1.79296  1.45254 0.769001 255 255 255
 1.01271  2.57262 0.496832 255 255 255
 1.13772  2.62379 0.436468 255 255 255
 1.20243  2.56747 0.436931 255 255 255
 1.34119  2.62876 0.395817 255 255 255
 1.34944  2.62613 0.398424 255 255 255
1.41969 2.54449 0.34181 255 255 255
 1.27885  1.77698 0.722046 255 255 255
1.49736 1.15038 1.23493 255 255 255
0.926003  2.40283 0.583198 255 255 255
1.08702 2.33831  0.5562 255 255 255
 1.68812  1.59929 0.592073 255 255 255
 1.77685  1.80155 0.474995 255 255 255
  1.0004  2.57064 0.440611 255 255 255
 1.28616   1.6287 0.943575 255 255 255
  2.0411  1.80933 0.378862 255 255 255
0.976314  2.57367 0.406245 255 255 255
 2.01151   1.7913 0.399758 255 255 255
0.853635  2.27706 0.667309 255 255 255
 1.19375  2.53145 0.473991 255 255 255
0.623849  2.15458  0.76753 255 255 255
 2.09022  1.75037 0.403298 255 255 255
 1.04089  2.48494 0.525752 255 255 255
0.398829   2.2329 0.738978 255 255 255
 1.67381  1.54033 0.618539 255 255 255
0.524756  2.33663 0.711121 255 255 255
  1.3448  2.71057 0.371546 255 255 255
 1.17033  2.64575 0.414823 255 255 255
 1.22283  2.68479 0.405302 255 255 255
 1.23159   2.5158 0.459095 255 255 255
0.432649  2.44847 0.566027 255 255 255
0.952158  2.34331 0.591242 255 255 255
 1.06876  2.63809 0.446215 255 255 255
0.925192  2.47021 0.508239 255 255 255
1.74019 1.06875 0.96643 255 255 255
 1.50881  2.18675 0.473543 255 255 255
 2.14774  1.37991 0.684515 255 255 255
 1.09755  2.41227 0.534862 255 255 255
  1.8218  1.20767 0.882329 255 255 255
 1.01348  2.28909 0.601075 255 255 255
 1.05135  2.34496 0.563939 255 255 255
 1.10995  2.46223 0.511653 255 255 255
 1.74388   1.5435 0.712579 255 255 255
 1.75658  1.27096 0.866396 255 255 255
 1.39548   2.7028 0.356691 255 255 255
0.548821  2.37258 0.674432 255 255 255
 1.73365  1.27402 0.861873 255 255 255
2.00928  1.8134 0.39215 255 255 255
 2.00774  1.78117 0.404885 255 255 255
1.02008 2.50407 0.53001 255 255 255
 1.29999  2.43513 0.459763 255 255 255
 1.36922  1.96688 0.511659 255 255 255
 1.84544  1.91297 0.499316 255 255 255
0.927674  2.44888   0.5657 255 255 255
0.415652  2.38582 0.619314 255 255 255
 1.46694   2.1311 0.513727 255 255 255
 1.67261   1.5996 0.593939 255 255 255
 1.68534  2.52095 0.160134 255 255 255
0.941178   1.6197 0.933594 255 255 255
0.809205   2.2986 0.656153 255 255 255
 1.42207  1.91679 0.531726 255 255 255
 1.27178  2.44602 0.488804 255 255 255
 1.64201  1.51484 0.632173 255 255 255
 1.03814  2.35736 0.559171 255 255 255
 1.17233  2.55101 0.439804 255 255 255
0.668499  2.35365 0.626985 255 255 255
 1.47544  2.67038 0.349732 255 255 255
0.910287  2.48839  0.55986 255 255 255
1.69994 2.46271 0.14407 255 255 255
 1.74443  1.28643 0.861732 255 255 255
 2.02468  1.80436 0.392074 255 255 255
 2.00221  1.77596 0.408764 255 255 255
 1.84481  1.88757 0.509485 255 255 255
 1.03298  2.60017 0.482319 255 255 255
 1.10384  2.57502 0.455948 255 255 255
 1.65921  2.38185 0.407993 255 255 255
1.18019 2.43135 0.50841 255 255 255
 1.69492  1.34111 0.849373 255 255 255
   2.042  1.81829 0.382936 255 255 255
 2.06821  1.82166 0.375729 255 255 255
 1.64106  1.57099 0.605366 255 255 255
0.543322  2.35374 0.647788 255 255 255
0.788583  2.49003 0.544762 255 255 255
 1.85455  1.77195 0.559373 255 255 255
0.579714  2.45189 0.646226 255 255 255
0.990899  2.23664 0.629187 255 255 255
 1.36969   2.0404 0.276217 255 255 255
 1.38256  2.69878 0.357883 255 255 255
 1.38703  2.01988 0.492137 255 255 255
 2.10431  1.74832 0.388988 255 255 255
 1.60988  1.42046 0.834795 255 255 255
0.447781  2.25844 0.783174 255 255 255
 1.08344  2.40121 0.527634 255 255 255
 1.61962  1.42108 0.833167 255 255 255
 1.60784  1.42791 0.830455 255 255 255
0.445125  2.41678 0.606753 255 255 255
 1.23719   2.5888 0.433098 255 255 255
 1.26664  2.04088 0.531629 255 255 255
  1.4277  1.98779 0.505283 255 255 255
 1.25535  2.56108 0.408587 255 255 255
  1.1126  2.43559 0.508095 255 255 255
 1.73167  1.30243 0.857607 255 255 255
  1.2131  2.68286 0.434038 255 255 255
0.555364  2.35987 0.663012 255 255 255
 1.11479  2.57685 0.454273 255 255 255
  1.7281  1.29609 0.856621 255 255 255
 1.20838  2.47903 0.486008 255 255 255
1.33807 2.57297 0.41886 255 255 255
 1.31896  2.57395 0.422226 255 255 255
 1.15554  2.59127 0.434917 255 255 255
 1.07925  2.52172 0.500148 255 255 255
0.924559  2.30566 0.610412 255 255 255
0.921771  2.41612 0.579521 255 255 255
0.503085  2.49534 0.577949 255 255 255
 1.23076  1.97301 0.618834 255 255 255
1.58046 1.48044 0.89734 255 255 255
0.732959  2.20895 0.715795 255 255 255
1.74459 1.26289  0.8667 255 255 255
 1.51535  2.59558 0.280254 255 255 255
 1.46221  2.56992 0.314543 255 255 255
  1.2713   2.4709 0.453984 255 255 255
 1.17762   2.2492 0.524733 255 255 255
1.12509  2.5002 0.48308 255 255 255
 1.69142  1.33537 0.846388 255 255 255
 1.05815  2.46724 0.524524 255 255 255
 1.19878  2.51308 0.470611 255 255 255
 1.58203  2.35581 0.335243 255 255 255
0.874664   2.3459 0.606917 255 255 255
 1.41776  1.93245 0.522192 255 255 255
 1.48081  2.24251 0.347384 255 255 255
0.839928  2.31745 0.637118 255 255 255
0.921107  2.37259 0.597098 255 255 255
0.932974  1.47507  1.05502 255 255 255
0.525964   2.3623 0.700864 255 255 255
 1.19884  2.62761 0.416033 255 255 255
0.873436  2.32903 0.603758 255 255 255
0.826931  2.31714 0.605897 255 255 255
0.419952  2.36044 0.740541 255 255 255
1.09758 2.55742 0.47652 255 255 255
 1.37665  1.96736 0.521261 255 255 255
0.932689  2.50752 0.538472 255 255 255
0.938808  2.52596 0.499168 255 255 255
0.901414  2.45713 0.604019 255 255 255
1.05281 2.13574 0.67276 255 255 255
0.794851  2.50665 0.532403 255 255 255
 1.14953  2.45583 0.506591 255 255 255
 1.00618   2.4953 0.531032 255 255 255
  1.1548  2.49879 0.472999 255 255 255
 1.57605  1.53495 0.861353 255 255 255
0.390399  2.35569 0.748169 255 255 255
0.783818  2.28438 0.642739 255 255 255
 1.26744   2.4536 0.483626 255 255 255
 1.03934  2.51061 0.521151 255 255 255
0.565871  2.32279 0.708109 255 255 255
  1.3336   2.4481 0.441658 255 255 255
 1.23726  2.54315 0.449581 255 255 255
 1.08992  2.50109 0.499162 255 255 255
  1.0975  2.52696 0.486421 255 255 255
  1.1761  2.63886 0.415587 255 255 255
 1.12163  2.50407 0.479986 255 255 255
0.500723  2.37247 0.702878 255 255 255
 1.22987  2.55558 0.419841 255 255 255
 1.09924  2.53243 0.483024 255 255 255
0.531322   2.3199 0.726367 255 255 255
 1.67209  1.36628 0.840072 255 255 255
 1.14951  2.44541 0.511091 255 255 255
0.673753  2.55758 0.557162 255 255 255
 1.27938  2.42461 0.463181 255 255 255
 0.60842   2.3166 0.695402 255 255 255
0.769958  2.26332 0.646554 255 255 255
 1.13742  2.42398 0.526341 255 255 255
 1.25338  2.35968 0.466616 255 255 255
1.49112 1.14296 1.23419 255 255 255
 1.61232  2.87845 0.160676 255 255 255
 1.56231  3.04131 0.112246 255 255 255
 0.63289  2.71933 0.384542 255 255 255
 1.41803  3.03701 0.148487 255 255 255
 1.09016  2.22562 0.570158 255 255 255
1.45619 3.06266 0.11237 255 255 255
 1.50499  3.01555 0.135252 255 255 255
0.760629  2.75509 0.380361 255 255 255
1.10044 2.28754 0.57591 255 255 255
 1.15394  2.34683 0.547772 255 255 255
 0.79218  2.20579 0.741245 255 255 255
  1.252 3.17316 0.18054 255 255 255
 1.09997  2.45328 0.491501 255 255 255
 1.35486  3.06583 0.157495 255 255 255
 1.41342   1.9313 0.589362 255 255 255
 1.04689  2.96182 0.263117 255 255 255
 1.21527  2.10869 0.556629 255 255 255
  1.61761   3.05578 0.0947601 255 255 255
 1.29496  3.14615 0.135358 255 255 255
 1.33728  1.95345 0.581203 255 255 255
0.422033  2.63564 0.453059 255 255 255
0.416739   2.5692 0.518702 255 255 255
0.655082  2.64495 0.452787 255 255 255
 1.36057  2.98732 0.172252 255 255 255
 1.70207  2.72339 0.202629 255 255 255
  0.3094  2.62445 0.474577 255 255 255
 1.52226  3.04077 0.121124 255 255 255
 1.58822  2.90972 0.160417 255 255 255
 1.49317  2.69013 0.327444 255 255 255
 1.43566  2.57956 0.377401 255 255 255
0.336381  2.71483 0.465125 255 255 255
  1.63669   3.05616 0.0901051 255 255 255
 1.65767  2.70862 0.183286 255 255 255
 1.50621  3.03636 0.125895 255 255 255
 1.33133  2.44643 0.454348 255 255 255
 1.23715  2.39657 0.504767 255 255 255
  1.39735   3.15625 0.0977723 255 255 255
0.987461  2.11427 0.727309 255 255 255
 1.39593  2.71476 0.341264 255 255 255
 1.05397  2.79789 0.332969 255 255 255
0.514958  2.43843 0.648781 255 255 255
  1.3771  3.11176 0.125561 255 255 255
 1.10172  2.36629 0.554546 255 255 255
 1.32195  3.13125 0.133277 255 255 255
1.40562 3.08982 0.12018 255 255 255
1.52403 2.66871 0.30855 255 255 255
1.15328 2.42769 0.52218 255 255 255
1.15205 2.42653 0.52187 255 255 255
 1.07165  2.92725 0.267837 255 255 255
 1.27108  3.04607 0.173705 255 255 255
 1.21275  3.03563 0.186609 255 255 255
 1.45525  2.60595 0.359237 255 255 255
 1.46487  2.65784 0.366183 255 255 255
 1.46929  2.66235 0.345385 255 255 255
 1.10963  2.34447 0.557095 255 255 255
 1.74545   2.9381 0.109812 255 255 255
 1.23199  2.34562 0.506007 255 255 255
  1.83103   2.80226 0.0434603 255 255 255
0.707813  2.48925 0.567179 255 255 255
 1.46316  2.10009 0.592404 255 255 255
  1.7054  2.88571 0.143843 255 255 255
 1.22492  3.07203 0.180929 255 255 255
  1.49367    3.1245 0.0927687 255 255 255
 0.37204  2.52104 0.523875 255 255 255
1.35326 3.08203 0.14344 255 255 255
0.588199  2.66013 0.470362 255 255 255
0.556332  2.69925 0.469861 255 255 255
0.573734  2.57158 0.474606 255 255 255
 1.2474 3.08376 0.16902 255 255 255
  1.7143  2.87916 0.142099 255 255 255
 1.01051  2.05529 0.720057 255 255 255
0.961546  3.13201 0.192322 255 255 255
 1.10087  2.88651 0.290949 255 255 255
 1.52805  3.06001 0.112704 255 255 255
0.924291  2.68638 0.429055 255 255 255
0.324246  2.71989 0.453588 255 255 255
0.361607  2.68204 0.469411 255 255 255
  1.28453   3.27134 0.0735713 255 255 255
0.804048  2.78704 0.435209 255 255 255
0.310699  2.58656 0.520823 255 255 255
 1.24061  3.11171 0.151877 255 255 255
 1.21786  2.40478 0.514654 255 255 255
0.617013  2.32603 0.653944 255 255 255
0.811253  2.54146 0.513652 255 255 255
  1.70407   3.00315 0.0946738 255 255 255
 1.24937  2.00804 0.583452 255 255 255
 1.37022  3.15399 0.107785 255 255 255
 1.05564  2.08258 0.707625 255 255 255
 1.67149  2.19358 0.460607 255 255 255
 1.01803  2.24976 0.619153 255 255 255
 1.17901  2.32445 0.532223 255 255 255
0.631192  2.58338 0.438427 255 255 255
 0.40128  2.73098 0.438605 255 255 255
 1.11407  3.11756 0.183525 255 255 255
0.982276  2.07017 0.718804 255 255 255
 1.26989  2.75522 0.352595 255 255 255
1.29066 3.08759 0.17539 255 255 255
 1.04122  3.03796 0.231468 255 255 255
0.795357  2.55677 0.511664 255 255 255
0.397262  2.70947  0.44775 255 255 255
 1.49305  2.61088 0.333772 255 255 255
 1.11809   2.5824 0.451264 255 255 255
0.985435  2.07491 0.609246 255 255 255
 1.20081  2.44903 0.508097 255 255 255
1.42386 2.57292 0.38333 255 255 255
0.523151  2.33869 0.680314 255 255 255
  1.63055   3.07165 0.0845613 255 255 255
 1.28342  3.03407 0.179006 255 255 255
0.983641  2.07119 0.720874 255 255 255
0.325797  2.61026 0.500016 255 255 255
0.834049  2.80314 0.419088 255 255 255
 1.01937  2.04291 0.723707 255 255 255
 1.11372  2.41482 0.534556 255 255 255
  0.2756   2.6707 0.479728 255 255 255
0.995655  2.95886 0.277819 255 255 255
0.978687  2.85465 0.313732 255 255 255
0.467429  2.78928 0.368797 255 255 255
 1.34911  3.17262 0.105674 255 255 255
 1.20995  2.57568 0.439947 255 255 255
 1.13484  3.12406 0.178009 255 255 255
0.499202  2.57829 0.537201 255 255 255
1.29411 2.78735 0.33252 255 255 255
 1.65099  2.99451 0.109915 255 255 255
0.534627  2.76039 0.381237 255 255 255
 1.24417  3.19995 0.181407 255 255 255
 1.26836  3.05533 0.174823 255 255 255
 1.21286  2.39146 0.516297 255 255 255
 1.34018  3.08084 0.134086 255 255 255
0.729713   2.4352 0.571886 255 255 255
 1.37327  3.10744 0.128563 255 255 255
 1.09809  2.44153 0.518643 255 255 255
 1.01987  2.44983 0.538524 255 255 255
 1.57327  2.98728 0.131385 255 255 255
 1.23451   3.0801 0.173846 255 255 255
 1.32697  3.09732 0.138705 255 255 255
0.474648  2.79208 0.374046 255 255 255
1.36298 3.14356 0.11518 255 255 255
 1.12217  3.12423 0.175895 255 255 255
0.622184  2.29761 0.661868 255 255 255
 1.50985  2.63259 0.331011 255 255 255
 1.13171  2.93602 0.263877 255 255 255
 1.38315  2.72632 0.339038 255 255 255
1.17611 2.69233 0.39553 255 255 255
 1.60447  3.01948 0.111003 255 255 255
1.27919 2.02785 0.58518 255 255 255
1.70021 3.00924 0.10505 255 255 255
 0.58916  2.64631 0.466802 255 255 255
0.968077  2.95963 0.289141 255 255 255
 1.08595  2.20433 0.550659 255 255 255
 1.21352  2.75479 0.346414 255 255 255
 1.15049  2.34539 0.549866 255 255 255
0.910132  2.97476 0.293746 255 255 255
  1.5347  2.67825 0.289862 255 255 255
0.464161  2.55164 0.550296 255 255 255
0.978708  2.15221  0.70911 255 255 255
 0.48226  2.46105 0.492517 255 255 255
0.814798   2.2155 0.706952 255 255 255
0.538504  2.75235 0.386585 255 255 255
 1.33195  2.38044 0.473936 255 255 255
0.350289  2.60415 0.498241 255 255 255
1.26698  3.0187 0.19571 255 255 255
  1.1097  3.09578 0.192738 255 255 255
0.329549  2.63979 0.472349 255 255 255
  1.0075  2.04672 0.724953 255 255 255
 1.29575  2.05593 0.548883 255 255 255
 1.62021  2.92585 0.142545 255 255 255
0.431243  2.60676 0.466091 255 255 255
 0.80129  2.45119 0.489171 255 255 255
 1.42109  3.06028 0.134594 255 255 255
 1.20929  3.02939 0.203136 255 255 255
 1.49935  3.05364 0.120213 255 255 255
  1.2382  3.10251 0.156195 255 255 255
  1.20358    3.2455 0.0849363 255 255 255
  1.39051   3.16158 0.0989363 255 255 255
  1.5374  2.28505 0.471235 255 255 255
   1.6904   2.99538 0.0959381 255 255 255
 1.05359  2.32621 0.574899 255 255 255
 1.59711  3.04417 0.102852 255 255 255
0.978036  2.92265  0.28721 255 255 255
0.750796   2.7967 0.306175 255 255 255
 1.11477  3.07655 0.202835 255 255 255
 1.02619  2.29346 0.606815 255 255 255
0.417366   2.6526 0.453696 255 255 255
 1.58232   2.9842 0.129894 255 255 255
 1.32012  2.06724 0.538773 255 255 255
 1.67737  2.90661 0.139117 255 255 255
 0.31272  2.69968 0.456682 255 255 255
0.583627  2.66767 0.463423 255 255 255
 1.70878  2.95024 0.115051 255 255 255
 1.70325  2.97359 0.105043 255 255 255
 1.64537  2.17732 0.496675 255 255 255
 1.01247  2.01308 0.754252 255 255 255
 1.00255  2.44089 0.543512 255 255 255
  1.5899  2.98168 0.128034 255 255 255
 1.58951  2.99203 0.124262 255 255 255
 1.57282  3.05359 0.105328 255 255 255
 0.42616  2.58493 0.539189 255 255 255
0.543044  2.70364 0.468484 255 255 255
   1.593  2.09517 0.452872 255 255 255
 1.22524  2.43924 0.501257 255 255 255
 1.62992  3.00559 0.109814 255 255 255
 1.21874  3.06628 0.184366 255 255 255
 1.72526  2.92015 0.121375 255 255 255
1.09696 2.88652 0.28078 255 255 255
1.06298 2.07353 0.70231 255 255 255
  1.3214  3.16258 0.117269 255 255 255
 1.34256  3.18118 0.102192 255 255 255
 1.66548  2.86355 0.160866 255 255 255
 1.11901  3.10017 0.216393 255 255 255
 1.38471  2.35741 0.364357 255 255 255
  1.2089  2.08932 0.605983 255 255 255
 1.72485  2.93874 0.114155 255 255 255
 1.25544  2.71151 0.372527 255 255 255
0.317396  2.68432 0.471604 255 255 255
0.839682  2.31297 0.618016 255 255 255
0.514501  2.71823 0.406498 255 255 255
0.406428  2.62598 0.456858 255 255 255
 1.70703  2.94523 0.116054 255 255 255
0.584317  2.25413 0.697341 255 255 255
1.64048 2.97412 0.11899 255 255 255
0.969883  2.91184 0.308753 255 255 255
 1.72221  2.99368 0.106704 255 255 255
 1.50201  2.62445 0.334731 255 255 255
0.485073   2.6314  0.49986 255 255 255
0.347766  2.63084 0.490814 255 255 255
1.27619 3.05229  0.1676 255 255 255
0.567078    2.726 0.459243 255 255 255
0.934262  2.68164 0.422218 255 255 255
 1.00247  2.87374 0.300135 255 255 255
 1.12223  3.13091 0.177981 255 255 255
0.523988  2.69425 0.465229 255 255 255
 1.63262  2.97845 0.120056 255 255 255
 1.30977  2.05486 0.551001 255 255 255
  1.61201   3.06514 0.0915907 255 255 255
 1.53785  2.99612 0.135639 255 255 255
  1.2092  2.64128 0.409024 255 255 255
 1.38472  2.49291 0.424646 255 255 255
0.964325   2.9093 0.289611 255 255 255
 1.56583  2.98751 0.131663 255 255 255
1.48514 1.83248 0.61856 255 255 255
0.552406  2.34936 0.666336 255 255 255
  1.0846  2.59173 0.454669 255 255 255
 1.64871  2.18703 0.493415 255 255 255
 0.91602  2.87237 0.339218 255 255 255
 1.60504   2.9023 0.161306 255 255 255
 1.19788  3.04102 0.200621 255 255 255
0.768002  2.68176  0.46534 255 255 255
0.946556  2.89756 0.320764 255 255 255
0.951099  2.33997 0.594828 255 255 255
 1.71974  2.93489 0.117967 255 255 255
0.367292  2.67303 0.468861 255 255 255
 1.53767  2.94022 0.159103 255 255 255
0.992719  2.38695  0.56549 255 255 255
  1.4019  2.37629 0.360855 255 255 255
1.56473 2.99258 0.12026 255 255 255
 1.49045   2.6742 0.335621 255 255 255
 1.73132  2.95227 0.106644 255 255 255
0.559489  2.71545 0.463053 255 255 255
0.488219  2.84328 0.444319 255 255 255
 0.43957  2.61157 0.466279 255 255 255
 1.14967  2.61796 0.430916 255 255 255
0.382922  2.59873 0.483416 255 255 255
0.892405  2.27822 0.635182 255 255 255
 1.17146  2.02867 0.587492 255 255 255
1.64502 2.88755 0.15503 255 255 255
0.340307  2.64396 0.486629 255 255 255
0.355216  2.66149 0.476127 255 255 255
0.330214  2.63091 0.494624 255 255 255
 0.98178  2.90837 0.304446 255 255 255
 1.17685  2.06015 0.605957 255 255 255
0.321542  2.61912 0.500369 255 255 255
0.526547  2.53501 0.532384 255 255 255
 0.99484  2.24318 0.626192 255 255 255
 0.83605  2.93444 0.300665 255 255 255
 1.58649  2.24564 0.479625 255 255 255
 1.13692  2.52018 0.472831 255 255 255
 1.27674  2.32808 0.504145 255 255 255
0.762394  2.56156 0.512492 255 255 255
 1.30597  2.78352 0.328886 255 255 255
0.490506  2.48138 0.493343 255 255 255
 1.31356  2.06868 0.541929 255 255 255
0.765521  2.83459 0.417346 255 255 255
0.809322  2.84918 0.383925 255 255 255
0.961954  2.92021 0.307069 255 255 255
0.298591  2.57876 0.515141 255 255 255
 1.68698  2.96076 0.114166 255 255 255
0.97403 2.23733 0.63353 255 255 255
 1.28788  2.79228 0.333019 255 255 255
 1.29249  2.32682 0.512431 255 255 255
0.950559  2.29091 0.607978 255 255 255
0.940775  2.89185 0.324697 255 255 255
0.967495  2.92725 0.302623 255 255 255
 1.11648  2.47264 0.504326 255 255 255
0.787902  2.89973 0.361273 255 255 255
0.626406  2.66178 0.464835 255 255 255
0.939757   2.9309 0.306703 255 255 255
0.824521  2.16462 0.731886 255 255 255
0.849313  2.60278 0.477538 255 255 255
 1.06769  2.38378 0.496523 255 255 255
 1.66942  2.94026 0.126752 255 255 255
0.551727  2.49325 0.618989 255 255 255
1.03901 2.56002 0.47778 255 255 255
 1.17941  2.57825 0.440241 255 255 255
0.925949  2.29775 0.601334 255 255 255
0.432155  2.63939 0.459029 255 255 255
0.538062  2.55365 0.512848 255 255 255
 1.19227  3.03546 0.205773 255 255 255
0.763323  2.75249 0.455092 255 255 255
 1.29825  2.33913 0.508001 255 255 255
0.836747  2.24548 0.680841 255 255 255
0.951281  2.39696 0.569807 255 255 255
 1.66026  2.19307 0.489594 255 255 255
  1.2239  2.20689 0.540417 255 255 255
 1.82865   2.6547 0.143012 255 255 255
 1.70845  2.76856 0.184839 255 255 255
 1.59351  2.69377 0.207798 255 255 255
 1.35286  2.14354 0.539537 255 255 255
 1.69073  2.13658 0.343625 255 255 255
 1.32182  2.88429 0.291037 255 255 255
 1.50103  2.13096 0.611915 255 255 255
 1.34776  3.15242 0.124698 255 255 255
 1.85637   2.4238 0.248906 255 255 255
 1.78056  2.52876 0.195375 255 255 255
0.506884  2.33711  0.75381 255 255 255
 1.39642  2.85657 0.236388 255 255 255
 1.07371  3.09359 0.201513 255 255 255
 1.27475  2.36928 0.491245 255 255 255
 1.26456  3.14337 0.125554 255 255 255
  1.2497  3.06434 0.163949 255 255 255
 1.72683  2.21948 0.390176 255 255 255
 1.45473  3.14673 0.122976 255 255 255
 1.14453  2.78383 0.326306 255 255 255
  1.5338  2.78171 0.219336 255 255 255
 1.18711  3.17562 0.135689 255 255 255
 1.76634  2.04696 0.451662 255 255 255
 1.22756  2.51448 0.466106 255 255 255
   1.309  3.00631 0.178575 255 255 255
    1.39  2.91368 0.284079 255 255 255
 1.86134  2.69499 0.136126 255 255 255
 1.77176  2.76754 0.143271 255 255 255
 1.23549  3.01387 0.189742 255 255 255
  1.64661   3.03469 0.0861546 255 255 255
 1.87353  2.59591 0.207227 255 255 255
  1.18309   3.21968 0.0990271 255 255 255
 1.61821  2.36701 0.332704 255 255 255
0.704215  2.74702 0.375033 255 255 255
 1.83765  2.14028 0.364169 255 255 255
 1.40217  2.16096 0.536832 255 255 255
0.887296  3.01423 0.259218 255 255 255
 1.03473  2.54992 0.495382 255 255 255
 1.68591  2.91055 0.133072 255 255 255
  1.57575   3.08537 0.0956515 255 255 255
   1.83151    2.89671 -0.0055649 255 255 255
 1.79099   2.6857 0.165059 255 255 255
 1.65407  2.21335 0.460138 255 255 255
 0.75409  2.89298 0.363908 255 255 255
0.928255  2.90523 0.305256 255 255 255
  1.8747  2.49351 0.240799 255 255 255
1.22406 3.16709 0.14734 255 255 255
 1.80747  2.53129 0.169538 255 255 255
 1.57785  2.58594 0.192999 255 255 255
 1.69943  2.71259 0.166379 255 255 255
1.61273 2.10864 0.40098 255 255 255
 1.48145  2.77489 0.214918 255 255 255
0.564212  2.66566 0.451475 255 255 255
1.29573 3.12013 0.13894 255 255 255
  1.88003   2.74575 0.0623784 255 255 255
0.930695  3.08117 0.238967 255 255 255
1.15171 3.10955 0.17886 255 255 255
 1.08873  2.78111 0.329893 255 255 255
 1.55468  2.26738 0.477033 255 255 255
 1.55655  2.48597 0.221669 255 255 255
0.784738  3.00118 0.262652 255 255 255
  1.6559    2.272 0.435187 255 255 255
 1.05613  2.84103 0.298421 255 255 255
 1.36322   2.4659 0.409942 255 255 255
   1.86057    2.88326 -0.0261545 255 255 255
  1.82093   2.82237 0.0255984 255 255 255
 1.79775  2.72508 0.161119 255 255 255
0.739668  2.83439 0.336272 255 255 255
 1.11703  2.59623 0.425637 255 255 255
 1.18591  2.89692 0.247834 255 255 255
 1.99648   2.6079 0.122054 255 255 255
 1.07847  3.17416 0.123681 255 255 255
 1.58701  3.02171 0.111668 255 255 255
 1.12343  3.16933 0.120379 255 255 255
1.28084 2.93078 0.18863 255 255 255
  2.0113  2.49004 0.192698 255 255 255
0.941872  2.30244 0.623019 255 255 255
0.863301  2.88896 0.350752 255 255 255
  1.6169  2.27625 0.439672 255 255 255
 1.14665  3.00788 0.223353 255 255 255
 1.40397  1.96383 0.611007 255 255 255
 1.45358  3.00121 0.155434 255 255 255
1.77696 1.76259 0.65554 255 255 255
0.951775  2.45903 0.575231 255 255 255
0.971194  2.97277 0.272461 255 255 255
 1.59013   1.9862 0.556392 255 255 255
   1.87261    2.84307 0.00264304 255 255 255
 1.96226  2.61327 0.158783 255 255 255
 1.15364  2.68658 0.396983 255 255 255
0.933782  2.86884 0.326992 255 255 255
 1.88393  2.64821 0.183369 255 255 255
0.716246  2.90689 0.351675 255 255 255
 1.11693  3.06462 0.204636 255 255 255
0.474025  2.62807 0.458618 255 255 255
  2.04043   2.67969 0.0911309 255 255 255
 1.97111  2.54861 0.195627 255 255 255
   1.86357    2.79719 0.00178786 255 255 255
1.60525  2.4352 0.23928 255 255 255
 1.02985  3.16857 0.149697 255 255 255
  1.4233  3.14373 0.101135 255 255 255
  1.6521  2.75788 0.198871 255 255 255
1.07504 2.40163 0.53015 255 255 255
 1.91947  2.66479 0.178958 255 255 255
 0.96667   2.0747 0.669733 255 255 255
 1.41327  2.82066 0.183843 255 255 255
 0.82026  2.88969 0.361883 255 255 255
 1.08174  3.13447 0.164911 255 255 255
 1.90979   2.5101 0.221562 255 255 255
 1.10842  3.03277 0.221899 255 255 255
0.988255   3.1163 0.205979 255 255 255
  1.88419   2.77809 0.0274044 255 255 255
 1.16498  3.13769 0.166427 255 255 255
0.497091  2.39187 0.656961 255 255 255
    2.0218    2.76006 0.00295667 255 255 255
  1.3446  2.11193 0.525935 255 255 255
 1.97307  2.56632 0.223453 255 255 255
 1.61172  2.22624 0.468927 255 255 255
 1.00125  3.18083 0.116653 255 255 255
 1.79465  2.60833 0.216748 255 255 255
   1.90348    2.77029 0.00922735 255 255 255
 1.61154  2.76689 0.203414 255 255 255
  1.99108   2.71556 0.0607987 255 255 255
 2.02024  2.52508 0.172675 255 255 255
 1.22618  2.42967 0.471727 255 255 255
 1.84932  2.46731 0.268427 255 255 255
 1.17155  2.95391 0.236631 255 255 255
 1.97556  2.51732 0.193776 255 255 255
  1.79652   2.85346 0.0338304 255 255 255
 1.64892  2.02774 0.470099 255 255 255
 1.66043  2.42706 0.230854 255 255 255
0.955589  2.89504 0.312605 255 255 255
 1.77104  2.71438 0.189303 255 255 255
 1.79357  1.82159 0.613767 255 255 255
 1.63363  2.30851 0.407073 255 255 255
0.803201  2.81242 0.310155 255 255 255
 1.06839  2.98567 0.247692 255 255 255
 1.29992  3.20713 0.107328 255 255 255
   1.015  2.96251 0.271374 255 255 255
 1.32858  3.18284 0.108151 255 255 255
 1.32974  3.18372 0.106078 255 255 255
 1.74314  2.54351 0.236308 255 255 255
0.842456  2.85956 0.370539 255 255 255
   1.96882    2.81701 -0.0657919 255 255 255
 1.02028  3.16993 0.119813 255 255 255
 1.08658  2.60145 0.436843 255 255 255
 1.61927  2.19037 0.485312 255 255 255
 1.56378   3.0048 0.123995 255 255 255
0.784524  2.78678 0.434721 255 255 255
 1.14644  2.80842 0.258179 255 255 255
 1.66438  2.17067 0.423652 255 255 255
0.683959  2.92819 0.360427 255 255 255
0.549913  2.73137 0.399101 255 255 255
 1.33128  3.16336 0.115475 255 255 255
 0.47346  2.62941 0.498997 255 255 255
  1.8459  2.53182 0.274648 255 255 255
 1.98222  2.41938 0.259758 255 255 255
0.353173  2.52178 0.526569 255 255 255
 0.76234  2.77185 0.350008 255 255 255
 1.20289  3.12207 0.183025 255 255 255
0.476879  2.52182 0.520527 255 255 255
 1.72032  2.81653 0.165521 255 255 255
0.993785  2.44405 0.551258 255 255 255
 1.92844  2.43197 0.277483 255 255 255
  1.90014   2.81006 0.0222712 255 255 255
0.775877  2.23222 0.717468 255 255 255
 1.23781  2.00838 0.621899 255 255 255
 1.94016  2.48072 0.227554 255 255 255
 1.94333  2.63176 0.208842 255 255 255
 1.93875  2.67037 0.147173 255 255 255
0.407442  2.46828 0.532643 255 255 255
 1.09661  3.04876 0.214191 255 255 255
 1.34254   2.9687 0.191786 255 255 255
 1.47815  2.88842 0.189956 255 255 255
  1.6534  2.85849 0.164363 255 255 255
 1.40017   2.8475 0.148814 255 255 255
 1.14288  2.94814 0.246316 255 255 255
 1.10532  2.64583 0.417804 255 255 255
   1.9062   2.83184 0.0158536 255 255 255
1.90668 2.43626 0.27181 255 255 255
 1.16561  3.09207 0.184968 255 255 255
 1.10314   3.0781 0.195165 255 255 255
 1.17857  2.02748 0.630055 255 255 255
0.834987  2.15391  0.73541 255 255 255
0.863883  2.32064 0.608133 255 255 255
0.973464  2.04063 0.713263 255 255 255
 1.24299  3.06724 0.172693 255 255 255
  1.4576  2.57877 0.359378 255 255 255
 1.84651   2.0988 0.385291 255 255 255
 1.11357  2.55244 0.492156 255 255 255
0.960607  2.86732 0.321103 255 255 255
  1.16654   3.27606 0.0566924 255 255 255
 1.3076 3.17632 0.11411 255 255 255
 1.89918  2.47056 0.248483 255 255 255
 1.96357  2.55152 0.213447 255 255 255
 1.75374  1.86448 0.565986 255 255 255
 1.55035  2.85743 0.187188 255 255 255
 1.39274  3.06512 0.134759 255 255 255
 1.90632  2.58451 0.203893 255 255 255
  1.2086  3.20181 0.125697 255 255 255
0.677533  2.81831 0.315635 255 255 255
 1.60024  2.97616 0.127848 255 255 255
 1.08436  2.92034 0.271438 255 255 255
 2.04843  2.65253 0.109573 255 255 255
 1.80594  2.33133 0.229176 255 255 255
0.846223  2.40475 0.492933 255 255 255
 1.65625  2.48756 0.195768 255 255 255
0.448499  2.51195  0.49131 255 255 255
1.52247 2.64073 0.33011 255 255 255
 1.52341  3.04087 0.115662 255 255 255
 1.70472  2.65105 0.214978 255 255 255
 1.94983  2.63252 0.137575 255 255 255
 1.00667  2.22923 0.659096 255 255 255
0.909456  2.17052 0.694071 255 255 255
 0.96678   3.1438 0.193492 255 255 255
 1.76385  2.32651 0.255118 255 255 255
0.583426  2.53261  0.60394 255 255 255
 1.40754   2.0768 0.609364 255 255 255
 1.69464  2.68065 0.147181 255 255 255
 1.47172  2.01362 0.562208 255 255 255
 1.47751   2.8869 0.192729 255 255 255
 1.72575  2.64777 0.225933 255 255 255
  1.7626  2.66708 0.186244 255 255 255
 1.52035  2.85043 0.193977 255 255 255
 1.84704  2.56258 0.244059 255 255 255
 1.79318  2.39737 0.360512 255 255 255
 1.59725  2.59102 0.205617 255 255 255
1.33768    3.14 0.12264 255 255 255
0.422816  2.50626 0.489773 255 255 255
 1.73207  2.37913 0.238514 255 255 255
1.80855 2.58475 0.21913 255 255 255
0.720926  2.26714  0.61664 255 255 255
 1.45028  2.88574 0.176885 255 255 255
   1.2141   3.25668 0.0629827 255 255 255
  1.8794  2.63499 0.151698 255 255 255
 1.78062  2.25827 0.288545 255 255 255
 1.10769  2.58362 0.433616 255 255 255
0.525203  2.27142 0.722325 255 255 255
 1.05946   2.9616 0.259539 255 255 255
  1.60289   2.96391 0.0948184 255 255 255
 1.06188  3.08346 0.206416 255 255 255
  1.7811  2.64201 0.144439 255 255 255
 1.63052  2.51138 0.210051 255 255 255
  1.4582  2.04625 0.576383 255 255 255
 1.46375  2.87744 0.193909 255 255 255
 1.14825  2.97056 0.235019 255 255 255
 1.44887  2.89946 0.194257 255 255 255
   1.86185    2.92054 -0.0610271 255 255 255
 1.12286  2.66686 0.405628 255 255 255
 1.37713  3.01444 0.174354 255 255 255
 1.6939 2.57103 0.22103 255 255 255
    1.80139     2.87424 -0.00129893 255 255 255
0.723381   2.8925 0.356007 255 255 255
 1.70182  2.90269 0.133439 255 255 255
  1.8064  2.35473 0.227082 255 255 255
  1.88089   2.79669 0.0250723 255 255 255
 1.49998   1.8092 0.714635 255 255 255
  1.5732  1.98906 0.591534 255 255 255
 1.23705  2.94308 0.210056 255 255 255
 1.65597  2.89969 0.140961 255 255 255
0.828036  2.40257 0.477042 255 255 255
 1.35037  2.48458 0.455163 255 255 255
 1.19568  2.31624 0.513882 255 255 255
 1.34986  3.02798 0.162658 255 255 255
 1.64567  2.47004 0.192307 255 255 255
 1.79697  1.94354 0.560367 255 255 255
 1.54745  3.00371 0.120382 255 255 255
 1.13152   3.0348 0.209815 255 255 255
 1.63552  1.95903 0.550967 255 255 255
  1.1162  2.90008 0.271368 255 255 255
1.25432 3.04429 0.17884 255 255 255
0.473919  2.54455 0.521215 255 255 255
  0.8312  3.02867 0.274208 255 255 255
1.90222 2.60741 0.18492 255 255 255
 1.66007  2.72173 0.201839 255 255 255
 1.63857  2.22941 0.469188 255 255 255
 1.60631  2.81726 0.159733 255 255 255
 1.68219  1.86476 0.537113 255 255 255
 1.40579  2.91156 0.198952 255 255 255
 1.39439  3.13799 0.108828 255 255 255
  1.3798  3.14888 0.106659 255 255 255
0.767291  2.78944 0.429601 255 255 255
     1.8048     2.92825 -0.00349787 255 255 255
  1.5906  2.94768 0.131929 255 255 255
 2.03073  2.70423 0.103563 255 255 255
  1.4714  2.60249 0.351124 255 255 255
0.569864  2.76772 0.351254 255 255 255
 1.74631  2.25428 0.333947 255 255 255
 1.78651  2.30327 0.257918 255 255 255
 1.82434  2.67096 0.178576 255 255 255
0.964261  3.08788 0.227736 255 255 255
0.887194  2.27058 0.676646 255 255 255
   1.87297    2.90186 -0.0608961 255 255 255
 1.76747  2.25934 0.309918 255 255 255
 1.44157  3.11414 0.107095 255 255 255
 1.38622  3.12545 0.116771 255 255 255
 1.01625  3.08672 0.206489 255 255 255
 1.47358  1.80651 0.713953 255 255 255
 1.89331  2.43108 0.264599 255 255 255
 1.74521  1.70183 0.717298 255 255 255
   1.84891    2.85252 -0.0293925 255 255 255
 1.37658  2.51664 0.413585 255 255 255
   1.92827    2.78599 0.00784685 255 255 255
 1.56929  1.77991 0.685168 255 255 255
 1.82308  2.01914 0.485467 255 255 255
 1.17323  2.85585 0.230869 255 255 255
 1.35251   2.7269 0.377306 255 255 255
  1.78211   2.85896 0.0160997 255 255 255
 1.61885  2.81687 0.179221 255 255 255
 1.21783   2.2385 0.539257 255 255 255
0.754702  2.82854 0.431007 255 255 255
0.704381  2.17119 0.754986 255 255 255
 1.06307  3.11843 0.193896 255 255 255
  1.6696  2.47663 0.194081 255 255 255
 1.92007  2.39191 0.260194 255 255 255
 1.67726  2.85733 0.158801 255 255 255
 1.68478  2.05073 0.413835 255 255 255
 1.40988  1.93719 0.628899 255 255 255
 1.64516  2.71599 0.172863 255 255 255
0.815244  2.23541 0.725627 255 255 255
 1.96617  2.42211 0.284708 255 255 255
 0.81902  3.02299 0.246653 255 255 255
   1.78985    2.87565 0.00164677 255 255 255
0.889296  2.42992 0.568215 255 255 255
 1.13143  1.97719 0.665424 255 255 255
0.385448  2.58474  0.48069 255 255 255
 1.49234  2.85583 0.197574 255 255 255
 0.77186  2.95627 0.296385 255 255 255
 1.54257  2.03173 0.558947 255 255 255
 1.93645  2.35898 0.193501 255 255 255
 1.06688  2.84375 0.307232 255 255 255
 1.81451  2.38623 0.224268 255 255 255
  1.44228   3.14077 0.0985042 255 255 255
 1.12003   2.4215 0.525675 255 255 255
1.44091 2.55756 0.37684 255 255 255
 1.81819   2.5465 0.254523 255 255 255
  1.83406   2.86636 0.0306535 255 255 255
 1.15035  3.20141 0.133554 255 255 255
 1.01261  2.79014 0.341906 255 255 255
1.46524 2.85641 0.17636 255 255 255
  1.0203  3.15787 0.162119 255 255 255
0.580207  2.73753 0.402102 255 255 255
 1.12606  2.71064 0.362269 255 255 255
0.863861  2.25169 0.686324 255 255 255
  1.84304   2.78618 0.0490328 255 255 255
 1.54772   2.5332 0.235432 255 255 255
 1.30669  2.92877 0.183809 255 255 255
0.995358  3.15205 0.172044 255 255 255
 1.03151  2.42232 0.537305 255 255 255
 1.70019  2.89639 0.138338 255 255 255
0.488984  2.40675 0.665128 255 255 255
0.858256  2.48002  0.48182 255 255 255
 1.34919  3.09567 0.140625 255 255 255
 1.26357  2.55506 0.444089 255 255 255
0.768121  2.42914 0.592457 255 255 255
 1.86734  2.63442 0.195868 255 255 255
0.824669  2.76429 0.425342 255 255 255
 1.28326  3.20217 0.108834 255 255 255
0.517721  2.69368 0.392457 255 255 255
 1.05729  2.22604 0.622436 255 255 255
 1.80379  1.85027 0.600579 255 255 255
  1.83964   2.77679 0.0448617 255 255 255
0.770484  2.99016 0.278084 255 255 255
 0.90204  2.90027 0.313773 255 255 255
 1.26572  3.10036 0.153503 255 255 255
 1.46976  2.66168 0.345156 255 255 255
 1.60478  1.83737 0.650597 255 255 255
0.987243  2.40064 0.565124 255 255 255
0.772195  2.79009 0.298239 255 255 255
 1.96947  2.44701 0.250385 255 255 255
0.813222  2.98757 0.283631 255 255 255
  1.0002  2.74002 0.372756 255 255 255
 1.01103   2.6809 0.298904 255 255 255
 1.68335  2.71759 0.208606 255 255 255
 1.83452  2.50967 0.255222 255 255 255
 2.02796  2.60248 0.148541 255 255 255
1.79337 2.54243 0.23297 255 255 255
 1.07261  2.57647 0.451082 255 255 255
 1.08293  3.21456 0.115305 255 255 255
  1.4677  2.61958 0.353898 255 255 255
0.811541  2.54136 0.516558 255 255 255
  2.05555   2.76282 0.0514147 255 255 255
 1.07179   2.9548 0.263409 255 255 255
 1.19209  2.73734 0.370224 255 255 255
 1.62646  2.78517 0.175167 255 255 255
 1.39871  2.04083 0.643083 255 255 255
 1.78854  1.91044 0.562519 255 255 255
 1.82735  2.49565 0.265704 255 255 255
  1.3953  1.94534 0.588449 255 255 255
0.57842  2.3655 0.65295 255 255 255
 1.16173  3.25841 0.029411 255 255 255
1.52673 2.03119 0.55019 255 255 255
0.753029  2.86502 0.369047 255 255 255
 1.19088  2.56173 0.440763 255 255 255
 2.01725  2.69094 0.106878 255 255 255
  1.1714  2.75899 0.342312 255 255 255
 1.06749  2.64045 0.390812 255 255 255
 1.49323  1.91142 0.647398 255 255 255
0.483547  2.64896  0.41712 255 255 255
2.15007  1.6638 0.48287 255 255 255
 1.26317  2.79954 0.347173 255 255 255
 1.62067  1.88263 0.607001 255 255 255
 1.58594  2.46446 0.240286 255 255 255
 1.42101  2.14135 0.527785 255 255 255
0.832542  2.93519 0.297638 255 255 255
 1.21132   3.1743 0.123382 255 255 255
0.782943  3.01752 0.283245 255 255 255
0.829587   2.4375  0.52754 255 255 255
0.974446    2.217 0.666774 255 255 255
 1.03988  3.11881 0.195811 255 255 255
  1.6541  2.77932 0.169183 255 255 255
 1.57399  2.62041 0.296167 255 255 255
 1.09783  2.21897 0.590528 255 255 255
 1.60664  2.91176 0.148376 255 255 255
 1.66663  2.78734 0.184855 255 255 255
1.70599 1.87493 0.58652 255 255 255
 0.97843  2.13421 0.703684 255 255 255
 1.39136  2.99845 0.175639 255 255 255
 1.56935  2.08893 0.479893 255 255 255
 1.77755  1.90833 0.583732 255 255 255
 1.50311  2.78751 0.179977 255 255 255
1.29799 2.81002 0.32403 255 255 255
 1.88956  2.83571 0.010725 255 255 255
 1.48394  1.86876 0.700723 255 255 255
 1.35239  2.50725 0.438352 255 255 255
0.472248  2.60373 0.505984 255 255 255
 0.59136  2.56658 0.485473 255 255 255
0.932068  2.49599 0.468589 255 255 255
 1.02787  3.04474 0.236337 255 255 255
 1.80663  2.56918 0.220502 255 255 255
    1.81094     2.93672 -0.00229673 255 255 255
 1.13863  3.17276 0.135634 255 255 255
0.915099  2.41129 0.577416 255 255 255
 1.11151  3.10075 0.190762 255 255 255
  1.09141   3.30445 0.0561688 255 255 255
  1.92341   2.79332 0.0258239 255 255 255
1.18455 3.12595  0.1663 255 255 255
0.748907  2.84198 0.434754 255 255 255
0.827259  2.99926 0.273747 255 255 255
 1.06032  2.82917 0.308257 255 255 255
 0.90886  2.83563 0.364933 255 255 255
 1.08469  3.18754 0.151002 255 255 255
 1.92894  2.63937 0.158896 255 255 255
 2.00969  2.61933 0.151581 255 255 255
0.795185  2.31111 0.585993 255 255 255
 1.08353  2.98618 0.244134 255 255 255
 1.88373   2.0944 0.392472 255 255 255
 1.53748  2.03837 0.586007 255 255 255
0.474924  2.45568 0.581155 255 255 255
 1.88758  2.66593 0.186348 255 255 255
0.513628  2.54436 0.503736 255 255 255
 1.16718  3.14612 0.161434 255 255 255
 1.78905  2.32375 0.254681 255 255 255
 1.31685  1.98409 0.585368 255 255 255
 1.92279  2.29069 0.237369 255 255 255
 1.45637   2.8664 0.181088 255 255 255
 1.63868  1.92085 0.554962 255 255 255
0.731854   2.4345 0.597949 255 255 255
 1.37175  2.02262 0.624756 255 255 255
 1.42535  3.10302 0.106446 255 255 255
   1.84948    2.93087 -0.0676257 255 255 255
 1.41477  3.07863 0.115739 255 255 255
 1.87689  2.16365 0.340351 255 255 255
 1.88674  2.65769 0.180688 255 255 255
 2.02325  2.69637 0.118707 255 255 255
 1.81251  2.24464 0.276356 255 255 255
 1.44011  3.10065 0.113843 255 255 255
0.754207  2.76322 0.463463 255 255 255
0.741078  2.74467 0.475229 255 255 255
  2.1075  1.70478 0.471662 255 255 255
 1.46761   2.5064 0.355045 255 255 255
  1.18095    3.2698 0.0459855 255 255 255
1.81787 2.34667 0.23225 255 255 255
1.51288 2.08863 0.55791 255 255 255
 1.02652  2.82105 0.316654 255 255 255
 1.56414  2.81722 0.178262 255 255 255
 1.25223  2.30868 0.531518 255 255 255
 1.41722  2.92534 0.187229 255 255 255
1.08811 3.15611 0.14736 255 255 255
  1.16255    3.2216 0.0889084 255 255 255
 1.40366  2.50802 0.420376 255 255 255
 1.01174  2.56078 0.409488 255 255 255
 1.96053  2.57378 0.204238 255 255 255
0.663174  2.79917 0.324288 255 255 255
 1.36471  2.52272 0.444855 255 255 255
 1.1697 2.73388 0.36958 255 255 255
 1.55257  2.65431 0.295304 255 255 255
  1.77596   2.91281 0.0756921 255 255 255
 0.70703  2.84513 0.305332 255 255 255
  1.6337  2.83218 0.168124 255 255 255
 1.68434  2.93467 0.130065 255 255 255
0.889715   2.8962 0.315702 255 255 255
 1.06229  2.45479 0.515202 255 255 255
 1.60645  2.94393 0.137474 255 255 255
 1.60509  2.94356 0.137721 255 255 255
  2.07469   2.74022 0.0709133 255 255 255
 1.14538  2.26523 0.512512 255 255 255
 1.63295  2.92559 0.137527 255 255 255
0.575006  2.59496 0.480605 255 255 255
 1.43075  3.11621 0.108806 255 255 255
 1.01919  2.24979 0.616854 255 255 255
 1.39437   3.0534 0.151721 255 255 255
1.97373 2.42625 0.24753 255 255 255
0.617366  2.63075 0.456288 255 255 255
  1.6288  2.98591 0.117546 255 255 255
  1.3322  2.17895 0.578057 255 255 255
 1.61864  2.75099 0.199911 255 255 255
0.879481  2.90614 0.326381 255 255 255
 1.44595   3.0741 0.123924 255 255 255
1.57994 2.48576 0.21105 255 255 255
0.731075  2.82777 0.309788 255 255 255
 1.44459  2.32972 0.320329 255 255 255
 1.34567  3.19216 0.106418 255 255 255
 1.15662  2.94991 0.251076 255 255 255
 1.22641  3.09079 0.166655 255 255 255
0.894571  2.97514 0.266461 255 255 255
 1.05569  2.86255 0.299068 255 255 255
  2.06966   2.67912 0.0895957 255 255 255
 1.2566  3.0239 0.19667 255 255 255
 1.40791  2.99236 0.147998 255 255 255
0.630592  2.31627 0.675499 255 255 255
 1.92304  2.52027 0.220855 255 255 255
 1.72905  2.44049 0.197705 255 255 255
 1.21476  3.07613 0.172304 255 255 255
 1.20189  2.38017 0.523011 255 255 255
0.725202  2.95185 0.286439 255 255 255
 1.07324  2.77405 0.324764 255 255 255
 1.13296  2.78896 0.263066 255 255 255
 1.01525  2.58983 0.353292 255 255 255
  1.5961  2.77547 0.179939 255 255 255
 1.20147  2.44907 0.506299 255 255 255
 1.21268  3.09688 0.167652 255 255 255
0.927835  2.12886 0.619326 255 255 255
 1.81517  2.08388 0.408506 255 255 255
 1.67072  2.50353 0.167306 255 255 255
0.520525  2.51836 0.504079 255 255 255
   1.84895    2.86072 -0.0176331 255 255 255
 1.05217  2.81743 0.313572 255 255 255
  1.7463  2.92519 0.132292 255 255 255
 1.58075  2.97753 0.131902 255 255 255
 1.26754  3.14497 0.137771 255 255 255
0.701991   2.1649 0.705687 255 255 255
1.73197 2.38508  0.2417 255 255 255
 0.68743  2.62528 0.533375 255 255 255
 1.38806  3.08013 0.134849 255 255 255
 1.04436  2.76193 0.351516 255 255 255
 1.98629  2.57556 0.184863 255 255 255
 1.87632  2.56129 0.233278 255 255 255
  1.1048  2.42991 0.526639 255 255 255
 1.00725  3.07774 0.210908 255 255 255
  1.1932  2.51663 0.472167 255 255 255
 1.76571  2.61664 0.195493 255 255 255
 1.40415  2.01211 0.585474 255 255 255
 1.02327  2.08207 0.713277 255 255 255
1.71377 2.58642 0.16708 255 255 255
 1.77381  1.67653 0.704753 255 255 255
0.848341  2.99611 0.298667 255 255 255
 1.74602  2.26518 0.348114 255 255 255
  2.04677   2.76876 0.0669096 255 255 255
 1.33435  2.93912 0.201491 255 255 255
0.827197  2.43718 0.535325 255 255 255
   1.84633    2.88045 0.00741455 255 255 255
  1.2542  2.30884 0.495835 255 255 255
  1.7594  2.34731 0.270204 255 255 255
0.667402  2.66264 0.488678 255 255 255
 1.73359  2.83711 0.111433 255 255 255
 1.40549  2.53968 0.404184 255 255 255
1.14589 3.04003 0.20986 255 255 255
 1.77718  2.59667 0.217474 255 255 255
 1.89645  2.61747 0.176475 255 255 255
 1.24295  3.09001 0.177244 255 255 255
0.781182  2.42749 0.599368 255 255 255
0.477831  2.66733 0.406865 255 255 255
 1.10351   3.1173 0.181171 255 255 255
 1.17324  3.11682 0.169831 255 255 255
 1.70381  2.19992 0.379889 255 255 255
  1.5436  2.86038 0.178372 255 255 255
0.939521  2.67567 0.433307 255 255 255
 2.02056  2.63686 0.138829 255 255 255
 1.42075  3.09495 0.103576 255 255 255
1.33132  2.6822 0.37443 255 255 255
0.764884  2.81239 0.294207 255 255 255
 1.46819  2.49796 0.351846 255 255 255
 1.14667  3.17057 0.135184 255 255 255
0.409176  2.57551 0.460843 255 255 255
 1.78466  1.73839 0.665922 255 255 255
 1.33387   3.1028 0.136706 255 255 255
 0.71375  2.42376 0.607007 255 255 255
 1.62754  2.79563 0.169327 255 255 255
 1.40462  2.52348 0.405464 255 255 255
 1.38992  3.11785 0.112363 255 255 255
 1.38713  3.11526 0.120683 255 255 255
  1.73137   2.92667 0.0982216 255 255 255
 1.01745  2.41526 0.544058 255 255 255
1.75745 2.01944 0.46049 255 255 255
 1.07956  3.09918 0.200234 255 255 255
 1.36573  2.92312 0.209503 255 255 255
0.727848  2.84149 0.287501 255 255 255
0.689823  2.90896 0.346118 255 255 255
 1.14773  2.70382 0.391613 255 255 255
  1.19663   3.19947 0.0860489 255 255 255
1.35261 2.49706 0.43105 255 255 255
 1.32443  3.05728 0.159725 255 255 255
 1.17255  2.71224 0.406317 255 255 255
 1.57179  2.97687 0.134597 255 255 255
 1.0162  2.4459 0.55077 255 255 255
0.919041  3.00198 0.239636 255 255 255
   1.93576    2.86864 -0.0684288 255 255 255
 1.75897  2.73559 0.164091 255 255 255
1.12754 3.10056 0.21776 255 255 255
1.16788 3.13174 0.16454 255 255 255
 1.82428  2.31947 0.218052 255 255 255
0.69597 2.86555 0.28866 255 255 255
0.989813  2.98378 0.266856 255 255 255
0.796642  2.88608 0.321174 255 255 255
  1.96365   2.85027 -0.047375 255 255 255
0.895131  3.02257 0.261241 255 255 255
 1.54171  2.81528 0.197558 255 255 255
 1.05579  2.60491 0.436732 255 255 255
 1.67401   2.4943 0.164151 255 255 255
 1.40625  3.13381 0.114389 255 255 255
 1.04628  3.19043 0.107233 255 255 255
 1.10524  3.18553 0.141838 255 255 255
 1.31614  3.15225 0.123015 255 255 255
  1.43807   3.16521 0.0885938 255 255 255
 1.73306  2.36979 0.243596 255 255 255
 1.11271  2.75811 0.250698 255 255 255
 1.37803  2.45628 0.439374 255 255 255
  1.7892  1.99002 0.487673 255 255 255
  1.2576  3.07999 0.174092 255 255 255
 1.26193  3.08056 0.159305 255 255 255
0.388906  2.45833 0.545838 255 255 255
