ply
format ascii 1.0
element vertex 1154
property float x
property float y
property float z
property uchar red
property uchar green
property uchar blue
end_header
-0.528488  0.196771   2.06474 255 255 255
-0.378091 -0.203723   2.13736 255 255 255
0.124645 0.293168  1.83108 255 255 255
0.0545679   0.49857   1.75081 255 255 255
0.0803089   0.53761   1.75566 255 255 255
 -0.328005 -0.0751466    2.04191 255 255 255
-0.37393 0.126259  2.04199 255 255 255
-0.120185  0.388257   1.85898 255 255 255
0.0277203  0.560717   1.72192 255 255 255
0.0227112  0.298535   1.83808 255 255 255
-0.591598  0.316253   1.98425 255 255 255
0.0141719  0.539976   1.72077 255 255 255
-0.0411543   0.156357    1.90169 255 255 255
-0.81508 0.483372  2.00004 255 255 255
 0.112685 0.0849099   1.89323 255 255 255
0.0764165  0.361501   1.81805 255 255 255
0.105178  0.34285  1.81094 255 255 255
-0.014332  0.161058   1.89189 255 255 255
-0.677512 0.0639691   2.10444 255 255 255
 -0.564742 -0.0674548    2.18375 255 255 255
-0.286825  0.100498   2.00886 255 255 255
-0.340656 -0.171327    2.0628 255 255 255
-0.661894   1.08764   1.60298 255 255 255
-0.681026  0.806977   1.74859 255 255 255
-0.466443  0.228359   2.08095 255 255 255
0.0887242  0.118941   1.90194 255 255 255
-0.194673 -0.127972   1.99422 255 255 255
-0.0428036  -0.126131    1.96204 255 255 255
0.0820451  0.477941   1.75424 255 255 255
-0.627469  0.911124   1.69267 255 255 255
-0.104577  0.399735   1.85966 255 255 255
-0.508697 0.0791137    2.1307 255 255 255
0.0648097  0.426642   1.77965 255 255 255
-0.0289526   0.414665    1.78676 255 255 255
0.175793 0.161394  1.88936 255 255 255
-0.146704 0.0594621   1.93145 255 255 255
-0.221057  0.188315    1.9566 255 255 255
-0.596293  0.809574   1.72829 255 255 255
0.0464488 0.0610695    1.9179 255 255 255
0.160224 0.323998  1.81351 255 255 255
-0.538661  0.979423   1.62219 255 255 255
-0.0715477   0.304643    1.86946 255 255 255
-0.83654 0.796557  1.79283 255 255 255
 -0.135517 0.00802702    1.97145 255 255 255
-0.0167572 -0.0202937     1.9427 255 255 255
-0.113206   0.24646   1.88531 255 255 255
-0.133899  0.271656   1.89818 255 255 255
 -0.177189 -0.0146964    2.00241 255 255 255
-0.290307  0.288604   1.94928 255 255 255
-0.64943 0.568275   1.8935 255 255 255
-0.330438 0.0239884   2.02737 255 255 255
0.0474288   0.43402   1.77554 255 255 255
0.261001 0.255716  1.87088 255 255 255
-0.844571  0.592909   1.91721 255 255 255
-0.024492  0.583274   1.70319 255 255 255
0.0170845  0.386804   1.81163 255 255 255
-0.465526  0.212708   2.05843 255 255 255
0.0976035   0.35289   1.81578 255 255 255
0.133463 0.280719  1.83478 255 255 255
 -0.158236 -0.0240386    1.98189 255 255 255
-0.776063  0.994051   1.67702 255 255 255
  -0.328048 -0.00575274     2.02752 255 255 255
-0.726769  0.999245   1.65727 255 255 255
-0.0145681   0.181244    1.86492 255 255 255
0.0497887  0.386708   1.80827 255 255 255
0.0163528  0.190104   1.86169 255 255 255
-0.744768   1.01022   1.66352 255 255 255
0.163843 0.251004  1.84831 255 255 255
-0.343326 -0.143438   2.06558 255 255 255
-0.628362 0.0936472    2.2201 255 255 255
-0.626834  0.240715    2.0232 255 255 255
0.212874 0.217615  1.87509 255 255 255
0.0870138  0.216866   1.85967 255 255 255
0.154844 0.301861  1.83114 255 255 255
-0.465909 0.0907216   2.04913 255 255 255
 -0.555288 0.00656312     2.1732 255 255 255
-0.0277512   0.598381    1.70585 255 255 255
-0.450809 -0.183723   2.15435 255 255 255
-0.546667  0.817852   1.71348 255 255 255
-0.188267 0.0782656   1.96045 255 255 255
0.048113 0.360064  1.79895 255 255 255
  -0.52316 -0.0565649    2.13282 255 255 255
-0.794458  0.463878   2.00111 255 255 255
0.0713311  0.146052   1.89552 255 255 255
-0.0902209   0.248174    1.88829 255 255 255
0.022344 0.155086  1.86565 255 255 255
-0.485779 0.0906906   2.10781 255 255 255
0.136841 0.376794  1.79651 255 255 255
-0.0591796   0.416459    1.82229 255 255 255
0.193139 0.155386  1.89669 255 255 255
-0.0517057   0.409038    1.82188 255 255 255
0.069869 0.500429  1.77241 255 255 255
-0.505215  0.890006     1.697 255 255 255
-0.67794  1.08414  1.61381 255 255 255
0.0807288  0.353326   1.80295 255 255 255
0.124413  0.22412  1.86798 255 255 255
0.131224 0.336806  1.81486 255 255 255
-0.262802 0.0984791   1.99796 255 255 255
0.0349718  0.261058   1.86139 255 255 255
-0.311311  0.558662    1.7993 255 255 255
-0.11594 0.144315  1.93007 255 255 255
-0.630118  0.549361   1.88523 255 255 255
-0.980107  0.983488    1.7184 255 255 255
0.237633 0.338839  1.75624 255 255 255
-0.937681  0.872676   1.78348 255 255 255
-0.966654  0.987104   1.71021 255 255 255
 -0.273488 -0.0378946    2.01265 255 255 255
-0.420707   0.30174   1.96296 255 255 255
-0.254441 -0.177858   2.01025 255 255 255
-0.531007  0.986005   1.61808 255 255 255
0.0571308  0.320125   1.82138 255 255 255
-0.644627  0.171638   2.21367 255 255 255
-0.431483  0.359001   1.93748 255 255 255
-0.0353572   0.501971     1.7582 255 255 255
0.244319 0.269908   1.8609 255 255 255
-0.477421  0.893057   1.68666 255 255 255
  -0.6133 -0.089753   2.22407 255 255 255
-0.720438  0.929884   1.68788 255 255 255
-0.488426  0.939155   1.66697 255 255 255
-0.500163  0.162537   2.09316 255 255 255
0.116272 0.402902  1.78555 255 255 255
-0.0119544 -0.0104971    1.95119 255 255 255
 -0.675143 0.00810059    2.26268 255 255 255
-0.337522  0.210628   1.99215 255 255 255
-0.0167923   0.174274    1.88658 255 255 255
-0.746361  0.920334   1.70182 255 255 255
0.119406 0.410681   1.7843 255 255 255
-0.85282 0.490457  2.00731 255 255 255
-0.234777  0.110243   1.97972 255 255 255
-0.620603  0.793235   1.74471 255 255 255
-0.707074 0.0771177   2.26764 255 255 255
-0.691147  0.173955    2.0734 255 255 255
-0.238292  0.564436   1.78088 255 255 255
-0.43399 0.401792  1.91879 255 255 255
-0.655929  0.550416   1.90006 255 255 255
-0.368923  0.894565   1.66333 255 255 255
-0.0895994  0.0109615    1.95905 255 255 255
-0.292727  0.612123   1.79606 255 255 255
-0.170445  0.460546   1.85395 255 255 255
 0.15498 0.311304  1.82775 255 255 255
 -0.145857 -0.0296674    1.98512 255 255 255
-1.04175 0.811085  1.83998 255 255 255
-0.244675  0.626649   1.76139 255 255 255
-0.20484 0.418915  1.85363 255 255 255
-0.0452145   0.374163    1.83024 255 255 255
-0.156997  0.358304   1.87637 255 255 255
-0.187057  0.113247   1.96215 255 255 255
-0.096676 0.0867192   1.93156 255 255 255
-0.185127  0.129616   1.94691 255 255 255
0.0828863  0.247076   1.84811 255 255 255
0.238283 0.326973  1.80168 255 255 255
0.0631212  0.444805    1.7905 255 255 255
 0.19014 0.297742  1.84058 255 255 255
-0.653762  0.732743    1.7792 255 255 255
 -0.185611 -0.0736726     1.9947 255 255 255
0.0721212  0.234534   1.86073 255 255 255
0.0171394  0.431385   1.78314 255 255 255
-0.595666  0.139587    2.1877 255 255 255
0.0968091   0.31706   1.82293 255 255 255
-0.428289  0.348456   1.93994 255 255 255
-0.245022 -0.155763   1.99465 255 255 255
-0.281568  0.253647   1.96788 255 255 255
 -0.20285 0.0475273   1.97964 255 255 255
-0.504784  0.182256   2.10504 255 255 255
-1.14006 0.916842  1.78242 255 255 255
0.128069  0.12392  1.88221 255 255 255
-0.134437  0.293758   1.89024 255 255 255
0.0749945  0.335638   1.81047 255 255 255
0.0434836  0.500118   1.74821 255 255 255
-0.0797011   0.310838    1.86558 255 255 255
0.0808544  0.210038   1.86663 255 255 255
-0.128963   0.39392   1.85619 255 255 255
0.114538 0.123875  1.89481 255 255 255
-0.119572  0.359376    1.8544 255 255 255
-0.675537  0.764749   1.77071 255 255 255
-0.782257  0.967242   1.69064 255 255 255
-0.970969   0.85551   1.80681 255 255 255
 -0.333108 -0.0876752     2.0437 255 255 255
-0.0112969   0.220584    1.88093 255 255 255
0.163463 0.214467  1.87935 255 255 255
0.0947903   0.32525   1.81756 255 255 255
0.112184 0.381067  1.72966 255 255 255
0.0366624  0.466743   1.76069 255 255 255
-0.719314  0.884085   1.71938 255 255 255
-0.206731 -0.121305   2.00535 255 255 255
0.180986 0.197829   1.8843 255 255 255
-0.637237  0.182673   2.06135 255 255 255
-0.076892  0.145057   1.91605 255 255 255
0.103283 0.323775  1.81327 255 255 255
-0.647945  0.807783   1.74156 255 255 255
-0.474766  0.181652   2.08537 255 255 255
 -0.1858 0.259021  1.90517 255 255 255
-0.293446  0.159311    1.9999 255 255 255
0.0713033  0.304988   1.82738 255 255 255
0.066751 0.159387  1.88415 255 255 255
-0.330015 -0.178751   2.05684 255 255 255
-0.276336  0.229086   1.95033 255 255 255
-0.713025  0.747253   1.79069 255 255 255
0.155573 0.333835  1.80781 255 255 255
-0.848176  0.626655   1.90642 255 255 255
-0.885122   0.80349   1.79684 255 255 255
0.0214803 0.0551229   1.85872 255 255 255
0.0239911 0.0438184   1.90742 255 255 255
-0.104342  0.319109   1.85849 255 255 255
-0.537181  0.129123    2.1553 255 255 255
 -0.671609 -0.0482132    2.26261 255 255 255
-0.180259 -0.145647    1.9896 255 255 255
 -0.109058 -0.0180038    1.93287 255 255 255
0.0734811  0.429012   1.78095 255 255 255
-0.930856   0.98096   1.72289 255 255 255
-0.442035  0.280221   1.95309 255 255 255
-0.758683    0.7971   1.77828 255 255 255
-0.225052 -0.175984   1.99969 255 255 255
-0.652294   0.90253   1.69306 255 255 255
0.108079 0.165487  1.88324 255 255 255
-0.893151  0.599622   1.90819 255 255 255
0.0526326 -0.057964   1.92602 255 255 255
-0.0542307   0.566077    1.72176 255 255 255
-0.0176955   0.367025    1.82079 255 255 255
-0.881562  0.576035   1.94732 255 255 255
-0.391168 -0.127626   2.12906 255 255 255
-0.338707 -0.223637   2.07311 255 255 255
-0.951027   1.03259   1.68242 255 255 255
-0.106327   0.29624   1.88207 255 255 255
-0.0632151 -0.0806887    1.95448 255 255 255
-0.0249895   0.561199    1.72215 255 255 255
-0.138431  0.238835   1.89874 255 255 255
-0.405431  0.141692   2.04303 255 255 255
-0.388756 -0.146753   2.12984 255 255 255
-0.411867  0.870199    1.6873 255 255 255
-0.134061  0.135463   1.93447 255 255 255
-0.04996 0.231591  1.86711 255 255 255
 -0.2913 0.140723  1.99381 255 255 255
-0.586431  0.167417   2.17024 255 255 255
-0.629221  0.993145   1.64288 255 255 255
-1.02675  0.88488  1.80693 255 255 255
0.00417222  0.0890034    1.90486 255 255 255
-0.574796   0.44123   1.92056 255 255 255
-0.593353   0.99273   1.63063 255 255 255
0.151868 0.190218  1.88695 255 255 255
-0.427584  -0.19221   2.10864 255 255 255
-0.401978  0.843933   1.70154 255 255 255
-0.577324 0.0661338   2.19664 255 255 255
-0.996395  0.964692    1.7304 255 255 255
-0.890954   1.06006   1.64884 255 255 255
-0.131984  0.352395   1.86112 255 255 255
-0.423367   0.35603   1.94079 255 255 255
-0.298025 0.0652408   2.01028 255 255 255
-0.191555  0.286642   1.92109 255 255 255
-0.417184 -0.068518   2.09393 255 255 255
-0.744663  0.816215   1.75885 255 255 255
-0.645347 0.0890799   2.23002 255 255 255
 -0.14642 -0.161907   1.98828 255 255 255
-0.694624 0.0814742   2.26992 255 255 255
-0.124046  0.366342   1.85869 255 255 255
-0.622345   1.02562   1.63423 255 255 255
-0.661944  0.740038   1.77784 255 255 255
-0.566063  0.919116   1.66047 255 255 255
0.0551378  0.423451    1.7974 255 255 255
-0.0372723  -0.084363    1.96278 255 255 255
-1.07075 0.977475  1.73933 255 255 255
-0.358064  0.535547   1.83692 255 255 255
-0.77707 0.828846  1.75916 255 255 255
-0.563151  0.145984   2.16418 255 255 255
-0.592139  0.980282   1.63525 255 255 255
-0.0884383    0.32434    1.86575 255 255 255
-0.209116 0.0809141   1.96517 255 255 255
-0.0154136  -0.016384    1.94074 255 255 255
-0.0595428  -0.056009    1.96227 255 255 255
0.0722453  0.434163   1.79321 255 255 255
0.136122 0.144856  1.89401 255 255 255
-0.888652  0.573827   1.94337 255 255 255
0.0256478  0.328185   1.82563 255 255 255
-0.0153082 -0.0653043    1.95637 255 255 255
-0.265898 0.0805608   1.99619 255 255 255
-0.10281 0.225528  1.90206 255 255 255
-0.440817  0.820433   1.72027 255 255 255
-0.0505056   0.363324    1.82889 255 255 255
 -0.28272 -0.032721   2.01643 255 255 255
 -0.547924 -0.0203408    2.13591 255 255 255
-0.0536141   0.376096    1.82772 255 255 255
0.061876 0.186538  1.86612 255 255 255
0.00841737 -0.0219798    1.94421 255 255 255
-0.960689  0.672259   1.91039 255 255 255
-0.611996   1.09073   1.58792 255 255 255
-0.0520417   0.148054    1.90552 255 255 255
 -0.282828 -0.0123966    2.01568 255 255 255
-0.0983716    0.37944    1.84719 255 255 255
-0.086265  0.333335   1.86356 255 255 255
-0.0229737   0.102725    1.91481 255 255 255
0.016937 0.312417  1.84447 255 255 255
-0.454484 0.0773811   2.09692 255 255 255
-0.00709406    0.621093     1.67278 255 255 255
0.0903407  0.513129   1.73106 255 255 255
-0.725699   1.11344   1.61012 255 255 255
-0.309163  0.245301   1.98958 255 255 255
0.137846 0.185194  1.87684 255 255 255
0.0814862  0.232795   1.85455 255 255 255
0.270362 0.357379  1.74046 255 255 255
-0.0508638   0.353825    1.83203 255 255 255
-0.71085 0.128862  2.26675 255 255 255
-0.25546 0.180499  1.98059 255 255 255
-0.242269   0.15461   1.97399 255 255 255
-0.214385  0.223337   1.93944 255 255 255
  -0.13831 -0.0162452    1.95483 255 255 255
0.0574717  0.379141   1.80571 255 255 255
-0.644503  0.911904   1.68613 255 255 255
 -1.0339 0.810276  1.84424 255 255 255
0.221588 0.278842  1.79333 255 255 255
-0.0517871 -0.0915327    1.95474 255 255 255
-1.04219 0.990599  1.72782 255 255 255
-0.475848  0.220491   2.07489 255 255 255
-0.687207   1.11108   1.59803 255 255 255
0.0402065  0.282762   1.83403 255 255 255
0.0470595  0.102205   1.91416 255 255 255
-0.518802  0.925672   1.67546 255 255 255
-0.201321  0.512435   1.80519 255 255 255
-1.05036 0.873344   1.8206 255 255 255
0.195018 0.234355   1.8678 255 255 255
-0.029138  0.384297   1.82499 255 255 255
-0.0881309   0.465097     1.8068 255 255 255
-0.0134456   0.337706    1.83587 255 255 255
0.0802317 0.0812528   1.91756 255 255 255
0.250748 0.242553  1.86238 255 255 255
-0.684944  0.776332   1.76579 255 255 255
-0.264795  -0.01652   2.02605 255 255 255
-0.256643  0.060659   1.99826 255 255 255
-0.196983  0.087102   1.96602 255 255 255
-0.234606  0.243439   1.90865 255 255 255
0.195236 0.386623   1.7107 255 255 255
-0.326432  0.263215    1.9511 255 255 255
-0.81659 0.458109  2.00962 255 255 255
-0.101725 -0.154127   1.99862 255 255 255
-0.609427   1.02162   1.61758 255 255 255
 -0.301404 -0.0374586    2.05509 255 255 255
-0.420536  0.190112   2.00383 255 255 255
-0.115288  0.705859   1.70848 255 255 255
0.162857 0.270515  1.83787 255 255 255
-0.0681096   0.234278    1.89094 255 255 255
-0.787524  0.716925   1.83269 255 255 255
0.189838 0.200543  1.86868 255 255 255
-1.09644 0.879643  1.82859 255 255 255
-0.107143  0.400652   1.85016 255 255 255
-0.276676   0.23452   1.97185 255 255 255
 -0.661374 -0.0256906    2.25047 255 255 255
-0.14899 0.234006  1.90535 255 255 255
0.282199 0.313032   1.7709 255 255 255
-0.607811   1.06128   1.60286 255 255 255
-0.532625  0.262673   1.99996 255 255 255
-0.427538  0.147075   2.06656 255 255 255
-0.762293  0.797373   1.76791 255 255 255
 -0.252455 -0.0588404    2.00561 255 255 255
 -0.4922 0.108402  2.05628 255 255 255
-0.699106  0.114923   2.26429 255 255 255
0.0597294  0.421851    1.7881 255 255 255
0.0564778  0.190029   1.86663 255 255 255
-0.618189   1.08645   1.59154 255 255 255
-0.334161 0.0791317   2.03143 255 255 255
-0.406035  0.118989   2.05387 255 255 255
-0.382187  0.862398   1.68646 255 255 255
-0.935009  0.931859   1.74448 255 255 255
-0.101618  0.275718   1.88362 255 255 255
0.225029 0.326249  1.75899 255 255 255
0.0107382  0.329229   1.84558 255 255 255
0.00975019   0.331101    1.83095 255 255 255
-0.561305 0.0959358    2.1666 255 255 255
-0.536283  -0.10125   2.16478 255 255 255
-0.25439 0.199526  1.97165 255 255 255
-0.00699045    0.516618     1.74876 255 255 255
-0.814208  0.848556   1.74873 255 255 255
-0.173544  0.350294   1.85454 255 255 255
0.0277786  0.190405   1.86217 255 255 255
 -0.663358 0.00414972    2.24657 255 255 255
-1.03746 0.878618  1.81172 255 255 255
-0.276839 -0.111872   2.01215 255 255 255
-0.206554  0.269513   1.89611 255 255 255
0.0334407   0.27487    1.8487 255 255 255
-0.156008  0.332629   1.88299 255 255 255
0.0230105  0.560546   1.72215 255 255 255
-0.572707  0.280957   2.03163 255 255 255
-0.34649 0.245684  2.01094 255 255 255
-0.91884 0.959091   1.7395 255 255 255
-0.10212 0.155306  1.92864 255 255 255
-0.582953   1.02799      1.61 255 255 255
-0.461895  0.892805   1.67864 255 255 255
-0.426309  0.328428   1.93424 255 255 255
 -0.160754 -0.0386326     1.9676 255 255 255
-0.228195  0.233779   1.94278 255 255 255
-0.0582366 -0.0977695    1.95005 255 255 255
-1.14062 0.929076  1.78438 255 255 255
-0.142014 0.0107702   1.96794 255 255 255
-0.756858  0.819972   1.75747 255 255 255
0.202235 0.322171  1.82394 255 255 255
-0.254277  0.162928   1.97074 255 255 255
-0.619792  0.767244    1.7537 255 255 255
-0.441726   0.17888   2.05735 255 255 255
-0.67928 0.125279   2.2539 255 255 255
0.168695 0.168215  1.88871 255 255 255
-0.269023  0.665036   1.73282 255 255 255
0.0210024  0.391275   1.80246 255 255 255
 -0.160783 -0.0765382    2.00692 255 255 255
-0.297294  0.116538   2.00914 255 255 255
-0.132527  0.303478   1.88481 255 255 255
-0.132806  0.304091   1.87928 255 255 255
-0.893576     1.065   1.64598 255 255 255
0.0498297  0.243671   1.84435 255 255 255
 -0.163312 0.00738282    1.96354 255 255 255
-0.989518   1.00028   1.71069 255 255 255
-0.092503  0.213425   1.90143 255 255 255
-0.478187  0.263365   2.06525 255 255 255
-0.219474  0.145389   1.95676 255 255 255
-0.842728  0.620099   1.90145 255 255 255
-0.516476  0.941071   1.66927 255 255 255
-0.671779   1.10362   1.59877 255 255 255
0.142965 0.309146  1.83219 255 255 255
-0.150019  0.241358   1.90782 255 255 255
0.0289854  0.178605   1.86453 255 255 255
-0.580971  0.151938   2.17122 255 255 255
0.109006 0.326284  1.80955 255 255 255
0.0474366  0.385608   1.81294 255 255 255
-0.249388  0.216875   1.96552 255 255 255
-0.414237 -0.044347   2.08063 255 255 255
-0.882026  0.935388   1.74131 255 255 255
-0.182036  0.404957   1.86901 255 255 255
-0.334168  0.264734   1.96098 255 255 255
-0.0474474  0.0660238    1.94312 255 255 255
-0.00651071    0.614991     1.66619 255 255 255
-0.159867  0.288317   1.90709 255 255 255
 0.0439178 -0.0599829    1.92456 255 255 255
-0.318868  0.276296   1.98452 255 255 255
-0.469367  0.434958   1.88644 255 255 255
-0.315945  0.386035   1.95109 255 255 255
-0.286364  0.246553   1.97379 255 255 255
-0.974502  0.914626   1.77322 255 255 255
-0.481528  0.838979   1.71689 255 255 255
0.105949 0.453895  1.75738 255 255 255
-0.0196402   0.459764    1.78121 255 255 255
-0.149168  0.332366   1.88868 255 255 255
0.0671012  0.296897   1.82958 255 255 255
-0.215787 -0.123933    2.0105 255 255 255
-0.938076  0.649089    1.9224 255 255 255
-0.228258  0.120878   1.98431 255 255 255
-0.852554   1.08471   1.62418 255 255 255
0.0312619  0.318156   1.83273 255 255 255
-0.57268  1.04376  1.60288 255 255 255
 -0.108889 -0.0631101    1.97645 255 255 255
-0.649365  0.725444   1.78483 255 255 255
0.152259 0.192682  1.83774 255 255 255
0.0940886  0.505842   1.76541 255 255 255
-0.276685 -0.121058   2.01818 255 255 255
 0.079051 0.0757136   1.90391 255 255 255
0.0799273  0.436183   1.79278 255 255 255
-0.96167 0.852603  1.80233 255 255 255
 -0.267434 -0.0877058    2.01774 255 255 255
-0.89082  1.01918  1.69969 255 255 255
-0.698929  0.965314   1.66318 255 255 255
0.0835335 0.0844213   1.89011 255 255 255
-0.705958  0.874346   1.72151 255 255 255
-0.515377 0.0168006   2.10503 255 255 255
-0.152902  0.430568   1.84881 255 255 255
0.0638905  0.235246   1.86105 255 255 255
-0.141254  0.125919   1.94382 255 255 255
-0.320128  0.330038   1.92526 255 255 255
0.0313819 0.0548935   1.91014 255 255 255
-0.0832617   0.114895    1.91043 255 255 255
-0.302449 0.0111993   2.01717 255 255 255
-0.140518  0.434876   1.84839 255 255 255
0.016861 0.332484  1.84422 255 255 255
0.0174721  0.332511   1.84487 255 255 255
 -0.1615 0.364965  1.87917 255 255 255
-0.683613   1.11666   1.59771 255 255 255
-0.233342  0.259085   1.94549 255 255 255
-0.861385   1.08543   1.62691 255 255 255
-0.495425 0.0172314    2.1279 255 255 255
-0.586476  0.188709   2.17602 255 255 255
0.181338 0.230047  1.87317 255 255 255
-0.475415 0.0669767   2.10475 255 255 255
-0.0643547   0.220221    1.89116 255 255 255
-0.692668  0.106763   2.25788 255 255 255
-0.153924   0.34768   1.88638 255 255 255
-0.884234  0.677909   1.88807 255 255 255
0.227497 0.269256  1.78696 255 255 255
-0.831809  0.520726   1.99028 255 255 255
0.0756243  0.208626   1.85266 255 255 255
-0.908308  0.995343   1.71331 255 255 255
-0.247365    0.1908   1.97333 255 255 255
 -0.607053 -0.0626918    2.22841 255 255 255
-0.0811915   0.317112    1.87059 255 255 255
-0.110183  0.278764   1.88889 255 255 255
0.0186639   0.10862   1.90557 255 255 255
-0.245075 0.0324651   1.98005 255 255 255
-0.268315  0.148366   1.97304 255 255 255
-0.0204132   0.373692    1.82086 255 255 255
-0.0141949 -0.0570462    1.95202 255 255 255
 -0.431267 -0.0216587    2.09098 255 255 255
-0.658844  0.188336   2.21138 255 255 255
-0.690911  0.140129   2.25418 255 255 255
-0.0356433   0.380654    1.83081 255 255 255
-0.080024 0.0354975   1.95423 255 255 255
-0.347363  0.282681   1.99365 255 255 255
-0.0131136   0.127517    1.90473 255 255 255
-0.0346197   0.387097    1.82447 255 255 255
-0.0321392   0.155674    1.88619 255 255 255
-0.217039  0.036127   1.97122 255 255 255
0.0713638  0.491246   1.75008 255 255 255
-0.631824  0.933401   1.66944 255 255 255
-0.284555  0.210786   1.97125 255 255 255
-0.298512  0.198332   1.99013 255 255 255
-0.118038 0.0923931   1.92576 255 255 255
 -0.478515 -0.0545859    2.12928 255 255 255
-0.563636  0.348827   1.94033 255 255 255
  -0.16099 -0.0190369    1.97673 255 255 255
-0.488373 -0.241206    2.1799 255 255 255
-0.0251846   0.289172    1.86457 255 255 255
-0.0889031   0.226349    1.90047 255 255 255
-0.20139  0.06944  1.97003 255 255 255
-0.0159799   0.306166    1.85543 255 255 255
-0.0814783    0.34759    1.85671 255 255 255
-0.183054  0.232621   1.92229 255 255 255
-0.670215  0.121444   2.23826 255 255 255
-0.242927  0.207735    1.9649 255 255 255
-0.552319 -0.043763   2.18497 255 255 255
-0.0056907   0.354278    1.82475 255 255 255
-0.641907  0.919413   1.68411 255 255 255
-0.187036   0.35668   1.86268 255 255 255
 -0.63768 0.0740933   2.11835 255 255 255
-0.693734  0.818294   1.74583 255 255 255
-0.173092  0.321972   1.87709 255 255 255
-0.195336  0.204286     1.944 255 255 255
0.132982  0.18974  1.81778 255 255 255
  -0.28905 -0.0196449    2.01932 255 255 255
-0.0380793   0.398049    1.82096 255 255 255
-0.177377  0.182971   1.93198 255 255 255
-0.262538 0.0869071   2.00111 255 255 255
-0.0921983 -0.0860411    1.97656 255 255 255
-0.295341  0.303686   1.96171 255 255 255
-0.499664  0.170341    2.1214 255 255 255
 -0.661032 -0.0042999    2.24526 255 255 255
-0.239895 0.0533324   1.98126 255 255 255
-0.068047 -0.131767   1.94822 255 255 255
-0.326699  0.215426   1.98071 255 255 255
-0.12354 0.379018   1.8395 255 255 255
-0.439473  -0.24757   2.11902 255 255 255
-0.15135 0.186883  1.92484 255 255 255
-0.167169  0.174953   1.93533 255 255 255
-0.186521  0.184915   1.93483 255 255 255
-0.706644  0.110015   2.26523 255 255 255
-0.264535 0.0933913    1.9861 255 255 255
-0.112394  0.233852   1.89992 255 255 255
0.0406996  0.386803   1.81945 255 255 255
-0.199902  0.245536   1.93143 255 255 255
-0.176234  0.157723   1.93955 255 255 255
-0.17709 0.156361  1.94859 255 255 255
-0.928494  0.708651   1.88537 255 255 255
-0.276722  0.124974   1.99331 255 255 255
 -0.29152 0.0734251    2.0028 255 255 255
-0.158679  0.187621   1.92751 255 255 255
0.0530589  0.239936   1.85601 255 255 255
 -0.66925 0.0913401   2.24699 255 255 255
-0.579466  0.195192   2.16875 255 255 255
-0.070423  0.284781   1.87384 255 255 255
-0.214501  0.173292   1.93943 255 255 255
-0.687498   0.05411    2.2617 255 255 255
-0.285737 0.0845942   1.99496 255 255 255
-0.42634  0.10279  2.03583 255 255 255
0.0210169  0.208421   1.81682 255 255 255
 -0.153273 0.00957169    1.96953 255 255 255
-0.153978 -0.138995   1.99734 255 255 255
-0.0984714   0.197923    1.89389 255 255 255
-0.535329  0.119895   2.14961 255 255 255
-0.202323 -0.135918   2.00957 255 255 255
-0.716461  0.154296    2.2709 255 255 255
-0.120735  0.349171   1.86314 255 255 255
-0.242662  0.116075   1.96746 255 255 255
-0.139736  0.382904   1.86618 255 255 255
-0.212032  0.145489   1.95211 255 255 255
-0.458653  0.457281   1.89566 255 255 255
-0.0760547   0.140437    1.91121 255 255 255
-0.575325  0.158411   2.16712 255 255 255
 -0.331044 -0.0631705    2.04711 255 255 255
-0.0419131   0.599221    1.71066 255 255 255
-0.166634  0.170457   1.93441 255 255 255
-0.260493  0.158464   1.98199 255 255 255
-0.278437 0.0795469   1.99716 255 255 255
-0.283883 0.0794948   1.99707 255 255 255
0.00990537   0.479571    1.76678 255 255 255
-0.483613  0.115787   2.04317 255 255 255
-0.170517  0.188818   1.92947 255 255 255
-0.192961 0.0726501   1.96383 255 255 255
-0.545482  0.156127   2.14586 255 255 255
-0.16776 0.229611  1.91551 255 255 255
-0.220851 0.0481436   1.98503 255 255 255
-0.645739 0.0263815   2.23657 255 255 255
-0.0151329 -0.0984435     1.9419 255 255 255
-0.199624  0.228108   1.94445 255 255 255
-0.251816  0.156835   1.95899 255 255 255
-0.589476  0.149199   2.17023 255 255 255
-0.118257  0.204091   1.91113 255 255 255
0.242546 0.303071  1.77762 255 255 255
-0.239995  0.124632   1.96773 255 255 255
-0.132067 0.0923797   1.92457 255 255 255
-0.0534985  0.0482672    1.93452 255 255 255
-0.694804  0.149305   2.24816 255 255 255
-0.208937 0.0641082   1.97099 255 255 255
-0.279995 0.0303809   2.01577 255 255 255
-0.00957877    0.284447     1.85879 255 255 255
0.00319648   0.314575    1.84859 255 255 255
-0.274567  0.274161   1.95215 255 255 255
-0.301903 0.0529003   2.01411 255 255 255
 -0.102674 -0.0596595    1.97499 255 255 255
-0.122819  0.184406   1.91729 255 255 255
  -0.2147 -0.171483   1.99253 255 255 255
-0.328453  0.227778   1.98486 255 255 255
-0.226238 -0.158486   2.00679 255 255 255
-0.344429  0.458083   1.79617 255 255 255
-0.247261  0.162964   1.95667 255 255 255
-0.0777824   0.274492    1.87076 255 255 255
-0.720051   0.51434   1.94111 255 255 255
-0.184866  0.136755   1.94819 255 255 255
-0.420017   -0.1471   2.13596 255 255 255
-0.526115  0.173735   2.12867 255 255 255
-0.624747  0.196717   2.20035 255 255 255
  -0.170406 -0.00275119     1.97502 255 255 255
-0.101325 -0.101159   1.98499 255 255 255
-0.241143  0.178762   1.95157 255 255 255
-0.444801  0.086574   2.07858 255 255 255
-0.111529  0.340859   1.84227 255 255 255
-0.296412 0.0218902   2.00623 255 255 255
-0.181073  0.357091   1.88442 255 255 255
 2.00774  2.43484 0.321009 255 255 255
  1.13228   3.55097 -0.013226 255 255 255
 1.93107  2.27789 0.427556 255 255 255
  2.18749   3.22477 -0.176317 255 255 255
 1.37813   2.9996 0.147214 255 255 255
   1.22583    3.65296 -0.0936751 255 255 255
  2.05847   3.31802 -0.306084 255 255 255
  1.48305   3.58344 -0.121182 255 255 255
  2.19338   3.40607 -0.236813 255 255 255
  1.4743  2.83165 0.169987 255 255 255
 1.74131  2.69837 0.201633 255 255 255
 2.20269  3.27731 -0.18258 255 255 255
 1.46528  2.64125 0.349626 255 255 255
0.844203  3.40121 0.203449 255 255 255
 2.12285  2.56692 0.132587 255 255 255
0.795867  3.22185 0.179997 255 255 255
 0.78484  3.53412 0.185192 255 255 255
0.88042  3.5667 0.13563 255 255 255
 1.61683   2.8897 0.134773 255 255 255
  2.03944   3.46791 -0.271318 255 255 255
  1.9158  2.51772 0.277411 255 255 255
   1.0095   3.68987 0.0568242 255 255 255
  2.01123   3.53547 -0.296774 255 255 255
 2.02713  2.30738 0.398273 255 255 255
  2.19863   3.32855 -0.226593 255 255 255
  1.65064   3.03682 0.0759009 255 255 255
  2.12075   3.25241 -0.170574 255 255 255
 2.08705   2.6518 0.201283 255 255 255
 1.69861   2.8334 0.156893 255 255 255
  1.73396   3.60002 -0.150928 255 255 255
  2.00624   3.23928 -0.363805 255 255 255
  1.02334   3.26814 0.0947522 255 255 255
 1.88757  2.60512 0.244091 255 255 255
2.05379 2.64891 0.20508 255 255 255
 1.69142  2.91399 0.108036 255 255 255
  1.6804  2.96525 0.111034 255 255 255
  1.58629   3.09274 0.0578105 255 255 255
  2.05964   3.06869 -0.278238 255 255 255
0.906121  3.14065 0.231616 255 255 255
 1.86338  2.52782 0.313744 255 255 255
 1.69032  2.69494 0.210327 255 255 255
  1.97093   3.34609 -0.390915 255 255 255
  2.21956   3.20779 -0.160689 255 255 255
 1.02248  3.22803 0.118394 255 255 255
   1.89153    2.92266 -0.0420015 255 255 255
  2.13908   3.46507 -0.266511 255 255 255
  1.96989   2.77407 0.0498921 255 255 255
 0.935817   3.23644 0.0952995 255 255 255
   1.38097    3.48929 -0.0212564 255 255 255
   1.19722    3.50814 -0.0129433 255 255 255
   1.69706    3.44523 -0.0718359 255 255 255
1.06101 3.23493 0.11709 255 255 255
 1.13428  3.28443 0.102836 255 255 255
  1.91421    2.9672 -0.089959 255 255 255
  1.39283   3.26568 0.0593713 255 255 255
  1.18826   3.62461 -0.077665 255 255 255
0.862777  3.26895 0.178507 255 255 255
 2.24445  2.67387 0.127813 255 255 255
 1.87737  2.46081 0.290104 255 255 255
 1.86571  2.69209 0.158997 255 255 255
0.892725  3.45365  0.15231 255 255 255
0.652036  3.30829 0.238973 255 255 255
 0.75216  3.50125 0.182051 255 255 255
  1.79712   3.63973 -0.186997 255 255 255
   1.86263    2.95399 -0.0435181 255 255 255
  1.87932   2.77698 0.0826167 255 255 255
  1.99841   3.49318 -0.276333 255 255 255
 1.93394  2.41675 0.316321 255 255 255
 1.64791  2.61495 0.229364 255 255 255
   1.96472    2.89852 -0.0471191 255 255 255
0.964071  3.43323 0.160428 255 255 255
 1.80305   2.4591 0.329798 255 255 255
0.824991  3.35471  0.20924 255 255 255
   2.02697    2.81302 0.00383733 255 255 255
 1.99083  2.30699 0.388731 255 255 255
  1.08084   3.33695 0.0793976 255 255 255
 1.82001  2.33413 0.405193 255 255 255
  1.85838   3.26241 -0.347256 255 255 255
    1.277   3.37112 0.0519475 255 255 255
  1.81924   2.80093 0.0672409 255 255 255
 0.76962  3.51375 0.194949 255 255 255
  1.92697   2.73924 0.0682496 255 255 255
   1.26295    3.59556 -0.0517005 255 255 255
  1.77168   2.82926 0.0518664 255 255 255
  2.02343   3.16245 -0.331134 255 255 255
 2.03512  2.72867 0.104526 255 255 255
 1.86878  2.93052 -0.04896 255 255 255
 1.39917  2.84235 0.157769 255 255 255
  0.9743  3.41193 0.163651 255 255 255
  1.78968   2.80809 0.0615936 255 255 255
 1.19984  2.78446 0.306769 255 255 255
 1.97516  2.46013 0.302112 255 255 255
 1.67387  2.84233 0.133602 255 255 255
 1.94466  2.48753 0.303796 255 255 255
  2.19386   2.98674 -0.258286 255 255 255
  2.01334   3.22199 -0.363433 255 255 255
 2.11493  2.38979 0.270113 255 255 255
   2.05858    2.88104 -0.0642931 255 255 255
    1.82892     2.89357 -0.00536955 255 255 255
  2.00301    3.1962 -0.341328 255 255 255
0.984154  3.13109 0.205666 255 255 255
1.40637 2.49959 0.38815 255 255 255
    1.5387    3.38488 -0.0300115 255 255 255
     1.4254     3.45586 -0.00439958 255 255 255
 2.20571  2.66945 0.172934 255 255 255
  1.7955  2.59581 0.238749 255 255 255
 1.98131    2.346 0.377714 255 255 255
  2.05733   3.03927 -0.256547 255 255 255
  1.9861  2.80962 0.028095 255 255 255
   2.0877   3.09258 -0.285564 255 255 255
0.941918  3.56648  0.14485 255 255 255
 1.84258  2.73457 0.109968 255 255 255
  1.45969   3.65184 0.0973037 255 255 255
  2.11462   3.23747 -0.283508 255 255 255
 1.83762  3.47501 -0.26741 255 255 255
  1.90865    2.7154 0.0813142 255 255 255
 2.32693  2.79253 0.107798 255 255 255
  2.17698   3.36997 -0.231112 255 255 255
 1.86804  2.72313 0.103979 255 255 255
   1.83922     2.9564 -0.0394746 255 255 255
 1.20701  2.94247 0.207721 255 255 255
 1.87989  2.36825 0.312863 255 255 255
 2.32346   2.7551 0.131978 255 255 255
  1.81152   2.84582 0.0605722 255 255 255
 1.28318  2.73768 0.329806 255 255 255
   1.93704    2.96469 -0.0910398 255 255 255
 1.33718  2.56833 0.380516 255 255 255
 1.88897  2.63914 0.198843 255 255 255
   2.1366   3.33665 -0.230946 255 255 255
  1.04687   3.50796 0.0521986 255 255 255
  1.65315   3.04781 0.0740932 255 255 255
   1.88552    2.88887 -0.0227367 255 255 255
  2.11492    3.1211 -0.304837 255 255 255
   2.1216   3.29711 -0.203713 255 255 255
  2.12688   3.52706 -0.299924 255 255 255
0.47975 3.31033 0.33901 255 255 255
 0.991802   3.45123 0.0860324 255 255 255
     1.2656     3.35897 -0.00268686 255 255 255
  1.85462   3.28601 -0.365755 255 255 255
  1.87857    3.2487 -0.351415 255 255 255
  2.17345   3.04856 -0.281422 255 255 255
 1.72377  2.82074 0.110031 255 255 255
 0.47633  3.28352 0.344902 255 255 255
  1.86726   3.01217 -0.112015 255 255 255
 1.09403   3.1072 0.185649 255 255 255
  2.11197    3.2429 -0.242993 255 255 255
 1.56542  2.81122 0.178601 255 255 255
  1.0226   2.9143 0.281818 255 255 255
 1.83919  2.43252 0.330761 255 255 255
  2.14427   3.00204 -0.267728 255 255 255
  1.95555   3.28121 -0.389603 255 255 255
0.741327  3.23964 0.197336 255 255 255
  2.21217   3.24552 -0.159239 255 255 255
 1.77514  2.69666 0.170869 255 255 255
   2.00493    2.84568 -0.0232092 255 255 255
 1.10741  3.28484 0.106307 255 255 255
0.549004  3.26075 0.344657 255 255 255
  2.18083   3.10532 -0.303284 255 255 255
2.13516 3.48858 -0.2819 255 255 255
 2.19003  2.61476 0.194327 255 255 255
   2.00998    2.90925 -0.0712368 255 255 255
 1.24581  2.74933 0.337367 255 255 255
 0.96723  3.33128 0.122525 255 255 255
  2.00104   3.17781 -0.333295 255 255 255
 1.13759  3.39847 0.103843 255 255 255
   2.01044    2.79603 0.00916113 255 255 255
  1.98512   3.50688 -0.279806 255 255 255
  1.52644   3.55539 -0.070891 255 255 255
  1.03962   3.64399 0.0335633 255 255 255
   1.58676    3.44639 -0.0619663 255 255 255
  2.24745   3.09015 -0.241406 255 255 255
  1.46456   3.50663 -0.040668 255 255 255
 1.77201  2.71929 0.186385 255 255 255
 1.95249  2.31404 0.273195 255 255 255
 2.01991   2.0799 0.525158 255 255 255
   1.9467   3.25661 -0.378079 255 255 255
 1.70652  2.66055 0.227983 255 255 255
0.785997  3.35647 0.190061 255 255 255
  2.16742   3.13339 -0.332092 255 255 255
  1.6069  2.79424 0.152238 255 255 255
  1.82142   2.96269 -0.043133 255 255 255
1.57129 2.76386 0.13282 255 255 255
  1.45167   3.27833 0.0295297 255 255 255
  2.06494   3.42824 -0.275464 255 255 255
 1.93456  2.99849 -0.11124 255 255 255
   1.8581   2.78051 0.0563983 255 255 255
1.93966 2.57438 0.22789 255 255 255
  2.05203   3.12224 -0.310164 255 255 255
   2.05158    2.89091 -0.0470605 255 255 255
   1.56792    3.42232 -0.0535984 255 255 255
 1.93462  2.42557 0.333863 255 255 255
0.777185  3.38876 0.228477 255 255 255
  1.33814   3.44061 0.0178768 255 255 255
  1.01746   3.64054 0.0423416 255 255 255
 1.11175  3.43737 0.113732 255 255 255
  1.63641   3.58344 -0.125437 255 255 255
 1.13503   3.2556 0.123051 255 255 255
 2.09752  2.70982 0.131381 255 255 255
 1.14883   2.9466 0.236767 255 255 255
 2.01395   2.3209 0.368238 255 255 255
 2.12287  3.07495 -0.31202 255 255 255
  2.20477   3.32326 -0.250034 255 255 255
  1.81542   2.77938 0.0677432 255 255 255
 1.50853  2.56545 0.277893 255 255 255
  1.44268   3.56563 -0.167912 255 255 255
 2.15318  3.15462 -0.33022 255 255 255
 0.82808  3.21133 0.153411 255 255 255
  1.81548   3.65806 -0.199431 255 255 255
   1.80791    2.90314 0.00202612 255 255 255
0.916954  3.43817 0.173711 255 255 255
   1.32183    3.49918 -0.0892858 255 255 255
 1.25303  3.28396 0.111193 255 255 255
 0.78229  3.41596 0.199383 255 255 255
   1.62877    3.49771 -0.0905159 255 255 255
   1.22876    3.39131 0.00839999 255 255 255
 1.87035  2.34104 0.290153 255 255 255
  2.20312    3.0389 -0.265338 255 255 255
 1.62128  2.63596 0.206369 255 255 255
  2.09066   3.01985 -0.278965 255 255 255
  1.95832   3.17465 -0.342159 255 255 255
 1.13288  3.24723 0.101526 255 255 255
    1.2663    3.62074 -0.0939459 255 255 255
  1.05986   3.26385 0.0274078 255 255 255
  2.13784   3.11209 -0.308012 255 255 255
  2.09313   3.46154 -0.262059 255 255 255
0.880355  3.28189 0.186637 255 255 255
  1.46305   3.58229 -0.204541 255 255 255
 1.90349  2.54693 0.255999 255 255 255
 1.73789  2.51861 0.238169 255 255 255
 1.56541   2.7979 0.169129 255 255 255
 1.74183  2.69572 0.207497 255 255 255
  1.89027   3.32089 -0.372368 255 255 255
  1.99055   3.47617 -0.280831 255 255 255
 1.89826   2.3652 0.387861 255 255 255
 1.91534  2.28306 0.341451 255 255 255
0.791658  3.43902 0.134038 255 255 255
  1.40772   3.31777 0.0379297 255 255 255
   1.52264    3.62061 -0.0768481 255 255 255
 2.05114  2.27601 0.424499 255 255 255
 2.29578   2.7185 0.165391 255 255 255
 1.36032   3.1458 0.106505 255 255 255
  2.02727   3.33605 -0.344454 255 255 255
0.684464  3.34791  0.27194 255 255 255
 1.40268   2.5249 0.379836 255 255 255
1.75171 2.58139 0.25489 255 255 255
 1.12523  3.25619 0.111697 255 255 255
  2.03065   3.50856 -0.291354 255 255 255
  2.10277   3.08283 -0.278265 255 255 255
  1.99604   2.79542 0.0189014 255 255 255
0.666957  3.34727 0.268656 255 255 255
   1.25419    3.38398 -0.0370012 255 255 255
 2.11165  2.99356 -0.26543 255 255 255
 1.63265  2.47272 0.241459 255 255 255
 1.71042   2.6816 0.221261 255 255 255
 2.07679  2.18497 0.488963 255 255 255
  2.14198   3.15756 -0.334327 255 255 255
 1.89617  2.34209 0.365908 255 255 255
  2.1629  2.98446 -0.26783 255 255 255
 1.74587  2.51115 0.262552 255 255 255
 0.50725  3.23523 0.363075 255 255 255
0.614347  3.37538 0.291969 255 255 255
    1.17965     3.49053 -0.00907518 255 255 255
    1.5459    3.39763 -0.0325708 255 255 255
  2.26627   3.07996 -0.116759 255 255 255
 0.980264   3.61061 0.0267484 255 255 255
 2.01834  3.34298 -0.36878 255 255 255
 1.47663  2.61207 0.327155 255 255 255
   1.69974     3.4429 -0.0725438 255 255 255
  1.71245 -0.552941   4.79992 255 255 255
 2.08496  2.14514 0.488957 255 255 255
 1.78799  2.32223 0.251165 255 255 255
 1.98336  2.31442 0.388486 255 255 255
  1.44038   3.36964 0.0162917 255 255 255
   2.1802    2.9316 -0.231532 255 255 255
   1.84724    2.90776 -0.0246086 255 255 255
 1.70472  2.64055 0.229538 255 255 255
 2.11902  2.59974 0.152246 255 255 255
 1.50552  2.78835 0.168425 255 255 255
 2.08172  2.65027 0.184098 255 255 255
 1.93601  2.37352 0.290317 255 255 255
  2.04591   3.31286 -0.358532 255 255 255
 1.65907  2.70357 0.195844 255 255 255
  1.73001   3.49252 -0.131244 255 255 255
  1.08085   3.39467 0.0291165 255 255 255
0.547038  3.37495 0.244809 255 255 255
 1.60506  2.81232 0.144704 255 255 255
  2.09808   3.30989 -0.336981 255 255 255
 1.21138  2.76878 0.315788 255 255 255
  1.97806    3.2731 -0.381984 255 255 255
 2.01365  2.28007 0.398623 255 255 255
  2.24881   3.07427 -0.234509 255 255 255
 1.43358  2.81472 0.182612 255 255 255
 2.12168  3.12882 -0.29984 255 255 255
  1.89327    2.9778 -0.094468 255 255 255
 1.84743  3.67018 -0.20717 255 255 255
 2.25936  3.01754 -0.25703 255 255 255
   2.05354    2.85805 -0.0466567 255 255 255
  1.02462   3.33032 0.0589926 255 255 255
 2.10193  2.46298 0.196068 255 255 255
 1.74627  2.45651 0.247346 255 255 255
  2.16662   3.02422 -0.294278 255 255 255
  2.02509   3.41849 -0.356792 255 255 255
   1.61965    3.42082 -0.0517394 255 255 255
0.690841  3.36541 0.260736 255 255 255
  1.94672   2.98273 -0.105543 255 255 255
0.784249  3.37346 0.234307 255 255 255
0.502542  3.24829 0.359909 255 255 255
  1.11199   3.41161 0.0511446 255 255 255
0.801321  3.28245 0.145681 255 255 255
 1.42712  2.87076 0.192879 255 255 255
  2.21729   3.16129 -0.134816 255 255 255
   1.84017    2.92798 -0.0430948 255 255 255
   1.25903    3.35871 -0.0337512 255 255 255
   2.1324   3.22173 -0.181139 255 255 255
  2.14553   3.32548 -0.219803 255 255 255
   1.67058    3.30839 -0.0421611 255 255 255
 1.41612  2.47365 0.398247 255 255 255
  2.12456   3.51529 -0.286684 255 255 255
 2.22853  2.65276 0.180901 255 255 255
0.880293  3.26813 0.185036 255 255 255
  1.06669   3.47964 0.0520334 255 255 255
1.49116 2.60794 0.33239 255 255 255
  2.04153   3.29278 -0.393509 255 255 255
 1.91499  2.55332 0.263498 255 255 255
0.484179  3.31515 0.340461 255 255 255
  2.10894   3.19708 -0.356109 255 255 255
 1.41287  2.84033 0.151446 255 255 255
2.03158 2.25709 0.43966 255 255 255
0.855345  3.33319  0.20997 255 255 255
 1.88228  2.33813 0.299975 255 255 255
 1.29583  3.19895 0.106532 255 255 255
  2.04805   3.27759 -0.370036 255 255 255
   2.1024    3.1649 -0.326515 255 255 255
0.539719  3.33819 0.334084 255 255 255
  1.96864   2.95326 -0.091074 255 255 255
0.887132  3.39506 0.190584 255 255 255
 1.88321  2.37714 0.327449 255 255 255
  2.20302   2.93815 -0.213077 255 255 255
   1.85273    3.06246 -0.0957441 255 255 255
 1.16641  2.88444 0.245827 255 255 255
 1.22039  2.67137 0.392169 255 255 255
 1.78796  2.61971 0.212674 255 255 255
 1.70537  2.55743 0.185139 255 255 255
 2.17088  2.54782 0.146376 255 255 255
 1.68059  2.85622 0.143713 255 255 255
  1.08327   3.38062 0.0359285 255 255 255
   2.03148     2.8761 -0.0535795 255 255 255
 1.72438   2.4631 0.253061 255 255 255
   1.99582    2.92038 -0.0682212 255 255 255
 2.06852   2.5544 0.190325 255 255 255
  2.16658   3.14537 -0.330421 255 255 255
 1.69435  2.57894 0.230426 255 255 255
 0.95725    3.421 0.161262 255 255 255
   1.9779   3.48918 -0.270319 255 255 255
  2.04014   3.58639 -0.296231 255 255 255
    2.0247    2.88605 -0.0767448 255 255 255
0.794504  3.24137 0.176686 255 255 255
 2.01996  2.03694 0.561276 255 255 255
  1.96406   2.83175 -0.019981 255 255 255
   2.1541   3.26495 -0.193237 255 255 255
 1.75555  2.65162 0.229038 255 255 255
 1.74182  2.56121 0.237863 255 255 255
    1.05872     3.32405 -0.00613802 255 255 255
  2.08041   3.25894 -0.303894 255 255 255
 1.91497  3.39503 -0.42149 255 255 255
   1.95233    2.96825 -0.0908513 255 255 255
  1.34033   3.67627 -0.109743 255 255 255
1.76228  2.6557 0.18932 255 255 255
  2.1539  2.46946 0.187091 255 255 255
   2.1013   3.17821 -0.329476 255 255 255
  1.99629   3.16815 -0.326035 255 255 255
   1.65203    3.42921 -0.0533681 255 255 255
  2.00105   3.47013 -0.261203 255 255 255
 1.39645  2.86119 0.143722 255 255 255
 1.73629  2.85119 0.123811 255 255 255
  2.11952   3.01796 -0.284446 255 255 255
 1.97474  2.80129 0.028901 255 255 255
  2.03307   3.10022 -0.309457 255 255 255
1.11917 3.16652 0.15631 255 255 255
 1.94216  2.63309 0.192993 255 255 255
  1.86525   3.66536 -0.211702 255 255 255
   2.1233   3.03116 -0.280854 255 255 255
0.664734  3.51171 0.223281 255 255 255
 2.04335  2.35009 0.287149 255 255 255
 2.23052  2.64939 0.165796 255 255 255
 1.68564  2.59947 0.188146 255 255 255
  1.83109   3.61821 -0.183102 255 255 255
 1.91392  2.19583 0.385835 255 255 255
  2.05178   3.08133 -0.291906 255 255 255
  1.24047   3.56231 -0.053036 255 255 255
  2.07399   3.40465 -0.254892 255 255 255
  2.04513   2.86518 -0.051748 255 255 255
 1.96683  2.37788 0.369002 255 255 255
 1.82223  2.37298 0.211097 255 255 255
 1.31752  3.09769 0.132277 255 255 255
  2.04461   3.39538 -0.320353 255 255 255
 1.31159  2.93208 0.180388 255 255 255
  1.25123   3.27854 0.0862787 255 255 255
 1.87162  2.35834 0.347343 255 255 255
 1.95891  2.52594 0.291935 255 255 255
 1.81107  2.58299 0.260711 255 255 255
 1.47368  2.80078 0.172099 255 255 255
  2.01681   3.25419 -0.389659 255 255 255
  1.08702   3.47074 0.0493335 255 255 255
 1.86341  2.36365 0.295494 255 255 255
  2.25531   2.64983 0.0757367 255 255 255
  1.97776   2.81881 0.0138602 255 255 255
  2.29885   2.77715 0.0803579 255 255 255
 1.81642  2.56674 0.238421 255 255 255
  1.98543   3.34804 -0.394112 255 255 255
 1.05125  3.09279 0.251398 255 255 255
 2.05979  2.72478 0.114894 255 255 255
   1.68473    3.42983 -0.0610566 255 255 255
 1.42374  2.88308 0.186564 255 255 255
 2.07636  2.64261 0.181294 255 255 255
 2.22504  2.66725 0.173043 255 255 255
 2.13725  2.44983 0.213988 255 255 255
 1.83566   3.3499 -0.37194 255 255 255
  1.9065  3.38659 -0.41687 255 255 255
  1.93959   3.27961 -0.393154 255 255 255
0.826501   3.1359 0.252373 255 255 255
   1.063   2.8533 0.266446 255 255 255
  1.82943   2.78858 0.0650748 255 255 255
  1.7946  2.45994 0.278843 255 255 255
   1.90651    2.90031 -0.0246836 255 255 255
 1.68842  2.72496 0.180027 255 255 255
 1.39354  2.99595 0.158459 255 255 255
 1.48699  2.81976 0.170714 255 255 255
0.532681  3.34729 0.273952 255 255 255
  2.14202   3.20193 -0.205699 255 255 255
  1.77519   3.55979 -0.176387 255 255 255
  1.72264   3.48894 -0.137069 255 255 255
 2.14107  3.28765 -0.20157 255 255 255
 1.66172  2.55976 0.177006 255 255 255
0.631577  3.21806 0.263857 255 255 255
   1.49725    3.63726 -0.0772671 255 255 255
 1.67083  2.84875 0.148836 255 255 255
 1.89192  2.61348 0.249307 255 255 255
  1.95268   3.27981 -0.388085 255 255 255
0.491886  3.27059 0.340843 255 255 255
 1.98952  2.33745 0.370535 255 255 255
  2.09316   3.41323 -0.242887 255 255 255
0.522867  3.23609 0.360812 255 255 255
 1.41149  2.56063 0.369707 255 255 255
   1.4664   3.26178 0.0340831 255 255 255
 1.86031  3.67732 -0.20769 255 255 255
 1.74338  3.63251 -0.17198 255 255 255
   1.68166    3.45846 -0.0738415 255 255 255
0.743431  3.24029 0.179159 255 255 255
 0.88301  3.31767 0.198854 255 255 255
  2.12952    3.0412 -0.295811 255 255 255
 1.79864   2.5298 0.296406 255 255 255
 2.18895  2.59216 0.131689 255 255 255
 1.96129  2.54771 0.269051 255 255 255
   2.27903    3.06872 -0.0970274 255 255 255
 1.63358  2.71858 0.169519 255 255 255
 1.56652  2.77435 0.133992 255 255 255
  1.33435    3.4696 -0.100883 255 255 255
0.817372  3.29494 0.195283 255 255 255
  2.22355   3.00717 -0.252914 255 255 255
0.773016  3.29716 0.158512 255 255 255
  1.84674   3.67166 -0.205256 255 255 255
 2.02701  2.37317 0.353975 255 255 255
 2.18075  2.63364 0.190836 255 255 255
   1.30671    3.47065 -0.0966494 255 255 255
  2.01572   3.47004 -0.275723 255 255 255
  2.03111   3.42118 -0.257325 255 255 255
 1.88613  2.41938 0.319311 255 255 255
 2.06186  2.68735 0.164291 255 255 255
   2.0006   3.22573 -0.372409 255 255 255
0.907828   3.4148 0.180695 255 255 255
  2.04326   3.21807 -0.351616 255 255 255
  1.94689   3.39315 -0.414175 255 255 255
  1.93575   3.56355 -0.322862 255 255 255
  2.00691   3.52324 -0.287771 255 255 255
   2.03913    2.86387 -0.0395463 255 255 255
 2.10014  2.57752 0.148604 255 255 255
  2.19769   2.99961 -0.252064 255 255 255
  1.97251   3.49103 -0.274117 255 255 255
 1.93938  2.56235 0.237941 255 255 255
 1.16719  3.18185 0.129622 255 255 255
   1.32234     3.4673 -0.0946438 255 255 255
  1.3881  2.54197 0.396819 255 255 255
 2.10966  2.17244 0.491406 255 255 255
 2.09576  2.58103 0.171302 255 255 255
  1.95236   3.27034 -0.387348 255 255 255
    1.94619     2.85253 -0.00548972 255 255 255
0.902553  3.26338 0.139865 255 255 255
0.737891  3.08275 0.311002 255 255 255
0.598494   3.3335 0.315317 255 255 255
   1.92108    2.88674 -0.0231641 255 255 255
 1.68702  2.48276 0.191152 255 255 255
  1.95895   2.93632 -0.075978 255 255 255
 1.06792  3.02823 0.222635 255 255 255
 2.14652  2.52114 0.175558 255 255 255
0.736521  3.29866  0.17399 255 255 255
 2.17724   2.5959 0.123922 255 255 255
  1.24437   3.36663 -0.043726 255 255 255
  1.1236  3.28616 0.109167 255 255 255
 1.94526  3.17415 -0.34784 255 255 255
 2.14253  2.60123 0.134003 255 255 255
0.745732  3.50082 0.181741 255 255 255
 1.62327  2.73464 0.199457 255 255 255
  1.93907   3.18149 -0.351682 255 255 255
   1.32905    3.44667 -0.0791551 255 255 255
  1.71735   3.71383 -0.185816 255 255 255
   2.1239   3.00541 -0.274776 255 255 255
 1.71521  2.56061 0.189762 255 255 255
    1.9614    2.95387 -0.0984957 255 255 255
 1.48157  2.59375 0.331058 255 255 255
  1.6501  2.69094 0.203711 255 255 255
 1.13241  3.16467 0.148329 255 255 255
 1.00915  3.21818 0.148548 255 255 255
   1.96544    2.83186 0.00917248 255 255 255
 2.16597  2.51654 0.177142 255 255 255
 1.12342   3.2844 0.128017 255 255 255
 2.16532  2.59428 0.132693 255 255 255
  1.63353   3.49226 -0.085605 255 255 255
 1.14948  2.94253 0.228003 255 255 255
 2.06274  2.31931 0.373049 255 255 255
0.849434  3.28609 0.211941 255 255 255
    2.119   3.10095 -0.302789 255 255 255
 1.46583  2.55833 0.329889 255 255 255
1.34955 3.11671 0.12048 255 255 255
  1.97048   3.15255 -0.341956 255 255 255
