ply
format ascii 1.0
element vertex 1147
property float x
property float y
property float z
property uchar red
property uchar green
property uchar blue
end_header
0.13187 1.85735 1.00134 255 255 255
-0.0410001    1.80141    1.02347 255 255 255
-0.150473   1.47164   1.26059 255 255 255
-0.0492944    1.60552    1.17223 255 255 255
-0.0741935    1.76084    1.05012 255 255 255
-0.210237   1.41802   1.29954 255 255 255
0.17296 1.78238 1.01901 255 255 255
0.00961676     1.7372     1.0716 255 255 255
-0.0272406     1.8074    1.01456 255 255 255
0.0745996  0.948548   1.50902 255 255 255
-0.345056   1.07708   1.51712 255 255 255
0.0650245   1.93415  0.897156 255 255 255
-0.26891  1.80263  1.01791 255 255 255
0.296834  1.57967  1.15603 255 255 255
-0.273199   1.53482   1.21986 255 255 255
-0.0620655    1.69772    1.09621 255 255 255
0.313114  1.60986   1.1303 255 255 255
0.28588 1.61708  1.1148 255 255 255
-0.312424   1.52749    1.2102 255 255 255
0.0116729   1.66849   1.12367 255 255 255
0.580729  1.39747  1.18035 255 255 255
-0.0941927    1.52407    1.22348 255 255 255
0.191915  1.80609  1.01257 255 255 255
0.338375  1.66998  1.09604 255 255 255
0.0817635   1.79047   1.04836 255 255 255
-0.0569617   0.859759    1.59558 255 255 255
0.0203584   1.86473  0.978641 255 255 255
-0.448846   1.21855   1.45084 255 255 255
0.560418 0.808566  1.47749 255 255 255
0.325138  1.61232   1.1281 255 255 255
0.0531912   1.78252   1.03157 255 255 255
-0.200912  0.724618   1.67438 255 255 255
-0.421756   1.24254   1.43953 255 255 255
-0.43973  1.36995  1.34868 255 255 255
0.256041 0.434262  1.65335 255 255 255
0.449716  0.37996  1.68297 255 255 255
-0.0275077    1.79694    1.01619 255 255 255
0.0256441   1.82833   0.99856 255 255 255
0.0153235   1.83888  0.993051 255 255 255
-0.13752  1.63144  1.13156 255 255 255
0.0442027     1.895  0.955195 255 255 255
-0.309816   1.54986     1.227 255 255 255
-0.263159   1.51171   1.24395 255 255 255
 0.4004 1.61557 1.11515 255 255 255
-0.520534    1.2627   1.45923 255 255 255
-0.00260204     1.73799     1.06795 255 255 255
-0.374427    1.2797   1.40705 255 255 255
-0.465591   1.30712   1.41623 255 255 255
 0.12036  1.85717 0.992006 255 255 255
-0.331349   1.04357   1.55219 255 255 255
0.0801562   1.94637   0.88241 255 255 255
0.294914  1.68615  1.07256 255 255 255
0.277091  1.58822  1.13534 255 255 255
0.0715803   1.86246  0.971243 255 255 255
-0.407495  0.949241   1.61048 255 255 255
-0.76989  1.47777  1.31786 255 255 255
0.0804155    1.3514   1.30559 255 255 255
0.0425373   1.86396  0.966906 255 255 255
-0.000702655      1.88609     0.950338 255 255 255
0.414171  1.61822  1.11743 255 255 255
0.256097  1.64953  1.09951 255 255 255
0.213034  1.02146  1.46242 255 255 255
0.0295726   1.84862  0.985559 255 255 255
-0.156006   1.59942    1.1718 255 255 255
0.219373 0.948986  1.48987 255 255 255
0.399731 0.889731  1.46493 255 255 255
-0.123406   1.69448    1.0955 255 255 255
0.576803  1.34901  1.20073 255 255 255
0.303621  1.61624  1.12692 255 255 255
-0.406254   1.24445   1.43349 255 255 255
0.101963  1.83561  1.02059 255 255 255
0.0578095   1.90016  0.949141 255 255 255
0.149783  1.49821  1.20026 255 255 255
0.195724  1.51521  1.18558 255 255 255
0.0164782    1.3331   1.32981 255 255 255
0.00836539    1.82504    1.00073 255 255 255
-0.13932  1.70618    1.091 255 255 255
0.305937  1.20827  1.33301 255 255 255
0.00517471    1.85626   0.985336 255 255 255
0.268472  1.62528  1.12479 255 255 255
0.217144 0.753696  1.56123 255 255 255
0.531771 0.713232  1.46866 255 255 255
-0.795154   1.36485   1.38083 255 255 255
0.157817  1.87076  0.99277 255 255 255
-0.590581   1.35307   1.34641 255 255 255
0.0126997   1.72001   1.10128 255 255 255
0.38582 1.62276  1.1172 255 255 255
-0.0661653     1.6806    1.10934 255 255 255
0.123375  1.81624  1.02482 255 255 255
-0.00989803     1.79942     1.01969 255 255 255
 0.2468 1.70733 1.01096 255 255 255
-0.221089   1.48081   1.27106 255 255 255
-0.04287  1.66659  1.14366 255 255 255
-0.0410887    0.83304    1.60239 255 255 255
0.275169  1.57461  1.14208 255 255 255
0.148919  1.48765  1.20866 255 255 255
0.465879  1.32071  1.25684 255 255 255
-0.645786   1.18684   1.50943 255 255 255
-0.441178   1.44141   1.26377 255 255 255
0.0304452   1.71548   1.08915 255 255 255
0.440025  1.33616  1.24037 255 255 255
-0.107005   1.62889   1.17338 255 255 255
0.0297687   1.86189  0.975745 255 255 255
-0.289113   1.42055   1.31937 255 255 255
-0.0466002   0.858747    1.59926 255 255 255
0.13562 1.51302 1.19534 255 255 255
0.0557232   1.89404   0.95424 255 255 255
-0.150308   1.63181   1.13852 255 255 255
0.274559  1.63851  1.10644 255 255 255
-0.699416   1.24463   1.47254 255 255 255
0.345674  1.39166  1.24254 255 255 255
0.0215074   1.83954  0.992695 255 255 255
0.0360359   1.89783  0.952708 255 255 255
-0.740804   1.39111   1.33748 255 255 255
0.403109 0.428167  1.67515 255 255 255
0.480173 0.790449  1.44867 255 255 255
0.546199 0.813939  1.44813 255 255 255
0.421328 0.370926  1.68366 255 255 255
-0.0518512    1.71079    1.08809 255 255 255
0.488106  1.58712  1.10843 255 255 255
0.00143884    1.70286    1.10118 255 255 255
0.296241   1.2151  1.33494 255 255 255
-0.299661   1.53616   1.22384 255 255 255
-0.152874   1.70204   1.10023 255 255 255
0.120215  1.90614 0.946513 255 255 255
-0.531206   1.65381    1.1659 255 255 255
-0.617977   1.59079   1.21365 255 255 255
0.096941  1.90157 0.945053 255 255 255
0.417519 0.347283  1.69921 255 255 255
0.428691  1.59813  1.12131 255 255 255
-0.530078   1.01066   1.58154 255 255 255
0.675372 0.950654  1.27653 255 255 255
0.0235178   1.84347  0.983211 255 255 255
0.170716 0.979978  1.46693 255 255 255
0.0337195    1.6726   1.11284 255 255 255
0.400935 0.452378  1.61795 255 255 255
0.483148  1.28423  1.25044 255 255 255
-0.361515    1.5287   1.20632 255 255 255
-0.198508   1.54167   1.24607 255 255 255
-0.044626   1.58025   1.18086 255 255 255
0.127953 0.959073  1.52096 255 255 255
0.221359  1.50221  1.20525 255 255 255
0.353806  1.63776  1.11425 255 255 255
-0.116005   1.71161     1.089 255 255 255
-0.0211294    1.83193   0.998969 255 255 255
0.537058 0.816716  1.45555 255 255 255
-0.516817   1.67802   1.15053 255 255 255
0.0697345   1.79579   1.05623 255 255 255
0.0400609   1.70571   1.09311 255 255 255
 0.11071  1.91077 0.941157 255 255 255
0.108239  1.81167  1.02157 255 255 255
-0.764293   1.46381   1.32629 255 255 255
-0.0960272    1.58708    1.19978 255 255 255
0.427613 0.351592  1.69599 255 255 255
0.067263  1.77451  1.06068 255 255 255
0.26697 1.47898 1.19245 255 255 255
-0.347109   1.39317   1.35193 255 255 255
-0.0757538     1.7792    1.04302 255 255 255
-0.201086   1.62332   1.15552 255 255 255
-0.0582394    1.65788    1.14741 255 255 255
0.177423 0.950959  1.47385 255 255 255
-0.368136   1.43675    1.2833 255 255 255
0.123143 0.473615   1.7273 255 255 255
-0.037196    1.0342   1.49959 255 255 255
0.551514 0.966437  1.41883 255 255 255
-0.219303   1.60144   1.17152 255 255 255
0.131768  1.50272  1.20022 255 255 255
0.160434  1.23777  1.33766 255 255 255
-0.708725   1.55017   1.26629 255 255 255
0.0119979   1.78729   1.02911 255 255 255
0.46048  1.5752 1.12061 255 255 255
-0.192662   1.70278   1.06679 255 255 255
0.0083322   1.78218   1.03306 255 255 255
-0.549653   1.57596   1.20228 255 255 255
-0.505167   1.38119   1.35061 255 255 255
-0.142743   1.17395   1.44442 255 255 255
-0.107404   1.69866    1.0894 255 255 255
-0.505216   1.32565    1.3802 255 255 255
-0.23654  1.03885  1.52722 255 255 255
-0.249038   1.60589   1.17974 255 255 255
-0.534248   1.67098   1.16037 255 255 255
-0.441573   1.41928    1.3082 255 255 255
-0.23681  1.33555  1.34291 255 255 255
0.332276  1.64085  1.10967 255 255 255
0.345696  1.64493  1.10994 255 255 255
0.437869  1.32664  1.22934 255 255 255
0.00912634    1.89206   0.953389 255 255 255
0.204103 0.962954  1.49947 255 255 255
 -0.3382 0.915671  1.62296 255 255 255
-0.0666966    1.62787    1.16996 255 255 255
0.123566  1.84896 0.997405 255 255 255
-0.597873   1.28656    1.4194 255 255 255
0.504657 0.720004   1.3771 255 255 255
0.136309  1.49461  1.20682 255 255 255
-0.788213   1.37653   1.37335 255 255 255
-0.270775   1.08852   1.47022 255 255 255
0.465464  1.11731  1.33302 255 255 255
-0.22489  1.49686  1.25984 255 255 255
0.0806188   1.91024  0.940499 255 255 255
-0.185019   1.66772   1.12844 255 255 255
-0.0642806    1.67456    1.13603 255 255 255
-0.21105  1.09989  1.48267 255 255 255
0.133933 0.472136  1.71726 255 255 255
-0.235101   1.48339    1.2733 255 255 255
0.161196 0.981685  1.49479 255 255 255
0.00104017    1.72586    1.07727 255 255 255
0.675182 0.966324  1.31699 255 255 255
-0.505952   1.39475    1.3432 255 255 255
0.0590592  0.917717   1.53149 255 255 255
-0.015981   1.84408  0.999753 255 255 255
-0.161103   1.64812   1.13091 255 255 255
0.0653805   1.78019   1.04093 255 255 255
-0.447024   1.47955   1.24837 255 255 255
-0.191101   1.53665   1.25037 255 255 255
0.0293374   1.74176   1.08651 255 255 255
-0.284024   1.44056   1.30745 255 255 255
-0.622106   1.49323   1.26538 255 255 255
0.438963 0.299616  1.65091 255 255 255
-0.512097   1.02245   1.56884 255 255 255
-0.126398   1.67968   1.10125 255 255 255
0.600912 0.818786  1.44504 255 255 255
0.138818  1.88625 0.967419 255 255 255
-0.820889    1.3259   1.39995 255 255 255
 0.50492 0.737251  1.41481 255 255 255
-0.59572  1.26888  1.42854 255 255 255
0.209355  1.51229  1.17769 255 255 255
-0.0882885    1.67465    1.11076 255 255 255
0.537096 0.691233  1.41589 255 255 255
-0.31086 0.884413  1.63441 255 255 255
-0.594601   1.51523   1.24856 255 255 255
0.182266  1.84369  1.00083 255 255 255
0.433879 0.861564  1.35267 255 255 255
-0.643458   1.22374   1.46757 255 255 255
-0.0960864   0.740296    1.64418 255 255 255
0.347741  1.63706  1.11329 255 255 255
0.476128 0.940247  1.35468 255 255 255
-0.378097     1.459   1.26814 255 255 255
0.105172  0.45983  1.73952 255 255 255
-0.474001   1.37931   1.33669 255 255 255
-0.820947   1.33273   1.39994 255 255 255
-0.236595   1.50725   1.25649 255 255 255
-0.0679458    1.77502    1.03943 255 255 255
0.795752    1.067  1.31432 255 255 255
0.289554  1.58403  1.15219 255 255 255
0.172676  1.88659 0.982196 255 255 255
-0.0501578    1.81339    1.01256 255 255 255
-0.0177492    1.83725   0.995561 255 255 255
-0.0480109    1.76198    1.05295 255 255 255
0.297568  1.68426  1.08213 255 255 255
-0.816923   1.42162   1.35531 255 255 255
0.134873  1.42711  1.25937 255 255 255
-0.0365259     1.6895    1.13573 255 255 255
0.00249085    1.80211    1.01793 255 255 255
0.511597  1.36178  1.20429 255 255 255
0.466873 0.401363  1.66603 255 255 255
0.533854  0.88699  1.37733 255 255 255
0.410648 0.753466  1.46115 255 255 255
-0.131991  0.748757   1.65558 255 255 255
  0.3755 0.375814  1.68202 255 255 255
-0.0651463    1.64939    1.15521 255 255 255
-0.420132    1.4621   1.27847 255 255 255
-0.0495763     1.8082     1.0172 255 255 255
0.329846  1.60947   1.1338 255 255 255
-0.528046   1.35889   1.36545 255 255 255
-0.675448   1.23987   1.47063 255 255 255
-0.713195   1.23948   1.44944 255 255 255
0.229905 0.861035  1.53987 255 255 255
-0.233143   1.41486   1.32002 255 255 255
-0.00292537      1.8618    0.977477 255 255 255
-0.209005   1.62402    1.1568 255 255 255
0.681029 0.953502  1.28743 255 255 255
-0.0721792    1.69209     1.0983 255 255 255
0.180553 0.496279  1.69075 255 255 255
-0.202081   1.43598   1.27308 255 255 255
-0.651206    1.5582   1.23478 255 255 255
-0.13438  1.58911  1.21014 255 255 255
0.720567  1.03729  1.20028 255 255 255
-0.139468    1.5287   1.21576 255 255 255
-0.647912   1.46261   1.28407 255 255 255
0.379488 0.258787  1.73375 255 255 255
-0.425429   1.34883   1.36746 255 255 255
-0.0930716    1.72081    1.07507 255 255 255
0.00406666    1.86732   0.970846 255 255 255
-0.22133   1.0712  1.50932 255 255 255
-0.34965  1.00242  1.57094 255 255 255
0.285005  1.56255  1.16981 255 255 255
0.426979 0.426946  1.67616 255 255 255
-0.456647   1.40878   1.31915 255 255 255
-0.10142  1.63432  1.13817 255 255 255
-0.0850946   0.729689    1.64688 255 255 255
-0.523466   1.33075   1.37965 255 255 255
-0.440927   1.34154   1.47266 255 255 255
-0.31308  1.39127  1.34016 255 255 255
-0.040261   1.82011   1.00546 255 255 255
-0.616376   1.62563   1.19399 255 255 255
0.0778564   1.95283  0.886483 255 255 255
0.552681   1.1224  1.25141 255 255 255
0.259862 0.792271  1.54082 255 255 255
-0.392641   1.43872   1.28173 255 255 255
0.106421  1.23718  1.33855 255 255 255
-0.551299   1.35265   1.36612 255 255 255
0.222766  1.03439  1.45129 255 255 255
-0.308592   1.54353   1.20523 255 255 255
0.478974  1.56733  1.12296 255 255 255
0.291098  1.22147  1.33708 255 255 255
-0.787593   1.41596   1.35446 255 255 255
0.472638  1.12748  1.34548 255 255 255
-0.193643   1.53378   1.24158 255 255 255
-0.266209   1.03166   1.53869 255 255 255
-0.445083  0.913573   1.64461 255 255 255
-0.459933  0.904339   1.66297 255 255 255
-0.011321   1.85404  0.985492 255 255 255
0.224957  1.55135  1.18172 255 255 255
-0.462391    1.3271   1.38727 255 255 255
-0.875041   1.37237   1.40496 255 255 255
-0.422082   1.37728    1.3385 255 255 255
-0.779172   1.42329   1.34927 255 255 255
-0.58621  1.22787  1.46911 255 255 255
-0.361008   1.44053   1.28398 255 255 255
0.333032  1.71014  1.06644 255 255 255
-0.0938757     1.6326    1.14391 255 255 255
-0.525451   1.02138   1.57673 255 255 255
-0.622452    1.1974   1.51834 255 255 255
-0.538099   1.01864   1.55116 255 255 255
-0.27078  1.45632  1.29338 255 255 255
-0.381497   1.45171   1.27457 255 255 255
0.159615 0.497937  1.71492 255 255 255
-0.0630566    1.71451    1.08097 255 255 255
-0.597592   1.29592   1.42061 255 255 255
-0.568493   1.30982   1.40259 255 255 255
0.282205 0.861518  1.52291 255 255 255
-0.87774  1.37863  1.39493 255 255 255
0.427063 0.377118  1.68368 255 255 255
0.470216 0.464573  1.66114 255 255 255
-0.37025  1.53492  1.20419 255 255 255
  2.58851    4.0362 -0.160292 255 255 255
  3.20598   3.56424 0.0272028 255 255 255
   2.96194    3.80853 -0.0288986 255 255 255
  3.11058   3.75646 0.0231576 255 255 255
    2.98253     3.89788 -0.00189141 255 255 255
  2.78251   3.64557 -0.126691 255 255 255
   3.05088    3.75029 0.00545535 255 255 255
   2.5715   4.01766 -0.155195 255 255 255
  3.13735   3.77196 0.0302354 255 255 255
    3.04126     3.74215 -0.00145309 255 255 255
0.495638  1.96163 0.897104 255 255 255
-0.271128   1.50289   1.24203 255 255 255
-0.372435      1.41    1.3259 255 255 255
-0.255566   1.02471   1.61262 255 255 255
-0.111358   1.66568   1.12254 255 255 255
0.125703  1.86816 0.985835 255 255 255
-0.0509981     1.6922    1.12421 255 255 255
-0.273593   1.46697   1.27685 255 255 255
-0.546598   1.39934   1.29262 255 255 255
0.0859287   1.78485    1.0431 255 255 255
-0.362308   1.07437    1.5627 255 255 255
0.454494  1.56266   1.1303 255 255 255
-0.336846   1.10255   1.55781 255 255 255
-0.202789   1.52209   1.23604 255 255 255
-0.0368114    1.77061    1.04519 255 255 255
0.470119  1.93816 0.934791 255 255 255
-0.023633   1.75459   1.05691 255 255 255
-0.160696   1.69336   1.09028 255 255 255
-0.38624   1.4003  1.33271 255 255 255
0.485623   1.9484  0.91713 255 255 255
 0.57516  1.91633 0.956848 255 255 255
0.494748  1.86172  1.02433 255 255 255
0.531864  1.89074 0.995625 255 255 255
0.574562  2.02014 0.860755 255 255 255
0.155292  1.91097 0.961052 255 255 255
0.0600149   1.79723    1.0274 255 255 255
0.498144  1.93909 0.926112 255 255 255
-0.0624074    1.77399      1.041 255 255 255
-0.0594369    1.74166    1.05477 255 255 255
0.0242227   1.83857  0.994008 255 255 255
-0.183002   1.69209   1.06803 255 255 255
0.180705     1.98 0.891871 255 255 255
-0.617959   1.08612   1.56147 255 255 255
-0.442555   1.34726   1.36673 255 255 255
-0.0422935    1.71714     1.0996 255 255 255
-0.170064   1.71705   1.06053 255 255 255
0.0370493     1.055   1.48162 255 255 255
0.0394993   1.77895   1.04594 255 255 255
0.149505  1.76241  1.04753 255 255 255
0.594578  1.95517   0.9149 255 255 255
-0.0896585    1.76465    1.03426 255 255 255
0.287406  1.62763  1.11797 255 255 255
-0.0812684    1.70815    1.09164 255 255 255
-0.403139   1.36313    1.3647 255 255 255
 0.61789  2.08947 0.771849 255 255 255
-0.377723   1.45922    1.2744 255 255 255
 0.57594  1.99499 0.887461 255 255 255
-0.341332   1.44268   1.28822 255 255 255
-0.182432   1.66832   1.09576 255 255 255
0.562579  1.97331 0.897612 255 255 255
-0.122407   1.69047   1.09645 255 255 255
0.702359  1.92778 0.920373 255 255 255
0.341533  1.98314 0.903486 255 255 255
0.220365  1.85736  1.00536 255 255 255
-0.169976   1.64572   1.13429 255 255 255
-0.0788989    1.72918    1.07034 255 255 255
0.0178712   1.85312  0.986648 255 255 255
-0.105535   1.71919   1.07442 255 255 255
0.123616  1.92312 0.929998 255 255 255
-0.296826   1.47767   1.26027 255 255 255
-0.0835071    1.77812    1.01144 255 255 255
-0.498878    1.4374     1.281 255 255 255
-0.345098     1.394   1.34595 255 255 255
0.0222425   1.79254   1.03136 255 255 255
0.206669  1.99488 0.876459 255 255 255
-0.484298   1.45433   1.26387 255 255 255
0.568845  2.00631 0.871228 255 255 255
-0.0396482    1.79934    1.02228 255 255 255
-0.0977023    1.77782    1.00966 255 255 255
0.0712499   1.86129  0.983146 255 255 255
0.683294   1.9371  0.91643 255 255 255
-0.383953   1.33904   1.38118 255 255 255
-0.434281   1.29842   1.41369 255 255 255
0.0167695   1.75881   1.07873 255 255 255
-0.140199   1.67214   1.10347 255 255 255
-0.373279   1.34765    1.3742 255 255 255
-0.0238691    1.80675    1.01414 255 255 255
0.134951  1.93445 0.933682 255 255 255
-0.0315242    1.78405    1.02962 255 255 255
-0.0240751    1.82185    1.00519 255 255 255
0.499002  1.92448 0.945909 255 255 255
-0.145908   1.62505   1.14778 255 255 255
0.136038  1.88434 0.991104 255 255 255
0.0224655   1.76469   1.05894 255 255 255
-0.418836   1.51104   1.22371 255 255 255
-0.652231   1.03889   1.59403 255 255 255
0.0743251   1.87415  0.963839 255 255 255
-0.152611   1.68513   1.09549 255 255 255
-0.504271   1.43763   1.27472 255 255 255
-0.167833   1.66186   1.12654 255 255 255
0.567667  1.91386 0.966372 255 255 255
-0.0281967    1.79568    1.01912 255 255 255
-0.155408   1.61989   1.15629 255 255 255
-0.479479   1.07741   1.56623 255 255 255
0.475476  1.92588 0.942558 255 255 255
0.584464  1.98889 0.890978 255 255 255
-0.531322   1.16644   1.50607 255 255 255
0.144119  1.97368 0.896401 255 255 255
-0.13765  1.62128  1.13894 255 255 255
0.659692  2.00116 0.867119 255 255 255
0.0326895   1.76516    1.0768 255 255 255
-0.0833536    1.67136    1.12782 255 255 255
0.0106984   1.75795    1.0628 255 255 255
0.0212967    1.8733  0.970406 255 255 255
0.0673816   1.81046   1.03857 255 255 255
-0.499687   1.31651   1.38352 255 255 255
-0.264083    1.4572   1.29479 255 255 255
0.333569  1.97473 0.912137 255 255 255
-0.032396   1.84098  0.967321 255 255 255
-0.398072   1.38587     1.332 255 255 255
0.117823  1.91716 0.944296 255 255 255
-0.630192   1.21104   1.46154 255 255 255
-0.0387749    1.76146    1.05009 255 255 255
0.185537  1.99015 0.885256 255 255 255
-0.105331   1.63986   1.15776 255 255 255
0.0297298    1.8842  0.962329 255 255 255
0.128337  1.96383 0.901281 255 255 255
0.588778  1.90695 0.970107 255 255 255
0.0157223   1.82994   0.99957 255 255 255
-0.00313526     1.83747    0.995587 255 255 255
0.205659  1.89583 0.982736 255 255 255
0.155789  1.97956 0.884722 255 255 255
0.0484958   1.84356   0.99073 255 255 255
0.124262  1.84652  1.02364 255 255 255
0.104971  1.92632 0.929867 255 255 255
0.120039  1.84168  1.02664 255 255 255
-0.189971   1.67001   1.11916 255 255 255
-0.0881865    1.66754    1.11797 255 255 255
-0.349223   1.05741   1.59285 255 255 255
0.494873  1.91613  0.95063 255 255 255
0.130909  1.85194  1.01923 255 255 255
0.036959  1.89458 0.953429 255 255 255
-0.450763   1.37662   1.33468 255 255 255
 0.30637 0.937988  1.46125 255 255 255
-0.101077   1.70379   1.08528 255 255 255
-0.492692   1.40045   1.31781 255 255 255
0.556656  1.93069 0.960324 255 255 255
-0.0394973    1.80625    1.01558 255 255 255
0.000192816     1.70314     1.12676 255 255 255
-0.124311   1.72166   1.07362 255 255 255
-0.125344    1.6768   1.10649 255 255 255
0.0980439    1.9011  0.943146 255 255 255
-0.0753169    1.79914    0.99919 255 255 255
0.0821455   1.91577  0.936352 255 255 255
-0.0358424    1.71757    1.10345 255 255 255
-0.0621413    1.76357    1.04892 255 255 255
0.0556906   1.85562   0.98589 255 255 255
0.0300012   1.86239  0.975984 255 255 255
0.00522816    1.84237   0.991028 255 255 255
-0.0767558     1.7178    1.07659 255 255 255
0.0403174   1.72585   1.08097 255 255 255
  2.17382   3.79949 -0.353994 255 255 255
  1.62133   3.90918 -0.221603 255 255 255
  2.05957   3.51568 -0.223645 255 255 255
  1.65105   3.82557 -0.175797 255 255 255
  2.18365   3.54815 -0.296598 255 255 255
  2.09854   3.64939 -0.328988 255 255 255
 1.59517  4.12008 -0.16369 255 255 255
  2.04691   3.54012 -0.256251 255 255 255
  1.93568   3.41286 -0.239332 255 255 255
  1.77601   3.65644 -0.188899 255 255 255
  1.67009   4.17285 -0.154954 255 255 255
  2.24901   3.46117 -0.303445 255 255 255
  1.60928   3.55335 -0.114083 255 255 255
  2.29462   3.79705 -0.386279 255 255 255
  1.70158   3.94075 -0.213756 255 255 255
  1.84574   3.87344 -0.191882 255 255 255
  2.21815   3.77566 -0.359831 255 255 255
  1.95028   3.72203 -0.341848 255 255 255
  1.94969   3.69723 -0.331948 255 255 255
  2.00416   3.41142 -0.342799 255 255 255
  1.58197   3.72099 -0.169422 255 255 255
  2.20588   3.79088 -0.360928 255 255 255
  1.54118   3.67958 -0.196566 255 255 255
  1.87357   3.57132 -0.298558 255 255 255
  1.61418   3.84563 -0.165315 255 255 255
  2.17382   3.79949 -0.353994 255 255 255
  1.63574   4.04825 -0.172389 255 255 255
  1.53511   3.99933 -0.218934 255 255 255
  1.83277   4.05737 -0.281271 255 255 255
  2.19577   3.80401 -0.363712 255 255 255
  1.58064   4.21314 -0.104055 255 255 255
 2.11615  3.77039 -0.32319 255 255 255
 2.12596  3.72282 -0.32284 255 255 255
  2.06074   3.24517 -0.213702 255 255 255
  2.19417   3.59016 -0.323751 255 255 255
  1.68294   3.57182 -0.132233 255 255 255
  1.78778   3.83762 -0.226475 255 255 255
1.78284 3.83565 -0.2171 255 255 255
  2.07203   3.26482 -0.139809 255 255 255
  1.73323   3.76043 -0.151754 255 255 255
 1.82802  3.81384 -0.23253 255 255 255
 1.56729  3.26646 0.045974 255 255 255
  2.03505   3.51468 -0.243623 255 255 255
  2.10763   3.80594 -0.351303 255 255 255
  1.79419   3.74159 -0.199783 255 255 255
  1.94853   3.44747 -0.211463 255 255 255
   1.7231   4.21968 -0.155562 255 255 255
   1.48694     4.3163 -0.0637477 255 255 255
  1.61599   3.45832 -0.118017 255 255 255
  1.88725   3.37285 -0.366301 255 255 255
  1.51946   3.61397 -0.268881 255 255 255
  1.86876   3.54491 -0.275536 255 255 255
   2.0413   3.41219 -0.206007 255 255 255
  2.39732   3.26073 -0.131614 255 255 255
  2.48735   3.25377 -0.219334 255 255 255
   1.46566    4.25926 -0.0920625 255 255 255
  2.02588   3.83236 -0.344924 255 255 255
  1.49598    3.5267 -0.113854 255 255 255
  2.04391   3.47596 -0.237666 255 255 255
  2.17853   3.65382 -0.289243 255 255 255
   1.29106    4.30644 0.00966301 255 255 255
  2.33228   3.72824 -0.381444 255 255 255
  1.90038   3.63398 -0.317394 255 255 255
   2.2147   3.83899 -0.378896 255 255 255
  1.52193   3.28186 0.0407258 255 255 255
  2.00719   3.21216 -0.263351 255 255 255
  1.80037   4.11867 -0.203712 255 255 255
  2.09402   3.38492 -0.212595 255 255 255
  2.04684   3.35497 -0.284354 255 255 255
  1.80898   3.68391 -0.218079 255 255 255
  2.07823   3.66655 -0.285126 255 255 255
  1.52156   4.09166 -0.206389 255 255 255
  1.61789   3.82856 -0.173282 255 255 255
  1.55628   4.02564 -0.201498 255 255 255
  2.04943   3.47034 -0.220134 255 255 255
  1.66218   3.85454 -0.185515 255 255 255
  2.01066   3.81974 -0.325196 255 255 255
  2.20133   3.69855 -0.325901 255 255 255
  1.84381    3.6822 -0.193426 255 255 255
  1.87899   3.43836 -0.261306 255 255 255
  2.01345   3.83414 -0.338086 255 255 255
  1.52999    3.7148 -0.177986 255 255 255
  1.66103   4.00075 -0.194147 255 255 255
  1.59289   4.11581 -0.189295 255 255 255
   1.5825   4.05073 -0.186198 255 255 255
   1.9891   3.19376 -0.244077 255 255 255
  1.56034   3.69855 -0.198698 255 255 255
   1.44575    3.49765 -0.0409615 255 255 255
   1.57313    3.32867 -0.0461358 255 255 255
  1.51216   4.07823 -0.219706 255 255 255
  1.55224   4.05576 -0.202142 255 255 255
    1.49101     4.47615 -0.00026705 255 255 255
  1.93759   3.70573 -0.340083 255 255 255
 1.77665  4.13891 -0.19033 255 255 255
  2.16431   3.58844 -0.275081 255 255 255
  1.85321   3.77224 -0.229903 255 255 255
  2.01045   3.79505 -0.360329 255 255 255
  1.77206   3.88088 -0.220522 255 255 255
  1.60055   4.15165 -0.184783 255 255 255
  1.74451   4.01421 -0.210898 255 255 255
    1.857   3.88582 -0.232164 255 255 255
  1.55238   4.06131 -0.220945 255 255 255
  1.56032   3.66288 -0.134565 255 255 255
  2.18893   3.98108 -0.534385 255 255 255
  1.52139    3.9333 -0.368579 255 255 255
  1.68609   3.92234 -0.195825 255 255 255
  1.53971   3.99895 -0.195814 255 255 255
  1.94693   3.74615 -0.308575 255 255 255
  1.56827    4.0613 -0.191079 255 255 255
  2.06141   3.61725 -0.272712 255 255 255
  1.41339   3.70975 -0.189731 255 255 255
    1.4919    3.57566 -0.0705795 255 255 255
  1.54334   3.69649 -0.213279 255 255 255
  2.02924   3.36788 -0.218117 255 255 255
  1.60754    3.9937 -0.172925 255 255 255
  2.24334   3.57746 -0.292685 255 255 255
  1.52912   3.62606 -0.244869 255 255 255
  1.94503   3.37861 -0.364122 255 255 255
  1.68503   3.92586 -0.225876 255 255 255
  2.35065     3.029 -0.051675 255 255 255
   1.6952   3.70696 -0.189135 255 255 255
  2.21237   3.76868 -0.353998 255 255 255
   1.6801   3.98883 -0.206791 255 255 255
   1.5651   3.69974 -0.188055 255 255 255
  1.67169   4.09698 -0.181755 255 255 255
  1.51988   4.24363 -0.128219 255 255 255
  1.77074    3.9046 -0.230495 255 255 255
  1.75573   3.88817 -0.243198 255 255 255
  2.17931   3.73403 -0.330539 255 255 255
  1.75144   4.02285 -0.205712 255 255 255
  1.61624   4.07694 -0.161454 255 255 255
  2.41764   3.26902 -0.141073 255 255 255
  2.34669   3.10216 -0.115918 255 255 255
    2.321   3.72641 -0.377792 255 255 255
  1.70531   4.12441 -0.183454 255 255 255
   1.32857    4.26147 -0.0117307 255 255 255
  1.81932   3.46732 -0.264139 255 255 255
  1.56211   4.01386 -0.171917 255 255 255
  1.52817   3.62849 -0.133746 255 255 255
  1.80309   3.43688 -0.245994 255 255 255
  1.92393   3.63145 -0.327602 255 255 255
  1.68587   4.11542 -0.176997 255 255 255
  1.75551   3.96196 -0.233256 255 255 255
  2.04681   3.50273 -0.241108 255 255 255
  2.00348   3.80534 -0.353623 255 255 255
  2.02271   3.48102 -0.234564 255 255 255
  2.10517   3.41708 -0.196419 255 255 255
  1.59414   3.56645 -0.133918 255 255 255
  2.39982    3.2366 -0.121116 255 255 255
  2.19058   3.84165 -0.373965 255 255 255
  1.38367   3.67505 -0.186309 255 255 255
  2.31215    3.7449 -0.378107 255 255 255
    1.55791     3.33231 -0.00305013 255 255 255
  1.93092   3.25511 -0.284636 255 255 255
  1.63269   4.40766 -0.119196 255 255 255
  1.59173   3.76018 -0.166939 255 255 255
   2.09385    3.17901 -0.0561513 255 255 255
  1.60275   3.52437 -0.131436 255 255 255
  1.58935   4.17442 -0.124815 255 255 255
   1.42285    4.36445 -0.0217784 255 255 255
  1.68183   4.13459 -0.170814 255 255 255
  1.84157    3.4953 -0.262733 255 255 255
  2.04819   3.50986 -0.241564 255 255 255
  1.99795   3.31041 -0.268716 255 255 255
   1.49165    4.30767 -0.0646986 255 255 255
  2.05007    3.4597 -0.230991 255 255 255
  1.56581   4.07244 -0.192354 255 255 255
  1.77456   3.89846 -0.219529 255 255 255
  2.06321   3.33705 -0.226432 255 255 255
  1.92211   3.44568 -0.216015 255 255 255
  1.92755   3.44884 -0.228849 255 255 255
  1.66437     3.943 -0.217048 255 255 255
   2.0673   3.58434 -0.258027 255 255 255
  1.84363   3.67441 -0.196458 255 255 255
  1.51418   3.96784 -0.195848 255 255 255
  1.77409   3.95623 -0.226303 255 255 255
   1.7907   3.99162 -0.219997 255 255 255
  1.74998   3.97908 -0.216188 255 255 255
  2.09774   3.68145 -0.301702 255 255 255
   1.44834    4.35662 -0.0342686 255 255 255
  2.06952    3.6087 -0.277411 255 255 255
 2.00667  3.85403 -0.33216 255 255 255
1.81409 3.64278 -0.1896 255 255 255
  2.02728   3.74439 -0.308382 255 255 255
  2.22058   3.84062 -0.374826 255 255 255
  1.85418   3.89222 -0.238371 255 255 255
 2.18389    2.591 0.266926 255 255 255
  2.29392   3.79678 -0.379937 255 255 255
  1.94157   3.39277 -0.346532 255 255 255
  2.09388   3.35471 -0.200491 255 255 255
  1.48216   3.50057 -0.116516 255 255 255
  2.06743   3.32908 -0.223409 255 255 255
  2.03955   3.43921 -0.240715 255 255 255
  1.68232   3.93855 -0.198116 255 255 255
   2.2741    3.7021 -0.339033 255 255 255
  1.85891   3.47008 -0.265857 255 255 255
  1.65396   4.09472 -0.164527 255 255 255
  1.81273   3.68018 -0.192277 255 255 255
  1.86917   3.56213 -0.297454 255 255 255
  1.92223   3.79021 -0.296781 255 255 255
  1.56092   3.49006 -0.119558 255 255 255
  1.56087   3.49057 -0.121259 255 255 255
 1.60152  4.07239 -0.15015 255 255 255
 -0.1103 0.450654  1.81587 255 255 255
0.0677183  0.380707   1.75476 255 255 255
0.0252223  0.200107   1.82374 255 255 255
-0.535794  0.983085   1.61052 255 255 255
-0.470185   0.15788   2.03974 255 255 255
-0.181799  0.393061   1.85186 255 255 255
-0.568321   1.00403   1.56823 255 255 255
-0.300098   0.49891   1.78406 255 255 255
-0.623543 0.0681667    2.1877 255 255 255
0.216771 0.294414  1.76766 255 255 255
0.0593259  0.220592   1.82804 255 255 255
-0.0288761 -0.0155432    1.91808 255 255 255
-0.033554   0.43706   1.78667 255 255 255
-0.102945  0.267693   1.85678 255 255 255
0.178762 0.263531  1.76642 255 255 255
0.108337 0.350459  1.77674 255 255 255
0.0946408  0.200111    1.8258 255 255 255
-0.470929  0.301763   2.02369 255 255 255
-0.0316803   0.366235    1.79997 255 255 255
0.0404871  0.154572   1.85899 255 255 255
-0.0429826   0.206956    1.83692 255 255 255
 -0.117463 0.00247939    1.94764 255 255 255
-0.317515  0.324812   1.93799 255 255 255
 -0.136191 -0.0417714    1.93796 255 255 255
-0.255426  0.265814   1.87633 255 255 255
0.236661 0.307326   1.7981 255 255 255
-0.0698135  0.0242341     1.8896 255 255 255
-0.0239505    0.23273    1.84437 255 255 255
-0.42525 0.929803  1.61904 255 255 255
-0.188915 0.0277579   1.95715 255 255 255
0.0760834  0.171727   1.85912 255 255 255
-0.670094   0.73345   1.75194 255 255 255
0.00738633   0.547357    1.69505 255 255 255
0.166462 0.131578  1.87122 255 255 255
-0.020579 0.0823976   1.90661 255 255 255
 -0.212636 -0.0548695    1.94481 255 255 255
-0.219247  0.256799    1.8873 255 255 255
  -0.541048 -0.00317518      2.1411 255 255 255
0.244524 0.256958  1.80695 255 255 255
0.0382992  0.362155   1.79304 255 255 255
-0.764003  0.507778   1.93943 255 255 255
-0.0127212    0.46513    1.76229 255 255 255
-0.0188819   0.519831    1.71623 255 255 255
  -0.151614 -0.00874238     1.94614 255 255 255
 -0.169705 -0.0503878    1.96942 255 255 255
-0.358314  0.166039     2.005 255 255 255
0.0761792  0.249861   1.84104 255 255 255
-0.779224  0.479439   1.95776 255 255 255
0.216569 0.394872  1.72521 255 255 255
 -0.212901 -0.0379503    1.97358 255 255 255
-0.89373  0.96157  1.70492 255 255 255
0.110279 0.143699  1.85491 255 255 255
0.130953 0.262728  1.82102 255 255 255
-0.521396  0.891096   1.67003 255 255 255
-0.132898  0.330579   1.87605 255 255 255
0.00893099   0.427806    1.75256 255 255 255
0.070106 0.393382  1.77487 255 255 255
-1.08823 0.874801  1.79406 255 255 255
-0.335902 -0.206676   2.04877 255 255 255
-0.637298  0.421162   1.93694 255 255 255
 -0.181101 -0.0732373    1.97726 255 255 255
-0.315228  -0.20141   2.04655 255 255 255
0.101273 0.105829  1.87006 255 255 255
-1.08738  0.96362  1.73156 255 255 255
-0.683432  0.138489    2.2058 255 255 255
0.239228 0.339898  1.77928 255 255 255
-0.743332  0.471936   1.94373 255 255 255
 -0.15997 0.0561632   1.94259 255 255 255
-0.711979  0.791693   1.73603 255 255 255
0.199696 0.387624  1.72731 255 255 255
-0.231852  0.228891   1.89255 255 255 255
0.0796938 0.0908644   1.88784 255 255 255
-0.485315  0.331126   1.89947 255 255 255
 -0.243212 -0.0920629    1.98856 255 255 255
-0.335544  0.294949   1.90982 255 255 255
0.195122 0.305649  1.80577 255 255 255
-0.414916  0.837152   1.67526 255 255 255
-0.354673  0.886978   1.63387 255 255 255
-0.0152369   0.190644    1.85308 255 255 255
0.0199936 0.0915876   1.87366 255 255 255
-0.620427   1.08705   1.56494 255 255 255
-0.163463  0.153833   1.91677 255 255 255
0.111606 0.418649   1.7588 255 255 255
0.0478111  0.102115    1.8719 255 255 255
-0.0447612   0.501377       1.73 255 255 255
-0.344109   0.51867   1.82683 255 255 255
0.10193 0.37055 1.77106 255 255 255
 -0.542521 -0.0852994    2.15575 255 255 255
-0.390605  0.305479   1.98098 255 255 255
-0.690513 0.0215448   2.24415 255 255 255
0.00269439   0.340619    1.81106 255 255 255
 -0.3635 0.209861  1.98678 255 255 255
0.0702685  0.411448   1.76749 255 255 255
-0.211724  0.299816   1.88346 255 255 255
-0.372547  0.101556     2.014 255 255 255
0.0194197  0.143555   1.86884 255 255 255
0.0423368   0.39998   1.79011 255 255 255
-0.455771  0.980727   1.58766 255 255 255
-0.482408  0.227206   2.04678 255 255 255
0.0187092  0.320261   1.81724 255 255 255
0.177654  0.22502  1.82709 255 255 255
0.107987 0.435131  1.73813 255 255 255
-0.532607  0.198163   2.03947 255 255 255
-0.379003 -0.207847   2.10559 255 255 255
0.129774 0.295503  1.79765 255 255 255
0.0580549  0.502858   1.71774 255 255 255
0.0843571  0.542608    1.7224 255 255 255
 -0.328055 -0.0793288    2.01785 255 255 255
-0.374729  0.126345   2.01534 255 255 255
-0.117881  0.391748   1.83011 255 255 255
0.0306503  0.565473   1.68898 255 255 255
0.026796 0.300753  1.80723 255 255 255
-0.595241  0.318789   1.95396 255 255 255
0.0168431  0.544469   1.68723 255 255 255
-0.0371189   0.156327    1.87383 255 255 255
-0.825156  0.490551   1.97219 255 255 255
 0.119653 0.0832702   1.86643 255 255 255
0.0808982  0.364556   1.78566 255 255 255
0.109815 0.345712  1.77738 255 255 255
-0.0100614   0.161203    1.86357 255 255 255
-0.682711 0.0630825   2.07873 255 255 255
 -0.568556 -0.0703054    2.15689 255 255 255
-0.286195  0.100078   1.98181 255 255 255
-0.340902 -0.177835   2.04021 255 255 255
-0.667766   1.09963   1.56814 255 255 255
-0.687919  0.817015    1.7171 255 255 255
-0.468637   0.23061   2.05268 255 255 255
0.0947241  0.118462   1.87302 255 255 255
 -0.19241 -0.133764   1.97137 255 255 255
-0.0380071  -0.131799    1.93666 255 255 255
0.0857657  0.482036   1.72016 255 255 255
-0.633149  0.921799   1.65993 255 255 255
-0.102025  0.403377   1.83111 255 255 255
-0.511612 0.0788259   2.10352 255 255 255
0.0690495  0.429965    1.7499 255 255 255
-0.0261686   0.418205    1.75433 255 255 255
0.18237 0.16212 1.85667 255 255 255
-0.144155  0.057975   1.90456 255 255 255
-0.219652  0.189067   1.92978 255 255 255
-0.601615   0.81907   1.69663 255 255 255
0.0521427 0.0593859   1.89077 255 255 255
 0.16527 0.326813  1.77797 255 255 255
-0.543236  0.989881   1.58941 255 255 255
-0.0684399   0.307038    1.84002 255 255 255
-0.846018  0.807397   1.76048 255 255 255
 -0.132451 0.00529146    1.94649 255 255 255
-0.0116863 -0.0237924    1.91785 255 255 255
-0.110637  0.247918   1.85734 255 255 255
-0.131494  0.273566   1.87017 255 255 255
 -0.174556 -0.0172025    1.97521 255 255 255
-0.29013 0.291199  1.92139 255 255 255
-0.655748  0.575859   1.86374 255 255 255
-0.330549  0.022012   2.00174 255 255 255
0.0510582  0.437724   1.74268 255 255 255
0.266841 0.258579  1.83093 255 255 255
-0.854943  0.601531    1.8877 255 255 255
-0.0223701   0.588073     1.6699 255 255 255
0.0207961  0.390091   1.78025 255 255 255
-0.467962  0.214484   2.03182 255 255 255
0.102306 0.355841  1.78301 255 255 255
0.138721 0.282933  1.80116 255 255 255
 -0.155489 -0.0273309    1.95746 255 255 255
-0.783856    1.0063   1.64243 255 255 255
  -0.328056 -0.00853926     2.00243 255 255 255
-0.73377  1.01108  1.62295 255 255 255
-0.0105744   0.181752    1.83556 255 255 255
0.0540795  0.390015   1.77678 255 255 255
0.0206455  0.190857   1.83142 255 255 255
-0.752143   1.02245   1.62914 255 255 255
0.169563 0.252961  1.81417 255 255 255
 -0.34362 -0.149292   2.04276 255 255 255
-0.633065 0.0943255   2.19113 255 255 255
-0.631155  0.242413   1.99488 255 255 255
0.219212 0.219471  1.83946 255 255 255
0.0922329  0.218061   1.82848 255 255 255
0.160273 0.304361  1.79705 255 255 255
-0.468137 0.0899985   2.02383 255 255 255
-0.558998 0.0050431   2.14639 255 255 255
-0.0255703   0.603403    1.67326 255 255 255
-0.452855 -0.190097   2.13373 255 255 255
-0.551241  0.827139    1.6819 255 255 255
-0.186277 0.0769913   1.93446 255 255 255
0.0519551  0.363031   1.76607 255 255 255
 -0.526406 -0.0600042    2.11037 255 255 255
-0.804104  0.470635   1.97343 255 255 255
0.0769897   0.14597    1.8667 255 255 255
-0.0872249   0.249777    1.85951 255 255 255
0.0268001  0.155318   1.83557 255 255 255
-0.488312 0.0905396   2.08055 255 255 255
0.141539 0.380063  1.76164 255 255 255
-0.0563228    0.42015    1.79233 255 255 255
0.199916 0.156154  1.86341 255 255 255
-0.0487542   0.412628    1.79183 255 255 255
0.0736937  0.504978   1.73913 255 255 255
-0.509265  0.900135   1.66506 255 255 255
-0.684029   1.09632   1.57884 255 255 255
0.0850014   0.35625   1.76972 255 255 255
0.130171 0.225524   1.8361 255 255 255
0.136168 0.339654  1.78077 255 255 255
-0.261786 0.0980234   1.97066 255 255 255
0.0396648  0.262641   1.83212 255 255 255
-0.312174  0.564554   1.76945 255 255 255
-0.112936  0.144132   1.90347 255 255 255
-0.636103  0.556489    1.8556 255 255 255
-0.991659  0.996993   1.68294 255 255 255
0.243728 0.340595  1.72688 255 255 255
-0.948869  0.885074   1.74962 255 255 255
-0.977896   1.00048   1.67473 255 255 255
 -0.272652 -0.0413424    1.98811 255 255 255
-0.422781  0.304842   1.93509 255 255 255
-0.253211  -0.18458    1.9874 255 255 255
-0.535469   0.99647   1.58525 255 255 255
0.0614137  0.322643   1.78933 255 255 255
-0.649353  0.173942   2.18281 255 255 255
-0.433813  0.362969   1.90915 255 255 255
-0.0328411   0.506339    1.72607 255 255 255
0.250208 0.272696  1.82229 255 255 255
-0.481088  0.903011   1.65486 255 255 255
 -0.617688 -0.0925103    2.19576 255 255 255
-0.727738  0.941192   1.65479 255 255 255
-0.49226  0.94957  1.63474 255 255 255
-0.502801  0.163842   2.06423 255 255 255
0.120658 0.406381  1.75105 255 255 255
-0.00670639   -0.013897      1.9267 255 255 255
 -0.680218 0.00782314    2.23185 255 255 255
-0.337805  0.212145   1.96389 255 255 255
-0.0124736   0.174497    1.85919 255 255 255
-0.753893  0.931683   1.66839 255 255 255
  0.1238 0.414249  1.74967 255 255 255
-0.863746  0.497899   1.97945 255 255 255
-0.233461  0.109631   1.95382 255 255 255
-0.626313  0.802762   1.71311 255 255 255
 -0.71225 0.0785147   2.23436 255 255 255
-0.696274  0.174825   2.04598 255 255 255
-0.238277  0.570129   1.75131 255 255 255
-0.436401   0.40638   1.89011 255 255 255
-0.662486  0.557759    1.8707 255 255 255
-0.371075  0.903849   1.63168 255 255 255
 -0.086003 0.00820048    1.93346 255 255 255
 -0.2933 0.618758  1.76591 255 255 255
-0.16891 0.465066  1.82475 255 255 255
0.160327 0.313931  1.79338 255 255 255
 -0.142806 -0.0334462    1.96173 255 255 255
-1.05544 0.823478   1.8065 255 255 255
-0.244845  0.633059   1.73151 255 255 255
-0.203786  0.422904   1.82292 255 255 255
-0.0421175   0.377337    1.80006 255 255 255
-0.155111   0.36146   1.84768 255 255 255
-0.185022  0.112597   1.93623 255 255 255
-0.0932935  0.0855312    1.90515 255 255 255
-0.183099  0.129619   1.91871 255 255 255
0.0878626  0.248701   1.81648 255 255 255
0.244678 0.329019  1.76987 255 255 255
0.0671585  0.448757   1.75803 255 255 255
0.195861 0.300386  1.80505 255 255 255
-0.660238  0.741872   1.74836 255 255 255
-0.183218 -0.078297   1.97153 255 255 255
0.0771891  0.235921   1.83005 255 255 255
0.0205415  0.435076   1.75117 255 255 255
-0.599859  0.140916   2.15879 255 255 255
0.101555 0.319608  1.79006 255 255 255
-0.430562  0.352248   1.91169 255 255 255
-0.243684 -0.161829   1.97106 255 255 255
-0.281101  0.255609   1.94049 255 255 255
-0.200953 0.0456605   1.95441 255 255 255
-0.507548   0.18388   2.07654 255 255 255
-1.15528  0.93072  1.74707 255 255 255
0.134141  0.12386  1.85101 255 255 255
-0.132108  0.295999   1.86189 255 255 255
0.0793055  0.338365   1.77755 255 255 255
0.0468154  0.504399   1.71523 255 255 255
-0.0767494   0.313235    1.83663 255 255 255
0.0861419  0.211071   1.83611 255 255 255
-0.126812  0.397485    1.8274 255 255 255
0.120721 0.123633   1.8648 255 255 255
-0.117308  0.362456   1.82501 255 255 255
-0.682368   0.77436   1.73959 255 255 255
-0.790244  0.979305   1.65639 255 255 255
-0.982935  0.868044   1.77305 255 255 255
 -0.333238 -0.0920748    2.01956 255 255 255
-0.00715015    0.221698     1.85217 255 255 255
0.169848 0.215818  1.84707 255 255 255
0.0994315  0.327886   1.78455 255 255 255
0.116435 0.383372  1.69961 255 255 255
0.0399977  0.470733   1.72762 255 255 255
-0.726691  0.895104   1.68684 255 255 255
-0.204645 -0.127041   1.98288 255 255 255
0.187514 0.199094  1.85119 255 255 255
-0.641774  0.183645   2.03399 255 255 255
-0.0734515   0.145067    1.88804 255 255 255
0.107928  0.32641   1.7798 255 255 255
-0.654087  0.817576   1.70978 255 255 255
-0.477083  0.183122   2.05722 255 255 255
-0.184149   0.26093   1.87674 255 255 255
-0.293048  0.159703   1.97364 255 255 255
0.0758133  0.307361   1.79508 255 255 255
0.0721661  0.159553   1.85489 255 255 255
-0.330076 -0.185489   2.03443 255 255 255
-0.275895  0.230426   1.92254 255 255 255
-0.720336  0.756873   1.75926 255 255 255
0.160496 0.336734  1.77224 255 255 255
-0.858546  0.635826   1.87654 255 255 255
-0.895489   0.81465   1.76413 255 255 255
0.0260079 0.0536191   1.82993 255 255 255
0.0291771 0.0419462   1.87988 255 255 255
-0.10183 0.321646  1.82902 255 255 255
-0.540591  0.129847   2.12806 255 255 255
 -0.676539 -0.0494425    2.23173 255 255 255
-0.177729 -0.151876   1.96693 255 255 255
 -0.105765 -0.0210937    1.90701 255 255 255
0.0778236  0.432385   1.75131 255 255 255
-0.941461  0.994306   1.68761 255 255 255
-0.444642  0.282746    1.9259 255 255 255
-0.766719  0.807525   1.74621 255 255 255
 -0.22331 -0.182753   1.97697 255 255 255
-0.658378  0.913155   1.66032 255 255 255
0.113989 0.165886  1.85291 255 255 255
-0.90449 0.608368  1.87839 255 255 255
 0.0583886 -0.0610605    1.89742 255 255 255
-0.052263  0.570862   1.68895 255 255 255
-0.014346  0.370085    1.7899 255 255 255
-0.892813  0.584708   1.91809 255 255 255
-0.391624 -0.131144   2.09813 255 255 255
-0.338905 -0.231629    2.0517 255 255 255
-0.961874   1.04621   1.64673 255 255 255
-0.10364 0.298496  1.85351 255 255 255
-0.0587903 -0.0854836    1.93059 255 255 255
-0.022681  0.565944   1.68934 255 255 255
-0.13616 0.240236  1.87117 255 255 255
-0.406991  0.142001   2.01705 255 255 255
-0.389083 -0.150513   2.09861 255 255 255
-0.414612   0.87963   1.65584 255 255 255
-0.131324  0.135159   1.90792 255 255 255
-0.0464954   0.232866    1.83785 255 255 255
-0.290871  0.140827   1.96725 255 255 255
-0.590441  0.169199   2.14103 255 255 255
-0.635001   1.00444   1.60944 255 255 255
-1.03976 0.898156  1.77246 255 255 255
0.00886075  0.0881015    1.87634 255 255 255
-0.579931  0.446611   1.89237 255 255 255
-0.598402   1.00356    1.5971 255 255 255
0.158286 0.191159  1.85538 255 255 255
-0.429303 -0.198728   2.08517 255 255 255
-0.404467  0.853084   1.67002 255 255 255
-0.581451  0.065805   2.16984 255 255 255
-1.00831 0.978119    1.695 255 255 255
-0.900645   1.07332   1.61332 255 255 255
-0.12985 0.355415  1.83179 255 255 255
-0.425622  0.359946   1.91277 255 255 255
-0.297635 0.0638204   1.98494 255 255 255
-0.189902   0.28888   1.89349 255 255 255
 -0.418577 -0.0723986    2.07011 255 255 255
-0.752615  0.826731   1.72702 255 255 255
-0.650216 0.0898491   2.20035 255 255 255
-0.143217 -0.168698    1.9662 255 255 255
-0.699923 0.0826617    2.2382 255 255 255
-0.121822  0.369554   1.82924 255 255 255
-0.628447   1.03715   1.60163 255 255 255
-0.668555  0.749292   1.74693 255 255 255
-0.571091  0.929349    1.6283 255 255 255
0.0593982  0.427274   1.76575 255 255 255
-0.0322907  -0.089149    1.93843 255 255 255
-1.08422 0.991528  1.70366 255 255 255
-0.359551  0.541551   1.80757 255 255 255
-0.785559   0.83968   1.72705 255 255 255
-0.566894  0.147206   2.13598 255 255 255
-0.597432  0.991132   1.60219 255 255 255
-0.0857091   0.327019    1.83576 255 255 255
-0.207441 0.0797328   1.93923 255 255 255
-0.0103434 -0.0197957     1.9158 255 255 255
-0.0550463 -0.0601628    1.93752 255 255 255
0.0766826  0.438096   1.76144 255 255 255
0.142535 0.145014  1.86341 255 255 255
-0.900048  0.582425   1.91411 255 255 255
0.0296076   0.33078   1.79429 255 255 255
-0.00991117  -0.0697552     1.93207 255 255 255
-0.265037  0.079392   1.97074 255 255 255
-0.0998927   0.226761    1.87398 255 255 255
-0.443915  0.829651   1.68912 255 255 255
-0.0474376   0.366267    1.79958 255 255 255
 -0.282038 -0.0360556    1.99189 255 255 255
 -0.551531 -0.0229794    2.11293 255 255 255
-0.05067 0.379296  1.79734 255 255 255
0.0668789  0.187246   1.83564 255 255 255
 0.0139493 -0.0255152    1.91926 255 255 255
-0.973216  0.682594   1.87924 255 255 255
-0.617164    1.1023   1.55332 255 255 255
-0.0481328   0.147882    1.87776 255 255 255
 -0.282158 -0.0153223    1.99102 255 255 255
-0.0958423   0.382737    1.81804 255 255 255
-0.0835109    0.33612    1.83358 255 255 255
-0.0183713   0.101726    1.88808 255 255 255
0.0211908  0.314796    1.8143 255 255 255
-0.45656 0.076799  2.07044 255 255 255
-0.00507637    0.625974      1.6389 255 255 255
0.0938839  0.517429   1.69658 255 255 255
-0.73257  1.12619  1.57496 255 255 255
-0.309062  0.247223   1.96235 255 255 255
0.143942 0.186039  1.84524 255 255 255
0.0865609  0.234201    1.8233 255 255 255
0.276582 0.359136  1.71163 255 255 255
-0.047839  0.356741   1.80175 255 255 255
-0.716128  0.131106    2.2334 255 255 255
-0.254513   0.18115   1.95435 255 255 255
-0.24112 0.154825  1.94756 255 255 255
-0.212969   0.22463   1.91224 255 255 255
 -0.135363 -0.0194264    1.92977 255 255 255
0.0615562  0.382356    1.7732 255 255 255
-0.65045 0.922546  1.65332 255 255 255
-1.04744 0.822686  1.81084 255 255 255
0.229764 0.280913  1.76377 255 255 255
 -0.047151 -0.0962583    1.92948 255 255 255
 -1.055  1.0046 1.69213 255 255 255
-0.478132  0.222669   2.04594 255 255 255
-0.693485   1.12342   1.56305 255 255 255
0.0446587  0.284644   1.80392 255 255 255
0.0526859  0.101229   1.88684 255 255 255
-0.523057  0.936085   1.64324 255 255 255
-0.200495  0.517296   1.77329 255 255 255
-1.06397 0.886686  1.78621 255 255 255
0.201298  0.23622  1.83334 255 255 255
-0.025862  0.387579   1.79471 255 255 255
-0.0858014   0.469348    1.77656 255 255 255
-0.00984577    0.340402     1.80567 255 255 255
0.0864454 0.0799426   1.89005 255 255 255
0.256404 0.245235  1.82255 255 255 255
-0.691925  0.786098   1.73454 255 255 255
-0.263727 -0.019561   2.00169 255 255 255
-0.255603  0.059147   1.97291 255 255 255
-0.195117 0.0860079   1.94047 255 255 255
-0.23394 0.244918  1.88169 255 255 255
0.200318 0.388709  1.68086 255 255 255
-0.326902  0.265429   1.92358 255 255 255
-0.826748  0.464844   1.98204 255 255 255
-0.0976991    -0.1603    1.97527 255 255 255
-0.61464  1.03271  1.58362 255 255 255
  -0.30086 -0.0408999    2.03136 255 255 255
-0.42255   0.1912  1.97734 255 255 255
-0.114014  0.712539   1.67813 255 255 255
0.168348 0.272736  1.80316 255 255 255
-0.0647395   0.235603    1.86241 255 255 255
-0.796452   0.72678   1.80183 255 255 255
0.196007 0.202023  1.83402 255 255 255
-1.11106 0.893381  1.79392 255 255 255
-0.104722  0.404353   1.82109 255 255 255
-0.276118  0.236134   1.94491 255 255 255
  -0.66628 -0.0267152     2.2202 255 255 255
-0.146836  0.235354   1.87786 255 255 255
