ply
format ascii 1.0
element vertex 1193
property float x
property float y
property float z
property uchar red
property uchar green
property uchar blue
end_header
 3.44042  4.14864 0.293014 255 255 255
 3.33954  4.10401 0.197862 255 255 255
3.34003  4.1184 0.21557 255 255 255
 3.40944  4.18342 0.309913 255 255 255
 3.38396  4.10261 0.224387 255 255 255
 3.0377 4.53989 0.25007 255 255 255
 2.76876  4.62544 0.234561 255 255 255
 3.43501  4.14865 0.291694 255 255 255
 3.34213  4.08091 0.182708 255 255 255
 3.31929  4.10265 0.185752 255 255 255
 3.24781  4.06564 0.121264 255 255 255
 2.81013  4.65703 0.261417 255 255 255
 3.03415  4.76792 0.354573 255 255 255
 2.74796  5.02321 0.434691 255 255 255
 3.05813  4.40521 0.202113 255 255 255
 3.32568  3.99698 0.113441 255 255 255
 3.33891  4.09554 0.199423 255 255 255
 3.00965  4.52354 0.239347 255 255 255
 3.00468  4.49046 0.221428 255 255 255
 3.28117  4.05717 0.129745 255 255 255
 3.42199  4.15559 0.293789 255 255 255
 3.42022  4.15876 0.296391 255 255 255
 3.07856  4.38476 0.196513 255 255 255
 3.04954  4.50804 0.243868 255 255 255
2.97719 4.49967 0.21699 255 255 255
 3.10279  4.64824 0.387723 255 255 255
 3.00536  4.87121 0.425294 255 255 255
 3.27892  4.08688 0.159239 255 255 255
3.05575 4.47269 0.24138 255 255 255
 3.16095   4.4721 0.281273 255 255 255
3.08467 4.47796  0.2563 255 255 255
 3.1042  4.6528 0.39141 255 255 255
 2.84726   4.6499 0.266733 255 255 255
  3.4225  4.16739 0.303583 255 255 255
 3.34431  4.12273 0.219711 255 255 255
 3.40787   4.1237 0.254936 255 255 255
 2.06482  2.56562 0.162254 255 255 255
 1.69197  2.96654 0.116671 255 255 255
  1.48813   3.22886 0.0571009 255 255 255
  2.12387   2.65205 0.0945137 255 255 255
 1.4804  3.2869 0.00871 255 255 255
 1.64403   3.0253 0.102347 255 255 255
  2.86744   2.99873 -0.169011 255 255 255
  1.32633   3.29734 0.0573408 255 255 255
  1.90719   2.74272 0.0391772 255 255 255
 2.07411  2.68954 0.120248 255 255 255
 2.04443  2.64125 0.178261 255 255 255
   1.77249    3.00111 -0.0321972 255 255 255
    1.73945     2.96372 0.000173468 255 255 255
  2.09324   2.67888 0.0767451 255 255 255
   1.996  2.63766 0.188902 255 255 255
  1.85266   2.79659 0.0272511 255 255 255
   1.83866    2.85648 -0.0283356 255 255 255
  1.74368    2.9763 0.0976215 255 255 255
   1.61554    3.37228 -0.0303373 255 255 255
   1.43288    3.47255 -0.0414877 255 255 255
  1.88694   2.71396 0.0753198 255 255 255
 1.72248  3.00661 0.095904 255 255 255
   1.56221    3.39862 -0.0404145 255 255 255
   1.54959    3.48069 -0.0951012 255 255 255
  1.82775   2.83289 0.0233671 255 255 255
   2.0822   2.75431 0.0797677 255 255 255
   1.76408    2.94414 -0.0149706 255 255 255
   1.2939   3.28407 0.0753954 255 255 255
  1.80807   2.86561 0.0249672 255 255 255
   1.69267    3.15297 -0.0596688 255 255 255
  2.85566    2.9582 -0.132782 255 255 255
 2.08773  2.67129 0.148198 255 255 255
 2.03658  2.72108 0.109109 255 255 255
  1.81172   2.80066 0.0654787 255 255 255
  2.16153   2.69924 0.0895006 255 255 255
   1.71844    3.13781 -0.0479086 255 255 255
 1.93769   2.6862 0.165873 255 255 255
  1.32772   3.34122 0.0403391 255 255 255
  2.05776   2.80008 0.0143137 255 255 255
 2.13247  2.67891 0.108456 255 255 255
 2.09044  2.64891 0.144654 255 255 255
 2.46041   3.3205 -0.23872 255 255 255
 1.67678  2.80974 0.201299 255 255 255
  2.38276   3.45341 -0.292738 255 255 255
 1.65461  2.97516 0.124252 255 255 255
  2.21284   2.51882 0.0778441 255 255 255
   1.65279    3.22041 -0.0198813 255 255 255
   1.92196    2.73064 0.00375553 255 255 255
   2.00151     2.8493 -0.0783029 255 255 255
  2.62792   3.15415 -0.257099 255 255 255
   1.38133    3.48574 -0.0315298 255 255 255
 2.11485  2.65978 0.127932 255 255 255
  2.52731   3.26491 -0.229373 255 255 255
 1.68359  2.86415 0.175101 255 255 255
 2.19685  2.53976 0.076505 255 255 255
  1.76518   2.81734 0.0622179 255 255 255
  2.72789   3.09225 -0.182218 255 255 255
   1.59648    3.39992 -0.0644392 255 255 255
 2.03597  2.60095 0.226616 255 255 255
  2.22651   3.51156 -0.278337 255 255 255
  1.54735   3.26343 0.0342428 255 255 255
 1.59022  3.03518 0.118353 255 255 255
   1.70039    3.44661 -0.0759254 255 255 255
 1.66996  2.89276 0.155284 255 255 255
   1.34779    3.39612 0.00944018 255 255 255
   1.45321     3.4922 -0.0588117 255 255 255
 1.57184  2.94754 0.146352 255 255 255
  1.41308   3.28738 0.0408483 255 255 255
  1.36088   3.49766 -0.033137 255 255 255
 1.55476  3.60583 -0.13389 255 255 255
  2.49875   3.30743 -0.246412 255 255 255
  1.65676    3.4364 -0.060673 255 255 255
   2.1873   2.51869 0.0897604 255 255 255
 2.10778  2.55514 0.241216 255 255 255
 1.41248  3.30494 0.037473 255 255 255
 1.69886  2.83369 0.190322 255 255 255
 1.69446  2.82648 0.184008 255 255 255
  1.65576   3.21606 0.0203601 255 255 255
   1.40787     3.4451 -0.0341578 255 255 255
 1.67768  2.80285 0.194974 255 255 255
   1.71607    2.95685 0.00773412 255 255 255
 1.72253  2.85995 0.159683 255 255 255
1.55419 2.92689 0.16296 255 255 255
   1.32435    3.43101 0.00582546 255 255 255
  1.55366    3.2491 0.0396494 255 255 255
    1.74629     3.12058 -0.00103784 255 255 255
   2.2183   2.70708 0.0817035 255 255 255
    1.73074     3.00108 0.000495349 255 255 255
 1.90681  2.70257 0.193498 255 255 255
 1.74926  2.93569 0.122574 255 255 255
   1.5584   3.34019 -0.021527 255 255 255
  1.72899   3.07309 0.0664154 255 255 255
   1.82805    2.82996 -0.0134242 255 255 255
  1.73238    3.1464 -0.118263 255 255 255
  1.76541   2.97154 -0.003309 255 255 255
   1.58601    3.38587 -0.0574344 255 255 255
  2.16292   2.67748 0.0942473 255 255 255
  2.51122   3.27255 -0.224124 255 255 255
   1.8699   2.71231 0.0863693 255 255 255
   1.43983    3.34289 0.00735043 255 255 255
  2.1496  2.55584 0.079274 255 255 255
   1.71968    3.02524 -0.0206733 255 255 255
 1.71596  2.94304 0.124271 255 255 255
   1.61842    3.42021 -0.0633391 255 255 255
1.62454 2.96419 0.13028 255 255 255
 1.57782  3.63332 -0.14821 255 255 255
  1.83413   2.81241 0.0155806 255 255 255
 2.17332  2.81919 0.243383 255 255 255
  2.64152   3.15334 -0.256828 255 255 255
 1.40774  3.14042 0.111929 255 255 255
 1.90738  2.71622 0.190606 255 255 255
 1.36981  3.14599 0.124007 255 255 255
  1.74126   2.99994 0.0972556 255 255 255
 1.61989  3.04877 0.103795 255 255 255
  1.39364   3.27976 0.0527692 255 255 255
 1.68148  2.85008 0.182065 255 255 255
   1.7745   2.82919 0.0579755 255 255 255
  1.38314   3.18764 0.0975317 255 255 255
  1.50765   3.62785 -0.128575 255 255 255
1.88861 2.70993 0.19417 255 255 255
   1.2541   3.28098 0.0679774 255 255 255
 1.57903   2.9984 0.131693 255 255 255
  1.73334   3.41024 -0.101467 255 255 255
 1.35413  3.16979 0.103564 255 255 255
 1.35728  3.18023 0.109963 255 255 255
 2.15294   2.5304 0.246538 255 255 255
  1.50279   3.18595 0.0682303 255 255 255
  2.3143  3.51555 -0.32172 255 255 255
 1.39342  3.10352 0.122046 255 255 255
    1.5454    3.38646 -0.0401463 255 255 255
 1.91082  2.69356 0.197203 255 255 255
 1.61359  2.93513 0.149374 255 255 255
  1.47584   3.19411 0.0769041 255 255 255
 2.21754  2.46609 0.114155 255 255 255
1.79977 2.72079 0.21416 255 255 255
  1.53186   3.05938 0.0941137 255 255 255
 1.65971  2.79786 0.207992 255 255 255
   2.8081   3.05319 -0.189239 255 255 255
   1.76467    2.97819 -0.0189971 255 255 255
  1.39454   3.22956 0.0766082 255 255 255
1.92299 2.67497 0.20273 255 255 255
  1.51589   3.64631 -0.142382 255 255 255
 2.18883  2.48782 0.104308 255 255 255
 2.82339  3.05407 -0.19322 255 255 255
 1.57318  3.06762 0.104327 255 255 255
 1.64205  3.04533 0.102514 255 255 255
  1.3576  3.25741 0.109254 255 255 255
    1.34199     3.44276 -0.00705188 255 255 255
  1.73495   3.09563 0.0550718 255 255 255
  2.40931    3.3264 -0.227086 255 255 255
 2.27563    2.376 0.142373 255 255 255
  1.75109   3.14743 -0.115803 255 255 255
 1.68088  2.90373 0.154547 255 255 255
 2.05795  2.63492 0.190144 255 255 255
    2.521   3.17635 -0.197219 255 255 255
 1.71901  2.92158 0.135404 255 255 255
   1.57187    3.38193 -0.0775274 255 255 255
 2.03444  2.69084 0.147868 255 255 255
  2.15131   2.57073 0.0460627 255 255 255
  2.60784   3.15551 -0.235369 255 255 255
 1.74866  2.91952 0.133787 255 255 255
 1.49177  3.27875 0.029695 255 255 255
  1.71648   3.12584 0.0455699 255 255 255
 1.66112  3.11512 0.035598 255 255 255
 1.89962  2.56714 0.276212 255 255 255
 1.63026  2.92288 0.145303 255 255 255
  1.6312  2.92546 0.146905 255 255 255
   1.4666   3.18117 0.0821231 255 255 255
  1.71802    3.0627 0.0760067 255 255 255
 1.71122  2.87399 0.155778 255 255 255
  2.10513   2.97661 -0.209288 255 255 255
 1.69182  3.00835 0.089869 255 255 255
  1.38488   3.21628 0.0845431 255 255 255
 1.65764  2.81191 0.194485 255 255 255
  1.29581   3.31033 0.0648951 255 255 255
   1.47082    3.56404 -0.0921038 255 255 255
 1.65329  3.47815 -0.13348 255 255 255
  1.73415   3.02061 0.0875886 255 255 255
    1.551   3.65264 -0.146976 255 255 255
  1.37646   3.20257 0.0925016 255 255 255
  2.15727   2.51333 0.0961587 255 255 255
 1.75191  3.00535 -0.01302 255 255 255
  2.16898   2.52261 0.0863635 255 255 255
  2.52951    3.1747 -0.222251 255 255 255
  1.61691   3.23938 0.0227444 255 255 255
  1.54152   3.29137 0.0255481 255 255 255
 1.58592  2.94649 0.152295 255 255 255
  2.17532   2.53322 0.0861234 255 255 255
   1.58421    3.37662 -0.0495757 255 255 255
 1.50289  3.28893 0.021369 255 255 255
  1.6862  3.02151 0.101062 255 255 255
 1.43452  3.07658 0.129248 255 255 255
   1.45702    3.28349 -0.0185351 255 255 255
   1.39858    3.49207 -0.0420859 255 255 255
  1.30494   3.29927 0.0664983 255 255 255
  1.4068  3.07609 0.132149 255 255 255
  1.41874   3.50154 -0.179771 255 255 255
 1.50641  3.05333 0.120424 255 255 255
  1.43935   3.16518 0.0907333 255 255 255
 1.36765  3.14124 0.111313 255 255 255
  1.93265   2.71688 0.0151996 255 255 255
  1.65611   3.45301 -0.079334 255 255 255
   1.30813    3.41672 0.00677742 255 255 255
 1.57524  2.96397 0.144286 255 255 255
1.33571 3.44361 -0.1435 255 255 255
 1.64269  2.93539 0.137057 255 255 255
 1.67101  2.87211 0.169898 255 255 255
  1.51191   3.16259 0.0750719 255 255 255
  1.51338   3.25131 0.0433648 255 255 255
   1.73762    2.89165 -0.0255195 255 255 255
  2.22186   3.21999 -0.240714 255 255 255
 1.39183  3.12328 0.117157 255 255 255
 2.19705  2.39241 0.146552 255 255 255
   1.83501    3.01892 -0.0814548 255 255 255
 1.73708  2.94084 0.121688 255 255 255
1.59899 3.05972 0.10141 255 255 255
 1.79972  2.72591 0.207928 255 255 255
   1.80917    2.94785 -0.0471069 255 255 255
    1.56871     3.32114 -0.00378136 255 255 255
 1.69576  2.83591 0.190344 255 255 255
 1.62748  3.04664 0.104258 255 255 255
 1.69943  2.97572 0.118174 255 255 255
   1.39847    3.50459 -0.0482443 255 255 255
 1.72696  2.96666 0.107274 255 255 255
 1.64653  2.81914 0.191644 255 255 255
 1.57095  2.92791 0.166213 255 255 255
   1.69138    3.13746 -0.0423929 255 255 255
    1.46519     3.37724 -0.00972633 255 255 255
 1.68343   2.9541 0.128983 255 255 255
 1.70249  2.83051 0.191114 255 255 255
 1.87741  2.71961 0.194269 255 255 255
  2.18545   2.54007 0.0848492 255 255 255
  1.39933   3.21133 0.0742485 255 255 255
 1.31246  3.35307 0.035752 255 255 255
  1.73639   3.06396 0.0732021 255 255 255
  1.67617   3.10089 0.0614547 255 255 255
  2.83943   3.03255 -0.181574 255 255 255
2.22389 2.42445  0.1295 255 255 255
2.05924 2.58272  0.2294 255 255 255
  2.17403   2.53963 0.0848701 255 255 255
  1.69243   3.46286 -0.126173 255 255 255
   1.63987     3.4276 -0.0575613 255 255 255
 1.61984   2.9834 0.130187 255 255 255
   1.594  2.94954 0.135682 255 255 255
  2.21229   3.21814 -0.236109 255 255 255
  2.1602  2.66883 0.100496 255 255 255
  1.76957   2.76619 0.0752713 255 255 255
  2.84049   3.00926 -0.153571 255 255 255
 1.53651  3.01172 0.135745 255 255 255
  2.20371   2.56208 0.0677842 255 255 255
 1.89926  2.76439 0.110605 255 255 255
  2.83365     3.039 -0.185988 255 255 255
  2.47197   3.33956 -0.254804 255 255 255
  1.72626   3.07411 0.0703237 255 255 255
 2.03859  2.59926 0.228205 255 255 255
 1.69044  2.99295 0.118195 255 255 255
 1.57979  3.00569 0.128807 255 255 255
 1.58016  2.95641 0.135717 255 255 255
  1.74288   3.05957 0.0718196 255 255 255
  1.34484   3.36813 0.0195353 255 255 255
  1.74066   3.01104 0.0910414 255 255 255
1.64471 2.82562 0.20117 255 255 255
 1.71349  2.81848 0.178072 255 255 255
    1.33872     3.43277 -0.00112897 255 255 255
  1.71042   3.09332 0.0572311 255 255 255
  1.6071  2.91735 0.155958 255 255 255
     1.3988     3.40238 -0.00434869 255 255 255
  1.50423   3.61797 -0.124862 255 255 255
  1.67481    3.0786 0.0457336 255 255 255
  1.6924  3.11314 0.066131 255 255 255
 1.65346   3.2276 0.016409 255 255 255
  1.7572  2.90624 0.139906 255 255 255
 1.43453  3.06429 0.139099 255 255 255
 1.58945   2.9755 0.139218 255 255 255
   1.577  3.05796 0.108908 255 255 255
  1.51324    3.2748 0.0277142 255 255 255
 1.67063   2.9892 0.117173 255 255 255
1.45356 3.02337 0.14234 255 255 255
 1.57125  3.01151 0.128496 255 255 255
  1.9103   2.7126 0.182453 255 255 255
 1.41482  3.05012 0.120402 255 255 255
 1.63726  2.91585 0.152797 255 255 255
 1.40173  3.14215 0.106222 255 255 255
  2.38545   3.40294 -0.265904 255 255 255
 1.58846  2.95567 0.144679 255 255 255
   1.36346    3.43357 -0.0062908 255 255 255
 1.63164  2.94085 0.138052 255 255 255
1.75292   2.935 0.12068 255 255 255
  1.72282   3.18316 -0.116926 255 255 255
  2.29565   3.73768 -0.340454 255 255 255
  2.41607   3.28812 -0.208487 255 255 255
 2.27497  2.40395 0.290204 255 255 255
   1.67497    3.14824 -0.0822037 255 255 255
 1.37744  3.16205 0.100562 255 255 255
  2.23945   3.55414 -0.309049 255 255 255
   2.1598   2.57003 0.0458552 255 255 255
 1.52801  2.99934 0.141746 255 255 255
  1.53482   3.24676 0.0423588 255 255 255
  1.64888   3.03158 0.0843536 255 255 255
   1.34167    3.46244 -0.0188983 255 255 255
  2.42367   3.32886 -0.233153 255 255 255
  1.7438   2.9575 0.108332 255 255 255
1.53377 2.92549 0.17408 255 255 255
 1.54938  2.97677 0.147809 255 255 255
 1.64292  2.87977 0.169627 255 255 255
 1.73019  2.88057 0.159476 255 255 255
 1.75977  2.92036 0.130359 255 255 255
 1.74004  2.89873 0.142459 255 255 255
 2.11914  2.64681 0.136838 255 255 255
  2.50181   3.27014 -0.221912 255 255 255
 2.50526  3.28088 -0.22772 255 255 255
  1.84277   3.78645 -0.291974 255 255 255
 1.71363  2.94934 0.121014 255 255 255
  2.83366   3.02584 -0.175918 255 255 255
 1.78557  2.76194 0.183208 255 255 255
 1.33493  3.15927 0.110088 255 255 255
1.47235 3.03991 0.13674 255 255 255
  2.44647   3.30333 -0.225755 255 255 255
  2.09753   3.63677 -0.310102 255 255 255
  2.43342   3.27273 -0.204521 255 255 255
  2.84434   3.01784 -0.160509 255 255 255
 1.72503  2.95758 0.117173 255 255 255
  1.5836  2.97885 0.138119 255 255 255
 1.76019  2.95663 0.107325 255 255 255
 1.69935  2.96838 0.118719 255 255 255
 1.71289  2.98152 0.110586 255 255 255
  1.6738  2.95835 0.127628 255 255 255
  2.11374    3.6197 -0.305747 255 255 255
 1.56403  3.00356 0.133706 255 255 255
 1.69533  2.87548 0.158952 255 255 255
  2.31539   3.50474 -0.302137 255 255 255
 1.71388  2.90532 0.142145 255 255 255
 1.52685  3.00712 0.138883 255 255 255
 1.66874  2.92038 0.145971 255 255 255
 1.52191  2.99674 0.144463 255 255 255
1.63204 3.04928 0.10182 255 255 255
  2.39588   3.39716 -0.265301 255 255 255
   1.64768    3.37107 -0.0468887 255 255 255
  1.44894   3.34256 0.0326396 255 255 255
 1.47253  2.83312 0.184782 255 255 255
 1.54134  2.78885 0.189296 255 255 255
  1.45418   3.14616 0.0956428 255 255 255
 1.55445  3.04621 0.116623 255 255 255
  1.76466   3.63779 -0.197552 255 255 255
 1.11382  3.07756 0.198423 255 255 255
 2.24786  3.40251 -0.16972 255 255 255
 1.12809  2.84869 0.273961 255 255 255
 1.03272   3.0644 0.213591 255 255 255
 1.06263  2.86083 0.267812 255 255 255
 1.02999  3.01294 0.232762 255 255 255
  1.5887  2.99169 0.136681 255 255 255
  1.21497   3.23601 0.0811282 255 255 255
 1.98147   2.4721 0.241943 255 255 255
  1.32218   3.45112 0.0151375 255 255 255
    1.34211     3.47236 -0.00456609 255 255 255
    1.48075      3.3506 0.000935369 255 255 255
0.863081  3.37838 0.151052 255 255 255
0.887557  3.38492 0.110021 255 255 255
 1.45621  3.00911 0.146688 255 255 255
  1.1814  3.09136 0.173568 255 255 255
  1.98104   3.49662 -0.234536 255 255 255
 1.12137  2.92422 0.259512 255 255 255
1.32302  2.9491 0.19492 255 255 255
  1.94086   3.43008 -0.197347 255 255 255
  1.40064   3.18604 0.0959328 255 255 255
 1.07359   3.0233 0.230782 255 255 255
 1.55137  3.65493 -0.13478 255 255 255
 0.95399  3.38777 0.104564 255 255 255
 1.13754  2.95646 0.240564 255 255 255
  1.22127   3.23476 0.0809792 255 255 255
  1.16334   3.25289 0.0816822 255 255 255
    1.3553    3.44545 -0.0143387 255 255 255
 1.83882  2.36633 0.246945 255 255 255
   1.2855   3.35414 0.0373527 255 255 255
 0.939554   3.40784 0.0671241 255 255 255
 1.53936  2.84657 0.194257 255 255 255
 1.06324  3.17382 0.142173 255 255 255
0.984521  3.43676  0.04992 255 255 255
 1.46014  2.61016 0.361868 255 255 255
  1.5846  2.82446 0.190206 255 255 255
   1.61044    3.41129 -0.0347534 255 255 255
    1.0667    3.35059 -0.0210954 255 255 255
   1.43356    3.49627 -0.0550444 255 255 255
0.914292  3.41128  0.12567 255 255 255
 1.56035  3.00956 0.128166 255 255 255
 1.13532  2.93754 0.254791 255 255 255
0.780579  2.94131 0.297418 255 255 255
  1.18648   3.31001 0.0582029 255 255 255
  1.53555   3.25272 0.0397165 255 255 255
  1.32679     3.372 0.0395121 255 255 255
   1.02889    3.31644 0.00346621 255 255 255
 1.47895  3.03395 0.138083 255 255 255
  1.46265   3.19448 0.0771986 255 255 255
 1.60642  3.02478 0.115255 255 255 255
 1.95423  2.32072 0.292132 255 255 255
 1.67879   2.8165 0.175996 255 255 255
 1.07242  3.09136 0.192408 255 255 255
   1.3951   3.35907 0.0262539 255 255 255
 1.36136  3.03606 0.162721 255 255 255
  1.6215  2.57654 0.214381 255 255 255
 1.25543  2.96047 0.216802 255 255 255
 1.33694  2.99677 0.182093 255 255 255
   1.47753     3.3802 0.00145846 255 255 255
 1.67771  2.81497 0.177406 255 255 255
 1.46397  3.12387 0.106335 255 255 255
 1.35106   2.9962 0.178401 255 255 255
  1.33938   3.39603 0.0263819 255 255 255
0.953804  2.93389 0.282006 255 255 255
   1.423  3.09384 0.118272 255 255 255
 1.33402  3.06748 0.141834 255 255 255
0.602459  3.09214 0.274258 255 255 255
0.848728  3.31317 0.157799 255 255 255
 1.39061  3.00408 0.164601 255 255 255
 1.26897  3.09957 0.141716 255 255 255
   1.1479   3.24917 0.0543102 255 255 255
  2.04527   3.40164 -0.198334 255 255 255
 1.48373  2.87565 0.194278 255 255 255
  1.75482   3.55743 -0.143821 255 255 255
0.968031  2.90953 0.295964 255 255 255
0.546869  3.08728 0.288262 255 255 255
 1.63488  2.81446 0.190131 255 255 255
 1.55745  2.99102 0.138555 255 255 255
 1.23536  3.16907 0.130889 255 255 255
1.19791 2.71976 0.37925 255 255 255
 1.08129  2.95395 0.253076 255 255 255
  1.79198   3.71111 -0.209562 255 255 255
0.646901  3.12285 0.250955 255 255 255
   1.3884   3.27504 0.0603844 255 255 255
0.911862  2.85392 0.332849 255 255 255
  1.70874    3.6955 -0.183145 255 255 255
   1.057  2.92527 0.273543 255 255 255
 1.53577  3.06007 0.119777 255 255 255
  1.4459  3.13781 0.103617 255 255 255
  1.29265   3.37778 0.0450896 255 255 255
1.30268 3.04988 0.17828 255 255 255
  2.11903   2.96762 -0.208534 255 255 255
0.926272  3.41077  0.12592 255 255 255
  1.01651   3.30116 0.0347099 255 255 255
  1.31395   3.38127 0.0428973 255 255 255
 1.49807  2.64535 0.339825 255 255 255
  1.99951   3.58731 -0.254669 255 255 255
 1.69664  2.57978 0.229053 255 255 255
0.953047  3.03125 0.239558 255 255 255
 1.19696  3.06738 0.186301 255 255 255
  1.22412   3.62433 -0.139638 255 255 255
 0.869177   3.35958 0.0997939 255 255 255
   1.48768    3.39095 -0.0190356 255 255 255
  1.81148   3.67618 -0.196881 255 255 255
0.623157  3.09693 0.271385 255 255 255
 1.83147  2.37334 0.243026 255 255 255
  1.52558   3.23534 0.0498676 255 255 255
 1.53157  2.52854 0.241964 255 255 255
  1.29556   3.27285 0.0751521 255 255 255
   1.02886    3.64683 -0.0273603 255 255 255
  1.7736  2.77547 0.280251 255 255 255
 1.30556  3.08712 0.150779 255 255 255
 1.46997  2.59182 0.354624 255 255 255
 1.57367  2.98777 0.134943 255 255 255
   1.3421   3.31637 0.0944131 255 255 255
 1.21789  3.06636 0.179238 255 255 255
0.980147   2.9593 0.275847 255 255 255
   1.4319   3.33826 0.0167807 255 255 255
 1.36869  3.14784 0.111879 255 255 255
 1.34621  2.99484 0.185871 255 255 255
 1.52909  3.01275 0.135515 255 255 255
 1.19756  3.08286 0.176838 255 255 255
 1.19994  3.08454 0.170963 255 255 255
0.918925  3.10633 0.233991 255 255 255
  1.39879   3.19013 0.0877993 255 255 255
  1.10807   3.25025 0.0327306 255 255 255
  1.6287   3.0698 0.103065 255 255 255
 1.30484  3.03845 0.169992 255 255 255
  2.02681   3.53708 -0.236348 255 255 255
1.34262 3.17575 0.10763 255 255 255
  1.28724   3.40439 0.0187707 255 255 255
   1.01383     3.6422 -0.0231662 255 255 255
  1.29744   3.29121 0.0723416 255 255 255
   1.4016   3.17751 0.0885674 255 255 255
 1.47343  2.88057 0.189138 255 255 255
 1.65348  2.98234 0.123732 255 255 255
 0.862408   3.27978 0.0536027 255 255 255
  1.62405   3.27194 0.0134862 255 255 255
  2.26299   3.36506 -0.152628 255 255 255
  1.11118    3.4514 0.0430588 255 255 255
 1.40315  2.99766 0.162594 255 255 255
  1.25486   3.24019 0.0998791 255 255 255
   1.64764    3.29003 0.00377504 255 255 255
1.35598 2.94489 0.19406 255 255 255
 1.29004  3.04351 0.174092 255 255 255
    1.36468     3.42496 -0.00503511 255 255 255
   1.58472    3.35004 -0.0119047 255 255 255
 1.29255  3.19254 0.107861 255 255 255
 1.20091  3.04072 0.187638 255 255 255
 1.54441  2.99645 0.135607 255 255 255
0.755819   2.9971 0.281757 255 255 255
  2.19107   2.60534 0.0420472 255 255 255
 1.44792  2.60596 0.367542 255 255 255
 1.63347  2.80053 0.190602 255 255 255
   1.1251   3.23318 0.0400292 255 255 255
 1.09317  3.10873 0.182467 255 255 255
   1.37706    3.46125 -0.0243454 255 255 255
 1.48233  2.65723 0.348686 255 255 255
 1.22849  2.63262 0.402382 255 255 255
 1.00041  2.97322 0.257925 255 255 255
   1.25715    3.38206 -0.0545061 255 255 255
    1.3801    3.45589 -0.0224704 255 255 255
  1.57079   3.30483 0.0134395 255 255 255
 1.07356  3.08296 0.193507 255 255 255
1.65797 2.81396 0.18061 255 255 255
 1.03759  2.88973 0.291863 255 255 255
  2.08838   2.99992 -0.219006 255 255 255
 1.23569  2.64918 0.395578 255 255 255
  2.09746   2.63393 0.0663286 255 255 255
   1.3361   3.19126 0.0979266 255 255 255
 1.36904  3.05305 0.153369 255 255 255
 1.18051  2.65808 0.399725 255 255 255
1.22269 2.76042 0.35579 255 255 255
0.957033  2.97583 0.259976 255 255 255
 1.14735  2.71879 0.378979 255 255 255
 1.68818  2.46957 0.217689 255 255 255
  1.15641   3.23766 0.0901926 255 255 255
  1.9347  2.24971 0.304361 255 255 255
 1.26449  2.96617 0.208391 255 255 255
0.579891  3.08945 0.280131 255 255 255
  1.30498   3.39927 0.0888507 255 255 255
  0.93974   3.43857 0.0757486 255 255 255
   1.1227   3.23719 0.0324069 255 255 255
0.895803  2.92114 0.293102 255 255 255
  1.18529   3.30035 0.0527785 255 255 255
     1.37561      3.40703 -0.000322291 255 255 255
 1.73278  2.75934 0.187034 255 255 255
 1.36637  3.04466 0.155193 255 255 255
 1.08719  3.01841 0.223197 255 255 255
  1.4866  2.58623 0.346758 255 255 255
 3.67676  3.65418 0.169719 255 255 255
   3.662  3.38052 0.162063 255 255 255
 3.76523   3.3714 0.239534 255 255 255
 3.95916  3.69978 0.398819 255 255 255
 3.74947  3.27108 0.171658 255 255 255
 3.53227  3.46363 0.166099 255 255 255
3.67679 3.56728 0.18978 255 255 255
3.56518 3.55578 0.12517 255 255 255
3.62001 3.48223 0.20095 255 255 255
 3.57202  3.72007 0.155003 255 255 255
    3.5  3.6999 0.11095 255 255 255
3.82541 3.30723 0.28366 255 255 255
 3.45537  3.55947 0.214031 255 255 255
 3.52685  3.60825 0.150948 255 255 255
 3.93552  3.85269 0.431612 255 255 255
 3.80386  3.75472 0.251914 255 255 255
  3.4588  3.78961 0.138187 255 255 255
 3.59178  2.88351 0.143078 255 255 255
 3.86408  3.51183 0.359054 255 255 255
3.87476 3.90804 0.41479 255 255 255
 3.85671  3.61697 0.282497 255 255 255
 3.95804  3.55409 0.418906 255 255 255
 3.59949  3.65032 0.184752 255 255 255
   3.12524    3.07012 -0.0428206 255 255 255
 3.99647  3.83239 0.445846 255 255 255
 3.40691  3.64468 0.108142 255 255 255
 3.73424   3.9221 0.322158 255 255 255
 3.64251   3.2919 0.129153 255 255 255
 3.72343  3.95174 0.326479 255 255 255
  3.45611    3.1072 0.0129085 255 255 255
  3.54862   3.28994 0.0324102 255 255 255
 3.51229   3.8659 0.190821 255 255 255
 3.89327  3.44418 0.277522 255 255 255
 3.80449  3.59675 0.280094 255 255 255
 4.01995  3.85724 0.434848 255 255 255
 3.89492  3.56156 0.334672 255 255 255
  3.24033    3.5799 0.0376115 255 255 255
  3.24006   3.57942 0.0387579 255 255 255
  3.49999   3.25688 0.0329207 255 255 255
 3.55072  3.81877 0.180966 255 255 255
  3.35544   3.81203 0.0804034 255 255 255
 3.60879  3.54563 0.149434 255 255 255
  3.53519   3.15995 0.0505822 255 255 255
3.85098 3.26811 0.25608 255 255 255
 3.68859  3.91884 0.287954 255 255 255
  3.32837   3.80458 0.0668603 255 255 255
 3.75356  3.96076 0.340951 255 255 255
  3.25385   3.55106 0.0546458 255 255 255
3.83118 3.23938 0.25554 255 255 255
 3.64173  3.89559 0.259554 255 255 255
3.38484 3.66489 0.07297 255 255 255
  3.39443   3.63096 0.0544682 255 255 255
 3.59443  2.84238 0.130272 255 255 255
 3.44352  3.86227 0.151764 255 255 255
   3.795  3.21981 0.200903 255 255 255
3.54758 3.97641 0.23579 255 255 255
 3.78891  3.45293 0.298803 255 255 255
 4.05219  3.88278 0.478331 255 255 255
 3.60233  3.90918 0.262759 255 255 255
 3.59279  3.62645 0.166375 255 255 255
 3.77882  3.61424 0.330299 255 255 255
 3.22598  3.78683 0.043875 255 255 255
  3.25384   3.81321 0.0498653 255 255 255
 3.81446  3.29117 0.271461 255 255 255
  3.35517   3.78984 0.0823329 255 255 255
  3.51724   3.23396 0.0375665 255 255 255
3.87219 3.87883 0.41289 255 255 255
 3.42227  3.68051 0.132209 255 255 255
   3.2975   3.87701 0.0848912 255 255 255
  3.29904   3.78698 0.0535739 255 255 255
 3.77099  3.91193 0.339066 255 255 255
 3.38251  3.84873 0.116011 255 255 255
  3.62237   2.70445 0.0701614 255 255 255
 3.72625  2.78799 0.233868 255 255 255
 3.64227  3.62231 0.206028 255 255 255
 3.83012  3.27717 0.266486 255 255 255
  3.6696   4.0251 0.313955 255 255 255
  3.29179   3.64731 0.0451881 255 255 255
 3.63299    4.024 0.297539 255 255 255
 3.71451  3.72281 0.215386 255 255 255
 3.97874  3.78795 0.422166 255 255 255
  3.30684   3.89629 0.0912134 255 255 255
 3.94806  3.77795 0.388605 255 255 255
 3.54413  3.85305 0.192263 255 255 255
 3.68168  3.76426 0.244372 255 255 255
 3.70257  3.32441 0.134858 255 255 255
 3.41344  3.81015 0.116791 255 255 255
 3.6868 3.83656 0.29586 255 255 255
 3.65969  3.95403 0.279395 255 255 255
 3.60794  3.88991 0.238619 255 255 255
  3.50422   3.13268 0.0642547 255 255 255
   3.28438    3.22004 -0.0260829 255 255 255
  3.26425   3.80035 0.0432622 255 255 255
 3.57189  3.61326 0.182455 255 255 255
  3.26359   3.66319 0.0461229 255 255 255
   3.16336    3.57167 0.00903965 255 255 255
  3.32735   3.75638 0.0509906 255 255 255
 3.60902  3.92635 0.249855 255 255 255
  3.46235   3.12405 0.0329489 255 255 255
 3.80215  3.89587 0.375296 255 255 255
 3.45256  3.73322 0.138854 255 255 255
   3.2447   3.72756 0.0294236 255 255 255
3.73379 3.97151 0.33498 255 255 255
 3.50367  3.58269 0.132638 255 255 255
 3.73338  2.63549 0.269738 255 255 255
3.52981 3.84945 0.19129 255 255 255
 3.32328  4.02923 0.121621 255 255 255
 3.34832  3.82708 0.074788 255 255 255
 3.65517  3.71957 0.250971 255 255 255
 3.79921   3.2262 0.233639 255 255 255
 3.52987  3.96634 0.248158 255 255 255
 3.53075  3.65661 0.151821 255 255 255
 3.77244  3.28603 0.226763 255 255 255
  3.41124   3.25215 0.0598516 255 255 255
 3.53606  3.78651 0.190084 255 255 255
 3.81849  3.46303 0.300387 255 255 255
  3.20096   3.63949 0.0458337 255 255 255
 3.46861   3.7089 0.156859 255 255 255
   3.2362   3.75968 0.0476464 255 255 255
 4.03174   3.6852 0.415641 255 255 255
  3.22686   3.63995 0.0225296 255 255 255
 3.43538  3.71162 0.141113 255 255 255
 3.62742  3.79088 0.265094 255 255 255
 3.93346  3.84355 0.433033 255 255 255
 3.34474  3.95029 0.132577 255 255 255
 3.81139  3.47636 0.318722 255 255 255
  3.56117   3.19222 0.0495055 255 255 255
  3.58685   3.20113 0.0634708 255 255 255
 3.93439  3.28561 0.288401 255 255 255
  3.7171  3.85014 0.321397 255 255 255
   3.4696    3.1478 0.0701571 255 255 255
  3.46625   3.21621 0.0786746 255 255 255
  3.38475     3.273 0.0559026 255 255 255
 3.83022  3.60424 0.290556 255 255 255
3.45861 3.77483 0.12911 255 255 255
 3.64448  3.91361 0.284794 255 255 255
 3.81607  3.93573 0.365174 255 255 255
3.72228 3.23659 0.15279 255 255 255
 3.84823  3.70046 0.292175 255 255 255
 3.53844  3.95201 0.244432 255 255 255
   3.489  3.77988 0.148664 255 255 255
  3.27437    3.7935 0.0477426 255 255 255
  3.57025   3.18536 0.0158622 255 255 255
 3.39742  3.97711 0.180231 255 255 255
 3.56303  3.98202 0.242611 255 255 255
3.62472 4.00569 0.28422 255 255 255
 3.50485  3.83121 0.166816 255 255 255
  3.54176   3.12537 0.0474719 255 255 255
 3.57237   2.8948 0.175361 255 255 255
 3.69866   3.1456 0.196389 255 255 255
 3.92687  3.88355 0.390195 255 255 255
  3.46514   3.14031 0.0509003 255 255 255
 3.73853  3.13139 0.139825 255 255 255
  3.29377   3.69143 0.0430799 255 255 255
 4.05064  3.69022 0.414369 255 255 255
 3.59177  3.78164 0.224034 255 255 255
 3.81283  3.20516 0.195439 255 255 255
 3.83037  3.36004 0.267404 255 255 255
 3.71772  3.99676 0.332039 255 255 255
 3.71073  3.15445 0.197251 255 255 255
 3.72946  3.19733 0.159344 255 255 255
    3.552   3.30988 0.0405948 255 255 255
 3.57688   4.0048 0.293944 255 255 255
  3.34964   3.58632 0.0720948 255 255 255
 3.79077  3.28456 0.271016 255 255 255
 3.50042  3.44774 0.150418 255 255 255
 3.96259  3.43332 0.355717 255 255 255
 3.40202  3.68621 0.089806 255 255 255
 3.63217  4.01613 0.284609 255 255 255
 3.63518  3.60392 0.219474 255 255 255
  3.22558   3.82444 0.0399702 255 255 255
 3.83407  3.94196 0.384983 255 255 255
 3.88117  3.53124 0.355711 255 255 255
 3.40789  3.37738 0.102175 255 255 255
  3.23088   3.57551 0.0377198 255 255 255
 3.89294  3.58304 0.345176 255 255 255
  3.27226   3.45002 0.0588401 255 255 255
 3.34489  3.88097 0.105555 255 255 255
 3.72012  3.95951 0.325074 255 255 255
 3.79187  3.58731 0.286316 255 255 255
 3.47836  3.44777 0.137378 255 255 255
 3.84223  3.72322 0.312567 255 255 255
 3.82464  3.96054 0.380275 255 255 255
  3.7818  3.19995 0.191188 255 255 255
 3.45613  3.82298 0.146418 255 255 255
   3.4225    3.6034 0.0972684 255 255 255
 3.52271  3.94706 0.216551 255 255 255
 4.08189  3.56513 0.480297 255 255 255
 4.08918  3.56302 0.496594 255 255 255
 3.76572   3.9625 0.343637 255 255 255
 3.79358  3.96634 0.365917 255 255 255
  3.28613     3.889 0.0797179 255 255 255
 3.61901  3.29518 0.159069 255 255 255
   3.31169    3.27299 0.00706235 255 255 255
 3.69726  3.88288 0.296249 255 255 255
  3.44981   3.11961 0.0227512 255 255 255
 3.73343  3.25848 0.175416 255 255 255
 3.77842  3.92739 0.349577 255 255 255
  3.23792   3.44036 0.0336861 255 255 255
3.69334 3.74166 0.24853 255 255 255
 3.80769  3.95115 0.368331 255 255 255
 3.97016  3.82738 0.426398 255 255 255
 3.34602  4.06231 0.156988 255 255 255
 3.46224  3.84095 0.156617 255 255 255
3.84814  3.9147 0.41075 255 255 255
3.56004  3.5612 0.20225 255 255 255
 3.2647 3.57177 0.03959 255 255 255
 3.44558  3.59849 0.124572 255 255 255
 3.60663  3.74424 0.227096 255 255 255
  3.29344   3.82053 0.0593206 255 255 255
  3.4982  3.84118 0.178306 255 255 255
 3.39377   4.0562 0.179629 255 255 255
 3.98282  3.80123 0.453235 255 255 255
 3.19584  3.74693 0.050525 255 255 255
  3.8175  3.98342 0.383078 255 255 255
 3.95843  3.28994 0.313384 255 255 255
  3.42204   3.43174 0.0952025 255 255 255
 3.59043   3.8455 0.203119 255 255 255
3.40053 3.79277 0.10009 255 255 255
 3.48234  3.57115 0.134644 255 255 255
 3.36292  3.90654 0.130541 255 255 255
  3.35846   3.81925 0.0882876 255 255 255
 3.40633  3.65813 0.114626 255 255 255
 3.99134  3.80782 0.425831 255 255 255
 3.53672  3.80991 0.181933 255 255 255
  3.43898   2.98392 0.0380052 255 255 255
 3.51899  3.73074 0.159959 255 255 255
 3.55672  3.86983 0.211144 255 255 255
 3.63513  3.95212 0.271349 255 255 255
   3.2188   3.42642 0.0235135 255 255 255
 3.78617  3.98795 0.362683 255 255 255
  3.35321   3.59362 0.0815604 255 255 255
  3.34366   3.28035 0.0328375 255 255 255
 3.45758  3.66617 0.147066 255 255 255
   3.4001   3.29459 0.0607883 255 255 255
 3.77911  3.96102 0.353434 255 255 255
 4.04503  3.70895 0.427313 255 255 255
  3.6513  2.97729 0.201671 255 255 255
 3.89189  3.83383 0.398412 255 255 255
3.37507 3.80363 0.10322 255 255 255
 3.39298  3.58989 0.095476 255 255 255
 3.39298  3.58989 0.095476 255 255 255
 3.50338  2.88279 0.131606 255 255 255
 3.76302  3.18137 0.175728 255 255 255
 3.65839  3.76908 0.254521 255 255 255
 3.79991  3.98077 0.375286 255 255 255
3.55856 3.59166  0.1711 255 255 255
3.48028 3.84682 0.17056 255 255 255
  3.40656   3.42196 0.0785263 255 255 255
3.46247 3.92971 0.19587 255 255 255
  3.26289   3.67195 0.0449295 255 255 255
 3.83025  3.21409 0.226787 255 255 255
 3.67804  3.92395 0.290175 255 255 255
3.74672 3.29649 0.18501 255 255 255
 3.58999  3.73632 0.207179 255 255 255
  3.22158   3.49607 0.0398562 255 255 255
   3.3047   3.80289 0.0619652 255 255 255
 3.77497   3.9837 0.356201 255 255 255
 3.65804  2.93687 0.205182 255 255 255
 3.81152  3.92625 0.370287 255 255 255
 3.34715  4.01917 0.139117 255 255 255
 3.66608  3.81115 0.281993 255 255 255
   3.761  4.00406 0.365245 255 255 255
 3.68155  3.85162 0.290873 255 255 255
 3.84523  3.28251 0.269353 255 255 255
  3.19945   3.76437 0.0485769 255 255 255
 3.89955  3.74987 0.363947 255 255 255
  3.6784   3.9534 0.295707 255 255 255
  3.4676  3.61076 0.121835 255 255 255
  3.39715   3.27236 0.0565965 255 255 255
 3.31718  3.97688 0.100937 255 255 255
  3.48978   3.14031 0.0601201 255 255 255
 3.71874  3.76998 0.276827 255 255 255
   3.3117    3.8738 0.0871422 255 255 255
  3.20523    3.7602 0.0483916 255 255 255
  3.1834  3.62996 0.047643 255 255 255
 3.72743  3.45829 0.272971 255 255 255
 3.59311  4.00205 0.302681 255 255 255
 3.74703  3.14054 0.159914 255 255 255
 3.71768  3.97046 0.324503 255 255 255
 3.41679  3.71185 0.133523 255 255 255
  3.66059   3.35936 0.0975265 255 255 255
 3.73276  2.73527 0.223119 255 255 255
 3.60864  4.03428 0.284972 255 255 255
  3.49502   3.11765 0.0669625 255 255 255
 3.44959  3.65183 0.123764 255 255 255
  3.25931   3.26287 -0.306662 255 255 255
  3.25655   3.79871 0.0497349 255 255 255
 3.65094  3.81178 0.271115 255 255 255
 3.88249  3.49873 0.352878 255 255 255
 3.68688  3.96497 0.304377 255 255 255
3.61709 3.45811 0.20377 255 255 255
  3.42829   3.58728 0.0974682 255 255 255
 3.42707  3.64029 0.112248 255 255 255
  3.8145  3.95875 0.380645 255 255 255
3.66129 3.98955 0.29766 255 255 255
 3.50601  3.84251 0.180145 255 255 255
 3.41748  3.65722 0.105969 255 255 255
 3.81393  3.61532 0.337681 255 255 255
 3.50888   3.7148 0.148866 255 255 255
  3.31366   3.97013 0.0961235 255 255 255
  3.8075  3.18199 0.181124 255 255 255
  3.7585   3.1614 0.181212 255 255 255
 3.56001  3.96001 0.235064 255 255 255
 3.55158  3.83171 0.192585 255 255 255
 3.73404  3.93481 0.324495 255 255 255
 3.51735  3.71949 0.153906 255 255 255
  3.24464   3.84524 0.0505959 255 255 255
  3.28151   3.78703 0.0479478 255 255 255
 3.71581   3.9864 0.329229 255 255 255
 3.72823  3.94176 0.321274 255 255 255
 3.53857  3.58315 0.152299 255 255 255
 3.76027  3.97888 0.354269 255 255 255
 3.80271  3.88293 0.380704 255 255 255
  3.24679   3.71777 0.0274886 255 255 255
  3.23079    3.7798 0.0459614 255 255 255
  3.8249  3.31175 0.262695 255 255 255
 3.77345   3.1383 0.162467 255 255 255
   3.06199    3.45354 -0.0549039 255 255 255
3.56648 3.69481 0.17515 255 255 255
  3.44385   3.14045 0.0314488 255 255 255
 3.89002  3.96083 0.417451 255 255 255
 3.52068  3.67504 0.152628 255 255 255
 3.60883  3.34264 0.174147 255 255 255
 3.69495  3.89718 0.296324 255 255 255
 3.75699  3.93054 0.339847 255 255 255
 3.51787  3.88444 0.204251 255 255 255
  3.38242   3.61909 0.0994054 255 255 255
   3.871  3.96603 0.408152 255 255 255
 3.69086  3.86962 0.290419 255 255 255
 3.4478 3.67469 0.13561 255 255 255
  3.28505   3.76555 0.0393863 255 255 255
 3.60025  2.89285 0.104424 255 255 255
 3.84221  3.93382 0.393974 255 255 255
  3.9219  3.76468 0.389933 255 255 255
 3.95403  3.90876 0.458089 255 255 255
 3.39954  3.89821 0.152969 255 255 255
 3.72213  2.73856 0.210356 255 255 255
   3.53497    3.27836 0.00480633 255 255 255
3.87559 3.70443 0.31266 255 255 255
  3.26571    3.8784 0.0693299 255 255 255
 3.58582  3.76951 0.220683 255 255 255
 3.63992  3.98439 0.283731 255 255 255
 3.45807  3.57239 0.118481 255 255 255
 3.76724   3.4486 0.292722 255 255 255
 3.43728  3.79608 0.127711 255 255 255
 3.33113  3.96012 0.110519 255 255 255
  3.22947    3.8135 0.0459766 255 255 255
  3.5838  3.68905 0.191453 255 255 255
 3.94348  3.75174 0.348897 255 255 255
 3.93332  3.89818 0.433362 255 255 255
 3.88155  3.97114 0.417432 255 255 255
 3.47737  3.77102 0.151059 255 255 255
 3.72734  3.16068 0.168876 255 255 255
  3.26616   3.88814 0.0726925 255 255 255
 3.87123  3.72172 0.305804 255 255 255
 3.38505  4.05401 0.169952 255 255 255
 3.59954  4.03418 0.281208 255 255 255
3.90232 3.93551 0.44429 255 255 255
 3.43831  3.69037 0.136453 255 255 255
 3.84953  3.50563 0.332909 255 255 255
  3.17658   3.70351 0.0172318 255 255 255
 3.84926  3.88571 0.400306 255 255 255
  3.45194   3.14293 0.0367207 255 255 255
 3.95645  3.84634 0.436212 255 255 255
 3.88081  3.83323 0.394236 255 255 255
 3.62267  3.28788 0.155514 255 255 255
 3.57282  2.86145 0.063327 255 255 255
  3.47524   3.09348 0.0118234 255 255 255
 3.49083  3.80027 0.159127 255 255 255
 3.92186  3.52462 0.392605 255 255 255
 3.82257  3.94447 0.376411 255 255 255
 3.88026   3.7095 0.306204 255 255 255
 3.44467  3.63531 0.089109 255 255 255
 3.83995  3.95334 0.390225 255 255 255
  3.31456   3.76442 0.0432806 255 255 255
  3.23039   3.79168 0.0405578 255 255 255
  3.36578   3.81548 0.0949275 255 255 255
  3.51923   3.46189 -0.360779 255 255 255
 3.56253  3.67318 0.191679 255 255 255
 3.69049  3.33588 0.125338 255 255 255
 3.35201  3.89921 0.111136 255 255 255
 3.65523   3.3067 0.087746 255 255 255
 3.74637  3.85715 0.340527 255 255 255
   3.37778    3.08569 -0.0489183 255 255 255
 3.96578   3.8349 0.434284 255 255 255
 3.67734  3.31716 0.109746 255 255 255
  3.20375   3.74897 0.0495747 255 255 255
  3.27423   3.91206 0.0750555 255 255 255
 3.81929  3.38158 0.236622 255 255 255
 3.63352  3.05803 0.208621 255 255 255
  3.39929    3.4097 0.0731128 255 255 255
 3.48394  3.87022 0.182849 255 255 255
     3.16505      3.69882 -0.000889301 255 255 255
 3.52924   3.7987 0.170098 255 255 255
 3.38635  4.03408 0.169005 255 255 255
 3.54577   3.9748 0.229538 255 255 255
  3.22842   3.67614 0.0380868 255 255 255
 3.43103  3.79952 0.128395 255 255 255
 3.34794  3.86835 0.101728 255 255 255
 3.48505  3.59178 0.134524 255 255 255
 3.86617  3.25392 0.253677 255 255 255
 3.65957  2.93719 0.187826 255 255 255
 3.58156  3.96133 0.273833 255 255 255
 3.36075  3.88795 0.112491 255 255 255
3.55126 3.85206 0.19576 255 255 255
  3.43054    3.2235 0.0387589 255 255 255
   3.3883    3.2733 0.0320914 255 255 255
  3.7948  3.93416 0.357593 255 255 255
  3.41009   3.28997 0.0460897 255 255 255
 3.44969  3.66398 0.132331 255 255 255
     3.13389      3.46682 -0.000322976 255 255 255
3.81319 3.47415 0.31218 255 255 255
 3.66186  2.69894 0.228161 255 255 255
 3.68032   3.8675 0.285832 255 255 255
   3.2631   3.58424 0.0393462 255 255 255
 3.44363  3.54697 0.129564 255 255 255
 3.42069  3.62531 0.101484 255 255 255
 3.41883  3.67009 0.116308 255 255 255
 3.45843  3.45064 0.115119 255 255 255
 3.77955  3.43476 0.296883 255 255 255
 3.80324  3.45365 0.307709 255 255 255
 3.67187  3.15586 0.120541 255 255 255
   3.13727    3.47795 0.00235726 255 255 255
  3.5501  4.05916 0.261493 255 255 255
  3.33075   3.76488 0.0513676 255 255 255
  3.37181   3.68943 0.0798586 255 255 255
  3.40002   3.26052 0.0463018 255 255 255
 3.69629  3.93214 0.298554 255 255 255
  3.17959   3.62382 0.0465272 255 255 255
 3.92709  3.53111 0.396985 255 255 255
 3.90304   3.9727 0.432715 255 255 255
 3.9705 3.84997 0.43245 255 255 255
  3.40654   3.28754 0.0631578 255 255 255
 3.54702  3.80417 0.188503 255 255 255
 3.48272  3.83589 0.164408 255 255 255
 3.71842  3.91642 0.310111 255 255 255
3.85482 3.79153 0.36607 255 255 255
 3.72477  2.61249 0.267092 255 255 255
 3.67316  2.93645 0.186578 255 255 255
 3.78832  3.19007 0.194209 255 255 255
 3.45014  3.76956 0.125462 255 255 255
  3.22297   3.76171 0.0449265 255 255 255
 3.93519  3.19545 0.365058 255 255 255
  3.40441   3.27064 0.0460512 255 255 255
  4.1012  3.56934 0.510399 255 255 255
  3.25347   3.76925 0.0538025 255 255 255
  3.66675   3.31058 0.0939963 255 255 255
  3.19936   3.73903 0.0503392 255 255 255
  3.53266   2.85632 0.0433892 255 255 255
  3.31898   3.77826 0.0547459 255 255 255
 3.71223  3.97971 0.327667 255 255 255
 3.58761  3.74982 0.223172 255 255 255
 3.57516    3.691 0.199554 255 255 255
 3.68598  3.90329 0.288856 255 255 255
 3.77337  3.91935 0.343679 255 255 255
  3.5947  3.81026 0.227775 255 255 255
 3.81063  3.97569 0.379372 255 255 255
  3.67614   3.31956 0.0902659 255 255 255
 3.73371  3.96586 0.328551 255 255 255
 3.79341  3.91085 0.359226 255 255 255
  3.3297  4.02898 0.127747 255 255 255
  3.34052   3.27821 0.0298506 255 255 255
4.02209 3.84539  0.4581 255 255 255
 4.07236  3.54573 0.482677 255 255 255
 3.53793  3.93307 0.218307 255 255 255
   4.009  3.66514 0.398966 255 255 255
  3.40835   3.31346 0.0688605 255 255 255
 3.58939  3.96276 0.253094 255 255 255
 3.71985  2.94375 0.148266 255 255 255
 3.52985  3.78753 0.175922 255 255 255
 3.55687   3.9409 0.226677 255 255 255
  3.9171  3.90525 0.435016 255 255 255
 3.45119  3.61626 0.115912 255 255 255
 3.59151  3.99264 0.294059 255 255 255
  3.41098   3.35975 0.0657887 255 255 255
 3.54263  3.55275 0.187459 255 255 255
 3.78604  3.94086 0.355327 255 255 255
 3.7941 3.48626 0.31618 255 255 255
  3.55773   2.71631 0.0332443 255 255 255
 3.64479  4.02185 0.297481 255 255 255
  3.58446   2.86867 0.0666225 255 255 255
 3.89435  3.74034 0.323685 255 255 255
 3.45462  3.62056 0.120742 255 255 255
3.60086 3.78435 0.23698 255 255 255
 3.70383  2.93449 0.152927 255 255 255
 3.75946  3.90573 0.335556 255 255 255
 3.73565  3.30053 0.181442 255 255 255
 3.68481  3.89636 0.286872 255 255 255
 3.57506  3.77721 0.218258 255 255 255
 3.85032  3.86889 0.395416 255 255 255
 3.43943  3.78507 0.123711 255 255 255
 3.92839  3.91125 0.434874 255 255 255
 3.51784  3.80321 0.175174 255 255 255
 3.7215 3.85034  0.3194 255 255 255
 3.61323  3.96645 0.263861 255 255 255
  3.25935   3.73588 0.0547319 255 255 255
 3.45812  3.75836 0.141229 255 255 255
 3.70049  3.55065 0.199444 255 255 255
 3.57015  3.45653 0.184771 255 255 255
  3.24504   3.77313 0.0508881 255 255 255
  3.21686   3.78271 0.0408277 255 255 255
 3.33947  4.02856 0.131549 255 255 255
  3.39903   3.59725 0.0868053 255 255 255
 3.46586   3.6422 0.139945 255 255 255
 3.45697  3.80295 0.141631 255 255 255
  3.4828   3.8162 0.159916 255 255 255
 3.91938  3.91108 0.431359 255 255 255
 3.68785  3.85684 0.289229 255 255 255
  3.41057   3.32013 0.0751337 255 255 255
 3.57811  3.69056 0.166752 255 255 255
  3.22074    3.7792 0.0428656 255 255 255
 3.82948  3.30013 0.262269 255 255 255
 3.52499  3.92545 0.209127 255 255 255
 3.57665  3.45686 0.184617 255 255 255
 3.73904  3.92196 0.322904 255 255 255
3.27374 3.68735 0.02973 255 255 255
 3.90714  3.38878 0.280345 255 255 255
  3.25753   3.86456 0.0583599 255 255 255
 3.86133  3.62228 0.291164 255 255 255
 3.6729 3.98787 0.30498 255 255 255
 3.93743   3.7748 0.359459 255 255 255
  3.4705  3.18651 0.081727 255 255 255
 3.92193  3.51782 0.384355 255 255 255
  3.39766   3.26069 0.0577505 255 255 255
 3.83717  3.49957 0.334238 255 255 255
  3.5154  3.73733 0.161511 255 255 255
  3.24769   3.76259 0.0509016 255 255 255
  3.30812    3.8802 0.0843699 255 255 255
  3.37566   3.57186 0.0558652 255 255 255
  3.26523   3.91582 0.0767163 255 255 255
 3.53502  2.87405 0.139018 255 255 255
 3.59881  4.05038 0.285933 255 255 255
 3.57784  4.02799 0.265011 255 255 255
  3.33458   3.27959 0.0321229 255 255 255
 3.71682  2.78416 0.210334 255 255 255
  3.24502   3.79201 0.0518951 255 255 255
 3.84872  3.79056 0.369887 255 255 255
  3.33882   3.27702 0.0174408 255 255 255
 3.64813  3.46026 0.222824 255 255 255
 3.46181   3.7284 0.143359 255 255 255
  3.18427    3.5678 0.0247325 255 255 255
   3.58349    3.22704 0.00887538 255 255 255
 3.47723   3.7689 0.142907 255 255 255
  3.20816   3.52843 0.0128765 255 255 255
 3.84826   3.9201 0.398991 255 255 255
 3.50692  3.78863 0.159258 255 255 255
  3.3388  4.02843 0.135427 255 255 255
   3.6484   3.37556 0.0935662 255 255 255
  3.33803    3.8588 0.0964849 255 255 255
 3.43607  3.73249 0.142223 255 255 255
  3.22805   3.46793 0.0432933 255 255 255
 3.89161  3.82592 0.404205 255 255 255
 3.38087  3.62592 0.101863 255 255 255
 3.84518  3.78455 0.342991 255 255 255
 3.50694  3.85008 0.178921 255 255 255
  3.4665  3.82088 0.152155 255 255 255
 3.77949  3.94786 0.355415 255 255 255
  3.56286   3.19618 0.0551531 255 255 255
  3.30072    3.7021 0.0517157 255 255 255
 3.82662  3.42488 0.309071 255 255 255
 3.51095  4.06624 0.251647 255 255 255
 3.45486  3.75728 0.130547 255 255 255
 3.97832  3.43885 0.357194 255 255 255
  3.23222   3.48567 0.0465368 255 255 255
 3.65848  3.73593 0.257295 255 255 255
 3.73629  3.24752 0.160084 255 255 255
 3.54938  3.92007 0.219848 255 255 255
  3.25123   3.64744 0.0341472 255 255 255
 3.87691   3.8167 0.394938 255 255 255
  3.5842  3.79531 0.223516 255 255 255
  3.3129  3.98069 0.100348 255 255 255
 3.62386  3.82469 0.250462 255 255 255
  3.29756   3.75828 0.0515706 255 255 255
 3.84699   3.8775 0.396475 255 255 255
 3.54881   3.6704 0.190187 255 255 255
  3.61482   2.69716 0.0498603 255 255 255
 3.83346  3.93732 0.387758 255 255 255
 3.57556  3.85722 0.212271 255 255 255
3.84118  3.5031 0.33177 255 255 255
 3.84607   3.4982 0.346608 255 255 255
 3.21628  3.77207 0.043496 255 255 255
 3.42942  3.59889 0.105147 255 255 255
  3.23213   3.73276 0.0322048 255 255 255
  3.49728   3.10022 0.0584601 255 255 255
 3.64209  3.00917 0.145888 255 255 255
 3.49327  3.86222 0.180155 255 255 255
 3.89277  3.52133 0.374576 255 255 255
3.83824  3.9601 0.38949 255 255 255
   3.2831   3.70667 0.0617374 255 255 255
3.45575 3.62614  0.1262 255 255 255
 3.70096  4.00105 0.326212 255 255 255
  3.26879   3.79047 0.0493135 255 255 255
  3.24323   3.73286 0.0435215 255 255 255
 3.36006  3.84251 0.102162 255 255 255
 4.10085  3.56282 0.478085 255 255 255
  3.56003   3.19105 0.0430911 255 255 255
  3.59106   2.75484 0.0681993 255 255 255
 3.59838  3.88345 0.234773 255 255 255
 3.77492  3.12386 0.166717 255 255 255
  3.28232   3.94655 0.0744827 255 255 255
 3.39184  3.98754 0.151473 255 255 255
 3.42251  3.97824 0.178773 255 255 255
  3.24166   3.75074 0.0469822 255 255 255
 3.28734  3.87709 0.073551 255 255 255
3.86967  3.8344 0.39941 255 255 255
 4.03048  3.67468 0.399592 255 255 255
 3.73523  3.14461 0.147948 255 255 255
 3.79848  3.75266 0.309249 255 255 255
  3.21891   3.82434 0.0392616 255 255 255
 3.75928  3.87442 0.339275 255 255 255
  3.4795  3.88558 0.180995 255 255 255
 3.71185  2.92833 0.146854 255 255 255
 3.47409   3.6345 0.142329 255 255 255
 3.92387  3.63954 0.425389 255 255 255
 3.7653 3.92241 0.34049 255 255 255
 3.64116  3.71771 0.237777 255 255 255
3.42641 3.62047 0.10462 255 255 255
 3.44846  3.95577 0.175381 255 255 255
   3.17306    3.69114 0.00684934 255 255 255
 3.44898  3.73857 0.144354 255 255 255
 3.33103  3.85478 0.093488 255 255 255
    3.223   3.74199 0.0405247 255 255 255
