ply
format ascii 1.0
element vertex 1191
property float x
property float y
property float z
property uchar red
property uchar green
property uchar blue
end_header
0.451091 -1.78596  1.45846 255 255 255
-0.0698274   -1.80971    1.17095 255 255 255
0.139616  -2.1046  1.44803 255 255 255
0.0724681   -1.3457   1.07185 255 255 255
-0.560846   -1.3468  0.887383 255 255 255
0.146953 -1.64903  1.20392 255 255 255
-0.724425  -1.89651   1.00141 255 255 255
-0.104599  -1.50674   1.09191 255 255 255
-0.269078  -1.77711   1.11204 255 255 255
-0.0910557   -1.50463    1.09827 255 255 255
-0.436613   -1.8317   1.07241 255 255 255
0.340615  -1.3511  1.18254 255 255 255
 -0.6732  -1.2067 0.857163 255 255 255
-0.270532  -1.33503  0.977362 255 255 255
0.179206 -1.87935  1.34483 255 255 255
0.041486 -2.01699  1.34247 255 255 255
-0.670059  -1.71874  0.967147 255 255 255
-0.543248  -1.32136  0.898568 255 255 255
0.00700877   -1.76045    1.19208 255 255 255
0.00499376   -1.73806    1.18536 255 255 255
0.246517 -1.97455  1.43332 255 255 255
-0.482464  -1.42952  0.946797 255 255 255
-0.757067  -1.88292  0.977289 255 255 255
-0.263691  -1.10984  0.904994 255 255 255
-0.500688  -1.91207   1.06994 255 255 255
0.247476 -1.28845  1.10438 255 255 255
0.464899 -1.49992  1.32377 255 255 255
0.220924 -1.56935  1.23087 255 255 255
-0.539799   -1.2379   0.87035 255 255 255
-0.778521  -1.59772  0.913687 255 255 255
0.214984 -2.04255  1.44936 255 255 255
0.0729949  -1.70404    1.1856 255 255 255
-0.184925  -1.36707   1.01549 255 255 255
-0.758541  -1.84969  0.961892 255 255 255
0.0367089  -1.61353   1.15813 255 255 255
0.384592 -1.49086  1.26081 255 255 255
-0.594203   -1.2116  0.852043 255 255 255
-0.575386  -1.46833  0.928239 255 255 255
-0.0542896   -2.18255    1.37477 255 255 255
-0.0310004   -1.65319    1.14746 255 255 255
-0.0974561   -1.84832     1.1684 255 255 255
 0.34127 -1.38553  1.19856 255 255 255
-0.240951  -1.70478   1.10317 255 255 255
-0.698723  -1.75443  0.964672 255 255 255
0.206134 -1.88916  1.36792 255 255 255
-0.638545  -1.28498  0.846764 255 255 255
0.177948 -1.77413  1.30347 255 255 255
0.522098 -1.82564   1.4775 255 255 255
0.477756  -1.9315  1.51781 255 255 255
-0.113518  -1.94334   1.12332 255 255 255
0.549738  -1.8925   1.5509 255 255 255
0.0466765  -1.14415   1.02047 255 255 255
-0.153684   -1.8783   1.06012 255 255 255
0.657648 -2.27361  1.81694 255 255 255
-0.164546  -1.32448   1.01027 255 255 255
-0.623763  -1.33145  0.874647 255 255 255
0.346424 -1.72505  1.35191 255 255 255
0.484892 -1.60901  1.38437 255 255 255
-0.674481  -1.40567  0.870951 255 255 255
0.135013 -1.16799 0.993275 255 255 255
-0.655652  -1.87016   1.01976 255 255 255
0.227044 -1.55735  1.22478 255 255 255
0.559125 -2.04136  1.64113 255 255 255
-0.652346  -1.25582  0.850999 255 255 255
0.402584 -1.95833  1.49115 255 255 255
0.0910113  -1.54885    1.1523 255 255 255
-0.302432  -1.36904   0.97793 255 255 255
-0.0338337   -1.88106    1.21354 255 255 255
0.296911 -1.47489  1.21526 255 255 255
0.282803 -1.96567  1.43452 255 255 255
0.134897 -2.05081  1.40408 255 255 255
-0.531268  -1.66421  0.999698 255 255 255
-0.632237  -1.59016  0.951128 255 255 255
0.013077 -1.40628    1.067 255 255 255
0.277312 -1.41807  1.18585 255 255 255
0.531928 -1.41072  1.29061 255 255 255
-0.528387  -1.65173  0.997849 255 255 255
-0.408398  -1.41327  0.965406 255 255 255
-0.516699  -1.30813  0.904442 255 255 255
0.529773 -1.42286    1.289 255 255 255
0.505842 -2.02957  1.60738 255 255 255
0.716523 -1.97567  1.68158 255 255 255
0.405458 -1.94267  1.50383 255 255 255
-0.122374  -1.50721   1.08598 255 255 255
-0.495278   -1.4319  0.944087 255 255 255
0.00585826    -1.4179    1.06548 255 255 255
-0.497191  -1.41019  0.937219 255 255 255
-0.0922801   -1.39667    1.02037 255 255 255
-0.546845   -1.4591   0.93414 255 255 255
0.638221 -1.89446  1.60909 255 255 255
0.0116691  -1.62474   1.15518 255 255 255
-0.553568   -1.6489  0.990835 255 255 255
0.347448 -2.06586  1.52776 255 255 255
-0.473129  -1.54728  0.972491 255 255 255
0.227458 -1.85019  1.35848 255 255 255
-0.515231  -1.67831     1.009 255 255 255
-0.459093  -2.01118   1.10371 255 255 255
-0.048308  -2.04249   1.30548 255 255 255
-0.121588  -1.37636   1.01855 255 255 255
-0.628484  -1.40585  0.885014 255 255 255
-0.207841  -1.78657    1.1246 255 255 255
-0.718354  -2.00966    1.0367 255 255 255
0.133224 -1.94619  1.35641 255 255 255
-0.65443  -1.7624  0.98328 255 255 255
0.580353 -1.57388  1.41647 255 255 255
0.311878 -1.45597  1.21407 255 255 255
-0.499871  -1.29197  0.908049 255 255 255
-0.62823 -1.27745 0.843546 255 255 255
-0.607773  -1.24861   0.85374 255 255 255
0.394012 -1.67386  1.37128 255 255 255
0.104117 -1.37483   1.0875 255 255 255
-0.604332  -1.55472  0.944417 255 255 255
0.534886 -1.67895  1.44288 255 255 255
-0.217155  -1.23596  0.937158 255 255 255
-0.467768  -1.55255  0.979572 255 255 255
-0.467869  -1.35344  0.928855 255 255 255
-0.617991  -1.36763  0.869906 255 255 255
-0.55497 -1.81321  1.03436 255 255 255
-0.643294  -1.28868  0.842972 255 255 255
-0.279861  -1.57183   1.05145 255 255 255
-0.587296  -1.61299  0.969036 255 255 255
-0.0508873   -1.50808    1.10675 255 255 255
-0.387386  -1.58654   1.02258 255 255 255
-0.207825  -1.69121   1.10167 255 255 255
-0.171802  -1.61532   1.09799 255 255 255
-0.604452  -1.59739  0.958979 255 255 255
-0.64467 -1.58775 0.947478 255 255 255
0.0323612  -1.79349   1.21323 255 255 255
0.476236 -1.57654  1.37572 255 255 255
-0.126878  -1.55304   1.09406 255 255 255
-0.700499  -1.87996   1.00193 255 255 255
0.519938 -2.06366  1.63541 255 255 255
-0.635336  -1.42338   0.88728 255 255 255
-0.589169  -1.28629  0.860871 255 255 255
0.321945 -1.97414  1.46678 255 255 255
-0.638956  -1.23883  0.853526 255 255 255
-0.584962  -1.42143  0.903756 255 255 255
-0.759897  -1.53981  0.904858 255 255 255
0.010469 -1.58169  1.14259 255 255 255
 -0.1748 -1.39696  1.01886 255 255 255
0.634808 -2.05463  1.67952 255 255 255
-0.476195  -1.97334   1.09119 255 255 255
  0.5023 -1.33157  1.24332 255 255 255
-0.0092901   -1.77552    1.18932 255 255 255
0.323341 -2.17948  1.58025 255 255 255
-0.0817978   -1.72678     1.1435 255 255 255
0.528556 -1.80032  1.46387 255 255 255
0.186314 -1.48345  1.17147 255 255 255
0.446511 -1.80847  1.46112 255 255 255
-0.659658   -1.2992  0.843208 255 255 255
-0.329016  -1.92094   1.12132 255 255 255
-0.0744824   -1.70465    1.13901 255 255 255
-0.558877   -1.4278  0.920561 255 255 255
-0.680611  -1.97146   1.03744 255 255 255
-0.776536  -1.77516  0.940794 255 255 255
-0.316442  -2.00223   1.07246 255 255 255
-0.569803   -1.2091  0.857924 255 255 255
-0.00138338    -1.60307     1.14249 255 255 255
0.229749 -1.43519  1.18037 255 255 255
-0.597471  -1.23361  0.855009 255 255 255
-0.312505  -1.09008  0.886697 255 255 255
0.407432 -1.30597  1.20007 255 255 255
-0.291505  -1.89968   1.12184 255 255 255
-0.561006  -1.36391  0.893035 255 255 255
-0.317925  -1.44144   1.00285 255 255 255
-0.0530095   -1.67116    1.14575 255 255 255
0.479517 -1.34288  1.23982 255 255 255
0.570633 -1.39849  1.30231 255 255 255
0.186999 -1.81278  1.33609 255 255 255
0.573412 -1.53515  1.39158 255 255 255
-0.66672 -1.38838 0.871306 255 255 255
0.120448 -1.31402  1.09393 255 255 255
-0.146996  -1.69126   1.12602 255 255 255
-0.666618  -2.03711   1.06168 255 255 255
-0.325107  -1.45268   1.00058 255 255 255
0.0499166  -1.62913   1.16439 255 255 255
0.243665 -2.18068  1.52822 255 255 255
0.273487 -1.45099  1.19503 255 255 255
0.287913 -1.85518   1.3848 255 255 255
0.0890046  -2.24424   1.49421 255 255 255
-0.682555  -1.25974  0.859371 255 255 255
0.422655  -1.4926  1.28893 255 255 255
-0.0504644    -1.6624    1.14722 255 255 255
-0.743741  -1.61616  0.919944 255 255 255
-0.4114 -1.6467 1.03014 255 255 255
-0.677337  -1.32361  0.846967 255 255 255
-0.134625  -1.55669   1.09092 255 255 255
0.462231 -1.92646  1.51787 255 255 255
0.444699 -1.51804  1.31978 255 255 255
   0.264 -1.19063   1.0897 255 255 255
-0.657928  -1.24533  0.857564 255 255 255
-0.579145  -1.22994  0.859328 255 255 255
-0.301978  -1.18198  0.905177 255 255 255
-0.757567  -1.78351  0.954738 255 255 255
-0.348384  -1.55113    1.0259 255 255 255
0.347711 -1.34914  1.18309 255 255 255
-0.436431  -1.52487  0.990797 255 255 255
   0.369 -1.33388  1.19234 255 255 255
-0.638439  -1.48043  0.915916 255 255 255
-0.153436  -1.64118   1.10572 255 255 255
0.620925 -2.02664  1.65923 255 255 255
-0.0656768   -1.39802    1.03905 255 255 255
-0.375067  -1.89853   1.10405 255 255 255
0.279362 -1.56956  1.26171 255 255 255
-0.685408  -1.27262  0.849743 255 255 255
0.550223 -2.16506  1.71163 255 255 255
-0.669549  -1.98266   1.04636 255 255 255
-0.383586   -1.8274     1.083 255 255 255
0.252863 -1.56971  1.24861 255 255 255
0.0736062   -1.2131  0.971921 255 255 255
0.569938 -1.37252  1.30014 255 255 255
-0.184933  -1.43116   1.01337 255 255 255
-0.530347  -1.54086  0.961831 255 255 255
-0.260982  -1.81382    1.1211 255 255 255
0.0217048  -1.32254   1.07363 255 255 255
0.105095 -1.34809  1.08293 255 255 255
0.466428  -2.1113  1.63546 255 255 255
0.385194 -1.96956  1.48258 255 255 255
0.730807 -2.02793   1.7183 255 255 255
-0.618257   -2.0437   1.08001 255 255 255
-0.665206  -1.61348  0.942819 255 255 255
0.319325 -1.44465  1.21159 255 255 255
-0.192046  -1.66448   1.10277 255 255 255
-0.42721 -1.50686  0.97366 255 255 255
-0.176221  -1.75578   1.13049 255 255 255
-0.176375  -1.75575   1.13021 255 255 255
-0.624847  -2.02848    1.0688 255 255 255
-0.230931  -1.78504   1.12302 255 255 255
-0.425107   -1.5625   1.00048 255 255 255
0.271396 -1.50217  1.21499 255 255 255
0.478652 -1.56818  1.37344 255 255 255
-0.647319  -1.15124  0.849687 255 255 255
 -0.5045 -1.88626  1.06707 255 255 255
-0.0127904   -2.04796    1.32144 255 255 255
0.571658 -1.73854  1.49602 255 255 255
0.311424 -1.58519  1.25574 255 255 255
0.285236 -1.22518  1.10407 255 255 255
-0.19245 -1.35434  1.00636 255 255 255
-0.0149088   -1.54342    1.13387 255 255 255
0.0362445  -1.39803   1.07886 255 255 255
-0.00681749    -2.25382     1.45186 255 255 255
-0.0964619   -1.83194    1.16189 255 255 255
0.0490838  -1.60343   1.16033 255 255 255
0.0353916  -1.35168   1.07299 255 255 255
0.240535 -1.42558  1.17146 255 255 255
0.0106154  -1.66134   1.16408 255 255 255
-0.61362 -1.55438 0.944075 255 255 255
-0.233532   -1.2498  0.935122 255 255 255
-0.595697   -1.3721  0.889817 255 255 255
0.175028 -1.26991  1.06666 255 255 255
-0.753337  -1.79659  0.962349 255 255 255
0.499407 -1.62741  1.38588 255 255 255
-0.246572  -1.09382  0.912411 255 255 255
0.277603 -1.59936  1.25005 255 255 255
-0.65801  -1.7968 0.994469 255 255 255
-0.360385  -1.66247   1.04986 255 255 255
0.172466  -1.7565  1.29038 255 255 255
-0.199177  -1.66236   1.09666 255 255 255
0.199087 -1.76164  1.29434 255 255 255
-0.475627  -1.62888   1.00704 255 255 255
-0.365559   -1.6237   1.03459 255 255 255
0.224042 -1.50081  1.19773 255 255 255
0.421212 -1.53765  1.31738 255 255 255
-0.67437 -1.22322 0.858149 255 255 255
0.437486 -1.44452  1.27267 255 255 255
-0.738086  -1.59919  0.920656 255 255 255
0.263249 -1.87855  1.38639 255 255 255
-0.693069  -1.38999  0.859016 255 255 255
-0.150052  -1.92858   1.08682 255 255 255
-0.637256  -1.61107  0.944166 255 255 255
 0.14681 -1.51797  1.16579 255 255 255
-0.188943  -1.84323   1.09912 255 255 255
-0.665639   -1.7041  0.961979 255 255 255
-0.54004 -1.25496 0.875522 255 255 255
-0.611307  -1.36516  0.872565 255 255 255
-0.189279   -1.4472   1.01784 255 255 255
-0.474543  -1.53464  0.975131 255 255 255
-0.168767   -1.3331   1.01064 255 255 255
-0.455908  -1.69943   1.01477 255 255 255
-0.693025  -1.84225  0.993924 255 255 255
-0.0202105   -1.65582    1.15331 255 255 255
-0.165876  -1.92199   1.07474 255 255 255
-0.653091  -1.96359   1.04538 255 255 255
0.0685889  -2.03427   1.36969 255 255 255
-0.620899  -1.48515  0.919374 255 255 255
0.227262 -2.32289  1.62157 255 255 255
-0.730114  -2.00089   1.03704 255 255 255
0.362107 -1.40686  1.20399 255 255 255
-0.237312  -1.57026   1.06679 255 255 255
  0.5998 -1.61141  1.46102 255 255 255
-0.594049  -1.23982  0.857783 255 255 255
-0.719126  -1.88675    1.0015 255 255 255
-0.0929776   -1.39083    1.02262 255 255 255
0.0462193   -2.0784   1.37668 255 255 255
0.0182369  -1.61856   1.15496 255 255 255
0.665286 -1.93935  1.64225 255 255 255
-0.403137   -1.8135   1.07501 255 255 255
0.498892 -1.95438  1.55032 255 255 255
-0.729556  -1.96155   1.01609 255 255 255
0.29058 -1.7113 1.30726 255 255 255
-0.162175  -1.34941   1.01647 255 255 255
0.0756122  -2.00428   1.35718 255 255 255
-0.386715  -1.70406   1.03991 255 255 255
-0.632904  -1.38617  0.875534 255 255 255
-0.666596  -1.22114  0.862963 255 255 255
0.0988821  -1.90833   1.32608 255 255 255
-0.42103 -1.54582 0.994807 255 255 255
0.649338  -1.9219  1.63166 255 255 255
0.578341   -1.742    1.504 255 255 255
0.466898 -1.28939  1.21398 255 255 255
-0.145844  -1.67904   1.12419 255 255 255
  -0.483 -1.89221  1.07701 255 255 255
0.000393788    -1.65575     1.15216 255 255 255
0.465274  -1.4674  1.30183 255 255 255
-0.433359  -1.71654   1.04073 255 255 255
-0.552509  -1.23257   0.86746 255 255 255
-0.529251  -1.70124   1.00731 255 255 255
-0.433234   -1.5944   1.00931 255 255 255
0.185306 -2.21099  1.52011 255 255 255
-0.40569 -1.91577  1.09864 255 255 255
0.430058 -1.49306  1.29682 255 255 255
0.179784 -1.84004  1.33677 255 255 255
0.0212173  -1.42811   1.07386 255 255 255
0.636614 -1.60781  1.44733 255 255 255
0.384755 -1.25183  1.18195 255 255 255
-0.0993718   -1.10425   0.939683 255 255 255
0.415639 -2.21078  1.65871 255 255 255
0.717679 -1.86134  1.61417 255 255 255
-0.0398892   -1.65149    1.14551 255 255 255
0.107419 -1.87638  1.31383 255 255 255
-0.655045   -1.6995  0.964962 255 255 255
0.380769 -1.74443  1.37608 255 255 255
-0.551872  -1.85854   1.04701 255 255 255
-0.562091  -1.31665  0.888438 255 255 255
-0.0715024   -1.44215    1.04218 255 255 255
-0.649602  -1.30296  0.850099 255 255 255
0.415042 -1.95325  1.50536 255 255 255
-0.149182  -1.44814   1.02567 255 255 255
-0.342929  -1.61001   1.03901 255 255 255
-0.00156722    -1.63914     1.15401 255 255 255
-0.591236   -1.5473  0.948827 255 255 255
-0.676671  -2.01558   1.05416 255 255 255
-0.107059  -1.94924   1.13601 255 255 255
-0.127488  -1.37239   1.00439 255 255 255
 -0.5891 -1.57369 0.950561 255 255 255
-0.512071  -1.65255   1.00036 255 255 255
-0.21728 -1.78474  1.12594 255 255 255
-0.21711 -1.78351  1.12432 255 255 255
0.344761  -2.2554  1.65228 255 255 255
0.440698 -1.27878  1.20006 255 255 255
0.377711 -1.48746   1.2613 255 255 255
-0.510615  -1.12287  0.859653 255 255 255
0.0418506  -1.79378   1.20802 255 255 255
-0.38244 -1.69758  1.05087 255 255 255
0.292293 -1.99139  1.45044 255 255 255
-0.426687  -1.52149   0.98792 255 255 255
-0.39289 -1.71276  1.04439 255 255 255
-0.574586  -1.31809  0.882613 255 255 255
0.431454 -1.70295  1.39964 255 255 255
-0.680179  -1.20017    0.8519 255 255 255
0.395992 -2.23089   1.6538 255 255 255
-0.537191  -1.21255  0.867926 255 255 255
0.346471 -2.08321  1.53772 255 255 255
0.0761539  -2.17942   1.46195 255 255 255
-0.566801  -1.61974  0.972435 255 255 255
0.00626734   -1.96047    1.30405 255 255 255
0.295506 -1.93767  1.44154 255 255 255
-0.648396  -1.68289  0.963208 255 255 255
-0.514829  -1.22585  0.881049 255 255 255
-0.494934  -1.65484   1.00989 255 255 255
0.0768766  -1.85867   1.29534 255 255 255
0.430015 -1.68605  1.39222 255 255 255
-0.766109  -1.60302  0.909951 255 255 255
0.412207 -1.67397  1.38259 255 255 255
0.181377 -2.19705   1.5106 255 255 255
0.11671 -2.1248 1.44079 255 255 255
-0.533153  -1.15803  0.859309 255 255 255
-0.697101  -2.02133   1.04704 255 255 255
0.112152 -1.88653  1.32032 255 255 255
-0.166617  -2.16728    1.3024 255 255 255
-0.515848  -1.24071   0.88522 255 255 255
-0.0429719   -1.59008    1.13134 255 255 255
-0.358246  -1.64725   1.03716 255 255 255
-0.0899913   -1.35222    1.03959 255 255 255
0.198243 -2.24032  1.54646 255 255 255
0.579848 -2.05822  1.66567 255 255 255
-0.117646  -1.43367   1.03229 255 255 255
-0.654606  -1.97733   1.04735 255 255 255
0.308325 -2.01404  1.47591 255 255 255
0.0599273  -2.04992     1.369 255 255 255
0.384842 -1.68931  1.36508 255 255 255
0.082444   -2.188  1.46871 255 255 255
-0.0964056    -1.1139   0.943404 255 255 255
0.308436 -1.46942   1.2155 255 255 255
-0.538926  -1.26726  0.883154 255 255 255
0.198727 -1.68226  1.27558 255 255 255
-0.549629  -1.41603  0.919053 255 255 255
-0.441753  -1.50055  0.974937 255 255 255
-0.737016  -1.88774  0.996291 255 255 255
0.535167 -1.88639  1.52943 255 255 255
0.457926 -2.11119  1.64088 255 255 255
-0.546121  -1.20162  0.865163 255 255 255
0.0411765  -1.98712   1.32722 255 255 255
-0.453807  -1.65919   1.02288 255 255 255
-0.520404  -1.51868  0.958828 255 255 255
-0.464216  -1.49413  0.970721 255 255 255
0.469618 -1.76509  1.45268 255 255 255
0.0842694  -1.47917   1.14185 255 255 255
-0.337905  -1.95717   1.04913 255 255 255
-0.474979  -1.24439  0.901193 255 255 255
0.107594 0.435236 0.765351 255 255 255
0.0726946  0.417054  0.753623 255 255 255
-0.0318426   0.927186   0.587069 255 255 255
-0.376774  0.908024  0.486824 255 255 255
-0.235457   1.52703  0.336311 255 255 255
 0.16731 0.917799 0.673972 255 255 255
-0.282695    1.4986  0.310852 255 255 255
 2.15811 -1.27508  2.18012 255 255 255
   2.7527 -0.872744    2.3841 255 255 255
 2.27497 -1.33813  2.32248 255 255 255
 2.25816 -1.13595  2.17383 255 255 255
  2.93815 -0.709142   2.40078 255 255 255
  2.39855 -0.964227   2.12566 255 255 255
  2.85558 -0.636939    2.2933 255 255 255
  2.66643 -0.842532   2.29695 255 255 255
2.80528 -1.3867 2.66848 255 255 255
  2.66143 -0.617516   2.08414 255 255 255
  2.93353 -0.733725   2.39164 255 255 255
 2.35023 -1.13664  2.24804 255 255 255
  3.08864 -0.837742   2.53129 255 255 255
 2.7874 -1.7243 2.94411 255 255 255
  2.33911 -0.964417   2.11621 255 255 255
 2.72777 -1.44838  2.70427 255 255 255
  2.67365 -0.761414   2.23788 255 255 255
  2.76942 -0.806011   2.35418 255 255 255
  2.6887 -1.85324   2.9434 255 255 255
 2.47816 -1.06394  2.31276 255 255 255
 2.36616 -1.87925  2.74612 255 255 255
  2.22764 -0.932405   1.96671 255 255 255
 2.24985 -1.67708  2.52383 255 255 255
 2.19893 -1.11514  2.06788 255 255 255
  2.2478 -1.38334  2.31908 255 255 255
  2.71063 -0.862022   2.34001 255 255 255
  2.5293 -1.05123  2.31386 255 255 255
  2.9549 -1.31068   2.7263 255 255 255
  2.42846 -0.771964   2.01057 255 255 255
 2.55868 -1.33344  2.47098 255 255 255
 2.52538 -1.34078  2.47056 255 255 255
  2.5122 -1.70745  2.71629 255 255 255
 2.26634 -1.20985  2.23565 255 255 255
2.62461 -1.4653 2.65584 255 255 255
  2.58238 -0.851463   2.25702 255 255 255
2.58305 -1.2899 2.46092 255 255 255
  2.40322 -0.723229   1.97209 255 255 255
 2.89684 -1.30135  2.68743 255 255 255
 3.01985 -1.02798  2.63985 255 255 255
 3.01925 -1.52585  3.00063 255 255 255
  2.47466 -0.799697   2.07817 255 255 255
 2.77836 -1.14841  2.49152 255 255 255
 2.60706 -0.82752  2.24807 255 255 255
 2.75655 -1.12435   2.4991 255 255 255
 3.36803 -0.37876  2.46225 255 255 255
  2.84331 -0.714327    2.3306 255 255 255
  2.0334 -1.17028  1.92127 255 255 255
 2.1572 -1.4622 2.30228 255 255 255
 3.20017 -1.35156  2.99584 255 255 255
  2.52791 -0.745875   2.09068 255 255 255
 2.62664 -0.85078  2.26978 255 255 255
 2.40693 -1.49245  2.46537 255 255 255
 2.36484 -1.47679  2.44867 255 255 255
  2.3554 -1.69534  2.59318 255 255 255
 3.19899 -1.44604   3.0462 255 255 255
 2.35469 -1.21984  2.31809 255 255 255
2.65135 -1.2162 2.47494 255 255 255
 2.99631 -1.44273  2.90255 255 255 255
 2.69698 -1.37689  2.62939 255 255 255
 2.46063 -1.42367  2.47856 255 255 255
  2.47614 -0.764628   2.07854 255 255 255
  2.3938 -1.45083  2.44654 255 255 255
  2.74335 -0.880424   2.37508 255 255 255
   3.0712 -0.425569   2.30391 255 255 255
 2.12695 -1.05855  1.93819 255 255 255
 2.87539 -1.19922   2.6361 255 255 255
 2.95446 -1.81447  3.11368 255 255 255
 2.92448 -1.62896  2.97461 255 255 255
  2.56251 -0.736075   2.10475 255 255 255
 2.35555 -1.08428  2.25837 255 255 255
  2.9407 -1.67291  3.00901 255 255 255
  2.58424 -0.786941    2.1933 255 255 255
2.76834 -1.8159 2.96984 255 255 255
 2.48818 -1.40039  2.46893 255 255 255
  2.36847 -0.757454    1.9715 255 255 255
 3.29984 -1.44876  3.08684 255 255 255
  2.68316 -0.571252   2.06293 255 255 255
 2.53211 -1.01406  2.31611 255 255 255
 2.19095 -1.29864  2.23963 255 255 255
 2.22716 -1.59751  2.42822 255 255 255
 2.9136 -1.7258 3.02934 255 255 255
 2.47547 -1.92072  2.83155 255 255 255
 2.58186 -1.68875   2.7659 255 255 255
  2.59727 -0.615723   2.03331 255 255 255
 2.19649 -1.26276  2.20651 255 255 255
 2.39004 -1.67164  2.60684 255 255 255
 3.17596 -1.38037  2.99708 255 255 255
 2.84872 -1.92471   3.0894 255 255 255
  2.3132 -1.75226  2.59407 255 255 255
 2.19667 -1.14345  2.10157 255 255 255
  3.13478 -0.429482    2.3458 255 255 255
 2.61067 -1.85704  2.88313 255 255 255
 3.19657 -1.78508   3.2158 255 255 255
 2.19031 -1.32234  2.24948 255 255 255
 2.52928 -1.40924  2.50752 255 255 255
 2.66968 -0.86655  2.32615 255 255 255
  2.4769 -1.61291  2.63376 255 255 255
 2.58887 -1.87848  2.89926 255 255 255
 2.26699 -1.24258  2.26312 255 255 255
   3.249 -1.31244  2.99937 255 255 255
 2.89801 -1.67932  2.98951 255 255 255
  2.62162 -0.950005   2.33287 255 255 255
  2.37675 -0.793074   1.97998 255 255 255
  2.38352 -0.989563   2.17562 255 255 255
2.79234 -1.6715 2.90473 255 255 255
  2.26399 -0.866597   1.94516 255 255 255
 2.84638 -1.02091  2.49337 255 255 255
  2.4877 -0.67258  1.98001 255 255 255
 2.44695 -1.66808  2.63904 255 255 255
 1.97311 -1.10512  1.88513 255 255 255
  2.69261 -0.968695   2.40954 255 255 255
  2.74176 -0.733073   2.28698 255 255 255
  2.93016 -0.968321   2.51661 255 255 255
 2.64133 -1.80992  2.87746 255 255 255
  2.66508 -0.900595   2.32746 255 255 255
 2.39305 -1.02732  2.21423 255 255 255
  2.60028 -0.706149   2.10309 255 255 255
 2.47205 -1.11817  2.31664 255 255 255
 3.17689 -1.86626  3.23958 255 255 255
 3.16144 -1.41817  3.00359 255 255 255
 2.48753 -1.09476  2.31246 255 255 255
 2.57572 -1.62587  2.72345 255 255 255
 2.55077 -1.90642  2.87775 255 255 255
 2.54822 -1.29853   2.4667 255 255 255
 2.55967 -1.52797  2.64335 255 255 255
  2.22045 -0.891518   1.93956 255 255 255
 2.88815 -1.23519  2.64313 255 255 255
 3.11045 -1.55271  3.03477 255 255 255
  3.03955 -0.866774   2.52384 255 255 255
  3.0845 -1.82102  3.16488 255 255 255
  2.0658 -1.27174  2.06755 255 255 255
 2.57712 -1.75095  2.80129 255 255 255
 2.49213 -1.36028  2.46351 255 255 255
 2.75534 -1.66837     2.88 255 255 255
 3.04305 -1.07495  2.66396 255 255 255
 2.21148 -1.27632  2.23545 255 255 255
 3.14036 -1.52146  3.05645 255 255 255
 2.31486 -1.25913  2.31547 255 255 255
   2.4671 -0.743666   2.01794 255 255 255
 2.23641 -1.24135  2.23034 255 255 255
 2.73093 -1.36055  2.63174 255 255 255
  3.15772 -0.959385   2.72003 255 255 255
  2.57394 -0.832315   2.22669 255 255 255
 1.97833 -1.07673  1.87707 255 255 255
 2.86174 -1.70233  2.97955 255 255 255
  2.43425 -0.811535   2.05533 255 255 255
 2.84235 -1.60336  2.89881 255 255 255
 2.34839 -1.65826  2.57709 255 255 255
 3.18695 -1.48775  3.05138 255 255 255
   2.8655 -0.535232   2.21853 255 255 255
  2.5383 -1.69757  2.74143 255 255 255
  2.54166 -0.886071   2.24951 255 255 255
 2.52827 -1.44368   2.5662 255 255 255
  2.52481 -0.722359   2.05809 255 255 255
 2.90848 -1.00012  2.51069 255 255 255
 3.05232 -1.09985  2.67951 255 255 255
 3.13783 -1.83632  3.20931 255 255 255
 3.28756 -1.31897  3.01775 255 255 255
2.72324 -1.5196 2.78225 255 255 255
 2.19902 -1.37668  2.29964 255 255 255
 2.93649 -1.32739  2.75043 255 255 255
  2.83571 -0.587196    2.2331 255 255 255
   2.3398 -0.775939   1.96162 255 255 255
 2.72293 -1.40337  2.66865 255 255 255
  3.15443 -0.502516   2.40376 255 255 255
  2.1895 -1.07763  2.04358 255 255 255
 2.24899 -1.60545  2.43693 255 255 255
 3.00691 -1.56386   2.9966 255 255 255
 2.74916 -1.57192  2.80951 255 255 255
 3.29879 -1.14892  2.92278 255 255 255
 2.37736 -1.55073  2.52134 255 255 255
 2.50645 -1.71215  2.73402 255 255 255
 2.23262 -1.14023  2.12668 255 255 255
  2.44671 -0.995641   2.24998 255 255 255
 2.76542 -1.40919  2.70605 255 255 255
 2.85617 -1.58001  2.88592 255 255 255
 2.04278 -1.20144  1.96046 255 255 255
 2.77537 -1.50563  2.78729 255 255 255
 2.12119 -1.15359  2.00881 255 255 255
 3.02088 -1.88833  3.17292 255 255 255
 2.61778 -1.49929  2.67189 255 255 255
  2.41582 -0.744549   1.97506 255 255 255
 2.38063 -0.77568  1.97172 255 255 255
  3.08631 -0.827603    2.5191 255 255 255
  2.9041 -1.10445  2.60572 255 255 255
 3.24496 -1.16393  2.91572 255 255 255
  2.4077 -1.61424   2.5851 255 255 255
 2.52853 -1.67499  2.70694 255 255 255
 2.10151 -1.18075  1.99927 255 255 255
 3.35755 -1.19338  2.99383 255 255 255
  2.40261 -0.928212   2.11373 255 255 255
 3.32771 -1.42517  3.09825 255 255 255
 2.12158 -1.41319  2.25375 255 255 255
   2.4714 -0.843766   2.13091 255 255 255
 2.14034 -1.32329  2.21333 255 255 255
2.56734  -1.578 2.68283 255 255 255
 2.82402 -1.95058  3.09884 255 255 255
  2.4208 -1.17201  2.31893 255 255 255
 2.23902 -1.27585  2.25489 255 255 255
 3.20829 -1.84667  3.25424 255 255 255
 2.73056 -1.76464  2.91881 255 255 255
  3.24585 -0.710075   2.56984 255 255 255
 2.47309 -1.38543  2.46476 255 255 255
  3.2251 -1.82258  3.25821 255 255 255
 3.03759 -1.47445  2.96597 255 255 255
 2.92446 -0.69014  2.36746 255 255 255
 2.73431 -1.63862  2.84659 255 255 255
 2.1215 -1.4644 2.28417 255 255 255
 3.22735 -1.52509  3.09569 255 255 255
  2.98038 -0.996079   2.54088 255 255 255
 2.49259 -1.90286  2.82619 255 255 255
   2.7162 -0.813105   2.31867 255 255 255
 2.29587 -1.16583  2.24249 255 255 255
  2.58297 -0.720979   2.10646 255 255 255
  2.9604 -1.78757  3.08273 255 255 255
 3.28808 -1.42513  3.07295 255 255 255
  3.13481 -0.532401   2.41775 255 255 255
  2.9078 -1.65832  2.98572 255 255 255
  2.44093 -0.868713   2.13263 255 255 255
 2.59464 -1.41927  2.60085 255 255 255
  2.60492 -0.939624   2.32031 255 255 255
 2.10486 -1.25864  2.09723 255 255 255
  2.81755 -0.896599   2.45687 255 255 255
 3.23275 -1.60767  3.15318 255 255 255
  2.82055 -0.517125   2.17155 255 255 255
 2.63618 -1.57616  2.73357 255 255 255
 3.33599 -1.18074  2.97835 255 255 255
 2.30555 -1.60417  2.49356 255 255 255
 2.84795 -1.72265  2.98825 255 255 255
  2.85053 -0.787525   2.39495 255 255 255
 2.89794 -1.80111  3.06367 255 255 255
 2.88718 -1.80337  3.04055 255 255 255
 2.74294 -1.70585  2.92113 255 255 255
 2.92842 -1.14535  2.63022 255 255 255
 3.20639 -1.30474  2.96891 255 255 255
 3.16932 -1.53734  3.06998 255 255 255
 2.75663 -1.78175  2.95978 255 255 255
  3.19425 -0.406548   2.35976 255 255 255
 2.02026 -1.13894  1.91555 255 255 255
 2.47947 -1.69603  2.69953 255 255 255
  2.45308 -0.878141   2.13942 255 255 255
   2.5277 -0.775442   2.11498 255 255 255
 2.34871 -1.68191   2.5893 255 255 255
  2.18031 -0.957588   1.93107 255 255 255
  2.35461 -0.874384   2.04004 255 255 255
 2.17122 -1.31088  2.22984 255 255 255
 2.69175 -1.48503  2.71061 255 255 255
 2.30874 -1.67566  2.56334 255 255 255
  2.93957 -0.585199   2.32773 255 255 255
 2.18814 -1.40846  2.30614 255 255 255
 2.10069 -1.43189  2.25174 255 255 255
 2.23828 -1.70023  2.51689 255 255 255
 2.57596 -1.32709  2.45737 255 255 255
 2.65388 -1.03126  2.42533 255 255 255
 2.08437 -1.05523  1.91821 255 255 255
 3.19353 -1.40065  3.00449 255 255 255
3.05829 -1.5795 3.02776 255 255 255
 2.94618 -1.83005  3.10661 255 255 255
 2.27526 -1.08076   2.1375 255 255 255
 2.39007 -1.19651  2.31593 255 255 255
 2.01671 -1.07282  1.89588 255 255 255
 2.83867 -1.68962  2.96392 255 255 255
  2.72526 -0.958102    2.4384 255 255 255
 3.00629 -1.18818  2.70856 255 255 255
 2.97733 -1.83111  3.11498 255 255 255
 2.32163 -1.27616  2.32327 255 255 255
 2.93343 -1.85174  3.10011 255 255 255
 2.20003 -1.33411   2.2668 255 255 255
 2.78673 -1.78777  2.97649 255 255 255
 2.99434 -1.61098  3.01444 255 255 255
 2.94149 -1.80014  3.08903 255 255 255
2.01163  -1.084 1.89908 255 255 255
 2.51394 -1.04447  2.31702 255 255 255
 2.75559 -1.37704  2.65552 255 255 255
  2.55048 -0.899428   2.25857 255 255 255
 2.14405 -1.14163  2.02392 255 255 255
  2.46196 -0.703284    1.9814 255 255 255
2.16795 -1.3351 2.24205 255 255 255
 2.88347 -1.68191  2.97372 255 255 255
  3.15025 -0.605828   2.49192 255 255 255
 2.60728 -1.30081  2.45603 255 255 255
  2.47698 -0.854626   2.13949 255 255 255
 2.88056 -1.61146  2.93276 255 255 255
 2.82917 -1.26597  2.62313 255 255 255
 2.18225 -1.13204  2.08005 255 255 255
2.16254 -1.0112 1.95013 255 255 255
 2.05931 -1.20875  1.99788 255 255 255
  2.71547 -0.645221   2.17489 255 255 255
  2.77341 -0.916738   2.44221 255 255 255
  2.72011 -0.988767   2.44596 255 255 255
 2.96691 -1.65432  3.01033 255 255 255
 2.08505 -1.41148  2.23222 255 255 255
 2.16608 -1.17727  2.08994 255 255 255
 2.12389 -1.39453  2.24367 255 255 255
 3.08294 -1.51968  2.99751 255 255 255
   3.2687 -0.944837   2.79649 255 255 255
 2.89216 -1.89484  3.10607 255 255 255
 2.10791 -1.39178  2.23763 255 255 255
  2.85226 -0.667101   2.32486 255 255 255
 2.93913 -1.47018  2.88085 255 255 255
 2.02523 -1.25839  1.99848 255 255 255
 2.13706 -1.39902  2.26321 255 255 255
  2.18832 -0.868582   1.91974 255 255 255
 2.28431 -1.55306  2.43414 255 255 255
 2.40539 -1.94057  2.80384 255 255 255
 2.01215 -1.16395  1.91818 255 255 255
  2.3008 -1.77523  2.60737 255 255 255
 2.15272 -1.38357   2.2643 255 255 255
  2.81933 -0.717721   2.32904 255 255 255
  2.61581 -0.759081   2.20234 255 255 255
 2.10377 -1.36814  2.22558 255 255 255
 2.67874 -1.20397  2.47949 255 255 255
 2.71775 -1.15492  2.48504 255 255 255
 2.32842 -1.23884  2.31338 255 255 255
 2.01522 -1.22472  1.94901 255 255 255
 2.26592 -1.02476  2.08724 255 255 255
 2.13945 -1.23846  2.11489 255 255 255
  2.66229 -0.957644   2.36834 255 255 255
3.04611 -1.6172 3.03117 255 255 255
 2.06071 -1.04062  1.90627 255 255 255
 2.30655 -1.62259  2.51814 255 255 255
  2.34736 -0.717976   1.94283 255 255 255
 2.09179 -1.42326  2.23756 255 255 255
  2.85068 -0.490741   2.17645 255 255 255
  2.45975 -0.832994   2.10629 255 255 255
 2.40255 -1.03844  2.23837 255 255 255
  2.74134 -0.875546   2.36119 255 255 255
2.93391  -1.392 2.82892 255 255 255
 2.65347 -1.26603  2.47041 255 255 255
 2.29327 -1.02956  2.10792 255 255 255
 2.55651 -1.60992  2.69523 255 255 255
 2.92346 -1.51793  2.91272 255 255 255
  3.14755 -0.584814   2.50204 255 255 255
 3.21956 -1.54356  3.10901 255 255 255
 2.66941 -0.68451  2.16571 255 255 255
 2.57631 -1.26873   2.4627 255 255 255
 2.26277 -1.64186  2.47876 255 255 255
 2.23836 -1.36711  2.30619 255 255 255
  2.57669 -0.814602   2.20155 255 255 255
 2.66352 -1.61591  2.77201 255 255 255
  2.99693 -0.768512   2.46032 255 255 255
2.77588 -1.8025 2.98431 255 255 255
 2.14502 -1.36369   2.2445 255 255 255
  2.42002 -0.727856   1.97473 255 255 255
 2.60955 -1.60277  2.73053 255 255 255
 3.02481 -1.84141  3.15878 255 255 255
  2.1566 -1.30912  2.21293 255 255 255
  2.40962 -0.858161   2.08534 255 255 255
 3.12366 -1.30541  2.93131 255 255 255
 2.67684 -1.42998  2.67693 255 255 255
 2.05817 -1.11207  1.91981 255 255 255
  3.2162 -1.42474  3.03658 255 255 255
 2.63051 -1.60892  2.75034 255 255 255
 3.09121 -1.43306  2.96896 255 255 255
 2.94151 -1.21564  2.66078 255 255 255
   2.8584 -0.773465   2.38448 255 255 255
  2.2223 -1.61843   2.4322 255 255 255
 2.42423 -1.75545  2.69172 255 255 255
  2.59972 -0.910967   2.29538 255 255 255
 2.12133 -1.25615  2.11384 255 255 255
 2.32604 -0.97187  2.10228 255 255 255
 2.36393 -1.53074  2.46143 255 255 255
  2.20131 -0.964462   1.96141 255 255 255
 2.92137 -1.12505  2.60376 255 255 255
 2.45631 -1.16554  2.32143 255 255 255
 2.47561 -0.87728  2.16699 255 255 255
  2.75575 -0.931521   2.44053 255 255 255
 2.33416 -1.18811  2.28927 255 255 255
  2.87429 -0.761359   2.38632 255 255 255
  3.14135 -0.507637   2.40664 255 255 255
  2.94488 -0.639662   2.35921 255 255 255
 2.80298 -1.71595  2.94748 255 255 255
  2.87358 -0.711654   2.36547 255 255 255
 2.21895 -0.91369   1.9406 255 255 255
2.37032 -1.7005 2.58017 255 255 255
 2.59612 -1.32707  2.44599 255 255 255
   2.4041 -0.807241   2.02979 255 255 255
  3.22431 -0.886861    2.7117 255 255 255
 2.82046 -1.34767  2.68444 255 255 255
 3.23229 -1.49643  3.08871 255 255 255
2.15478 -1.3692 2.25664 255 255 255
   2.5362 -0.623847   1.98951 255 255 255
    2.577 -0.936668   2.30054 255 255 255
2.80946 -1.8809 3.05073 255 255 255
  2.26274 -0.861991   1.94517 255 255 255
 2.11818 -1.34135  2.20499 255 255 255
   2.436 -1.01163   2.2455 255 255 255
  2.20569 -0.987862   1.98212 255 255 255
2.73315 -1.8355 2.96525 255 255 255
 2.51499 -1.63729  2.68641 255 255 255
 2.84028 -1.42619  2.78624 255 255 255
 2.95194 -1.36271   2.8117 255 255 255
  2.47047 -0.821915   2.10447 255 255 255
  2.36272 -0.866286    2.0377 255 255 255
 3.01219 -1.83072   3.1445 255 255 255
 2.71938 -1.43995  2.69119 255 255 255
 2.08811 -1.37807  2.22138 255 255 255
 2.68725 -1.16588  2.47731 255 255 255
 3.10474 -1.63033  3.08513 255 255 255
  2.82342 -0.648835    2.2695 255 255 255
  2.81376 -0.635287    2.2656 255 255 255
2.99301 -0.5729 2.34336 255 255 255
  2.9121 -1.32209  2.73817 255 255 255
 2.65414 -1.37204   2.5933 255 255 255
  2.31343 -0.981629   2.10061 255 255 255
 2.28167 -1.22573  2.25949 255 255 255
 3.12026 -1.44044  2.99546 255 255 255
 2.53005 -1.71675  2.74988 255 255 255
  2.63895 -0.699581   2.15184 255 255 255
3.24183 -1.5774  3.1381 255 255 255
 2.99358 -1.57315  2.98981 255 255 255
 1.97666 -1.15426  1.90143 255 255 255
  2.35219 -0.826542   1.98133 255 255 255
  3.2374 -1.46469  3.07344 255 255 255
 2.47796 -1.53067  2.58486 255 255 255
  2.34208 -0.816899   1.97064 255 255 255
 3.21606 -1.38543  3.02141 255 255 255
 2.90862 -1.13061  2.60569 255 255 255
 2.50169 -1.43807    2.515 255 255 255
 2.32196 -1.14906  2.26172 255 255 255
  2.61279 -0.776247   2.20345 255 255 255
 2.67532 -1.21807  2.48318 255 255 255
  2.73798 -0.534299   2.10579 255 255 255
 2.47524 -1.56412  2.59961 255 255 255
 2.10696 -1.45089    2.271 255 255 255
 2.19595 -0.97925  1.97242 255 255 255
  3.31125 -0.423228   2.45781 255 255 255
 2.43649 -1.64944  2.63039 255 255 255
 2.8346  -1.041 2.49243 255 255 255
  2.59179 -0.811213   2.22099 255 255 255
2.32025 -1.7307 2.59525 255 255 255
 2.26696 -1.23031  2.25282 255 255 255
 2.34162 -1.24222  2.31788 255 255 255
2.85279  -1.824 3.03929 255 255 255
   2.663 -1.50717  2.70777 255 255 255
 2.81142 -1.08462  2.50244 255 255 255
   3.327 -1.46563  3.11354 255 255 255
2.03332 -1.1549 1.92508 255 255 255
 2.02124 -1.08933  1.90193 255 255 255
 2.14546 -1.35047  2.23901 255 255 255
  2.56615 -0.901374   2.26656 255 255 255
 2.53916 -1.60479  2.68494 255 255 255
 2.97751 -1.25638  2.71417 255 255 255
  2.32863 -0.901659   2.04636 255 255 255
 2.20039 -1.30029  2.24514 255 255 255
 2.78192 -1.70992  2.93349 255 255 255
 2.93873 -1.14364  2.62069 255 255 255
 2.64698 -1.68379  2.80856 255 255 255
  3.05589 -0.600625   2.41105 255 255 255
 2.23086 -1.11069  2.09655 255 255 255
  2.5022 -1.45457  2.55453 255 255 255
 2.26367 -1.13271  2.15337 255 255 255
   2.6973 -0.814013   2.31547 255 255 255
 2.29305 -1.12983  2.20474 255 255 255
   2.7122 -0.663929   2.21195 255 255 255
 2.62084 -1.30092  2.45817 255 255 255
2.76368 -1.9364 3.04539 255 255 255
  2.41258 -0.715647    1.9721 255 255 255
 2.10636 -1.46342  2.27744 255 255 255
 2.30506 -1.19807  2.26077 255 255 255
 3.20182 -1.32193  2.98644 255 255 255
 2.93315 -1.59357  2.96752 255 255 255
 2.10358 -1.44264  2.26399 255 255 255
  2.64149 -0.876548   2.31319 255 255 255
  2.9041 -1.41351   2.8243 255 255 255
  2.71432 -0.835276   2.32959 255 255 255
  3.24677 -0.546409   2.51572 255 255 255
 2.44553 -1.44644  2.46831 255 255 255
 2.22896 -1.72321  2.53445 255 255 255
2.32749 -1.2153 2.30423 255 255 255
 2.60697 -1.48245  2.65004 255 255 255
2.23463  -1.075 2.08872 255 255 255
 2.37819 -1.50756  2.46149 255 255 255
 2.40782 -1.45433  2.46247 255 255 255
  2.65572 -0.685097   2.15463 255 255 255
  2.62857 -0.876914   2.28846 255 255 255
  2.0476 -1.15159  1.92729 255 255 255
 3.16366 -1.38685  2.99697 255 255 255
  2.16531 -0.950147    1.9272 255 255 255
 2.33187 -1.72445  2.59959 255 255 255
  2.78223 -0.542721   2.15503 255 255 255
 2.09615 -1.33601  2.18385 255 255 255
 2.80427 -0.55497  2.17354 255 255 255
  2.26302 -0.918443   1.97616 255 255 255
 3.01049 -1.36724  2.88359 255 255 255
  3.16573 -0.461014   2.39117 255 255 255
  2.95118 -0.451741    2.2288 255 255 255
 2.81857 -1.63095  2.90812 255 255 255
  2.4428 -1.54386  2.56503 255 255 255
2.52751 -1.5342   2.627 255 255 255
  2.29933 -0.870836    1.9675 255 255 255
 2.32725 -1.28317  2.33446 255 255 255
 3.34039 -1.12076  2.93699 255 255 255
 2.53293 -1.64705  2.70583 255 255 255
 3.04445 -1.64108  3.05524 255 255 255
  2.78074 -0.608516   2.21487 255 255 255
 2.36386 -1.08012  2.24224 255 255 255
  2.61731 -0.876109   2.28873 255 255 255
  2.59661 -0.929116   2.31368 255 255 255
  3.09215 -0.994433   2.67557 255 255 255
  2.6472 -1.82996  2.89573 255 255 255
  2.72947 -0.634199   2.17618 255 255 255
2.83249 -1.8071  3.0258 255 255 255
 2.47031 -1.43153  2.47146 255 255 255
  2.74227 -0.626483   2.17381 255 255 255
  2.29193 -0.757384   1.92951 255 255 255
 2.34288 -1.50771  2.44803 255 255 255
  2.75766 -0.572163    2.1584 255 255 255
 2.63685 -0.73846  2.20232 255 255 255
  2.57207 -0.892852    2.2628 255 255 255
3.06644 -1.5985 3.04429 255 255 255
   2.5344 -0.936137    2.2648 255 255 255
  2.35178 -0.706278   1.94349 255 255 255
  3.10834 -0.611604   2.48975 255 255 255
 2.81583 -1.83397  3.03052 255 255 255
  2.18745 -0.946392    1.9353 255 255 255
  2.50144 -0.624735   1.98378 255 255 255
 2.66434 -1.22157  2.48792 255 255 255
 2.16988 -1.27406   2.1928 255 255 255
 2.99549 -1.68592  3.05228 255 255 255
 3.07924 -1.79196  3.16004 255 255 255
 3.00753 -1.78017  3.10244 255 255 255
 2.84202 -1.90216  3.08581 255 255 255
 2.38463 -1.18535  2.31872 255 255 255
 2.63295 -0.86034  2.29227 255 255 255
  2.74806 -0.537646   2.11138 255 255 255
  2.58972 -0.690717   2.08932 255 255 255
 2.88097 -1.80909  3.04944 255 255 255
 2.41834 -1.45537  2.46075 255 255 255
 2.40273 -1.75288  2.66888 255 255 255
  3.20049 -0.883939    2.7011 255 255 255
  2.24681 -0.913451   1.96814 255 255 255
 2.46557 -1.92685  2.83659 255 255 255
2.23858 -1.1527 2.14964 255 255 255
 3.30865 -1.41203  3.08907 255 255 255
  2.61587 -0.787648   2.20798 255 255 255
 2.54605 -1.33634  2.47434 255 255 255
 2.18002 -1.17455   2.0923 255 255 255
 2.32659 -1.02371  2.13937 255 255 255
2.56376 -1.4661 2.61278 255 255 255
 2.47821 -1.99862  2.89101 255 255 255
  2.21511 -0.952804   1.96189 255 255 255
  3.17468 -0.822066   2.56367 255 255 255
 2.51304 -1.67441  2.70601 255 255 255
 3.10686 -1.88152  3.22346 255 255 255
  2.93574 -0.544479   2.28155 255 255 255
  3.15032 -0.802381   2.53915 255 255 255
 2.20398 -1.35018  2.27857 255 255 255
 2.57921 -1.35555  2.49282 255 255 255
  2.16297 -0.872659    1.9054 255 255 255
 3.31794 -1.51552   3.1483 255 255 255
  2.3425 -1.16967  2.28178 255 255 255
 2.33396 -1.25709   2.3158 255 255 255
 2.64344 -1.37645  2.59687 255 255 255
 2.21668 -1.43989  2.38718 255 255 255
  3.1603 -1.46418  3.03156 255 255 255
 2.45324 -1.15268  2.32863 255 255 255
 2.43664 -0.71325  1.97663 255 255 255
 2.62535 -1.59105  2.73312 255 255 255
 2.08336 -1.27953  2.09289 255 255 255
 2.09111 -1.18887  2.00096 255 255 255
2.16143 -1.1584 2.08046 255 255 255
  2.1834 -1.36969  2.27937 255 255 255
 2.12223 -1.36507  2.23534 255 255 255
  2.68366 -0.792609   2.28785 255 255 255
 2.80264 -1.10335  2.50094 255 255 255
 2.23808 -1.37508  2.31388 255 255 255
 2.87633 -1.79152  3.04054 255 255 255
 2.82115 -1.92703  3.08458 255 255 255
 2.0148 -1.2737 2.00873 255 255 255
   2.3193 -0.949138   2.09329 255 255 255
  2.3696 -1.27635  2.35818 255 255 255
  2.64732 -0.903437    2.3303 255 255 255
 2.96855 -1.70431  3.04585 255 255 255
 3.27278 -1.29665  3.00901 255 255 255
  3.00546 -0.556312    2.3411 255 255 255
 2.88094 -1.18055  2.64113 255 255 255
 2.21867 -1.12672  2.09957 255 255 255
 3.33534 -1.70761  3.25421 255 255 255
 2.16816 -1.38301  2.27305 255 255 255
3.27901 -1.5516 3.14552 255 255 255
 2.20554 -1.11094  2.08497 255 255 255
  2.45362 -0.991684   2.24618 255 255 255
   2.5683 -0.960916   2.30893 255 255 255
 2.40059 -1.49046  2.45874 255 255 255
 2.26057 -1.12361  2.14818 255 255 255
  3.15365 -0.787223   2.54075 255 255 255
   2.5647 -0.664471   2.03873 255 255 255
 2.3931 -1.1742 2.31954 255 255 255
 3.11836 -1.38506  2.96251 255 255 255
 2.11386 -1.32176  2.18771 255 255 255
  2.44398 -0.623089   1.95645 255 255 255
 2.50456 -1.85288  2.81812 255 255 255
 3.04566 -1.73612  3.10354 255 255 255
3.18033 -1.5545 3.09097 255 255 255
 2.01351 -1.06283  1.89182 255 255 255
  2.55464 -0.804214   2.18633 255 255 255
3.06179 -1.5822 3.03373 255 255 255
  2.83294 -0.557667   2.21616 255 255 255
 3.18076 -1.56662   3.0906 255 255 255
 3.16894 -1.58889   3.1033 255 255 255
 2.39191 -1.48763  2.45881 255 255 255
 3.20624 -1.48602  3.04938 255 255 255
  2.85374 -0.819045   2.41996 255 255 255
 2.37034 -1.80731   2.6912 255 255 255
  3.20947 -0.963353   2.74818 255 255 255
  2.82467 -0.501567   2.16644 255 255 255
 2.03143 -1.07463  1.90128 255 255 255
 2.14152 -1.40958  2.26778 255 255 255
 2.20966 -1.61698  2.42296 255 255 255
  2.73098 -0.647662   2.20881 255 255 255
 2.47588 -1.60415  2.62415 255 255 255
 3.31298 -1.53156  3.15391 255 255 255
2.91986 -1.8876 3.12067 255 255 255
2.22999 -1.1572 2.14615 255 255 255
  3.13816 -0.602485   2.50061 255 255 255
 3.33792 -1.44332  3.12258 255 255 255
2.84613 -1.0544 2.50489 255 255 255
 2.30656 -1.29188  2.31352 255 255 255
 2.80997 -1.77136  2.99189 255 255 255
 2.81022 -0.69556  2.31309 255 255 255
 2.21094 -1.29078   2.2466 255 255 255
  2.68002 -0.774651   2.26808 255 255 255
 2.61287 -1.74815  2.82285 255 255 255
  2.91721 -0.473203   2.21837 255 255 255
 2.06613 -1.32672  2.14207 255 255 255
 2.86077 -1.56749   2.8945 255 255 255
 2.84795 -1.91106  3.08225 255 255 255
  3.36735 -0.404869   2.52602 255 255 255
   2.688 -1.75709   2.8872 255 255 255
 2.44217 -1.81379  2.74854 255 255 255
  2.63594 -0.847149   2.27254 255 255 255
 2.91096 -1.77464   3.0509 255 255 255
 2.42186 -0.98852  2.22445 255 255 255
  2.30295 -0.856364   1.96153 255 255 255
 2.18301 -1.03334    1.992 255 255 255
 2.90691 -1.14965  2.61906 255 255 255
 1.96638 -1.12843  1.89092 255 255 255
 2.62141 -1.28315  2.46404 255 255 255
  2.41392 -0.647633   1.95219 255 255 255
 2.77783 -1.62819   2.8816 255 255 255
  2.75756 -0.638451   2.21159 255 255 255
 2.64055 -0.74832  2.20188 255 255 255
 2.39829 -1.86104  2.74145 255 255 255
 2.08206 -1.43225  2.23047 255 255 255
 2.10333 -1.23588  2.07971 255 255 255
 2.52569 -1.43453  2.55535 255 255 255
 3.37579 -1.44117  3.14421 255 255 255
 2.19921 -1.12367  2.08662 255 255 255
  2.33746 -0.700656   1.93154 255 255 255
   2.4513 -0.744802   1.99607 255 255 255
 2.28827 -1.27392  2.30162 255 255 255
 2.28566 -1.56564  2.44228 255 255 255
 2.36761 -1.49344  2.45097 255 255 255
 2.50626 -1.06425  2.32061 255 255 255
  2.67036 -0.989903   2.39545 255 255 255
 2.89438 -1.42937  2.82581 255 255 255
  3.07423 -0.587626   2.41669 255 255 255
 2.30964 -1.65886  2.54467 255 255 255
  2.93135 -0.644123    2.3571 255 255 255
2.75977 -1.3612 2.65481 255 255 255
 2.23408 -1.26235  2.25135 255 255 255
 2.31205 -1.54658  2.44533 255 255 255
3.00083 -1.5991 3.01057 255 255 255
  2.72215 -0.787515   2.31253 255 255 255
 2.88214 -0.67689  2.33129 255 255 255
 2.96647 -1.29378  2.70254 255 255 255
 2.92798 -1.31817  2.73858 255 255 255
  2.59687 -0.638203   2.04378 255 255 255
 2.45041 -1.59968  2.61215 255 255 255
  2.59722 -0.787229   2.20336 255 255 255
  2.98094 -0.909944   2.51796 255 255 255
2.75202 -1.5465 2.80758 255 255 255
 2.16204 -1.42175  2.29481 255 255 255
 3.27396 -1.77612  3.26063 255 255 255
  2.84046 -0.808179   2.40259 255 255 255
 2.33418 -1.60413  2.51875 255 255 255
 2.89943 -0.80221  2.46237 255 255 255
 2.12999 -1.27391  2.14453 255 255 255
  2.28016 -0.860407   1.95046 255 255 255
  2.70642 -0.803608   2.31473 255 255 255
 2.93092 -1.15818  2.63566 255 255 255
 2.56865 -1.28821  2.46631 255 255 255
  2.44512 -0.702966   1.97641 255 255 255
   3.0651 -0.850297   2.53143 255 255 255
 2.16063 -1.32138  2.23381 255 255 255
  2.14848 -0.963766   1.92189 255 255 255
 2.62501 -1.06644  2.42988 255 255 255
 2.44209 -1.45666  2.47114 255 255 255
 2.27444 -1.79515  2.60076 255 255 255
 2.40861 -1.46425  2.46145 255 255 255
  2.26566 -0.870856   1.95183 255 255 255
  3.28963 -0.410442   2.44249 255 255 255
  2.28088 -0.887705   1.96647 255 255 255
  2.52281 -0.950351   2.27116 255 255 255
2.32444 -1.2061 2.29302 255 255 255
  2.35806 -0.700213   1.94435 255 255 255
  2.50072 -0.842477   2.14778 255 255 255
 2.01624 -1.05769  1.88905 255 255 255
  3.30796 -0.412301   2.44739 255 255 255
2.33474 -1.2643 2.32076 255 255 255
  2.49721 -0.899454   2.20446 255 255 255
   3.0838 -0.553317   2.40532 255 255 255
 2.18045 -1.14513  2.08624 255 255 255
 2.83598 -1.47917  2.82423 255 255 255
 2.47898 -1.97238  2.87559 255 255 255
  2.33893 -0.796217     1.964 255 255 255
  3.0063 -1.54456  2.98757 255 255 255
2.12286 -1.4735 2.29573 255 255 255
 2.88905 -1.66394  2.98444 255 255 255
 3.24562 -1.43445  3.06875 255 255 255
 2.02238 -1.07905  1.89648 255 255 255
  2.78509 -0.505403   2.11409 255 255 255
 2.62837 -0.92402  2.33205 255 255 255
  2.59093 -0.649455   2.04301 255 255 255
 2.72646 -1.54091   2.7849 255 255 255
  2.54508 -0.938679   2.27109 255 255 255
  2.99443 -0.968241   2.52364 255 255 255
  2.42758 -0.749012   1.98416 255 255 255
   2.9448 -0.643928   2.36763 255 255 255
  2.45597 -0.970554   2.22578 255 255 255
 2.78232 -1.68183  2.90254 255 255 255
  2.65487 -0.731657   2.20473 255 255 255
 2.77392 -1.51419  2.78653 255 255 255
   2.4239 -0.694511   1.96943 255 255 255
 2.97765 -1.62169  3.01428 255 255 255
 2.32794 -0.86309  1.99368 255 255 255
   3.0587 -0.410868   2.28458 255 255 255
  2.60331 -0.626136   2.04014 255 255 255
 2.18565 -1.14885  2.08971 255 255 255
 2.43832 -1.03577  2.27221 255 255 255
 3.19676 -1.51324  3.08139 255 255 255
 2.56033 -1.36397  2.49475 255 255 255
 2.41482 -1.76714  2.68904 255 255 255
 3.20472 -0.37092  2.35242 255 255 255
2.54266 -1.6044 2.68522 255 255 255
 2.39653 -1.67458  2.61976 255 255 255
 3.10885 -1.58119  3.05962 255 255 255
 2.18829 -1.13912  2.08726 255 255 255
 2.30051 -1.65497  2.54248 255 255 255
 3.23652 -1.17636  2.91809 255 255 255
2.87154 -1.6712 2.97081 255 255 255
 2.31308 -1.14481  2.24931 255 255 255
  2.79188 -0.665343   2.27742 255 255 255
2.17092 -1.2639 2.19587 255 255 255
 3.14539 -1.36305  2.96844 255 255 255
  3.32315 -0.397377    2.4443 255 255 255
 2.84392 -1.30922  2.65262 255 255 255
  2.85336 -0.601545   2.27168 255 255 255
 2.16437 -1.22989  2.14346 255 255 255
  2.77651 -0.846531   2.38177 255 255 255
   3.3776 -0.740484   2.70606 255 255 255
  2.73732 -0.735572   2.27884 255 255 255
 2.25141 -1.25034  2.25346 255 255 255
  3.32766 -0.727331   2.64582 255 255 255
 2.13149 -1.41333  2.26663 255 255 255
 3.00717 -0.93404   2.5135 255 255 255
  2.3539 -1.17656  2.29684 255 255 255
 2.54679 -1.65723  2.70294 255 255 255
 3.17909 -1.54443  3.08308 255 255 255
 2.94917 -1.31888  2.72769 255 255 255
 3.29206 -1.69702  3.23048 255 255 255
 2.43016 -1.45818  2.46447 255 255 255
  2.3053 -1.11566  2.20076 255 255 255
 2.52547 -1.73503  2.74736 255 255 255
  2.8378 -1.08506    2.519 255 255 255
 2.17566 -1.41282  2.29565 255 255 255
 2.30418 -1.63235  2.52098 255 255 255
  2.1732 -1.22728  2.14341 255 255 255
2.09171 -1.4611 2.26975 255 255 255
  2.1772 -1.15535  2.08701 255 255 255
 2.66881 -1.63645  2.80056 255 255 255
 3.28218 -1.63073  3.18938 255 255 255
 3.15216 -1.62977   3.1138 255 255 255
