ply
format ascii 1.0
element vertex 1153
property float x
property float y
property float z
property uchar red
property uchar green
property uchar blue
end_header
-0.350961   1.45312   1.28849 255 255 255
-0.0630687    1.12131    1.45062 255 255 255
-0.170486   1.12744   1.47708 255 255 255
-0.486258   1.18506   1.48716 255 255 255
-0.685581  0.532343   1.89529 255 255 255
-0.62194  1.31357  1.39008 255 255 255
-0.410209   1.40495   1.31846 255 255 255
-0.165538  0.640465   1.67348 255 255 255
-0.851564  0.879916   1.74548 255 255 255
-0.155044   1.23475   1.40254 255 255 255
-1.03245 0.863819  1.79853 255 255 255
0.202872 0.978299  1.49277 255 255 255
-0.36471 0.399336  1.85429 255 255 255
-0.794397   1.22125   1.38523 255 255 255
-0.621948  0.868224   1.68562 255 255 255
-0.689374  0.806559   1.73396 255 255 255
-0.0828942   0.883802    1.54992 255 255 255
-0.484311   1.37371   1.34795 255 255 255
-0.584101  0.898853   1.62813 255 255 255
-0.909274  0.788852   1.78052 255 255 255
0.0642373   1.01548    1.4926 255 255 255
-0.396902   1.04733    1.5573 255 255 255
-0.0801079   0.413466     1.8087 255 255 255
-0.613887  0.830313   1.70358 255 255 255
-0.315439   1.48582   1.25024 255 255 255
-0.458186   1.39506   1.33708 255 255 255
-0.378975  0.470937   1.81403 255 255 255
0.181796 0.605318  1.60313 255 255 255
-0.73413  1.19748  1.51954 255 255 255
 0.25968 0.489645  1.63468 255 255 255
-0.517599   1.41345   1.26754 255 255 255
-0.323012   1.47303   1.26069 255 255 255
-0.570898  0.555173    1.8643 255 255 255
-0.56644 0.886762  1.64462 255 255 255
-0.332768  0.345184   1.86266 255 255 255
0.0316681  0.732665   1.61223 255 255 255
-0.068807  0.939186   1.54529 255 255 255
-0.157161  0.219579   1.89544 255 255 255
-0.0817959   0.124637    1.90877 255 255 255
-0.269843  0.174275   1.95474 255 255 255
-1.23078 0.983088  1.70686 255 255 255
-0.0226594   0.918571    1.54254 255 255 255
-1.11028  1.08518  1.58142 255 255 255
-0.114566   1.17555   1.44493 255 255 255
-1.13474 0.916475  1.73841 255 255 255
-0.0397295   0.965137    1.51862 255 255 255
-0.0132818   0.902702    1.59488 255 255 255
-0.685195  0.833948   1.71996 255 255 255
-0.776175  0.818822   1.74626 255 255 255
-0.00864752    0.959232     1.51533 255 255 255
-0.668449   1.20624   1.50434 255 255 255
-1.10596 0.974502   1.6637 255 255 255
0.0483521   0.27788   1.82205 255 255 255
0.0623872   1.11464   1.44489 255 255 255
-0.0136601    0.46381    1.78228 255 255 255
-1.01663  1.03289  1.61677 255 255 255
0.240224 0.960319  1.48445 255 255 255
-0.498755  0.822079   1.68909 255 255 255
-0.359565  0.285373   1.93997 255 255 255
-0.837038  0.586749    1.8956 255 255 255
-0.579727  0.769342   1.73228 255 255 255
-0.985258   1.05006   1.61368 255 255 255
-0.365735   1.11657   1.47386 255 255 255
0.0169023  0.929036   1.53572 255 255 255
-0.514195   1.43187   1.22451 255 255 255
0.450786 0.385619   1.7379 255 255 255
0.239133 0.597637  1.66383 255 255 255
0.203422 0.469297  1.67568 255 255 255
-0.612661  0.751033   1.74045 255 255 255
0.217192 0.261259  1.84023 255 255 255
-0.918655   1.08378   1.55499 255 255 255
-0.252892   1.13621   1.47924 255 255 255
 0.27896 0.491111  1.64491 255 255 255
-0.532325  0.889077   1.62937 255 255 255
-0.284446   1.34863   1.35573 255 255 255
-0.349023   1.47363    1.2674 255 255 255
-0.990019   1.03758   1.65601 255 255 255
-1.15122 0.949469  1.70727 255 255 255
-0.936329  0.964277   1.72013 255 255 255
-0.629116    1.0955   1.57259 255 255 255
-0.650714   1.23269   1.46776 255 255 255
-0.598296   1.25978   1.46199 255 255 255
-0.538235  0.523017   1.85219 255 255 255
-0.29442 0.188884  1.94543 255 255 255
-0.259377   1.32943    1.3817 255 255 255
0.246485 0.712117  1.58501 255 255 255
0.0188501    1.1782   1.43654 255 255 255
-0.378729   1.49377   1.25275 255 255 255
-0.479998  0.785854    1.6703 255 255 255
-1.11516 0.880316  1.80599 255 255 255
 0.14937 0.417409  1.68897 255 255 255
-0.37784  1.54277  1.22078 255 255 255
-0.0870196   0.215634    1.88169 255 255 255
-0.0192256   0.790776    1.57419 255 255 255
-1.06483  1.00533  1.66059 255 255 255
-0.0153683     0.8628    1.59556 255 255 255
-0.438753   1.39024   1.32825 255 255 255
-0.0559576   0.954468    1.52874 255 255 255
-0.224673  0.934018   1.59677 255 255 255
-0.109459  0.903887   1.56239 255 255 255
-0.683036   1.20255   1.49595 255 255 255
-0.378504   1.52056   1.21545 255 255 255
0.0345647  0.487011   1.76825 255 255 255
-0.344566   1.53368   1.21481 255 255 255
-1.05152  1.09797  1.54746 255 255 255
-0.517565   1.42121   1.23595 255 255 255
0.104673 0.859834  1.54646 255 255 255
-0.221765   1.23503   1.36738 255 255 255
-0.909533  0.953319   1.71664 255 255 255
0.263928 0.453888  1.67794 255 255 255
-1.05026 0.974927  1.71008 255 255 255
-0.813693  0.772342   1.79719 255 255 255
0.00903344    1.19471    1.40673 255 255 255
-0.302215   1.07736   1.52829 255 255 255
-0.431766   1.48131   1.26398 255 255 255
0.103416 0.381443  1.72774 255 255 255
-0.84947 0.788029  1.78068 255 255 255
-0.910211   1.09932     1.533 255 255 255
-0.0335668    1.24688    1.40458 255 255 255
0.182668 0.437002  1.66461 255 255 255
-0.659947  0.820018   1.70705 255 255 255
0.128363 0.879228  1.53115 255 255 255
0.020821    0.949  1.49297 255 255 255
0.187657 0.377965  1.69886 255 255 255
-0.468216    1.1445   1.49233 255 255 255
-0.359298   1.46624   1.27498 255 255 255
0.0627387   1.03125   1.49645 255 255 255
-0.853373   1.13395   1.54937 255 255 255
-0.161074  0.094193   1.92781 255 255 255
-0.674519  0.466428   1.92189 255 255 255
-0.536336   1.32643   1.39554 255 255 255
0.081091 0.986423   1.4919 255 255 255
-0.984202  0.794684   1.81218 255 255 255
-0.934675  0.648689   1.89331 255 255 255
-0.928659  0.989267   1.70473 255 255 255
-0.281718   1.21378   1.34725 255 255 255
  0.4128 0.760763  1.49193 255 255 255
-0.898086   1.09625   1.54299 255 255 255
-0.620346   1.32967    1.3235 255 255 255
-0.402114   1.01877    1.5815 255 255 255
0.198905  0.51998  1.69606 255 255 255
-0.0615423     1.2478    1.39484 255 255 255
-0.0265779   0.899061    1.54795 255 255 255
0.251121 0.864515  1.52812 255 255 255
0.070585 0.925049  1.55057 255 255 255
-0.104176    1.1927   1.42815 255 255 255
-0.211529   1.25385   1.39584 255 255 255
0.217123 0.422598  1.66318 255 255 255
-0.290095   0.24584   1.89804 255 255 255
-0.708448  0.482727   1.92264 255 255 255
-0.629295   0.69571   1.75775 255 255 255
0.0247554   1.16241    1.4138 255 255 255
-0.145783   1.16543   1.46559 255 255 255
-0.271923   1.45566   1.30536 255 255 255
-0.401019   1.42553   1.29962 255 255 255
0.180717 0.532925  1.72709 255 255 255
-0.372849  0.588052   1.77938 255 255 255
-0.725708  0.529779    1.9183 255 255 255
-0.932612   1.17308   1.48149 255 255 255
-0.452034   1.31444   1.42404 255 255 255
-0.169104  0.743473    1.6627 255 255 255
-0.142066   1.12202   1.45398 255 255 255
-0.513724  0.958657   1.63899 255 255 255
-0.666219  0.437822   1.93893 255 255 255
-0.383776   1.49061   1.23175 255 255 255
-0.0491991   0.217596    1.85274 255 255 255
-0.336251   1.45077   1.27538 255 255 255
-0.369081   1.47341   1.27556 255 255 255
0.163844 0.429605   1.6775 255 255 255
-0.0835065    1.12341    1.46462 255 255 255
-1.13458 0.865729  1.81069 255 255 255
0.00107701   0.921424    1.52989 255 255 255
-0.4644 1.20255 1.47181 255 255 255
-0.917547   0.70968   1.85909 255 255 255
-1.10778 0.904858  1.78135 255 255 255
-0.395979   1.48331   1.24216 255 255 255
-0.591501    1.2734   1.42511 255 255 255
-0.889516   1.13877   1.49366 255 255 255
-0.327134   0.83605   1.66542 255 255 255
-0.364377   1.38871   1.36012 255 255 255
-0.387767   1.43673   1.29717 255 255 255
-0.339638   1.48126   1.25947 255 255 255
-0.369734    1.3773   1.36354 255 255 255
-0.325018   1.31476   1.38608 255 255 255
-0.463255  0.803069   1.71746 255 255 255
-0.67236 0.967309  1.63391 255 255 255
-0.157035   1.07943   1.56638 255 255 255
-0.46697  1.43934  1.26955 255 255 255
-0.435743   1.48788   1.25723 255 255 255
-0.425405   0.84369   1.68156 255 255 255
-0.0900621  0.0902247     1.9445 255 255 255
-0.295962   0.71079   1.69687 255 255 255
0.108043 0.476904  1.73127 255 255 255
-0.432276  0.978408    1.5735 255 255 255
-0.63547 0.694722  1.73039 255 255 255
-0.723999   1.22539    1.4564 255 255 255
-0.405872  0.946204   1.61999 255 255 255
-1.13554 0.950485  1.73869 255 255 255
-0.609615   1.07263   1.58571 255 255 255
-0.384861   1.26572    1.4267 255 255 255
-0.478788    1.0007   1.57095 255 255 255
-0.393136   1.45638   1.28571 255 255 255
-0.675871   1.18088   1.51246 255 255 255
-0.402725   1.25176   1.43401 255 255 255
-0.488338   1.28641   1.45103 255 255 255
-0.487729    1.4021   1.28967 255 255 255
-0.0676398   0.739777    1.63726 255 255 255
0.205304 0.401478   1.7034 255 255 255
-0.0825424   0.956294    1.54719 255 255 255
-1.09642 0.890985   1.8014 255 255 255
0.192842 0.449128  1.66678 255 255 255
-0.619565   1.05392   1.58617 255 255 255
-0.0191244   0.943472    1.52202 255 255 255
-0.732289  0.966583   1.64121 255 255 255
-0.936536   1.15679   1.47112 255 255 255
-0.363089    1.0443   1.54547 255 255 255
0.00724335   0.882153    1.57531 255 255 255
-0.0922803    1.07289    1.48385 255 255 255
-0.965413   1.04417   1.65016 255 255 255
-0.881017  0.707483    1.9202 255 255 255
-0.474936    1.3236   1.39275 255 255 255
-0.676603  0.481498   1.93645 255 255 255
-0.904712    1.1265   1.50475 255 255 255
-0.706082  0.683253   1.71678 255 255 255
-0.576258   1.37341   1.35154 255 255 255
-0.323108    1.0773   1.54456 255 255 255
-0.660334   1.26414   1.41344 255 255 255
0.0513856  0.977787   1.48432 255 255 255
-0.94577 0.983464  1.69884 255 255 255
-0.618789   1.34949   1.29307 255 255 255
-0.183583  0.964266    1.5602 255 255 255
-0.413864  0.834275   1.68552 255 255 255
-0.432214    1.4469   1.25834 255 255 255
0.122992 0.192852  1.82582 255 255 255
-0.0484835   0.817443    1.61697 255 255 255
-0.337552   1.51477    1.2384 255 255 255
0.0862082   1.08536   1.45477 255 255 255
-0.246521   1.44284   1.30473 255 255 255
0.293428 0.814455  1.53486 255 255 255
-0.443467  0.842024   1.69109 255 255 255
-0.629028   1.17306   1.53179 255 255 255
-0.168399   1.30911   1.32704 255 255 255
-0.239501   1.05512   1.59143 255 255 255
-0.78889  1.20807  1.43305 255 255 255
-0.211891   1.33959   1.33886 255 255 255
-0.0237131    1.03077    1.50667 255 255 255
-0.918576  0.734453    1.8379 255 255 255
-0.377139   1.39186   1.34179 255 255 255
-0.125355  0.903385   1.56506 255 255 255
 0.23459 0.751963  1.58126 255 255 255
 -1.1345 0.847128  1.82795 255 255 255
-0.6778 1.25346 1.46915 255 255 255
-0.646826  0.644561   1.80005 255 255 255
0.270014 0.799859  1.54636 255 255 255
-0.192787  0.348228   1.86855 255 255 255
-1.08334  1.02567  1.57096 255 255 255
-0.476113   1.33835   1.37512 255 255 255
0.0321425   1.04243   1.48952 255 255 255
-0.359976  0.902265   1.64135 255 255 255
-0.81562  1.14946   1.5092 255 255 255
-0.196463   1.29248    1.2927 255 255 255
-0.547627   1.25444   1.44732 255 255 255
-1.0026 1.01937 1.66866 255 255 255
-0.113267  0.139364   1.93413 255 255 255
0.217327 0.987491  1.48645 255 255 255
-0.563914   1.23939   1.45743 255 255 255
-0.0415537    0.31009    1.84514 255 255 255
-0.199593   1.06017   1.51886 255 255 255
-0.695924   1.21412    1.4996 255 255 255
-0.336765   1.30601   1.39491 255 255 255
-0.368932  0.970405   1.60206 255 255 255
-0.0463556   0.770253    1.60456 255 255 255
-0.507158   1.33821    1.3739 255 255 255
-0.0116768    1.03765     1.4965 255 255 255
0.0916734  0.994846   1.49842 255 255 255
-0.107514  0.765245   1.65788 255 255 255
-0.272827   1.01911   1.55057 255 255 255
-0.278947  0.332721   1.90714 255 255 255
-0.488343  0.761243   1.70605 255 255 255
-0.634339   1.18251   1.50374 255 255 255
0.0717523  0.245574   1.78946 255 255 255
-0.679738   1.14398   1.56443 255 255 255
-0.933555   0.72988   1.83974 255 255 255
-0.430249   0.99468   1.60069 255 255 255
-0.893442  0.672852   1.86744 255 255 255
-0.614679   1.33551   1.34538 255 255 255
0.230111 0.873549  1.52329 255 255 255
0.324836 0.836657  1.58024 255 255 255
-0.57418  1.05574  1.58059 255 255 255
-0.376536   1.42938   1.29606 255 255 255
-0.427279   1.25907   1.43881 255 255 255
-0.0375464    1.11871    1.47276 255 255 255
-1.01011  1.03504  1.54122 255 255 255
0.119287 0.534993  1.71548 255 255 255
-0.672475   1.30004   1.41254 255 255 255
-0.36652 0.565194  1.81122 255 255 255
-0.133675  0.337153   1.84446 255 255 255
-0.888338   1.03817   1.66423 255 255 255
-0.0118668    0.32603    1.83238 255 255 255
-0.456451   1.46636   1.25453 255 255 255
0.343808 0.771269  1.49981 255 255 255
-0.705744   1.06079   1.61304 255 255 255
-0.889469  0.788711   1.78754 255 255 255
0.168969 0.488437  1.67204 255 255 255
-0.453566   1.44175   1.27626 255 255 255
-0.439513  0.382356   1.91029 255 255 255
-0.372098   1.05641   1.55994 255 255 255
-0.627878   1.34191   1.30448 255 255 255
-0.269794   1.42476   1.32126 255 255 255
-0.691965   1.05472   1.61136 255 255 255
-0.040852     0.912   1.53315 255 255 255
0.0373325 0.0692832   1.89955 255 255 255
0.0647902  0.395772   1.76892 255 255 255
0.235332 0.292409  1.76672 255 255 255
-0.469723   1.38473   1.34113 255 255 255
-0.0260555   0.165003    1.86912 255 255 255
-0.527506  0.956296   1.63168 255 255 255
-1.03454  1.14916  1.54481 255 255 255
-0.362109  0.990779   1.59573 255 255 255
-0.690752  0.975312   1.63586 255 255 255
0.163381 0.527313  1.71723 255 255 255
-0.328305   1.06133   1.54238 255 255 255
-0.382927   1.46087   1.27923 255 255 255
-0.316228  0.897693   1.62672 255 255 255
0.319653 0.804004  1.56011 255 255 255
 -1.1048 0.991914  1.59832 255 255 255
-0.225199  0.937431   1.58951 255 255 255
-0.357061  0.481188   1.81527 255 255 255
-0.879722   1.09981   1.60071 255 255 255
-0.387775  0.845837   1.67868 255 255 255
-0.557621    1.3745   1.29076 255 255 255
-0.0606591      1.103    1.46175 255 255 255
0.153939 0.511911  1.71784 255 255 255
-1.03172  1.02253   1.6123 255 255 255
0.0917185  0.927857   1.53888 255 255 255
0.406268 0.776605  1.53693 255 255 255
-0.484348  0.726344   1.74163 255 255 255
-0.96721 0.982985  1.68937 255 255 255
-0.716198   1.00531   1.63515 255 255 255
-0.624916    1.2532   1.45467 255 255 255
-0.353797   1.36256   1.37574 255 255 255
-0.949014   1.07613   1.58403 255 255 255
-0.407785   1.51198   1.23907 255 255 255
-0.672802    1.0845   1.58778 255 255 255
-0.130048  0.291082   1.86626 255 255 255
-0.315296    1.4248   1.33274 255 255 255
0.100217 0.748945  1.59222 255 255 255
-1.17561 0.950984  1.71221 255 255 255
-0.298493     1.408   1.33557 255 255 255
-0.455105   1.33113   1.38949 255 255 255
-0.585051   1.29979   1.42321 255 255 255
-0.765787    1.2871   1.35764 255 255 255
0.0506528  0.371024   1.78717 255 255 255
-0.116271   1.20009   1.42941 255 255 255
-0.349206   1.48046   1.25776 255 255 255
-0.496175   1.16912   1.49931 255 255 255
-0.393716    1.5143    1.2106 255 255 255
-0.365652   1.35403   1.38669 255 255 255
-0.263734  0.116618   1.96751 255 255 255
0.100206  0.58908  1.65583 255 255 255
-1.1269 1.04985 1.59686 255 255 255
0.0271516  0.304843   1.80805 255 255 255
-0.188632   1.06556   1.51683 255 255 255
-0.0606345   0.353234    1.82344 255 255 255
0.0352656  0.832192   1.55548 255 255 255
-0.402645   1.03408   1.56133 255 255 255
-0.308999   1.39924   1.34452 255 255 255
-0.246254   0.13862   1.96459 255 255 255
-0.260585   1.04762   1.59836 255 255 255
-0.818871   1.11701   1.58129 255 255 255
-0.644699   1.12748   1.56145 255 255 255
-0.700109  0.992787   1.63302 255 255 255
-0.199663   1.07281   1.51794 255 255 255
-0.479305   1.40972   1.28165 255 255 255
0.105858 0.900704  1.50994 255 255 255
-0.15612  1.26105  1.36402 255 255 255
-0.4431  1.2868 1.43269 255 255 255
-0.433953  0.892164   1.66428 255 255 255
0.0232651   1.05511   1.48753 255 255 255
-0.434293   1.44719   1.28761 255 255 255
-0.534613  0.875453   1.65765 255 255 255
-0.274458   1.04342   1.54612 255 255 255
-0.121243   0.11019   1.90088 255 255 255
-0.508999   1.42105    1.2845 255 255 255
-0.445803  0.371342   1.90718 255 255 255
-0.733105   1.04804   1.61896 255 255 255
-0.443015   1.40607   1.32541 255 255 255
-0.452758  0.391963   1.89814 255 255 255
-0.489335   1.40354   1.27616 255 255 255
-0.484603  0.701815    1.7463 255 255 255
-0.681945  0.958388   1.64037 255 255 255
-0.507799  0.865924   1.68226 255 255 255
-0.865366  0.864364   1.74747 255 255 255
0.246109 0.901623  1.51036 255 255 255
-0.808352   1.13945   1.56016 255 255 255
-0.476176  0.359743   1.90888 255 255 255
-0.473686    1.1879   1.49631 255 255 255
-0.309913   1.50824   1.23548 255 255 255
-0.299955   1.45019   1.29572 255 255 255
-0.47856  1.38677  1.34047 255 255 255
-0.871464  0.897797    1.7332 255 255 255
-0.104129 0.0431225   1.96272 255 255 255
-0.547283  0.476712   1.87237 255 255 255
-0.4574 1.47356 1.24779 255 255 255
-0.264198   1.47874   1.27877 255 255 255
-0.505725  0.835072   1.66475 255 255 255
0.013792  1.13321  1.44331 255 255 255
-0.430912  0.722485   1.75636 255 255 255
-0.937921  0.718803    1.7732 255 255 255
  -0.884 0.886411  1.74157 255 255 255
0.330577 0.816406  1.55526 255 255 255
 -1.0481 0.987537  1.71599 255 255 255
-0.282647   1.03443   1.55124 255 255 255
-0.931272  0.882387   1.75956 255 255 255
-0.722325   1.26808   1.36236 255 255 255
0.222912 0.464044  1.67903 255 255 255
-0.375955  0.314878   1.90866 255 255 255
-0.362352   1.49294   1.25379 255 255 255
-0.689626   1.32466   1.34678 255 255 255
-0.657003  0.834364   1.71046 255 255 255
-0.209423   1.05147   1.52923 255 255 255
 -0.8198 0.738821  1.80959 255 255 255
-0.376971   1.40939   1.31886 255 255 255
0.140445 0.960447  1.51997 255 255 255
-0.43964  1.41558  1.31885 255 255 255
-0.535495   1.39198   1.32396 255 255 255
-0.512636  0.872596   1.66091 255 255 255
-0.439678   1.43029   1.31039 255 255 255
-0.417503   1.35289   1.39174 255 255 255
-0.00170316   0.0956064     1.90058 255 255 255
-0.543999   1.31384   1.40294 255 255 255
-0.885274  0.643509   1.89629 255 255 255
-0.325035    1.4496   1.28848 255 255 255
-0.409013   1.07324   1.52695 255 255 255
-0.0325242   0.258948    1.85697 255 255 255
-0.872777  0.828299   1.76328 255 255 255
-0.806039      1.24   1.39158 255 255 255
-0.442435  0.758569   1.75376 255 255 255
-0.15815  1.10612  1.48963 255 255 255
-0.127525  0.235663   1.88494 255 255 255
-0.782813  0.732464   1.78034 255 255 255
-0.687879   1.04177   1.60798 255 255 255
-0.715432  0.939703   1.66364 255 255 255
-0.67244  1.21242  1.49458 255 255 255
-0.0113954   0.301128    1.83079 255 255 255
-0.646623  0.545109   1.87742 255 255 255
-0.340696    1.1762   1.38243 255 255 255
0.199075 0.262063  1.81473 255 255 255
 -1.0798 0.910154  1.76672 255 255 255
-0.121554   0.74229   1.66122 255 255 255
-0.178005  0.097561   1.94714 255 255 255
-0.333203   1.50215   1.23776 255 255 255
-0.453052  0.924423   1.64279 255 255 255
-1.0671 0.98081 1.70856 255 255 255
-0.519829  0.943798   1.65415 255 255 255
-0.496429  0.815324   1.68068 255 255 255
-0.818061   1.25942   1.39697 255 255 255
0.015481   1.0401  1.48104 255 255 255
-0.645644   1.19073   1.51237 255 255 255
-0.47829 0.484047  1.86535 255 255 255
-0.608928   1.30985   1.38754 255 255 255
-0.677946  0.852763   1.70613 255 255 255
-0.345254    1.5107    1.2406 255 255 255
-0.328284   1.45831    1.2778 255 255 255
-0.399203   1.43572   1.29393 255 255 255
0.0858421  0.439358   1.76136 255 255 255
0.306094 0.818999  1.55443 255 255 255
-0.689929   1.31387   1.32201 255 255 255
-0.264891   0.80798   1.67004 255 255 255
-0.667907   1.26474   1.47017 255 255 255
0.0123437 0.0954621   1.89111 255 255 255
0.236335 0.551085  1.68296 255 255 255
-0.251113   1.45126   1.30771 255 255 255
-0.528062   1.28437   1.42043 255 255 255
-0.708388  0.701091    1.7024 255 255 255
0.041547 0.908731  1.55264 255 255 255
-0.46746 0.462293  1.87514 255 255 255
-0.783008   1.11902   1.60404 255 255 255
-0.261298   1.43304   1.31909 255 255 255
-0.247943   0.10793    1.9724 255 255 255
-0.779635  0.738915   1.79251 255 255 255
-0.470388   1.45243   1.21515 255 255 255
-0.535369  0.835631   1.66605 255 255 255
-0.27036  1.43276  1.31831 255 255 255
-0.0308411   0.853236    1.60387 255 255 255
-0.458768  0.440995   1.88703 255 255 255
0.244534 0.616854  1.64435 255 255 255
-0.176807   0.54613    1.7022 255 255 255
-0.817222   1.12564   1.56959 255 255 255
-0.469769  0.692025   1.73122 255 255 255
-0.788205   1.22786   1.40472 255 255 255
0.0877796  0.520189   1.73678 255 255 255
-0.445645  0.851692   1.64461 255 255 255
0.202993  0.44204  1.68275 255 255 255
-0.472075  0.475053   1.86589 255 255 255
-0.150076   1.24404   1.39417 255 255 255
-0.240127   1.13637   1.48873 255 255 255
-0.679834   1.10518   1.58191 255 255 255
-0.21959   1.1993  1.42194 255 255 255
0.00804128    1.23091    1.40472 255 255 255
0.0177196   1.19492   1.40794 255 255 255
-0.816853  0.748965    1.8088 255 255 255
-0.286135   1.48341    1.2515 255 255 255
-0.0774276   0.262192    1.87368 255 255 255
-0.623994   1.26285   1.45219 255 255 255
-0.408304   1.45265   1.28844 255 255 255
-0.228773   0.56518   1.75407 255 255 255
-0.527674  0.886118   1.65397 255 255 255
-0.927954  0.667639   1.88935 255 255 255
-0.366914   1.43346    1.2955 255 255 255
-0.897228   1.11053   1.55183 255 255 255
-0.540818   1.23839    1.4837 255 255 255
-0.422349   1.06669   1.53891 255 255 255
-1.09562 0.985987  1.67554 255 255 255
-0.273528   1.44508   1.31434 255 255 255
0.0525234  0.437164   1.76954 255 255 255
0.0939565  0.479295   1.73489 255 255 255
-0.515871  0.905562   1.66423 255 255 255
-0.703523  0.947872   1.65644 255 255 255
-0.691137   1.23641   1.48865 255 255 255
-0.825078   1.01736   1.66575 255 255 255
-0.826453  0.581977   1.89841 255 255 255
-1.00194 0.814829  1.81237 255 255 255
-0.394811   1.00984   1.57911 255 255 255
-0.804003   1.18899   1.45405 255 255 255
-0.43911 0.343614  1.92731 255 255 255
-0.567963  0.918489   1.63448 255 255 255
-0.856074  0.825238   1.75846 255 255 255
-0.0994795   0.905344    1.55229 255 255 255
-0.00217492     0.86417     1.59165 255 255 255
0.0831226   1.10865   1.44479 255 255 255
-0.638663   1.10825   1.57565 255 255 255
-0.434294  0.782357   1.70524 255 255 255
0.114856 0.533462  1.72966 255 255 255
-1.06676 0.882819  1.79451 255 255 255
-1.02984  0.82936  1.79987 255 255 255
-0.399934  0.870253   1.66937 255 255 255
-0.934202   1.08741   1.56309 255 255 255
-1.08788 0.799251  1.84009 255 255 255
-0.699979  0.988563    1.6355 255 255 255
-0.520853   1.40418   1.28721 255 255 255
-0.832238    1.1419   1.56133 255 255 255
-0.752156   1.20119   1.51926 255 255 255
-0.77902  1.00143  1.65239 255 255 255
-0.263433  0.625964    1.7647 255 255 255
-0.259248   1.44157   1.30908 255 255 255
-0.993646  0.806054   1.83534 255 255 255
-0.610663   1.25752   1.44846 255 255 255
-0.351399  0.977112   1.59741 255 255 255
-0.464197  0.878377   1.67349 255 255 255
-0.727112    1.2353   1.45511 255 255 255
-1.01071  1.05405  1.57863 255 255 255
-1.14713  1.05712  1.61057 255 255 255
0.0221773  0.640448   1.62821 255 255 255
-0.152212  0.703168   1.68294 255 255 255
-0.291481   1.45617   1.29621 255 255 255
0.0121551 0.0658076    1.8558 255 255 255
-0.222056  0.228377   1.91268 255 255 255
-1.05568  1.07798    1.545 255 255 255
-0.388953  0.834579   1.68396 255 255 255
-0.827043  0.768806   1.79194 255 255 255
-0.441429  0.844255   1.65126 255 255 255
-0.716646   1.10558   1.59799 255 255 255
-0.432386  0.362517   1.91698 255 255 255
-0.707317  0.968999   1.71554 255 255 255
-1.09337  1.04946  1.56387 255 255 255
0.293291 0.911186  1.48744 255 255 255
-0.325894   1.50101   1.23855 255 255 255
-0.19161 0.950826    1.566 255 255 255
-0.507329   1.42679   1.29779 255 255 255
-0.026418  0.510415   1.71824 255 255 255
-0.716583   1.21951   1.50226 255 255 255
-0.745585    1.0328   1.62846 255 255 255
-0.553852    1.3822   1.33414 255 255 255
-0.968776  0.995734   1.68016 255 255 255
-0.719042   1.03169   1.62357 255 255 255
-0.758003  0.998592   1.64415 255 255 255
0.165234 0.549505  1.71701 255 255 255
0.235694 0.402418  1.68474 255 255 255
-0.863641   1.08442   1.60755 255 255 255
-0.167429   1.06152   1.50594 255 255 255
-1.07904  1.10168  1.56313 255 255 255
-0.434731   1.44503   1.30342 255 255 255
-0.355134   1.50114   1.24758 255 255 255
-0.942716  0.880992   1.75836 255 255 255
-0.808232  0.740289   1.81623 255 255 255
-0.119528  0.672316   1.69813 255 255 255
-0.811622   1.19941   1.43958 255 255 255
-0.968943  0.949686   1.73974 255 255 255
-0.108863  0.703607   1.68395 255 255 255
-1.25784  1.00445  1.68535 255 255 255
-0.5739 1.12014 1.54052 255 255 255
-0.462521  0.282152   1.94918 255 255 255
-0.0876607    1.24177    1.40465 255 255 255
-0.991477   1.00148   1.68402 255 255 255
-0.53792  1.10066  1.53582 255 255 255
-0.957727  0.959732   1.72719 255 255 255
-0.834145  0.791697   1.77799 255 255 255
-0.562331   1.37738   1.34322 255 255 255
-0.321817   1.46331   1.27706 255 255 255
-1.13325 0.911786  1.77784 255 255 255
0.148906 0.399201   1.6954 255 255 255
-0.435818  0.748446   1.74111 255 255 255
0.237317 0.992093  1.48097 255 255 255
0.227155 0.459446  1.65538 255 255 255
-0.360811   1.52455   1.22039 255 255 255
-0.15392  1.11394  1.48694 255 255 255
-0.667559  0.987944   1.62544 255 255 255
-0.406901   1.50851   1.18137 255 255 255
-0.636377  0.851449    1.6888 255 255 255
-0.386274   1.39425   1.33922 255 255 255
-0.188228  0.275526   1.90662 255 255 255
-0.733952   1.23564   1.44866 255 255 255
-0.767808  0.579806   1.88991 255 255 255
-1.15374  1.03263   1.6018 255 255 255
-0.430681   1.42044   1.31519 255 255 255
-0.970377  0.939598   1.74168 255 255 255
-0.0652797   0.424351    1.81289 255 255 255
-0.549478  0.925863   1.62047 255 255 255
-0.462279  0.412126   1.88035 255 255 255
-0.0372759    1.23016    1.39601 255 255 255
-0.842364  0.787628   1.77776 255 255 255
-0.462833   1.41044   1.32743 255 255 255
-0.301969  0.730754   1.66923 255 255 255
-1.10945 0.857681  1.81738 255 255 255
-0.749807  0.903709   1.68189 255 255 255
-0.749287    1.1546    1.5461 255 255 255
-0.0309299    1.04663    1.49536 255 255 255
-0.802434   1.12046   1.56561 255 255 255
0.140373 0.535717  1.71656 255 255 255
-0.340855   1.09954   1.51486 255 255 255
-0.742716  0.538686   1.93443 255 255 255
0.145149 0.410495  1.69005 255 255 255
0.0620395  0.834124   1.58267 255 255 255
-1.03736 0.925381  1.74272 255 255 255
-0.306236  0.882124   1.63229 255 255 255
-0.300272  0.692342   1.67917 255 255 255
-0.71901  1.04904  1.60844 255 255 255
-0.513415   1.37295   1.36294 255 255 255
-0.377389   1.47916   1.26893 255 255 255
-0.703006   1.21969   1.49704 255 255 255
-0.738039   1.05734   1.62185 255 255 255
-0.972194     1.096   1.54278 255 255 255
-0.678994   1.02842   1.60885 255 255 255
-0.83334  1.22653  1.41065 255 255 255
0.00543039    1.02634    1.49929 255 255 255
-0.746658  0.877659    1.7025 255 255 255
0.331235 0.919901  1.49528 255 255 255
-0.726442  0.758366   1.75535 255 255 255
-0.604703   1.30895   1.40658 255 255 255
-1.0163 1.05522   1.565 255 255 255
-0.750394   1.18629   1.53241 255 255 255
 -0.5258 0.923827  1.64632 255 255 255
-1.11613 0.888583  1.79941 255 255 255
0.229121 0.947169  1.49679 255 255 255
-0.610359  0.890309   1.66317 255 255 255
-0.888302  0.630711   1.86988 255 255 255
0.0276369   0.19972   1.79197 255 255 255
-0.518091   1.41425   1.28283 255 255 255
-0.807244  0.729965   1.82733 255 255 255
-0.405179   1.51206   1.20758 255 255 255
-0.711273  0.865106   1.68206 255 255 255
-0.67016  0.71553  1.72893 255 255 255
-0.105034  0.997746   1.51739 255 255 255
-0.913995   1.12924   1.50193 255 255 255
-0.401877   1.50808   1.23947 255 255 255
-0.466349   1.27015   1.44809 255 255 255
-0.217628  0.999227   1.54565 255 255 255
-0.621344   1.17212   1.53974 255 255 255
-0.022821    1.0202   1.49812 255 255 255
-0.432679  0.393021   1.90692 255 255 255
-0.252945  0.562677   1.75304 255 255 255
-0.544519   1.30403   1.40868 255 255 255
-0.513601   1.38005   1.35779 255 255 255
-0.64347 0.987206  1.62405 255 255 255
-0.549846   1.33379   1.39399 255 255 255
-1.07003  1.04443  1.57949 255 255 255
0.0790747  0.223055   1.78891 255 255 255
-0.498324  0.976121   1.61753 255 255 255
-0.316242   1.51179   1.23118 255 255 255
0.311589 0.825803  1.56607 255 255 255
-0.505516   1.32101   1.39969 255 255 255
0.242473 0.434606  1.65697 255 255 255
-0.0352976   0.172937    1.86272 255 255 255
-0.696277   1.22618   1.49173 255 255 255
-0.307198    1.0828   1.52595 255 255 255
-0.265581   1.17374   1.45841 255 255 255
-0.0851828   0.332225    1.85248 255 255 255
 0.34928 0.781775  1.48189 255 255 255
0.0225886  0.634966   1.61412 255 255 255
-0.453906   1.27844   1.43725 255 255 255
0.0851589  0.481177   1.73072 255 255 255
-0.897419   1.17069   1.44826 255 255 255
-0.714219   1.25864   1.41223 255 255 255
-0.657475  0.965634   1.65721 255 255 255
-0.503951   1.42812   1.30696 255 255 255
-1.22893  1.03212  1.66939 255 255 255
-0.750857   1.17518   1.52839 255 255 255
-0.533555  0.897699   1.63374 255 255 255
-0.395523   1.47075   1.28289 255 255 255
-0.622601   1.18954   1.51382 255 255 255
-0.141187  0.194471   1.91293 255 255 255
-1.10557  1.06293  1.57651 255 255 255
0.0726753   1.08689   1.44944 255 255 255
-0.40874  1.43898  1.29927 255 255 255
-0.423256  0.291064   1.96158 255 255 255
-1.24436  1.00549  1.68836 255 255 255
-0.445289   1.33252   1.39937 255 255 255
0.100326 0.910052  1.53291 255 255 255
0.254203  1.00079  1.47036 255 255 255
-0.325938   1.52193   1.23698 255 255 255
-1.12514 0.960388   1.6806 255 255 255
-0.597966   1.23496   1.47272 255 255 255
-0.752549  0.885174   1.70551 255 255 255
-0.447103  0.422568   1.88441 255 255 255
-0.340406  0.259641   1.95217 255 255 255
-0.529441   1.35627   1.38337 255 255 255
-0.515224   1.02957   1.57674 255 255 255
-0.738559  0.885357   1.69409 255 255 255
-0.418449  0.258376   1.97098 255 255 255
-0.0515786   0.325578    1.85257 255 255 255
-0.220772  0.950098   1.56601 255 255 255
-0.922262   1.11836   1.48953 255 255 255
-0.663984  0.599445   1.84325 255 255 255
-0.343249  0.987476   1.58303 255 255 255
-0.376093   1.28504   1.42081 255 255 255
-0.383261   1.53173   1.19944 255 255 255
-0.97335   1.0109  1.67106 255 255 255
-0.639598  0.885914   1.67892 255 255 255
0.293232 0.321684  1.76975 255 255 255
-0.576737   1.36547   1.32486 255 255 255
-0.895257   1.11804   1.54307 255 255 255
-0.137879   1.32397   1.29332 255 255 255
-0.343305  0.260233   1.96065 255 255 255
-0.250689  0.218013   1.93347 255 255 255
0.119416 0.338582  1.73554 255 255 255
-1.06597 0.959746  1.72805 255 255 255
0.150233 0.526818  1.71221 255 255 255
-1.04057  1.07981  1.53353 255 255 255
-0.642897   1.14806   1.54744 255 255 255
0.0634244  0.801531   1.57389 255 255 255
-0.203905   1.00436   1.54533 255 255 255
-0.543455   1.35181   1.38312 255 255 255
-0.226788  0.268376   1.89007 255 255 255
-0.0488648   0.930717    1.53538 255 255 255
-0.730388  0.596364   1.87539 255 255 255
0.399475 0.830622  1.50205 255 255 255
-0.470038   1.32624   1.39154 255 255 255
-0.60854  1.30411  1.41999 255 255 255
-0.39893   1.5216  1.20335 255 255 255
-0.424167  0.288353   1.94608 255 255 255
-0.409965  0.729224   1.75415 255 255 255
-0.758958    1.1671   1.54102 255 255 255
-0.404072  0.972136   1.59805 255 255 255
-0.84766 0.900871  1.72645 255 255 255
-0.423847  0.245643    1.9622 255 255 255
-0.402527   1.02103   1.62905 255 255 255
-0.881063    0.6206   1.89487 255 255 255
-0.206358  0.210391   1.93281 255 255 255
-0.285404  0.251603   1.92718 255 255 255
-0.452294  0.875245   1.66864 255 255 255
-0.936144    1.0646   1.63375 255 255 255
-0.434422   1.00123   1.60158 255 255 255
0.196845 0.499872  1.69828 255 255 255
-0.611492   0.87867   1.67269 255 255 255
0.0322007  0.997711   1.48972 255 255 255
-0.41187 0.986444  1.60837 255 255 255
-1.09759  1.10878  1.57973 255 255 255
-0.324776   1.46791   1.25893 255 255 255
0.0937806  0.436801   1.75249 255 255 255
-1.06835 0.897405  1.77304 255 255 255
-0.669625  0.896676   1.67099 255 255 255
-0.0453294    1.11368    1.45556 255 255 255
-0.682403   1.32588   1.35529 255 255 255
-0.0685286   0.951602    1.52694 255 255 255
-0.310595   1.06976   1.52854 255 255 255
-1.07318 0.967668  1.69263 255 255 255
-0.292879   1.42766   1.32477 255 255 255
-0.27988  1.42439  1.32382 255 255 255
-0.549084   1.34884   1.37784 255 255 255
0.0346532  0.339233   1.79739 255 255 255
 -0.3352 0.846051  1.66432 255 255 255
-0.419777   1.48048    1.2562 255 255 255
-0.315155   1.00796   1.56529 255 255 255
-0.639596  0.951763   1.63201 255 255 255
-0.655973  0.600493   1.84827 255 255 255
-0.779845   1.04533   1.63192 255 255 255
-0.069941   1.02493   1.50045 255 255 255
-0.947821   1.01408   1.66617 255 255 255
-0.429136  0.382575   1.90977 255 255 255
0.00780787   0.290635    1.83443 255 255 255
-0.296827   1.39208   1.34249 255 255 255
-0.558383   1.27837   1.43194 255 255 255
-0.616234   1.33093   1.30877 255 255 255
-0.555136    1.3115   1.40722 255 255 255
0.166339  0.53848  1.72887 255 255 255
-0.0652021   0.749572    1.62674 255 255 255
-0.893911   1.24352   1.46027 255 255 255
-0.51014  1.05624  1.55851 255 255 255
-0.21092  1.11017  1.49525 255 255 255
-1.06213  1.04106  1.57584 255 255 255
-0.619442    1.3057   1.39108 255 255 255
-1.2547 1.00171 1.68577 255 255 255
-0.759241  0.889108   1.69768 255 255 255
-0.721642  0.600507   1.87186 255 255 255
-0.30422 0.898778  1.62179 255 255 255
-0.711049  0.913359   1.67902 255 255 255
-0.542662  0.390505   1.91834 255 255 255
-0.463849   1.01577   1.58857 255 255 255
-0.390107   1.44794   1.28701 255 255 255
-1.00227  1.04611  1.62145 255 255 255
0.0219354  0.240008   1.84218 255 255 255
0.192015 0.408001  1.70513 255 255 255
0.132458 0.498047  1.73034 255 255 255
-0.993812   1.04437    1.6195 255 255 255
-0.258006  0.930246   1.58776 255 255 255
-0.76223 0.470714  1.97197 255 255 255
-1.06978 0.874035  1.79495 255 255 255
-0.757601   1.05415   1.62285 255 255 255
-0.955126  0.688021   1.87575 255 255 255
-1.02035 0.990259  1.70413 255 255 255
-1.07503 0.978454   1.7067 255 255 255
 0.15436 0.549947  1.71455 255 255 255
-0.692873  0.886655   1.68333 255 255 255
0.0273845  0.329711   1.80994 255 255 255
-0.695977  0.777291   1.75331 255 255 255
0.0779589  0.319171   1.77408 255 255 255
-0.427061  0.298166    1.9408 255 255 255
-0.624814   1.18178   1.53766 255 255 255
-0.138307   1.16277   1.45955 255 255 255
-0.66252  0.80527  1.72946 255 255 255
-0.585829   1.21465   1.46979 255 255 255
-0.738782  0.817001   1.73651 255 255 255
-0.395226    1.5099   1.23735 255 255 255
0.361034  0.78419  1.49153 255 255 255
-0.756953   1.21394   1.46995 255 255 255
-0.102518  0.411899    1.8317 255 255 255
0.0941422   1.07304   1.45802 255 255 255
 -1.1386 0.873477  1.79273 255 255 255
-0.439175   1.00091   1.59038 255 255 255
-0.823023   1.22268   1.40303 255 255 255
-0.494168  0.925691    1.6554 255 255 255
-0.527239   1.42618   1.23013 255 255 255
-0.397701   1.44324   1.29252 255 255 255
-0.804781   1.02511   1.65055 255 255 255
-0.706452   1.20956   1.50112 255 255 255
-0.723675  0.568672   1.90074 255 255 255
-0.653605   1.20797   1.49332 255 255 255
-0.356832   1.36318     1.363 255 255 255
-0.390517   1.41141   1.31564 255 255 255
0.0626186 0.0923693   1.89223 255 255 255
-0.220618  0.564153   1.75761 255 255 255
-0.611177   1.33273   1.36705 255 255 255
-0.877803  0.612396   1.90395 255 255 255
-0.267033  0.157937   1.95142 255 255 255
-0.594234  0.472423   1.89503 255 255 255
-0.457471   1.10155   1.52026 255 255 255
-0.976372  0.863551   1.78167 255 255 255
-0.268388   1.44867   1.30993 255 255 255
-0.116362  0.369063   1.83846 255 255 255
-0.706788   1.17458   1.52204 255 255 255
-0.642358  0.974074    1.6317 255 255 255
0.0180495  0.485972    1.7698 255 255 255
-0.623791  0.677532   1.78105 255 255 255
-0.0428355   0.783167    1.60703 255 255 255
-0.209714  0.943504   1.58472 255 255 255
-0.511939  0.867375   1.64355 255 255 255
-0.175239  0.056049   1.96278 255 255 255
-0.913678   1.10166   1.53242 255 255 255
-0.218287   1.12317   1.49589 255 255 255
-0.626336   1.26915   1.44909 255 255 255
-0.830023    1.1492   1.51195 255 255 255
-0.699388  0.493525   1.90791 255 255 255
-0.18008 0.750834  1.65478 255 255 255
0.0765757   1.10594   1.44389 255 255 255
-0.773074   1.13211     1.567 255 255 255
-0.649067  0.840806   1.70876 255 255 255
-1.22714  1.02475  1.67674 255 255 255
-0.434159    1.2244   1.45768 255 255 255
-0.718252  0.761626   1.75966 255 255 255
-0.55773  1.30333  1.41158 255 255 255
-1.03817 0.836108  1.81096 255 255 255
0.0639742  0.487038   1.74466 255 255 255
0.162982 0.413425  1.68771 255 255 255
-0.0105329   0.101691    1.89624 255 255 255
-0.748714   0.89967    1.6972 255 255 255
0.139799 0.362018  1.72547 255 255 255
-0.524911    1.3419   1.38083 255 255 255
-0.396137   1.37498   1.35766 255 255 255
-0.582565   1.30901   1.41324 255 255 255
-0.61672 0.789391  1.72879 255 255 255
-1.0127 1.06267 1.56397 255 255 255
0.0253552  0.320797   1.81169 255 255 255
-0.824663  0.870605   1.73188 255 255 255
-1.22683   0.9563  1.73273 255 255 255
0.098333 0.928573  1.53664 255 255 255
-0.524385   1.15526   1.51941 255 255 255
-0.345617   1.41108   1.33091 255 255 255
0.233104 0.441748   1.6521 255 255 255
-0.554904  0.578868   1.82968 255 255 255
-0.395913   1.44926   1.28777 255 255 255
-0.79942  1.03162  1.64684 255 255 255
-0.472728   1.00522   1.59295 255 255 255
-0.367144   1.46022   1.27279 255 255 255
0.407242 0.788369   1.5252 255 255 255
-0.467797   1.39308   1.34104 255 255 255
-0.324186   1.32602   1.38199 255 255 255
-0.341843  0.884183   1.63894 255 255 255
-0.228646   1.07798   1.51608 255 255 255
-0.653762  0.998689   1.61478 255 255 255
-0.89514  1.05446   1.6328 255 255 255
-0.882204  0.817552   1.76974 255 255 255
-0.350065   1.53412   1.21412 255 255 255
-0.51198 0.910466  1.67075 255 255 255
-0.595191   1.29191   1.43192 255 255 255
-0.550227  0.560801      1.82 255 255 255
-1.12414 0.896639  1.79484 255 255 255
-0.0739767   0.644905    1.68612 255 255 255
0.205605 0.990833  1.48327 255 255 255
-0.876487  0.953714   1.71199 255 255 255
-0.858461  0.792966    1.7658 255 255 255
0.188273 0.883709   1.5237 255 255 255
0.0207837   1.15873   1.43438 255 255 255
-0.42848  1.38818   1.3328 255 255 255
-1.09083 0.929329   1.7404 255 255 255
-0.445006   1.43851   1.31168 255 255 255
-1.10369 0.875737  1.81057 255 255 255
-0.552949  0.559498   1.80415 255 255 255
-0.300347   1.44126   1.32433 255 255 255
-0.980802   1.04132   1.66235 255 255 255
0.0164532 0.0855103   1.88567 255 255 255
-0.146098   0.38535   1.84667 255 255 255
-1.19941 0.948029  1.72769 255 255 255
-0.679333   1.14267   1.57429 255 255 255
-1.21811  1.03171  1.66649 255 255 255
-0.34511  1.43978  1.29378 255 255 255
0.331557 0.712089   1.5776 255 255 255
-0.717535   1.27805   1.37634 255 255 255
-0.591756   1.31719   1.40843 255 255 255
-0.353745   1.30168   1.40143 255 255 255
-0.642161  0.963282   1.63632 255 255 255
-0.554732   1.19596   1.50501 255 255 255
-0.753817  0.591773   1.88074 255 255 255
0.258639 0.431134  1.67156 255 255 255
-0.789667   1.03951   1.63828 255 255 255
-0.326139   1.50839   1.24025 255 255 255
0.11067 1.03414 1.47416 255 255 255
-0.871567   1.08529   1.60468 255 255 255
-0.468294    1.0585   1.54715 255 255 255
0.0470582  0.951815    1.5167 255 255 255
-0.387852   1.00525   1.57212 255 255 255
-0.79279 0.991741  1.65547 255 255 255
-0.337348   1.39649   1.35387 255 255 255
-0.32467  1.51335  1.23271 255 255 255
-0.76753  1.12964  1.56887 255 255 255
-0.466937  0.812857   1.71214 255 255 255
-0.249149    1.4659    1.2945 255 255 255
-0.356299   1.03842   1.55796 255 255 255
-0.386351   1.47896   1.27324 255 255 255
-0.160145   1.06783    1.5033 255 255 255
-0.304241   1.42969   1.32658 255 255 255
-0.335532   1.46962   1.26148 255 255 255
-0.611616  0.453654   1.91541 255 255 255
-0.436732   1.41209    1.3243 255 255 255
0.0650253   0.93296   1.54415 255 255 255
-0.18093  1.11371  1.49338 255 255 255
-0.66402 0.713509  1.74601 255 255 255
-0.470875  0.793121   1.71001 255 255 255
-0.880143    1.1724   1.46664 255 255 255
-0.79478 0.711306   1.8157 255 255 255
0.166007 0.734044  1.61023 255 255 255
-0.512779   1.16204   1.50346 255 255 255
-0.374216   1.00992   1.57787 255 255 255
-0.283201  0.374695    1.8842 255 255 255
-0.564962  0.435341   1.91329 255 255 255
-0.486649   1.29829   1.44023 255 255 255
0.226673 0.422591  1.66593 255 255 255
-0.0738568    0.88752    1.56177 255 255 255
-0.144985  0.265976   1.89468 255 255 255
-0.975825  0.798486   1.80839 255 255 255
-0.66043  1.30169  1.40594 255 255 255
-0.347838   1.51599   1.23613 255 255 255
-0.440363  0.815476   1.70708 255 255 255
-0.598645   1.34932   1.33354 255 255 255
-0.665659   1.30368   1.40657 255 255 255
-0.134346   1.15346   1.46363 255 255 255
-0.976395   1.10205    1.5416 255 255 255
-0.378717  0.926335   1.63543 255 255 255
-0.0307176  0.0835684    1.93348 255 255 255
-0.739857  0.809893   1.72459 255 255 255
-0.799715   1.12831   1.56337 255 255 255
-0.63381  1.15587  1.55016 255 255 255
-0.108274   1.00496   1.51954 255 255 255
-0.182063   1.06625   1.51193 255 255 255
-0.254913   1.46189   1.30139 255 255 255
0.0279563  0.311899   1.82494 255 255 255
-0.671532   1.32225   1.36183 255 255 255
-0.903073   1.07884   1.62056 255 255 255
0.210385  0.99456  1.49461 255 255 255
-0.550136  0.984816   1.59993 255 255 255
-0.309594  0.862736    1.6464 255 255 255
-0.680986   1.22134   1.49001 255 255 255
-0.258736  0.287002   1.91119 255 255 255
-1.12812  0.93275  1.73985 255 255 255
0.0306959  0.390935   1.79145 255 255 255
-0.928534  0.723288    1.8187 255 255 255
-0.515775   1.41679   1.26347 255 255 255
-1.04107 0.943111  1.73522 255 255 255
-0.779751  0.995844    1.6553 255 255 255
0.00190094     1.2011    1.41729 255 255 255
-0.026654  0.958229   1.51373 255 255 255
-0.769934    1.1746   1.54145 255 255 255
-1.01438 0.935137  1.72257 255 255 255
-0.263605   1.03597   1.53548 255 255 255
0.021712 0.617103  1.59519 255 255 255
-0.573794  0.900449   1.63283 255 255 255
-0.739586   0.93785    1.6699 255 255 255
-0.162683   0.74779   1.66339 255 255 255
-0.549792  0.849985   1.67369 255 255 255
-0.30977  1.44369   1.3001 255 255 255
-0.440024  0.881993   1.66979 255 255 255
-0.624457    1.3111   1.38948 255 255 255
-0.732551  0.961441   1.63718 255 255 255
-0.810574   1.11421   1.58416 255 255 255
0.298837 0.838753   1.5548 255 255 255
-0.785007   1.01303    1.6505 255 255 255
-0.66824 0.812657  1.72428 255 255 255
-0.0543089   0.346724    1.81256 255 255 255
-0.0278954   0.952414    1.51707 255 255 255
-0.358565   1.45503   1.27612 255 255 255
-0.539638   1.34172   1.39063 255 255 255
-0.156978   1.14458   1.47228 255 255 255
-0.444988   1.01201   1.57488 255 255 255
-0.89795 0.909734  1.73454 255 255 255
-0.831866   1.11822   1.56098 255 255 255
-0.841382   1.13099   1.57229 255 255 255
-0.874626   1.07385    1.6151 255 255 255
-0.494466   1.36424   1.36693 255 255 255
0.133942 0.846646   1.5606 255 255 255
-0.824333  0.842727   1.74478 255 255 255
-0.509955   1.36892   1.36762 255 255 255
-0.162122  0.981188   1.52709 255 255 255
-0.746778   1.17898   1.53315 255 255 255
-0.506953   1.32577    1.3871 255 255 255
-0.577522    1.2973   1.42384 255 255 255
-0.489334   1.40191   1.34206 255 255 255
-0.599874  0.396154   1.96064 255 255 255
-0.565356   1.25118   1.45746 255 255 255
-0.524464  0.923236   1.66425 255 255 255
-0.356612   1.50564   1.24071 255 255 255
-0.664986   1.20124   1.49984 255 255 255
-0.0571284   0.932008    1.53173 255 255 255
-0.474162   1.08251   1.52109 255 255 255
-0.961949   1.09739   1.54836 255 255 255
-0.442897  0.963297   1.57424 255 255 255
-0.0976033   0.763102    1.64583 255 255 255
-0.342203   1.30973    1.3914 255 255 255
-0.796694   1.02705   1.64867 255 255 255
-0.856503   1.19778   1.41691 255 255 255
-0.844751  0.776271   1.79151 255 255 255
-0.505912   1.23671   1.47319 255 255 255
-0.599203   1.22792   1.47877 255 255 255
-0.796737  0.963745   1.67417 255 255 255
-0.329078   1.49564   1.24239 255 255 255
0.293984 0.837169  1.53665 255 255 255
-0.736708  0.968878   1.63093 255 255 255
-1.01946  1.17512  1.52881 255 255 255
-0.273452   1.46178   1.29406 255 255 255
-0.401638   1.37214   1.36091 255 255 255
-0.705763  0.958224    1.6494 255 255 255
-0.628305  0.963229   1.63668 255 255 255
0.284451 0.866712  1.54724 255 255 255
0.030687  1.13519  1.44125 255 255 255
-0.788153  0.717207   1.81491 255 255 255
0.0203643   1.16792   1.42856 255 255 255
-1.19154 0.920372  1.74265 255 255 255
-0.159883   1.07363   1.50302 255 255 255
-0.661504   1.01838   1.62044 255 255 255
-0.420733   1.44499     1.298 255 255 255
-0.180799   1.06065    1.5114 255 255 255
-0.525636   1.04167   1.56679 255 255 255
-0.46289  1.42341  1.32217 255 255 255
-0.78049 0.975046  1.65589 255 255 255
-0.0767309   0.311994    1.85924 255 255 255
-0.384493   1.50405   1.23568 255 255 255
-0.787809   1.13811   1.55558 255 255 255
-0.666089  0.709903   1.73741 255 255 255
-0.079418  0.722958    1.6541 255 255 255
-1.03282 0.933032   1.7402 255 255 255
-0.37489   1.2784  1.41384 255 255 255
-0.0828768   0.613461    1.65471 255 255 255
-0.333934   1.31629   1.38859 255 255 255
-0.462245  0.932453   1.62854 255 255 255
-0.623494   1.13839   1.54842 255 255 255
0.0697269  0.296912   1.77396 255 255 255
-0.738357  0.891203   1.70016 255 255 255
-0.666099   1.13748   1.56163 255 255 255
-0.041012  0.874584   1.58611 255 255 255
-0.658219   1.30929   1.40489 255 255 255
-0.567259  0.894835   1.62001 255 255 255
-0.66848  1.11075  1.57713 255 255 255
0.0551659   1.13348   1.43728 255 255 255
0.314881 0.820243  1.55986 255 255 255
-0.700454    1.1064   1.58697 255 255 255
-0.818299   1.11788   1.57187 255 255 255
-0.413271   1.47344   1.24554 255 255 255
-0.424023   1.35207   1.37538 255 255 255
-0.793318   1.11447   1.60634 255 255 255
-0.49883 0.799536  1.70971 255 255 255
-0.680461   1.24673   1.48083 255 255 255
-0.408082   1.40203   1.32869 255 255 255
-0.622407  0.976166   1.61826 255 255 255
-0.369571  0.948891   1.61178 255 255 255
-0.959425  0.878233   1.76096 255 255 255
-0.541763   1.29543   1.41879 255 255 255
0.260353 0.692839  1.58885 255 255 255
-0.340625    1.0713   1.53859 255 255 255
-1.01296   1.0133  1.67105 255 255 255
-0.454649  0.678871   1.72024 255 255 255
-0.11391 0.344686  1.82774 255 255 255
-0.91313  1.07179  1.62564 255 255 255
0.00881838    1.05366    1.49004 255 255 255
-0.228842  0.963381   1.56623 255 255 255
0.0774829  0.136604   1.83315 255 255 255
0.119466 0.453805   1.7344 255 255 255
-0.33267   1.0555  1.54513 255 255 255
-0.875571   1.16758   1.46776 255 255 255
-0.0997592   0.898068    1.55822 255 255 255
0.188737 0.302689  1.76931 255 255 255
0.181759 0.293987  1.76608 255 255 255
-0.699683   1.19415   1.50625 255 255 255
-0.00435812    0.265247     1.84711 255 255 255
0.266269 0.475337  1.64328 255 255 255
0.0116364  0.874326   1.57924 255 255 255
-0.49143 0.481869   1.8561 255 255 255
-0.93108 0.635127  1.88716 255 255 255
0.190737 0.985376  1.50037 255 255 255
-0.694708   1.06866   1.59631 255 255 255
0.0328998  0.946076   1.50836 255 255 255
-0.405951   1.42163   1.30796 255 255 255
-0.298919   1.39926   1.34204 255 255 255
-0.172907  0.523961   1.68787 255 255 255
-0.485036   0.87005   1.67581 255 255 255
-0.865941   1.12058   1.58345 255 255 255
-0.614619   1.18922   1.52792 255 255 255
-0.570815   1.21303   1.50303 255 255 255
-0.509385  0.927248   1.65951 255 255 255
-0.58308 0.857089  1.67897 255 255 255
0.362402 0.737054  1.43509 255 255 255
-0.403105   1.48646   1.24547 255 255 255
-0.432282   1.39008   1.32853 255 255 255
-0.889189  0.665043   1.86935 255 255 255
-0.162509  0.707007   1.69285 255 255 255
