ply
format ascii 1.0
element vertex 1154
property float x
property float y
property float z
property uchar red
property uchar green
property uchar blue
end_header
 1.11643  2.70924 0.368208 255 255 255
 1.14879   2.4841 0.484352 255 255 255
 1.12405  2.47556 0.507521 255 255 255
 1.13894  2.64635 0.407921 255 255 255
 1.1944 2.56309 0.44224 255 255 255
 1.24377  2.37363 0.502519 255 255 255
  1.2107  2.48213 0.514048 255 255 255
 1.11284  2.47055 0.520244 255 255 255
 1.20478   2.5915 0.421514 255 255 255
 1.73385  2.37195 0.306178 255 255 255
  1.6835  2.75296 0.180925 255 255 255
  1.97186   2.71721 0.0558808 255 255 255
 2.17191  2.48213 0.244002 255 255 255
 1.76971  2.81698 0.147621 255 255 255
 1.92651  2.28527 0.295757 255 255 255
 2.06411  2.55423 0.237766 255 255 255
 1.86085  2.71888 0.162442 255 255 255
 2.02921  2.57861 0.216225 255 255 255
  1.57111   3.08908 0.0926802 255 255 255
  1.75232   3.04401 -0.024338 255 255 255
 1.40509  2.82071 0.303921 255 255 255
 1.83174  2.69722 0.188562 255 255 255
 1.17768  2.77823 0.330171 255 255 255
 1.24454  2.79687 0.330462 255 255 255
 1.81172  2.23468 0.306576 255 255 255
  1.77108   2.88872 0.0059224 255 255 255
 2.10038  2.34417 0.267829 255 255 255
 1.10448  2.59755 0.431397 255 255 255
   1.40947    3.50146 -0.0550049 255 255 255
 1.41449  2.50218 0.411819 255 255 255
   1.76965    3.10276 -0.0382605 255 255 255
 1.44169  2.79714 0.306704 255 255 255
   1.49573    3.40517 -0.0589607 255 255 255
 1.28193  2.38596 0.472005 255 255 255
  1.32754   3.19782 0.0996548 255 255 255
 1.89009  2.17188 0.383675 255 255 255
 2.52821  2.37341 0.252472 255 255 255
  1.45098   3.26604 0.0297353 255 255 255
0.965553  2.94669 0.268245 255 255 255
 1.69593  2.34909 0.424098 255 255 255
  1.67312   3.06273 0.0663674 255 255 255
 1.19998  2.77271 0.331598 255 255 255
 1.39152    2.508 0.418437 255 255 255
   1.84672     2.8395 -0.0154534 255 255 255
 1.33021  2.47283 0.454296 255 255 255
 1.36448  2.43541 0.452568 255 255 255
 1.88875  2.20957 0.370803 255 255 255
  2.22457   2.49483 0.0905185 255 255 255
 1.34104  2.68197 0.366262 255 255 255
1.36947 2.49807 0.42396 255 255 255
 1.73919  2.81286 0.165967 255 255 255
 1.03146   2.5853 0.453397 255 255 255
 1.82827  2.22903 0.298414 255 255 255
 1.58291  2.30176 0.499082 255 255 255
0.911447  3.09125 0.214865 255 255 255
 1.36757  2.74658 0.339594 255 255 255
 1.21613  2.77198 0.337552 255 255 255
 1.57857  3.00177 0.113963 255 255 255
 1.09679  2.55744 0.459421 255 255 255
 1.45202  3.07192 0.109512 255 255 255
 1.37989  2.44404 0.450697 255 255 255
 1.28372  2.49362 0.458063 255 255 255
 1.24668  2.71856 0.365859 255 255 255
 1.54587  3.00417 0.132556 255 255 255
0.943568  2.91703 0.272889 255 255 255
1.24491 3.03844 0.17364 255 255 255
 1.49112  2.67901 0.338955 255 255 255
 1.40873  2.61723 0.381411 255 255 255
 1.96426  2.25832 0.323655 255 255 255
 1.13981   2.4841 0.485762 255 255 255
 1.76697  2.29489 0.342476 255 255 255
0.893044  3.02326 0.254721 255 255 255
   1.158  2.97625 0.228382 255 255 255
1.16515 2.58339 0.43312 255 255 255
 1.34754  2.87968 0.283416 255 255 255
 1.46649  2.80145 0.304524 255 255 255
1.73538 2.89358 0.14661 255 255 255
 1.29509  2.64058 0.390867 255 255 255
 1.20142  2.48191 0.478756 255 255 255
 1.18688  2.44877 0.493819 255 255 255
 1.42932  2.81181 0.298537 255 255 255
0.934214  3.09168  0.20789 255 255 255
 1.65777  2.97398 0.121075 255 255 255
 1.60823  2.99131 0.124577 255 255 255
   1.75163    3.10749 -0.0513036 255 255 255
  1.6054  2.93299 0.148859 255 255 255
    1.8784     2.7899 0.00412748 255 255 255
 2.13277  2.48037 0.115633 255 255 255
 1.00163  2.94686 0.272594 255 255 255
 2.14014  2.47172 0.118257 255 255 255
 1.47011  2.72471 0.360243 255 255 255
   1.776  2.36189 0.434801 255 255 255
  1.2436  2.81691 0.314988 255 255 255
  1.56845   3.26641 0.0175632 255 255 255
 1.50948  2.71297 0.322002 255 255 255
 1.36033  2.41737 0.459541 255 255 255
0.860061  2.99665 0.446761 255 255 255
 1.18595  2.49094 0.475197 255 255 255
 1.18797  2.77557 0.332825 255 255 255
 1.60505  2.14962 0.504433 255 255 255
 1.45644  2.60434 0.371338 255 255 255
0.925502  2.94914 0.265887 255 255 255
 1.39438   2.8302 0.298468 255 255 255
  1.55914   3.26159 0.0283159 255 255 255
 1.12986  2.54289 0.456645 255 255 255
 1.57133  3.00501 0.127301 255 255 255
 1.29794  2.34016 0.503467 255 255 255
 1.16153   2.5536 0.446133 255 255 255
 1.60738  2.28004 0.449901 255 255 255
  2.16066   2.56246 0.0604742 255 255 255
 1.34231   2.4308 0.457339 255 255 255
 1.33199  2.86979 0.289683 255 255 255
0.947035   2.9075 0.287615 255 255 255
 1.64505  2.18208 0.485698 255 255 255
 1.46582  3.04715 0.129676 255 255 255
 1.55413  3.01867 0.123552 255 255 255
   1.84455    2.81735 0.00468027 255 255 255
 1.68813  2.93393 0.133921 255 255 255
1.32095 2.60746 0.37038 255 255 255
 1.20819   2.3906 0.510618 255 255 255
 1.26632    2.726 0.365277 255 255 255
1.31784 2.68233 0.37535 255 255 255
 1.60719  2.91033 0.158649 255 255 255
0.888097  2.92963 0.294369 255 255 255
 1.76359  2.33987 0.449867 255 255 255
0.971292  2.86228 0.316356 255 255 255
  1.5414  2.83857 0.332386 255 255 255
 1.20376  2.74353 0.364974 255 255 255
 1.39494  3.13165 0.107522 255 255 255
 1.23227  3.04368 0.175196 255 255 255
 1.02879   2.6001 0.448257 255 255 255
 1.06378  2.56141 0.466321 255 255 255
0.841085  2.91732 0.305353 255 255 255
 1.29638  2.53976 0.438731 255 255 255
 1.90063   2.2725 0.303445 255 255 255
0.955215  2.91026 0.285991 255 255 255
 1.22226  2.45294 0.489399 255 255 255
  1.8424  2.25676 0.329012 255 255 255
 1.16464  2.75829 0.306319 255 255 255
 1.11509  2.49919 0.483809 255 255 255
 1.52794  2.73063 0.322191 255 255 255
 1.19298  2.75625 0.354518 255 255 255
 1.29506  2.55548 0.430555 255 255 255
 1.1792 2.64513 0.40383 255 255 255
    1.33192     3.41459 -0.00166115 255 255 255
0.921473  3.09641 0.211078 255 255 255
 1.87072  2.21298 0.369284 255 255 255
  1.75182   3.11578 -0.100059 255 255 255
1.29464  2.3069 0.51822 255 255 255
0.801277  2.92428 0.299065 255 255 255
 1.19912  2.56677 0.440288 255 255 255
 1.39221  3.07376 0.115936 255 255 255
 0.78696  2.84574 0.361168 255 255 255
 1.22856  2.63287 0.400989 255 255 255
 1.23665  2.70347 0.379052 255 255 255
 1.80555  2.25703 0.322498 255 255 255
 1.08957   3.0365 0.213332 255 255 255
 1.22592  2.59013 0.424129 255 255 255
 1.05602  2.59023 0.448113 255 255 255
1.12673 2.49474 0.48398 255 255 255
 1.09148  3.05702 0.202287 255 255 255
 1.19031   2.4231 0.504249 255 255 255
0.889661   2.7839  0.36963 255 255 255
  1.37263   3.25543 0.0597331 255 255 255
0.952186  2.91614 0.289543 255 255 255
   1.72933    3.10092 -0.0240528 255 255 255
 1.38434  2.46945 0.432971 255 255 255
 1.17535  2.54003 0.455074 255 255 255
 1.07439  2.68152 0.366116 255 255 255
 1.13329  2.58365 0.428541 255 255 255
 1.65247  2.15317 0.466717 255 255 255
  1.5519  2.25593 0.502323 255 255 255
 1.20072  3.03521 0.192902 255 255 255
 1.40773   3.0769 0.126537 255 255 255
 1.58407  2.26127 0.455542 255 255 255
 1.30052  2.34539 0.504845 255 255 255
 1.71207  2.91638 0.136773 255 255 255
0.864526  2.95401 0.281249 255 255 255
 1.96551   2.6422 0.198707 255 255 255
 1.38893  2.66122 0.370113 255 255 255
  1.71464   3.12141 0.0534003 255 255 255
 1.67453  2.39177 0.405488 255 255 255
1.83462 2.70812 0.21076 255 255 255
 1.00807  2.95712 0.260855 255 255 255
 1.53054  3.01317 0.131243 255 255 255
0.964611  2.94634 0.261827 255 255 255
  1.3258  2.43544 0.485586 255 255 255
  2.25359   2.56857 0.0418009 255 255 255
 1.26772  2.82085 0.318609 255 255 255
1.15598 2.57524 0.43796 255 255 255
 1.25586  2.65166 0.390759 255 255 255
  1.68993   3.02881 0.0937022 255 255 255
 1.22556  3.04245 0.177995 255 255 255
   1.94221    2.82808 -0.0135231 255 255 255
 1.29652  2.86459 0.286017 255 255 255
  1.27634   3.34907 0.0374696 255 255 255
   1.56732    3.34444 -0.0280994 255 255 255
 1.18735  2.56311 0.441895 255 255 255
 0.81158  2.89397 0.331516 255 255 255
  1.7188  2.97167 0.112245 255 255 255
  1.6427  2.92909 0.140889 255 255 255
 1.16705  2.71671 0.339992 255 255 255
 1.16983  2.43647 0.499649 255 255 255
0.880486  2.76958 0.371953 255 255 255
 1.05759  2.61064 0.438592 255 255 255
 1.54545    2.997 0.135261 255 255 255
0.898544  2.79212 0.357812 255 255 255
0.925665  2.70051 0.402972 255 255 255
 1.26535  2.58549 0.416766 255 255 255
 1.43719  2.80513 0.301351 255 255 255
 1.56436  2.85102 0.196997 255 255 255
 1.34682   2.6642 0.362936 255 255 255
  0.9487  2.72099 0.389449 255 255 255
 1.21911  3.04622 0.179532 255 255 255
 1.12738  2.47649 0.490682 255 255 255
  1.0643  2.57471 0.460652 255 255 255
 2.26488  2.40863 0.262856 255 255 255
 2.19919  2.39971 0.168835 255 255 255
 1.17867  2.65706 0.378416 255 255 255
  1.47246   3.20803 0.0651824 255 255 255
 1.17985  2.51679 0.466248 255 255 255
 1.71451  2.89271 0.144896 255 255 255
 1.25992  2.49032 0.461369 255 255 255
 1.71095   2.9071 0.140088 255 255 255
 1.35173   2.4012 0.467339 255 255 255
 1.28775  2.35717 0.499757 255 255 255
 1.40419  3.05464 0.127555 255 255 255
 1.69917  2.88116 0.153709 255 255 255
 1.07608  2.61958 0.431839 255 255 255
  1.2692   2.4453 0.478447 255 255 255
  1.5083  2.81848 0.310808 255 255 255
  1.73376   3.00518 0.0918993 255 255 255
 0.82086  2.92996 0.293909 255 255 255
 1.44936  3.02697 0.141354 255 255 255
   1.284  2.31848 0.516603 255 255 255
 1.29631  2.30078 0.521687 255 255 255
 2.31499  2.35814 0.301455 255 255 255
 1.11092  2.70202 0.372758 255 255 255
1.14229 2.68848 0.38813 255 255 255
 1.15809   2.5954 0.429015 255 255 255
 1.39158  2.48631 0.427218 255 255 255
 1.18746  2.52245 0.462287 255 255 255
  1.64391   3.04626 0.0988131 255 255 255
 1.59708  3.01494 0.117521 255 255 255
 1.87251  2.69458 0.190609 255 255 255
   1.51282    3.28981 0.00411579 255 255 255
  1.3249  2.85718 0.286759 255 255 255
 1.30588  2.83976 0.308089 255 255 255
 1.04693  2.59923 0.445049 255 255 255
 1.56843  2.84871 0.186267 255 255 255
 1.24892  2.64609 0.390886 255 255 255
 1.30636   2.4327 0.489134 255 255 255
 1.52594  3.03873 0.122353 255 255 255
    1.9257    2.77486 0.00507807 255 255 255
   1.92986    2.84428 -0.0356779 255 255 255
  1.5956  3.00829 0.120706 255 255 255
 1.22119  2.57929 0.430097 255 255 255
 1.13721  2.56247 0.446214 255 255 255
 1.41228    2.824 0.297106 255 255 255
 1.10792   2.6515 0.412515 255 255 255
  1.2056  2.39725 0.508836 255 255 255
 1.22407  2.61279 0.408969 255 255 255
 1.20214  2.66398 0.392645 255 255 255
 1.29306  2.42815 0.469284 255 255 255
  2.13659   2.71607 0.0820216 255 255 255
 1.20003  2.62251 0.396233 255 255 255
 1.71396  2.84559 0.163141 255 255 255
 2.16976  2.42164 0.134811 255 255 255
 2.54543  2.36242 0.248657 255 255 255
 1.25499  2.77643 0.345491 255 255 255
1.28191  2.8429 0.30442 255 255 255
 1.06956  2.61606 0.435087 255 255 255
 1.74442  2.92419 0.124854 255 255 255
   1.68791    3.45796 -0.0824238 255 255 255
 1.32664  2.86356 0.293729 255 255 255
0.955644  2.72865 0.382376 255 255 255
 1.13881  2.60969 0.424403 255 255 255
    1.87451     2.80124 -0.00935296 255 255 255
  2.32992   2.44428 0.0989059 255 255 255
  1.58914   3.39588 -0.065203 255 255 255
0.938653  2.70882 0.396878 255 255 255
0.808687  2.92165 0.299933 255 255 255
 1.25175  3.04189 0.177519 255 255 255
1.25699 2.63133 0.40343 255 255 255
  1.71578    3.1583 0.0289773 255 255 255
 1.07147  2.59423 0.444023 255 255 255
 1.19769  2.60265 0.417624 255 255 255
 1.58806  3.04656 0.107074 255 255 255
 1.80358  2.71569 0.200348 255 255 255
 1.21221  2.63852 0.400725 255 255 255
 2.11242  2.54824 0.212445 255 255 255
0.00280522  -0.639923    2.32444 255 255 255
0.0580091 -0.710589   2.43963 255 255 255
-0.00320696   -0.830102     2.56294 255 255 255
  0.29489 -0.859769   2.81515 255 255 255
 0.365044 -0.708089   2.69816 255 255 255
 0.408926 -0.519081   2.56479 255 255 255
 0.199764 -0.688496   2.55598 255 255 255
 0.137174 -0.468965   2.17576 255 255 255
0.291099 -0.58014  2.49104 255 255 255
-0.00248549   -0.901043     2.64092 255 255 255
-0.0728777  -0.708514    2.38603 255 255 255
-0.0234069  -0.881518    2.60689 255 255 255
 0.203251 -0.496532   2.22219 255 255 255
 0.026056 -0.696665   2.38237 255 255 255
-0.115047 -0.716484   2.37824 255 255 255
-0.174683 -0.738387   2.37583 255 255 255
0.0687447 -0.871147   2.68091 255 255 255
 0.308205 -0.536752   2.47122 255 255 255
 0.220102 -0.609651   2.47766 255 255 255
 0.546221 -0.653717   2.67871 255 255 255
0.0178785 -0.785084   2.52335 255 255 255
-0.0738726  -0.912346    2.60857 255 255 255
-0.0685569  -0.939655    2.66008 255 255 255
-0.0997129  -0.940859    2.60986 255 255 255
-0.0437803  -0.801354    2.47265 255 255 255
-0.441574 -0.900507   2.48979 255 255 255
 0.338563 -0.517041   2.48808 255 255 255
0.0850893   -0.6631   2.36977 255 255 255
 0.315127 -0.587298   2.51821 255 255 255
-0.0869613   -1.02316     2.7835 255 255 255
-0.217695 -0.936754   2.45231 255 255 255
-0.389883  -0.90565   2.47595 255 255 255
 0.214838 -0.441083   2.15569 255 255 255
-0.187495 -0.975624   2.61916 255 255 255
 0.254193 -0.554798   2.33056 255 255 255
   0.1267 -0.919171   2.74517 255 255 255
 0.323874 -0.504156   2.47349 255 255 255
 -0.42311 -0.934974   2.51719 255 255 255
 0.225684 -0.636318   2.40133 255 255 255
-0.132145 -0.812322   2.45708 255 255 255
0.0802207 -0.919396   2.71065 255 255 255
-0.288468 -0.709759   2.34399 255 255 255
 0.150813 -0.436438   2.15172 255 255 255
 0.346009 -0.547806   2.51513 255 255 255
-0.0442372  -0.828238    2.51031 255 255 255
-0.441047 -0.929087   2.51054 255 255 255
 0.426835 -0.462041   2.50648 255 255 255
0.0547173 -0.924834   2.69072 255 255 255
-0.481316 -0.926086   2.49546 255 255 255
 -0.24917 -0.721744   2.34957 255 255 255
 0.258297 -0.570636   2.33577 255 255 255
-0.0235414   -0.80389    2.51672 255 255 255
0.258507 -0.67531  2.58134 255 255 255
-0.0539579  -0.738208    2.40547 255 255 255
-0.196683 -0.813363   2.43262 255 255 255
0.628225 -0.70565  2.94766 255 255 255
-0.00173386    -1.01707     2.80613 255 255 255
0.00833111   -1.03874    2.83761 255 255 255
-0.488949 -0.890685   2.47677 255 255 255
 0.546719 -0.631666   2.65157 255 255 255
0.0284077 -0.867831   2.61751 255 255 255
-0.0292607  -0.850309    2.56847 255 255 255
 0.634215 -0.684036    2.8408 255 255 255
 0.432013 -0.540939   2.59334 255 255 255
 0.311669 -0.553772   2.48722 255 255 255
-0.228534  -0.66453   2.29714 255 255 255
-0.339325 -0.884441   2.46823 255 255 255
0.202122 -1.09539  3.00791 255 255 255
-0.141429   -0.7359   2.39316 255 255 255
-0.251953 -0.839628   2.44018 255 255 255
-0.306355 -0.869881   2.46066 255 255 255
 0.128335 -0.943959   2.75602 255 255 255
0.0477548  -0.86571   2.61849 255 255 255
  -0.1403 -0.715034   2.37549 255 255 255
 0.222808 -0.835436   2.66895 255 255 255
-0.140083 -0.907679   2.52962 255 255 255
 0.459512 -0.511694   2.58227 255 255 255
 0.290417 -0.815314   2.68347 255 255 255
-0.242687 -0.824658   2.43504 255 255 255
-0.184317 -0.891412   2.50087 255 255 255
-0.201402 -0.771199   2.39748 255 255 255
-0.0152189    -1.0071    2.74348 255 255 255
-0.215627 -0.808425   2.43149 255 255 255
 0.375341 -0.552256   2.55134 255 255 255
-0.182758 -0.718362   2.36067 255 255 255
 0.612533 -0.717539   2.77906 255 255 255
 0.463909 -0.464438   2.53988 255 255 255
  0.18511 -0.874031   2.72613 255 255 255
-0.157054   -1.0083   2.71335 255 255 255
-0.395147  -0.92412   2.48497 255 255 255
 0.320125 -0.762811   2.65763 255 255 255
 0.147626 -0.785241   2.61035 255 255 255
-0.521346 -0.849229   2.43054 255 255 255
0.0724301  -0.79921   2.56112 255 255 255
0.168033 -0.92248  2.76543 255 255 255
-0.325912 -0.891584   2.48305 255 255 255
-0.229448 -0.840794   2.44951 255 255 255
-0.186183 -0.761512   2.40158 255 255 255
0.0433464 -0.909801   2.67305 255 255 255
 0.106845 -0.650096   2.36615 255 255 255
 0.203636 -0.901141   2.77438 255 255 255
-0.360044  -1.04012   2.53952 255 255 255
-0.226454 -0.821225    2.4367 255 255 255
 0.277717 -0.574446   2.48253 255 255 255
-0.0135386  -0.764302    2.43742 255 255 255
 0.581363 -0.681699    2.7714 255 255 255
-0.450354  -0.88414    2.4744 255 255 255
0.0796058 -0.983984   2.78336 255 255 255
  0.18565 -0.659979   2.41227 255 255 255
 0.211055 -0.873054   2.77252 255 255 255
 0.15956 -0.67972  2.43885 255 255 255
 0.235027 -0.814676   2.64859 255 255 255
-0.0171429  -0.975752    2.71591 255 255 255
 -0.28014 -0.695149   2.33385 255 255 255
-0.178602 -0.904529   2.50645 255 255 255
 0.680792 -0.797601   2.96614 255 255 255
 0.248471 -0.600596   2.36654 255 255 255
-0.179765 -0.728992   2.37371 255 255 255
-0.353101 -0.763666   2.37835 255 255 255
-0.291012 -0.827374   2.43444 255 255 255
 0.418212 -0.658596   2.67332 255 255 255
-0.222856 -0.731839   2.37078 255 255 255
0.488517 -0.68346  2.74012 255 255 255
 0.389114 -0.861794   2.84466 255 255 255
 0.544553 -0.602775   2.55511 255 255 255
-0.131905  -0.72611    2.3833 255 255 255
0.0218273  -0.84069   2.57499 255 255 255
 0.403413 -0.728304   2.61781 255 255 255
0.0884086 -0.897834   2.69083 255 255 255
 0.195439 -0.761896   2.56571 255 255 255
-0.201843 -0.743038   2.38323 255 255 255
0.0220555 -0.963846   2.73782 255 255 255
 0.214045 -0.637195   2.50443 255 255 255
0.0341472 -0.947224    2.7154 255 255 255
 0.544634 -0.631031   2.78516 255 255 255
-0.148809 -0.726664   2.37913 255 255 255
 0.369512 -0.566025   2.55776 255 255 255
-0.117621 -0.820806   2.47146 255 255 255
  0.24343 -0.611608   2.37995 255 255 255
-0.347564 -0.874965   2.47914 255 255 255
-0.236862 -0.806431   2.42804 255 255 255
-0.0759733  -0.870485    2.56929 255 255 255
0.300882 -1.07973  3.05086 255 255 255
 0.183525 -0.677155   2.51725 255 255 255
 0.342735 -0.760471   2.74461 255 255 255
0.285205 -0.52666  2.43657 255 255 255
 0.217496 -0.715998   2.53097 255 255 255
-0.143987 -0.770958   2.41916 255 255 255
-0.000235042    -0.757569      2.45768 255 255 255
-0.148152 -0.988582   2.65523 255 255 255
-0.422063 -0.845031   2.44223 255 255 255
 0.537701 -0.594114   2.54432 255 255 255
 -0.20419 -0.920769    2.4494 255 255 255
-0.0528547  -0.823218    2.48583 255 255 255
 0.161416 -0.752609   2.57627 255 255 255
-0.168071 -0.783063   2.42558 255 255 255
 0.134206 -0.690433    2.4864 255 255 255
-0.322963 -0.991041   2.49818 255 255 255
0.555554 -0.71002  2.73554 255 255 255
-0.299678 -0.884158   2.47065 255 255 255
-0.333055 -0.981653   2.49621 255 255 255
-0.212051 -0.916289   2.44359 255 255 255
-0.377593 -0.998554   2.48339 255 255 255
-0.013297 -0.960276   2.68818 255 255 255
-0.215289 -0.749569   2.37862 255 255 255
0.0589318 -0.872272   2.64483 255 255 255
0.226186 -1.02126  2.94082 255 255 255
 0.209473 -0.833586   2.71346 255 255 255
-0.347415 -0.896017   2.46904 255 255 255
-0.222263 -0.921185   2.44572 255 255 255
 0.19051 -0.75157  2.55072 255 255 255
 0.158222 -0.775775   2.60447 255 255 255
-0.236414 -0.859518   2.46018 255 255 255
-0.137464 -0.961154   2.62396 255 255 255
-0.263165  -0.86533   2.46956 255 255 255
-0.425872 -0.785648    2.3915 255 255 255
-0.16225 -1.00174  2.66857 255 255 255
 0.503188 -0.610985   2.54478 255 255 255
-0.0849652  -0.967583    2.66278 255 255 255
-0.404268 -0.766345    2.3792 255 255 255
 0.485383 -0.709956   2.80565 255 255 255
 -0.20373 -0.948957   2.48703 255 255 255
 0.438809 -0.514523   2.57933 255 255 255
-0.0274066  -0.899434    2.62489 255 255 255
-0.0557147  -0.986244    2.73624 255 255 255
-0.144655 -0.749123   2.40157 255 255 255
-0.264084 -0.811661    2.4249 255 255 255
   0.3702 -0.767781   2.74891 255 255 255
0.342171 -1.11213  3.10258 255 255 255
0.0876891  -1.05788   2.89914 255 255 255
0.0176889 -0.827869   2.57018 255 255 255
-0.0784567  -0.740266    2.40285 255 255 255
0.163358  -1.1165  3.01139 255 255 255
0.216692 -0.99213  2.90734 255 255 255
 0.131956 -0.810789   2.60831 255 255 255
 0.151238 -0.976688   2.84287 255 255 255
0.147084 -1.03912  2.91507 255 255 255
-0.222425 -0.759545   2.39593 255 255 255
-0.257985 -0.815482   2.43035 255 255 255
 0.269667 -0.948001   2.85557 255 255 255
 0.121306 -0.634327   2.35817 255 255 255
-0.03934 -1.00804  2.77513 255 255 255
 0.353864 -0.798028   2.77254 255 255 255
0.156171 -1.06023  2.92881 255 255 255
  0.60156 -0.749018   2.94107 255 255 255
-0.230116 -0.792334   2.41946 255 255 255
-0.0853898  -0.730397     2.3997 255 255 255
-0.141746 -0.730051   2.38506 255 255 255
-0.0628216  -0.640544    2.29287 255 255 255
0.0710097 -0.708957   2.42641 255 255 255
 0.012176 -0.844552   2.58204 255 255 255
-0.0839576  -0.883139    2.57718 255 255 255
-0.245887  -0.79579   2.41909 255 255 255
 0.25705 -1.06612  2.99573 255 255 255
-0.177588 -0.765114   2.40682 255 255 255
-0.0212985  -0.645383    2.36629 255 255 255
-0.0266197    -1.0071    2.77816 255 255 255
-0.391668 -0.794189   2.40416 255 255 255
 0.140279 -0.802307   2.61933 255 255 255
 0.689131 -0.742123   2.94222 255 255 255
 -0.17834 -0.796979    2.4332 255 255 255
-0.0838422   -1.02524    2.79014 255 255 255
 0.305466 -0.596301   2.52656 255 255 255
 0.416679 -0.479991   2.51194 255 255 255
 0.189487 -0.665093   2.51053 255 255 255
 0.161192 -0.783017   2.56702 255 255 255
-0.164896 -0.984444    2.6311 255 255 255
-0.375307 -0.756987   2.37401 255 255 255
-0.104292 -0.760198   2.41985 255 255 255
 0.274329 -0.982666   2.93779 255 255 255
-0.103752 -0.934358   2.62871 255 255 255
-0.184982 -0.870823   2.48653 255 255 255
-0.416218 -0.831564   2.43449 255 255 255
  0.17494 -0.626733   2.44342 255 255 255
 0.157617 -0.599956    2.4141 255 255 255
 0.299434 -0.583549   2.49843 255 255 255
-0.476955 -0.889879   2.47914 255 255 255
 0.220599 -0.801042   2.69143 255 255 255
-0.0754813  -0.820891    2.48193 255 255 255
0.00280903  -0.862583    2.59676 255 255 255
 0.536927 -0.587836   2.53791 255 255 255
 0.163655 -0.909634   2.74492 255 255 255
0.277195 -1.08357  3.03773 255 255 255
 -0.29714 -0.864451   2.46219 255 255 255
-0.135855 -0.786687   2.44243 255 255 255
 0.321641 -0.899372   2.81329 255 255 255
 0.222633 -0.931438   2.83302 255 255 255
0.309597  -1.0057   2.9846 255 255 255
-0.417529 -0.804524   2.41268 255 255 255
-0.0914968  -0.886051    2.57894 255 255 255
 0.638077 -0.690304   2.93069 255 255 255
 0.298074 -0.728364   2.57529 255 255 255
 0.203172 -0.649496   2.41316 255 255 255
-0.267043 -0.906513   2.44281 255 255 255
-0.227316 -0.871135   2.43558 255 255 255
 -0.19732 -0.697738   2.34258 255 255 255
0.373266 -0.52181  2.51429 255 255 255
-0.536463 -0.937677   2.51848 255 255 255
 0.154516 -0.594504   2.41382 255 255 255
-0.388526 -0.762852    2.3765 255 255 255
-0.442326 -0.789052   2.39402 255 255 255
 0.261846 -0.593838   2.48204 255 255 255
-0.530354 -0.877635   2.46319 255 255 255
 0.345552 -0.793076   2.76331 255 255 255
0.0441112 -0.997279   2.77198 255 255 255
 -0.09101 -0.818069    2.4757 255 255 255
 0.242199 -0.999276   2.92462 255 255 255
 0.397925 -0.553075   2.56454 255 255 255
-0.462304 -0.831773   2.43038 255 255 255
-0.0470257   -1.04297    2.83154 255 255 255
 0.234453 -0.561913   2.43943 255 255 255
0.196281 -0.61211  2.45133 255 255 255
 -0.11402 -0.765342   2.42279 255 255 255
 0.264482 -0.567207   2.33183 255 255 255
 0.333268 -0.699752   2.66504 255 255 255
-0.0861303  -0.804954    2.46567 255 255 255
-0.466045 -0.875801    2.4696 255 255 255
-0.0462563  -0.923989     2.6294 255 255 255
0.322323 -1.02415  2.99213 255 255 255
-0.218108 -0.743581   2.37565 255 255 255
-0.263778 -0.819352   2.43003 255 255 255
-0.0570106   -1.04996    2.83744 255 255 255
-0.168891 -0.684096   2.34591 255 255 255
 0.300352 -0.843802   2.78008 255 255 255
 0.459367 -0.530372   2.59496 255 255 255
0.228532 -1.00461  2.92643 255 255 255
0.197277 -1.01547  2.91431 255 255 255
  0.45046 -0.589987   2.49052 255 255 255
 0.438002 -0.523058   2.58212 255 255 255
-0.180479 -0.749902   2.39065 255 255 255
 0.219955 -0.619141    2.4729 255 255 255
-0.181613 -0.722201   2.36887 255 255 255
-0.375058 -0.811705   2.42116 255 255 255
 0.255822 -0.868632   2.73448 255 255 255
-0.0166931   -1.01573    2.79492 255 255 255
 0.148395 -0.948111   2.80677 255 255 255
-0.0202856  -0.933315      2.664 255 255 255
0.267695 -1.03303    2.983 255 255 255
 0.497671 -0.543255   2.65781 255 255 255
-0.418924 -0.895676   2.48977 255 255 255
-0.194763 -0.788653   2.42182 255 255 255
  0.62494 -0.597133   2.81595 255 255 255
0.0878125 -0.930524   2.72124 255 255 255
 0.364686 -0.786766   2.79079 255 255 255
 -0.29035 -0.819493   2.42753 255 255 255
-0.0900382  -0.859414    2.50986 255 255 255
-0.368371  -1.00244   2.48761 255 255 255
 0.303436 -0.623245   2.42525 255 255 255
  0.59543 -0.706767   2.70282 255 255 255
-0.330864 -0.720579   2.34669 255 255 255
-0.310568 -0.980431    2.5315 255 255 255
-0.230246 -0.889811   2.43236 255 255 255
-0.194318 -0.772489   2.40913 255 255 255
-0.0740093   -0.74401     2.4129 255 255 255
 -0.47573 -0.858092   2.45209 255 255 255
0.360672 -1.08615  3.09315 255 255 255
0.0942402 -0.697701   2.47374 255 255 255
0.230284 -0.56741  2.31673 255 255 255
 0.298726 -0.868512   2.81522 255 255 255
 0.663547 -0.625026   2.87085 255 255 255
 0.577615 -0.675532   2.87752 255 255 255
 0.172786 -0.749314   2.53535 255 255 255
-0.116677 -0.927848   2.60739 255 255 255
-0.00219567   -0.874363     2.60398 255 255 255
 0.251408 -0.597426   2.47832 255 255 255
-0.251258  -0.88328   2.44619 255 255 255
 0.556509 -0.642338   2.80699 255 255 255
 0.574062 -0.593256    2.7314 255 255 255
 0.490893 -0.499295   2.60879 255 255 255
0.0787379  -0.94227   2.72043 255 255 255
-0.285195 -0.835154    2.4431 255 255 255
-0.407884 -0.784639    2.3946 255 255 255
0.0730717 -0.988575   2.77638 255 255 255
-0.108668 -0.892307   2.57782 255 255 255
 0.508766 -0.537647   2.66492 255 255 255
0.162682 -1.01715  2.90457 255 255 255
-0.208274 -0.755309   2.38817 255 255 255
-0.227916 -0.713049   2.34589 255 255 255
-0.116246 -0.685639   2.35747 255 255 255
0.0522009  -0.72473   2.47848 255 255 255
 0.314057 -0.575744   2.50669 255 255 255
 0.157811 -0.522495   2.25964 255 255 255
-0.172989 -0.854074   2.47953 255 255 255
 0.234709 -0.605081   2.36414 255 255 255
 0.273907 -0.544972   2.45953 255 255 255
 0.298424 -0.611729   2.53616 255 255 255
-0.150865 -0.753813   2.40307 255 255 255
 0.233516 -0.577405   2.34447 255 255 255
 0.521845 -0.566831   2.51064 255 255 255
-0.0494498  -0.870893    2.57806 255 255 255
-0.275503 -0.831087   2.43938 255 255 255
-0.203937 -0.761227    2.3944 255 255 255
-0.162792 -0.741143    2.3896 255 255 255
 0.307666 -0.577124   2.50285 255 255 255
 0.312771 -0.815762   2.69113 255 255 255
-0.260855 -0.736805   2.35825 255 255 255
0.0394065 -0.921354   2.68684 255 255 255
0.690213 -0.78797  2.97034 255 255 255
  0.48222 -0.681757   2.73113 255 255 255
 0.201217 -0.894388   2.76414 255 255 255
-0.0903293  -0.978105    2.69736 255 255 255
-0.334022 -0.731901   2.35617 255 255 255
 0.653594 -0.818488   2.97924 255 255 255
-0.212945 -0.772675   2.40288 255 255 255
-0.201259 -0.735856   2.37459 255 255 255
-0.177663 -0.685483   2.34123 255 255 255
 0.214027 -0.800994   2.63492 255 255 255
-0.342302 -0.834797   2.42776 255 255 255
0.0305565 -0.788975   2.51283 255 255 255
-0.122118 -0.747923   2.40519 255 255 255
0.0846199 -0.640498   2.40469 255 255 255
 0.421513 -0.712423   2.75667 255 255 255
 0.125595 -0.881795     2.693 255 255 255
-0.138564 -0.689758   2.35681 255 255 255
-0.310941 -0.973881    2.5177 255 255 255
 0.356907 -0.685446   2.66471 255 255 255
-0.0224781  -0.835796    2.55575 255 255 255
-0.102185 -0.900164   2.60028 255 255 255
 0.517307 -0.673039   2.67852 255 255 255
0.0735377 -0.562417   2.23847 255 255 255
-0.286489  -1.02079   2.67156 255 255 255
-0.141545 -0.735443   2.38985 255 255 255
-0.208017 -0.785384   2.41833 255 255 255
 0.282787 -0.799199   2.64935 255 255 255
-0.417066 -0.881291   2.47612 255 255 255
-0.0618174  -0.909024    2.62627 255 255 255
-0.360633 -0.871589   2.45975 255 255 255
-0.0907353  -0.753965    2.41794 255 255 255
-0.128785 -0.773992   2.42526 255 255 255
-0.0503064  -0.930592    2.63454 255 255 255
-0.468892 -0.934307   2.52048 255 255 255
-0.175446 -0.943777   2.49317 255 255 255
0.304973 -1.10879  3.09043 255 255 255
-0.128898  -1.00828   2.71425 255 255 255
-0.162348 -0.731959   2.38285 255 255 255
 0.221358 -0.665935   2.54391 255 255 255
 -0.17125 -0.774596   2.41606 255 255 255
  0.41056 -0.504319     2.522 255 255 255
0.264305 -0.86169  2.75823 255 255 255
0.0270287 -0.932043   2.69043 255 255 255
-0.202542 -0.756667   2.38995 255 255 255
 0.234003 -0.997917   2.92766 255 255 255
-0.304781  -0.97177   2.51938 255 255 255
 0.326414 -0.892645    2.8188 255 255 255
-0.0570497  -0.860206    2.56869 255 255 255
 0.238555 -0.621248   2.48094 255 255 255
-0.144586 -0.957001   2.64677 255 255 255
-0.536655 -0.874399     2.454 255 255 255
-0.130321 -0.769622   2.42287 255 255 255
 0.447057 -0.703425   2.73192 255 255 255
-0.546783 -0.869737   2.45596 255 255 255
 0.157458 -0.635517    2.4371 255 255 255
0.0998799  -1.02977   2.87279 255 255 255
-0.193364 -0.749734   2.38659 255 255 255
0.0338852 -0.834064    2.5916 255 255 255
-0.439311 -0.879653   2.47374 255 255 255
 0.155878 -0.605754   2.42157 255 255 255
 0.324576 -0.569356   2.49792 255 255 255
-0.208537 -0.750026   2.38509 255 255 255
 -0.19422 -0.726215   2.36731 255 255 255
0.303964 -1.09756  3.07456 255 255 255
0.0280481 -0.993434   2.78107 255 255 255
-0.426224 -0.889795   2.48407 255 255 255
0.25049 -1.0362 2.98002 255 255 255
0.27829 -0.5302 2.43544 255 255 255
0.0550149 -0.904333   2.67146 255 255 255
-0.185918 -0.746148   2.38708 255 255 255
-0.187029 -0.774579   2.41044 255 255 255
 0.152324 -0.602528   2.41408 255 255 255
0.0747765  -0.67482   2.44194 255 255 255
0.581106 -0.64745  2.77346 255 255 255
-0.468583 -0.863394   2.45748 255 255 255
 0.467875 -0.531341   2.61902 255 255 255
-0.0952224  -0.930793    2.62807 255 255 255
-0.279358 -0.726027   2.34301 255 255 255
0.0729228 -0.912588   2.69294 255 255 255
 0.438429 -0.548851   2.59443 255 255 255
 -0.48028 -0.878305   2.46885 255 255 255
 0.375592 -0.516755   2.51425 255 255 255
0.601421 -0.75818  2.87037 255 255 255
-0.176343 -0.791697   2.43052 255 255 255
 0.259124 -0.575403   2.46193 255 255 255
 0.184242 -0.786449   2.58791 255 255 255
-0.412558 -0.797003   2.40561 255 255 255
-0.230486 -0.778721   2.39133 255 255 255
 0.193038 -0.655078   2.50051 255 255 255
 0.713145 -0.750123   3.05879 255 255 255
-0.093313 -0.825235   2.48231 255 255 255
 0.397669 -0.576643    2.4324 255 255 255
 0.312332 -0.569654   2.49841 255 255 255
-0.108463 -0.841856   2.49253 255 255 255
-0.411194 -0.846226   2.44773 255 255 255
0.288923 -1.04659  3.00768 255 255 255
 0.267609 -0.855323   2.76534 255 255 255
-0.0866201  -0.718754     2.3898 255 255 255
 0.234826 -0.717559   2.54048 255 255 255
-0.305001 -0.887366   2.47159 255 255 255
 0.144807 -0.986825   2.86491 255 255 255
 0.627956 -0.715042   2.95416 255 255 255
-0.0141182   -1.02546    2.81361 255 255 255
-0.103694 -0.893477   2.58343 255 255 255
-0.368209   -1.0357   2.53566 255 255 255
 0.280912 -0.824087   2.71851 255 255 255
0.0475038  -1.01821   2.79444 255 255 255
-0.332803  -0.89569   2.47822 255 255 255
0.0215758 -0.979754   2.76232 255 255 255
 0.213112 -0.676089   2.54975 255 255 255
-0.0879436  -0.894599    2.59633 255 255 255
 0.312939 -0.986549   2.94383 255 255 255
-0.100916 -0.827341   2.48151 255 255 255
0.0291476   -0.9706   2.73192 255 255 255
 0.182514 -0.698725   2.47565 255 255 255
 0.106856 -0.886805   2.68893 255 255 255
-0.517636 -0.989631   2.56584 255 255 255
 0.315533 -0.720613   2.66602 255 255 255
-0.154149 -0.749793   2.40024 255 255 255
-0.228764 -0.757134   2.38309 255 255 255
-0.442384 -0.885898   2.47986 255 255 255
  0.63428 -0.683738   2.92983 255 255 255
-0.157639 -0.961284   2.61619 255 255 255
 -0.29028 -0.865876   2.47104 255 255 255
-0.359216 -0.731297    2.3573 255 255 255
-0.087988 -0.914263   2.61769 255 255 255
-0.0866444  -0.721638     2.4004 255 255 255
-0.00837161   -0.703111     2.41627 255 255 255
 0.356952 -0.890827   2.82436 255 255 255
-0.231012 -0.798292   2.42295 255 255 255
 0.619431 -0.582393   2.79856 255 255 255
 0.436877 -0.692446   2.75392 255 255 255
0.171152 -1.02836  2.91135 255 255 255
 0.359729 -0.766428   2.76566 255 255 255
0.0995208 -0.892832   2.68845 255 255 255
-0.237985 -0.752693   2.37575 255 255 255
-0.232352 -0.923156   2.44078 255 255 255
 0.367896 -0.521994   2.50721 255 255 255
-0.0155457  -0.820455    2.53801 255 255 255
0.0244514  -0.77346   2.51809 255 255 255
-0.153225 -0.780357   2.42815 255 255 255
 0.308891 -0.607174   2.53344 255 255 255
-0.206696 -0.739314   2.37683 255 255 255
-0.109751 -0.814826     2.467 255 255 255
 0.153078 -0.626698   2.42935 255 255 255
0.187716 -0.98359  2.88092 255 255 255
0.0993033  -1.05483   2.90599 255 255 255
0.0247128  -1.00333   2.76113 255 255 255
0.285975  -1.0815  3.04231 255 255 255
 0.276856 -0.848415   2.76221 255 255 255
0.0522143 -0.954913   2.72183 255 255 255
0.0630586 -0.995053   2.77005 255 255 255
-0.0445333   -1.00017    2.76688 255 255 255
 0.253067 -0.607152   2.48124 255 255 255
-0.141126 -0.867721   2.49328 255 255 255
-0.365291 -0.744293    2.3625 255 255 255
-0.0659738  -0.715934     2.3991 255 255 255
0.00474919   -0.75014    2.45555 255 255 255
 0.301115 -0.575323   2.49986 255 255 255
-0.107805 -0.819093   2.46333 255 255 255
 0.200493 -0.650393   2.50058 255 255 255
0.276641 -0.84347  2.75931 255 255 255
-0.305961 -0.882874   2.46291 255 255 255
 0.346332 -0.541729     2.499 255 255 255
0.0298615 -0.759194   2.50425 255 255 255
 -0.16822 -0.770284   2.41321 255 255 255
-0.141577 -0.975766   2.63734 255 255 255
-0.116336  -0.95433   2.64499 255 255 255
-0.022687 -0.823526   2.53442 255 255 255
-0.101784 -0.742995   2.40711 255 255 255
-0.244837 -0.811159   2.43148 255 255 255
-0.0989229  -0.970881    2.65622 255 255 255
-0.0801552  -0.901729    2.59636 255 255 255
 0.292594 -0.571202   2.49343 255 255 255
-0.0815993  -0.897397     2.5923 255 255 255
  0.21887 -0.561833   2.43492 255 255 255
-0.197613 -0.770559   2.40178 255 255 255
0.0366236 -0.676628   2.40827 255 255 255
-0.226774 -0.767804   2.39494 255 255 255
-0.184428 -0.782134   2.42234 255 255 255
 0.226781 -0.659119    2.5386 255 255 255
 0.467849 -0.549335    2.6373 255 255 255
-0.206187 -0.765491   2.39297 255 255 255
0.0772011 -0.714642   2.48951 255 255 255
-0.0566179  -0.716849    2.40584 255 255 255
0.669637  -0.6808  2.86743 255 255 255
 0.318427 -0.895105   2.81602 255 255 255
-0.181069 -0.799158   2.43127 255 255 255
-0.202765 -0.750768   2.38445 255 255 255
-0.0741405  -0.716532    2.39665 255 255 255
-0.223824 -0.919803   2.44707 255 255 255
-0.261432 -0.812946    2.4269 255 255 255
-0.0211319  -0.987149    2.72551 255 255 255
-0.158776 -0.734356   2.38528 255 255 255
  -0.2311 -0.918622   2.44098 255 255 255
0.0522152 -0.899849   2.67057 255 255 255
-0.0799551  -0.708964    2.39081 255 255 255
 0.211564 -0.645383   2.41999 255 255 255
0.0366881 -0.782677   2.53444 255 255 255
-0.430344 -0.772864   2.37716 255 255 255
-0.136447 -0.938428   2.60483 255 255 255
-0.254649 -0.809559   2.42599 255 255 255
0.0778023  -0.89859   2.68513 255 255 255
-0.145266 -0.768591    2.4178 255 255 255
-0.0171674   -0.84205    2.56736 255 255 255
 0.449361 -0.527461   2.58628 255 255 255
-0.098645 -0.888878   2.57786 255 255 255
 -0.27366 -0.843233   2.44858 255 255 255
  0.40503 -0.518578    2.5352 255 255 255
 0.113504 -0.886854   2.69335 255 255 255
 0.487417 -0.736873   2.82887 255 255 255
-0.267569 -0.826991   2.44017 255 255 255
-0.0367082  -0.934675    2.65502 255 255 255
-0.0634891  -0.857037    2.56121 255 255 255
-0.245796 -0.879615   2.45598 255 255 255
-0.248578 -0.902356    2.4327 255 255 255
-0.127114 -0.922477   2.59487 255 255 255
0.276726 -1.12114  3.08068 255 255 255
0.0131808 -0.880353   2.61939 255 255 255
 -0.37717 -0.995963   2.48219 255 255 255
 0.339142 -0.997306     2.972 255 255 255
-0.0878258  -0.934043    2.61748 255 255 255
-0.0800055  -0.721636    2.40064 255 255 255
0.0230486 -0.798325   2.53595 255 255 255
 0.470518 -0.571151   2.65476 255 255 255
 0.183481 -0.777133   2.62702 255 255 255
 0.176662 -0.741112   2.58528 255 255 255
0.0890527 -0.911923   2.70481 255 255 255
-0.00529954   -0.861248     2.59334 255 255 255
-0.255117 -0.805817   2.41956 255 255 255
-0.378934 -0.906883   2.48213 255 255 255
0.323865 -1.08495  3.06651 255 255 255
-0.215243  -0.79095   2.41951 255 255 255
-0.0594527  -0.713758    2.40135 255 255 255
-0.172242 -0.734384   2.38268 255 255 255
0.363674 -0.55583  2.54208 255 255 255
-0.198465 -0.777831   2.41087 255 255 255
 -0.13769 -0.864334   2.49071 255 255 255
0.0318782  -1.02528   2.80011 255 255 255
-0.276973 -0.847631   2.45463 255 255 255
-0.182879 -0.762688   2.39964 255 255 255
0.0152003 -0.973096   2.72745 255 255 255
 0.023164 -0.814848   2.55522 255 255 255
-0.120422 -0.886539   2.52005 255 255 255
-0.0959014  -0.764143     2.4301 255 255 255
-0.362906 -0.959646   2.47395 255 255 255
 0.346878 -0.736879   2.71736 255 255 255
-0.175479  -0.76628   2.40693 255 255 255
-0.107438 -0.986863   2.70394 255 255 255
  0.15292 -0.637171   2.43671 255 255 255
-0.0695759  -0.914537    2.60597 255 255 255
0.0739708   -0.9461   2.72192 255 255 255
0.295905 -1.02286  2.98934 255 255 255
 0.412543 -0.563793   2.58127 255 255 255
-0.156653  -0.77486   2.41871 255 255 255
 0.356946 -0.520409   2.49938 255 255 255
-0.447388 -0.912373    2.5036 255 255 255
-0.0965361  -0.911482    2.59785 255 255 255
-0.130909 -0.754223   2.40834 255 255 255
-0.168757 -0.735971   2.38287 255 255 255
-0.128582 -0.688203   2.36101 255 255 255
0.316137 -1.01197   2.9832 255 255 255
0.335926 -1.12751  3.12319 255 255 255
0.0801269 -0.789885   2.55161 255 255 255
0.0646824  0.570766   1.58864 255 255 255
-0.120234 0.0804067   1.84507 255 255 255
-0.0637339   0.471681    1.66183 255 255 255
-0.208611  0.329508   1.78214 255 255 255
0.0725535  0.499025   1.65763 255 255 255
-0.0181812   0.304361    1.76258 255 255 255
-0.312381  0.150058   1.86975 255 255 255
0.00277393   0.237402    1.76418 255 255 255
-0.294991  0.677438    1.6257 255 255 255
-0.558561  0.521523   1.77131 255 255 255
-0.00900002    0.489791     1.68514 255 255 255
-0.248506  0.439955   1.72193 255 255 255
-0.0675111  0.0755949    1.83279 255 255 255
-0.224264 0.0735405   1.88588 255 255 255
-0.321562  0.226959   1.84569 255 255 255
-0.0920448   0.265146    1.78933 255 255 255
0.0534806  0.462388   1.65175 255 255 255
 0.02416 0.470567  1.69828 255 255 255
 -0.175963 -0.0184917     1.9021 255 255 255
-0.222321  0.027353    1.8935 255 255 255
-0.233631  0.159594   1.85793 255 255 255
-0.025704  0.258732   1.77618 255 255 255
-0.273176   0.54174   1.71117 255 255 255
0.0135538   0.28024   1.75646 255 255 255
-0.221178  0.196832   1.86313 255 255 255
0.053587 0.725872  1.52878 255 255 255
-0.53215 0.498869  1.79239 255 255 255
0.112746 0.498526  1.64498 255 255 255
-0.0198892   0.695449    1.56414 255 255 255
-0.0132192   0.228127    1.78033 255 255 255
-0.0628314   0.202761    1.77975 255 255 255
-0.193408  0.186972   1.84742 255 255 255
-0.0716974  0.0348308    1.85744 255 255 255
-0.061093  0.784882   1.53128 255 255 255
0.0821987  0.530228   1.65659 255 255 255
-0.21587 0.258269  1.81629 255 255 255
0.139061 0.561547  1.63248 255 255 255
0.179172 0.397059   1.6271 255 255 255
-0.0730568   0.297277    1.77783 255 255 255
0.0252781  0.706075   1.54192 255 255 255
-0.266662  0.171654   1.87742 255 255 255
 -0.144344 -0.0200051    1.87942 255 255 255
-0.154922  0.280847   1.80666 255 255 255
-0.052752  0.278136   1.76916 255 255 255
0.174684 0.491938  1.63204 255 255 255
0.175337 0.572103   1.6273 255 255 255
-0.642316  0.686149   1.71096 255 255 255
0.225948  0.50932  1.60971 255 255 255
-0.535755  0.345426    1.8867 255 255 255
-0.148001  0.105923   1.85783 255 255 255
-0.278232  0.312475   1.81436 255 255 255
-0.482737   0.20753   1.93408 255 255 255
0.196269 0.561545  1.61274 255 255 255
0.147323 0.405948  1.62585 255 255 255
-0.169698 0.0581542   1.86853 255 255 255
-0.607992   0.39016   1.87718 255 255 255
0.0992949  0.419728   1.68068 255 255 255
0.235664  0.41362  1.61095 255 255 255
-0.0859629   0.283214    1.77349 255 255 255
-0.164935  0.365474   1.76723 255 255 255
-0.527649  0.376744   1.85863 255 255 255
-0.565719  0.508945   1.77246 255 255 255
-0.26662 0.293269  1.83205 255 255 255
-0.233318  0.663353   1.66508 255 255 255
-0.143218  0.379864   1.75983 255 255 255
-0.124264  0.391123   1.75317 255 255 255
-0.476698  0.741858   1.63742 255 255 255
-0.261131  0.196654   1.86809 255 255 255
0.171533 0.544315  1.63174 255 255 255
-0.12596 0.706273  1.61546 255 255 255
-0.300331  0.306286   1.82665 255 255 255
-0.121136  0.105595   1.84698 255 255 255
-0.0115129   0.792312    1.49142 255 255 255
-0.253734  0.656573   1.66717 255 255 255
-0.647613  0.463022   1.84283 255 255 255
-0.27786 0.567639  1.68785 255 255 255
-0.586463  0.214285   2.01434 255 255 255
-0.543602  0.482698   1.78677 255 255 255
0.0836413  0.433786   1.68885 255 255 255
-0.447134  0.390818    1.8302 255 255 255
0.0826856  0.416566   1.68376 255 255 255
0.162494 0.494928  1.64391 255 255 255
-0.0212165   0.659549    1.57696 255 255 255
-0.175882  0.120347   1.86044 255 255 255
-0.546834  0.195672     2.006 255 255 255
0.174373 0.358305  1.68001 255 255 255
-0.62989 0.661672  1.72082 255 255 255
-0.360037  0.539421   1.73686 255 255 255
-0.671898  0.616826   1.76102 255 255 255
-0.0370422    0.25167    1.78269 255 255 255
-0.312161  0.318053   1.82419 255 255 255
-0.0551464   0.289825    1.76894 255 255 255
-0.143119  0.300417   1.78337 255 255 255
-0.628266  0.301322    1.9046 255 255 255
-0.299584    0.1035   1.90702 255 255 255
-0.119143  0.235826   1.80225 255 255 255
0.314386  0.56286  1.57917 255 255 255
0.0654968   0.42475   1.68969 255 255 255
-0.459482  0.443716   1.79672 255 255 255
-0.134167  0.224445   1.81447 255 255 255
-0.35405 0.552368  1.73659 255 255 255
-0.175233  0.375956   1.76465 255 255 255
-0.0751319   0.262181    1.78118 255 255 255
-0.100982   0.11199   1.83752 255 255 255
0.0621363  0.513178   1.66381 255 255 255
0.103702 0.529744  1.64569 255 255 255
-0.21716 0.166396  1.85244 255 255 255
0.00860961   0.311995    1.73755 255 255 255
-0.228558  0.104325   1.88618 255 255 255
-0.300176  0.081443   1.91293 255 255 255
-0.0660151   0.287003     1.7702 255 255 255
-0.0981585   0.310959    1.77237 255 255 255
0.207435 0.520984  1.62811 255 255 255
-0.0216233   0.286784     1.7614 255 255 255
0.241332 0.742489  1.50365 255 255 255
0.209522 0.546452  1.63174 255 255 255
0.023305 0.220214  1.77513 255 255 255
-0.111292  0.226506   1.81106 255 255 255
-0.0265016  0.0724026    1.83462 255 255 255
0.148297  0.54362  1.61427 255 255 255
-0.0540356   0.834388    1.53955 255 255 255
-0.247044   0.66158   1.66238 255 255 255
-0.044164  0.277726   1.76927 255 255 255
-0.180562 0.0992202   1.85537 255 255 255
-0.549613  0.359229    1.8716 255 255 255
-0.112514  0.704848   1.61783 255 255 255
0.0400945  0.496848   1.67939 255 255 255
-0.654262  0.586837   1.76632 255 255 255
-0.0180689   0.278049    1.76724 255 255 255
-0.469352  0.466852   1.79091 255 255 255
-0.359465  0.602043   1.72051 255 255 255
-0.00523475    0.270929     1.76836 255 255 255
0.127546 0.457157  1.65403 255 255 255
-0.24836 0.034497   1.9001 255 255 255
0.0310508 0.0777088   1.80174 255 255 255
-0.0881686   0.291087    1.78163 255 255 255
-0.428998  0.130334   1.94949 255 255 255
 0.10952 0.441281  1.66978 255 255 255
-0.165476  0.262161   1.81849 255 255 255
-0.16299  0.20308  1.82627 255 255 255
-0.133168  0.211646   1.81948 255 255 255
-0.0611178    0.12147     1.8143 255 255 255
-0.0975139   0.238545    1.80076 255 255 255
0.119424 0.449658  1.67092 255 255 255
-0.0414374 -0.0577191    1.87132 255 255 255
0.0106505  0.190777   1.78063 255 255 255
-0.0648009 -0.0622255    1.87912 255 255 255
-0.115574  0.299117   1.79222 255 255 255
0.189654 0.532208  1.63086 255 255 255
-0.096233  0.208815   1.81198 255 255 255
0.028868 0.455673  1.63748 255 255 255
0.0217085  0.307435   1.74589 255 255 255
-0.153621  0.199126   1.83223 255 255 255
 -0.165624 -0.0818104     1.9094 255 255 255
 -0.275107 0.00684909    1.91032 255 255 255
-0.576617  0.606956   1.73443 255 255 255
0.132497 0.531113  1.62253 255 255 255
-0.112963  0.106121   1.84114 255 255 255
-0.106043  0.126388   1.83868 255 255 255
-0.289635 0.0762013    1.9146 255 255 255
-0.126797  0.184308    1.8316 255 255 255
-0.0545609   0.301839    1.76925 255 255 255
0.182551 0.507663  1.63539 255 255 255
0.176747 0.503171  1.64196 255 255 255
-0.185336  0.185032   1.84364 255 255 255
0.00484898   0.463652    1.69532 255 255 255
-0.0859026   0.255116    1.78689 255 255 255
-0.0451034   0.442875    1.71338 255 255 255
0.104952 0.314184  1.69821 255 255 255
-0.0101786   0.260817    1.77358 255 255 255
-0.246404  0.097048    1.8864 255 255 255
0.190135 0.500805  1.62717 255 255 255
-0.114233  0.198349   1.82038 255 255 255
0.0301657  0.273935   1.74908 255 255 255
0.237019 0.517708  1.60808 255 255 255
-0.113466  0.206739   1.81742 255 255 255
-0.0669405   0.329464    1.76707 255 255 255
0.00487168   0.206708    1.78445 255 255 255
-0.0236227   0.296532    1.76271 255 255 255
-0.251117  0.173342   1.87102 255 255 255
-0.617893  0.492187   1.81541 255 255 255
0.0503824  0.385152   1.71438 255 255 255
-0.151427  0.165325   1.84239 255 255 255
0.200001 0.509105  1.62407 255 255 255
-0.282432 0.0626844   1.91359 255 255 255
0.154966 0.347568  1.64543 255 255 255
-0.196434  0.114383   1.86273 255 255 255
-0.167503 0.0732904   1.86647 255 255 255
-0.135645  0.440553   1.72747 255 255 255
0.0936358  0.494803   1.64855 255 255 255
-0.100912  0.089397   1.82629 255 255 255
-0.230493  0.337702   1.80553 255 255 255
-0.247862 0.0731093   1.88669 255 255 255
-0.092885  0.120175   1.83014 255 255 255
-0.137639  0.744833   1.59846 255 255 255
-0.62764 0.351887  1.91247 255 255 255
-0.00614112    0.793825      1.4926 255 255 255
-0.142404  0.166306   1.83663 255 255 255
-0.0231114    0.30375    1.76271 255 255 255
0.0975848  0.536032   1.64103 255 255 255
0.0137113  0.318024   1.74366 255 255 255
-0.181664  0.142899   1.85954 255 255 255
-0.293819  0.309545   1.81796 255 255 255
0.241269 0.595255  1.59284 255 255 255
-0.248969  0.382997    1.7766 255 255 255
-0.0232467  0.0784203    1.83913 255 255 255
-0.241524   0.17308   1.86673 255 255 255
 0.01074 0.201523  1.77534 255 255 255
-0.0356715   0.239564     1.7831 255 255 255
 -0.24078 0.0406282   1.89317 255 255 255
-0.08606 0.126515  1.82647 255 255 255
-0.075505  0.133618   1.82179 255 255 255
-0.323324  0.282742    1.8523 255 255 255
-0.295417 0.0641372   1.91461 255 255 255
-0.147982  0.255614   1.81627 255 255 255
-0.420986  0.298911   1.85196 255 255 255
-0.0700731   0.225515    1.79787 255 255 255
-0.247856   0.12487   1.87615 255 255 255
   -0.1496 -0.0960004     1.9297 255 255 255
-0.0513645   0.145475    1.81258 255 255 255
-0.127645   0.17501   1.83373 255 255 255
-0.16885 0.199848   1.8284 255 255 255
-0.163981  0.345848   1.76177 255 255 255
   2.1399   3.66919 -0.254289 255 255 255
  2.45161   3.54855 -0.279821 255 255 255
  2.54926   3.62528 -0.246277 255 255 255
  2.46992   3.38101 -0.206223 255 255 255
  2.09575   3.60712 -0.264559 255 255 255
  2.17344   3.58528 -0.307003 255 255 255
 2.19608  3.55192 -0.25532 255 255 255
 2.6906 3.63036 -0.1646 255 255 255
  2.44648   3.33722 -0.217612 255 255 255
  2.13448   3.61221 -0.310508 255 255 255
  2.54031   4.05721 -0.158053 255 255 255
  2.45221   3.28092 -0.238954 255 255 255
  2.42311   3.23886 -0.240293 255 255 255
  2.47659   3.29099 -0.213276 255 255 255
  2.07325   3.59339 -0.283027 255 255 255
  2.14046   3.61853 -0.258065 255 255 255
  2.52431   3.62257 -0.255488 255 255 255
  2.52198   3.68532 -0.254039 255 255 255
  2.69286   3.49303 -0.131196 255 255 255
