ply
format ascii 1.0
element vertex 1140
property float x
property float y
property float z
property uchar red
property uchar green
property uchar blue
end_header
-0.444604  0.967104   1.55917 255 255 255
-0.0960478   0.765311    1.63157 255 255 255
-0.344018   1.31484   1.37663 255 255 255
-0.801196   1.03257   1.63165 255 255 255
-0.863144   1.20307   1.40212 255 255 255
-0.84934 0.780441  1.77472 255 255 255
-0.508543   1.24219   1.45738 255 255 255
-0.602601   1.23352    1.4627 255 255 255
 -0.8012 0.968853  1.65732 255 255 255
-0.331674   1.50086   1.22861 255 255 255
0.297664 0.838875  1.52269 255 255 255
-0.740779  0.973594   1.61458 255 255 255
-1.02835  1.18157  1.51444 255 255 255
-0.275233   1.46706   1.27961 255 255 255
-0.403984   1.37754   1.34574 255 255 255
-0.709366  0.962955   1.63285 255 255 255
 -0.6312 0.967804   1.6203 255 255 255
0.288165 0.868738  1.53303 255 255 255
0.0319408   1.13869   1.42714 255 255 255
-0.792446  0.720766   1.79916 255 255 255
0.0214697   1.17159   1.41442 255 255 255
 -1.2011 0.926009  1.72633 255 255 255
-0.159639   1.07743   1.48842 255 255 255
-0.66501  1.02338  1.60446 255 255 255
-0.423707   1.45052   1.28356 255 255 255
-0.180668   1.06444   1.49676 255 255 255
-0.527823   1.04624   1.55061 255 255 255
-0.466046   1.42906    1.3074 255 255 255
-0.78488 0.980089  1.63922 255 255 255
-0.0735856   0.311484    1.84488 255 255 255
-0.387788   1.50956   1.22256 255 255 255
-0.7927 1.14388 1.53931 255 255 255
-0.669124  0.712805   1.72173 255 255 255
-0.0776657    0.72486    1.63994 255 255 255
-1.03984 0.938659  1.72294 255 255 255
-0.376762   1.28346   1.39868 255 255 255
-0.0811616   0.614412    1.64093 255 255 255
-0.335611   1.32136   1.37355 255 255 255
-0.463848  0.936446   1.61314 255 255 255
-0.626824   1.14384   1.53219 255 255 255
0.0736194  0.296143   1.75908 255 255 255
-0.742202  0.895717   1.68371 255 255 255
-0.66969  1.14309  1.54523 255 255 255
-0.0393758   0.877252    1.57188 255 255 255
-0.662601   1.31509    1.3893 255 255 255
-0.569862  0.898531   1.60462 255 255 255
-0.672103   1.11627    1.5607 255 255 255
0.0565644   1.13689   1.42321 255 255 255
0.318888 0.821976  1.54582 255 255 255
-0.704321   1.11202   1.57038 255 255 255
-0.82337  1.12366  1.55508 255 255 255
-0.41654  1.47869  1.23175 255 255 255
-0.426467   1.35748    1.3601 255 255 255
-0.797989   1.12048   1.58932 255 255 255
-0.500376   0.80295   1.69419 255 255 255
-0.684758   1.25274   1.46492 255 255 255
-0.410687   1.40741   1.31382 255 255 255
-0.625487  0.980691   1.60234 255 255 255
-0.370444  0.952787    1.5966 255 255 255
-0.965317  0.883369   1.74361 255 255 255
-0.54495  1.30098   1.4031 255 255 255
0.264203 0.693842  1.57501 255 255 255
-0.341632   1.07564   1.52352 255 255 255
-1.01991  1.01918  1.65394 255 255 255
-0.45577 0.681152  1.70526 255 255 255
-0.111367   0.34418   1.81387 255 255 255
-0.919017   1.07773   1.60867 255 255 255
0.0102244   1.05697   1.47586 255 255 255
-0.228799  0.966861   1.55159 255 255 255
0.0816779  0.133733   1.82107 255 255 255
0.123501 0.454246   1.7189 255 255 255
-0.333574   1.05975   1.53008 255 255 255
-0.882002   1.17304   1.45222 255 255 255
-0.0987632   0.900773     1.5441 255 255 255
0.193441 0.301265  1.75656 255 255 255
0.186378 0.292459  1.75341 255 255 255
-0.703865   1.19987   1.48987 255 255 255
-0.00066056    0.264192     1.83306 255 255 255
0.270579 0.474782  1.63053 255 255 255
0.0136313  0.876887    1.5651 255 255 255
-0.492243  0.483138   1.84097 255 255 255
-0.936288  0.638565   1.87021 255 255 255
0.193489 0.988019  1.48619 255 255 255
-0.698497   1.07398   1.57985 255 255 255
0.0345729  0.948636   1.49451 255 255 255
-0.40868  1.42698  1.29332 255 255 255
-0.300631   1.40457   1.32739 255 255 255
-0.171738  0.524381    1.6741 255 255 255
-0.486616  0.873861   1.66028 255 255 255
-0.87151  1.12657  1.56658 255 255 255
-0.61795  1.19495  1.51163 255 255 255
-0.573873   1.21868   1.48694 255 255 255
-0.511139  0.931533   1.64351 255 255 255
-0.585468  0.860927   1.66306 255 255 255
0.365661 0.737081  1.42344 255 255 255
-0.406426   1.49191   1.23206 255 255 255
-0.435076    1.3954   1.31365 255 255 255
-0.894647  0.668443   1.85374 255 255 255
-0.161198  0.709114   1.67839 255 255 255
-0.825217  0.575874   1.88746 255 255 255
 -1.1397 0.890299   1.7815 255 255 255
-0.346837  0.460162   1.75067 255 255 255
-0.870607  0.962203   1.68915 255 255 255
0.0208819  0.277186   1.82534 255 255 255
0.0296245   1.13321   1.42205 255 255 255
-0.145441  0.234928   1.87577 255 255 255
-0.731207   1.00272   1.62313 255 255 255
-0.251218  0.931745   1.57238 255 255 255
-0.643511   1.02789   1.58793 255 255 255
-0.936674   1.18514   1.46149 255 255 255
-0.617932   1.31872   1.36797 255 255 255
0.154622 0.198291  1.84059 255 255 255
-0.656283  0.825959   1.69177 255 255 255
-0.914453   1.13756   1.48092 255 255 255
-0.65103 0.948183  1.63438 255 255 255
-0.493314   1.05798   1.52746 255 255 255
-0.426666    1.4176    1.3055 255 255 255
-0.122081  0.177653    1.8786 255 255 255
-0.285331   1.08859   1.49816 255 255 255
-0.406134   1.40654     1.316 255 255 255
-0.476175  0.836079   1.68143 255 255 255
-1.14625 0.881409  1.76045 255 255 255
-0.342877  0.998319   1.55716 255 255 255
-0.302532  0.234569   1.91877 255 255 255
-0.390678   1.47497   1.26602 255 255 255
-0.291933   1.34154   1.35598 255 255 255
-0.756561  0.946022   1.65449 255 255 255
-0.896885  0.882591   1.73319 255 255 255
-0.423931    1.3848   1.33732 255 255 255
-0.592646    1.2428    1.4536 255 255 255
-0.563281  0.896261    1.6045 255 255 255
-0.491425   1.16019   1.49575 255 255 255
-0.599292   1.31837   1.40401 255 255 255
-0.527869  0.912107   1.65212 255 255 255
-0.832418   1.02228   1.65027 255 255 255
-0.377848  0.985891   1.57473 255 255 255
-0.793206   1.14864   1.53628 255 255 255
-0.350607    1.3924   1.34931 255 255 255
-0.423804   0.64834   1.66888 255 255 255
-0.320353   0.85821   1.63261 255 255 255
-0.429557  0.298954   1.90767 255 255 255
-0.382928    1.4763   1.25708 255 255 255
-0.413136  0.301783   1.92914 255 255 255
-0.678541  0.711897   1.71126 255 255 255
-0.71732 0.546614   1.8866 255 255 255
0.23938 0.61434 1.64257 255 255 255
 0.27892 0.566657  1.64911 255 255 255
-0.0807961    0.72997     1.6332 255 255 255
-0.70831 0.805468  1.71408 255 255 255
-0.238231  0.155891   1.93415 255 255 255
-1.05093 0.899211  1.76808 255 255 255
-0.354766   1.43013   1.29806 255 255 255
-0.641497  0.985963   1.60025 255 255 255
-0.814283   1.02113     1.636 255 255 255
-0.397987   0.84821   1.66458 255 255 255
0.0136297  0.189661     1.775 255 255 255
-0.872048   1.08418   1.59345 255 255 255
-0.295864   1.40454   1.33036 255 255 255
-0.763841  0.886724   1.68901 255 255 255
-0.498895    1.2508   1.45144 255 255 255
-0.636122    1.3305   1.37376 255 255 255
-0.617608   1.15183   1.52764 255 255 255
-0.568929   1.31778   1.39777 255 255 255
-0.979937   1.01264   1.66268 255 255 255
-0.938928   0.68547   1.88049 255 255 255
-1.09048  1.02387  1.56834 255 255 255
-0.405699   1.41148   1.30513 255 255 255
-0.638163   1.19953   1.49056 255 255 255
-0.761816  0.951134   1.65139 255 255 255
-0.572396  0.880809   1.62865 255 255 255
-0.436031  0.906494   1.64004 255 255 255
-0.433296  0.374601   1.89648 255 255 255
-0.514934   1.01984   1.56082 255 255 255
-0.124212  0.252176    1.8661 255 255 255
-0.371193  0.962731   1.59736 255 255 255
  0.2073 0.561746   1.6565 255 255 255
-0.509337  0.869341   1.64965 255 255 255
-0.417969   1.44126   1.28957 255 255 255
-0.662385   1.27114   1.44883 255 255 255
0.0290384  0.624856   1.59367 255 255 255
-0.230427  0.373751   1.82311 255 255 255
-0.843494  0.874927   1.72126 255 255 255
-0.0344188   0.624604    1.67447 255 255 255
-0.649445  0.997388   1.59398 255 255 255
-0.535294   1.27333   1.42803 255 255 255
-0.515768  0.781662   1.68973 255 255 255
-0.754934   1.00086   1.62754 255 255 255
0.145663 0.394447  1.68751 255 255 255
0.0207192  0.305642   1.80967 255 255 255
-0.71305 0.556502  1.87003 255 255 255
-0.762662   1.21604   1.43528 255 255 255
-0.616955   1.36362   1.26703 255 255 255
-0.653513   1.22118   1.46563 255 255 255
0.0435177  0.289055   1.79414 255 255 255
-0.526745   1.38205   1.34572 255 255 255
-0.369596  0.830492   1.67167 255 255 255
-0.5047 1.37145 1.35479 255 255 255
-0.992667   1.11156   1.50798 255 255 255
0.292478 0.864928  1.53049 255 255 255
-0.193403 0.0808998   1.95477 255 255 255
0.178368 0.415551  1.67079 255 255 255
0.228652 0.970069  1.48719 255 255 255
-0.922215  0.962973   1.70022 255 255 255
-0.133695  0.667323    1.6903 255 255 255
-0.101256  0.359759    1.8301 255 255 255
-0.519639  0.775506   1.69137 255 255 255
-0.581824   1.33692   1.38923 255 255 255
-0.887718  0.988076   1.67895 255 255 255
-0.64417  1.23621  1.45574 255 255 255
-0.90218  1.11274  1.52046 255 255 255
-0.438623   1.41023   1.31503 255 255 255
-0.400835  0.971076   1.57992 255 255 255
-0.287477  0.707276   1.67675 255 255 255
0.225408 0.961277  1.48335 255 255 255
-0.239327   1.08154    1.5039 255 255 255
-0.755743   1.22611   1.45928 255 255 255
0.256159 0.865613  1.51102 255 255 255
-0.588142   1.33564   1.35177 255 255 255
-0.361283   1.47892   1.25348 255 255 255
-0.394934   1.48558   1.25925 255 255 255
-1.12157 0.877841  1.76145 255 255 255
-0.311972   1.38922   1.34099 255 255 255
-0.922764  0.677604   1.87678 255 255 255
-0.922024  0.955976   1.70152 255 255 255
-0.0788744    1.11931    1.45125 255 255 255
-0.0979017   0.312125    1.84112 255 255 255
 -0.612 1.06643  1.5617 255 255 255
-1.08688  1.13609  1.55611 255 255 255
-0.516153   1.42268   1.26877 255 255 255
0.142289 0.415865  1.68085 255 255 255
-0.724553   1.19733   1.49924 255 255 255
0.139104  0.53152  1.68583 255 255 255
-0.955261   0.67436   1.88282 255 255 255
-0.314392   1.50628   1.22676 255 255 255
-0.0339631   0.246348    1.84143 255 255 255
-0.0337809   0.782938     1.5845 255 255 255
0.121189 0.367539  1.72061 255 255 255
0.122377 0.368496  1.72656 255 255 255
-0.704925   1.21485   1.48743 255 255 255
0.0271287  0.380711   1.80026 255 255 255
-0.309723   1.51171   1.22247 255 255 255
-0.478211    1.3197   1.39631 255 255 255
-0.622878   1.09936   1.54954 255 255 255
-0.985553   1.10269   1.50866 255 255 255
0.138412 0.566345  1.69761 255 255 255
-1.07656 0.954053  1.70994 255 255 255
-0.743166   1.21035   1.49729 255 255 255
-1.07787 0.946805  1.72164 255 255 255
-0.915787  0.964153   1.69932 255 255 255
-0.736683  0.701462    1.7281 255 255 255
-0.457063   1.09813   1.49888 255 255 255
-0.988346  0.779023   1.73219 255 255 255
-0.311804   1.45306   1.27698 255 255 255
-0.710191   1.28935   1.32315 255 255 255
0.0255885   1.04368   1.47893 255 255 255
-0.320789  0.992844   1.55714 255 255 255
-0.50171  1.38464  1.34533 255 255 255
-0.735168  0.891234   1.68109 255 255 255
-0.455177   1.34456   1.37575 255 255 255
-0.0442306   0.641534    1.64649 255 255 255
-0.765209   1.05255    1.6056 255 255 255
-0.649664   1.26348   1.43785 255 255 255
-0.33126   0.4445  1.77274 255 255 255
-0.837456  0.958389   1.67859 255 255 255
-0.580207    1.2363   1.45951 255 255 255
0.140098 0.357863   1.7097 255 255 255
-0.523267   1.34854   1.36804 255 255 255
 -0.8384 0.831717  1.73258 255 255 255
-0.536973    1.4019   1.30694 255 255 255
-0.642534   1.20604    1.4836 255 255 255
-0.566955  0.575153   1.79557 255 255 255
-0.69108  1.11411  1.56471 255 255 255
0.219347 0.519122  1.68032 255 255 255
-0.377923    1.4698   1.25852 255 255 255
0.129505  0.29273  1.76234 255 255 255
-0.155157  0.336382   1.85552 255 255 255
-0.330074  0.856493   1.64153 255 255 255
-0.904927    0.9851   1.68365 255 255 255
-0.268488   0.17708   1.95615 255 255 255
-0.442868   1.48114   1.24815 255 255 255
-0.678529  0.763085   1.73028 255 255 255
-0.573028   1.25109   1.43388 255 255 255
-0.257386   1.02552   1.52658 255 255 255
-0.31979 0.902086  1.60606 255 255 255
0.217061 0.849084  1.52227 255 255 255
-0.0166097   0.960352    1.51044 255 255 255
-0.0468902    1.22722    1.38767 255 255 255
0.306583  0.92915  1.46116 255 255 255
0.106112 0.368355  1.71419 255 255 255
0.0823157   1.11741   1.42618 255 255 255
-0.819227  0.564393   1.89086 255 255 255
-0.870373   1.16541   1.46593 255 255 255
-1.19746 0.921198  1.75817 255 255 255
-0.404842  0.860311   1.65992 255 255 255
-0.790045    1.1571   1.53365 255 255 255
-0.627766  0.956728   1.61134 255 255 255
-0.784023  0.860525   1.71026 255 255 255
-0.63077  1.20235  1.48505 255 255 255
-0.291866   1.01254   1.53887 255 255 255
-0.609452   1.35923   1.28697 255 255 255
-0.521105    1.3656   1.35343 255 255 255
-0.65842  1.01764  1.59731 255 255 255
-0.644256   1.09455   1.56098 255 255 255
-0.353132   1.49335   1.23831 255 255 255
-0.616252  0.632395   1.78493 255 255 255
-0.658197   1.17425   1.48128 255 255 255
0.0950573  0.172212    1.8293 255 255 255
-0.720473  0.885088   1.67542 255 255 255
-0.78594  1.18054  1.52009 255 255 255
0.167102 0.515988  1.71171 255 255 255
-0.912799   1.04871   1.62558 255 255 255
-0.179847  0.409374   1.81676 255 255 255
0.262523 0.797282  1.55315 255 255 255
-0.059627  0.386413   1.80377 255 255 255
0.0301252  0.205732   1.77605 255 255 255
-1.09889  1.12743  1.56038 255 255 255
-0.838272   1.11738   1.56727 255 255 255
0.308054 0.938505  1.45902 255 255 255
-0.629856   1.19628   1.49096 255 255 255
-0.21463  1.08241  1.50038 255 255 255
-0.728241  0.812127   1.71789 255 255 255
-0.737934   1.00492   1.61937 255 255 255
-0.406022   1.38934    1.3294 255 255 255
-0.383787   1.39739   1.32866 255 255 255
-0.803225   1.04487   1.62454 255 255 255
-0.606298   1.08377   1.55291 255 255 255
-0.42464 0.851817  1.64975 255 255 255
-0.400529   1.46642   1.27023 255 255 255
-1.02817 0.904607  1.75754 255 255 255
-0.426225   1.42522   1.29904 255 255 255
-0.365704   1.28391   1.39827 255 255 255
-0.647573   1.13772   1.54419 255 255 255
-0.493056  0.853542   1.67939 255 255 255
-0.351246   1.42867   1.30016 255 255 255
-0.0522392    1.24881     1.4013 255 255 255
-0.342968   1.08524   1.51853 255 255 255
-0.887638  0.606087   1.89384 255 255 255
-0.990912  0.777224   1.72562 255 255 255
-0.0143217   0.937327     1.5141 255 255 255
-0.0442828   0.240459    1.84874 255 255 255
-0.35794  1.38219  1.35633 255 255 255
-0.307901   1.47113   1.25793 255 255 255
-0.391693   1.49298   1.25321 255 255 255
-0.856603  0.772675   1.77186 255 255 255
-0.526381   1.29314   1.42612 255 255 255
-0.489269   0.85907   1.67209 255 255 255
-0.258021   1.06924   1.50693 255 255 255
-0.57953  1.18332  1.50304 255 255 255
-0.0333242   0.505515    1.71221 255 255 255
-0.165613  0.989769   1.52489 255 255 255
0.00400152   0.315765    1.81251 255 255 255
0.253515 0.964331  1.48468 255 255 255
-0.429733   1.46298   1.24084 255 255 255
-0.643356  0.711404   1.74572 255 255 255
-0.542017   1.25705   1.46246 255 255 255
0.241487 0.449479  1.64079 255 255 255
-1.02999 0.952067  1.69859 255 255 255
-0.254801   1.06319    1.5124 255 255 255
0.0320461  0.211587   1.79308 255 255 255
-0.867798  0.876813   1.72656 255 255 255
-0.821615  0.569705   1.88941 255 255 255
-0.896429  0.845109   1.74996 255 255 255
-0.590301  0.695767   1.75054 255 255 255
-0.517336   1.42505   1.23295 255 255 255
-0.345186   1.43964   1.28238 255 255 255
-0.57493 0.579137  1.80688 255 255 255
-0.418055   1.46506    1.2796 255 255 255
-1.0119 1.11649 1.50419 255 255 255
-0.567456   1.30521   1.40124 255 255 255
-0.0250539   0.246232    1.85184 255 255 255
-0.502697   1.17441   1.48473 255 255 255
-0.570328   1.23431   1.48013 255 255 255
-0.299196  0.242489   1.91478 255 255 255
-0.0941133  0.0406606    1.95028 255 255 255
0.356328 0.792406  1.47743 255 255 255
0.240283  1.00029  1.46851 255 255 255
-0.204983  0.969516   1.54526 255 255 255
-0.342033  0.287823   1.92301 255 255 255
0.227115 0.952598  1.49371 255 255 255
-0.55337  1.14672  1.50858 255 255 255
-1.06481  1.07066  1.52439 255 255 255
-1.02842 0.957987  1.69889 255 255 255
-0.527483  0.950814   1.63256 255 255 255
-0.348337   1.51897   1.22661 255 255 255
-0.383884  0.872381   1.64992 255 255 255
-0.463038  0.426722   1.86053 255 255 255
-0.61616  1.28207  1.42756 255 255 255
0.247724  1.00363  1.46535 255 255 255
-0.773414   0.74422   1.77414 255 255 255
-0.406982   1.45011   1.28195 255 255 255
0.0170595  0.889285   1.50965 255 255 255
-0.368656  0.958298   1.59834 255 255 255
-1.15829 0.928336  1.71976 255 255 255
-0.253372     1.476   1.28228 255 255 255
-0.189608  0.362791   1.84161 255 255 255
0.365003 0.790594  1.48586 255 255 255
-1.03499 0.986942  1.68676 255 255 255
-0.905274   1.06908   1.60937 255 255 255
-0.00337923    0.983205     1.48104 255 255 255
0.0321503   1.03025   1.46077 255 255 255
-0.104448  0.193554   1.87497 255 255 255
-0.653107   1.13749   1.54393 255 255 255
-0.443783   1.44194   1.29676 255 255 255
-0.552696   1.32578   1.38901 255 255 255
-0.424254   1.51148   1.18081 255 255 255
-0.53684  1.34644  1.37315 255 255 255
-0.235903  0.256622   1.89931 255 255 255
-0.928129  0.686966    1.8808 255 255 255
0.213497 0.566514  1.65817 255 255 255
-0.680034   1.24706   1.46643 255 255 255
-0.419325   1.38241   1.34254 255 255 255
-0.106383  0.754263   1.63628 255 255 255
-0.386869  0.509032   1.77861 255 255 255
 1.66473  2.14195 0.430076 255 255 255
 0.124397 -0.613958   2.50713 255 255 255
-0.408747 -0.675261   2.47133 255 255 255
 -0.37916 -0.630537   2.42602 255 255 255
  -0.2593 -0.506693   2.27666 255 255 255
-0.452454 -0.532657    2.3207 255 255 255
 0.105393 -0.440201    2.2775 255 255 255
-0.518905 -0.624374   2.39654 255 255 255
-0.396648 -0.723851   2.52959 255 255 255
 0.197072 -0.658495   2.63409 255 255 255
-0.401959 -0.607457    2.4112 255 255 255
 0.173248 -0.636228   2.56236 255 255 255
-0.158783 -0.550484   2.35002 255 255 255
-0.517665 -0.768516   2.55611 255 255 255
 -0.40169 -0.634325   2.43009 255 255 255
0.00124392  -0.571004    2.38199 255 255 255
-0.437452 -0.750639   2.55625 255 255 255
0.000514435   -0.659301     2.51882 255 255 255
0.0486991 -0.982042   3.07727 255 255 255
 0.167286 -0.591161   2.49932 255 255 255
-0.0440193  -0.876347    2.85134 255 255 255
-0.129397   -0.6024   2.40264 255 255 255
-0.323656 -0.676987   2.48081 255 255 255
-0.242458 -0.746954   2.56023 255 255 255
-0.0753511  -0.620994    2.47301 255 255 255
 0.311051 -0.929566    3.1621 255 255 255
-0.258001 -0.723553   2.53969 255 255 255
-0.130013 -0.547163   2.33639 255 255 255
0.0840045 -0.659123   2.54022 255 255 255
-0.157506 -0.586414    2.3783 255 255 255
-0.382696 -0.584543   2.39366 255 255 255
0.0439272 -0.934999   2.98721 255 255 255
-0.104745 -0.706605   2.55294 255 255 255
-0.523683 -0.719733   2.49805 255 255 255
-0.493101 -0.568396   2.34653 255 255 255
-0.0838925  -0.948151    2.92378 255 255 255
-0.357874  -0.53811   2.34609 255 255 255
-0.0550297  -0.850307    2.78842 255 255 255
-0.475634 -0.727516   2.51489 255 255 255
-0.512266 -0.601227   2.37923 255 255 255
-0.176341  -0.91265   2.70707 255 255 255
-0.219122 -0.533064   2.31742 255 255 255
-0.496317  -0.68235   2.47818 255 255 255
0.0481414 -0.899513   2.92986 255 255 255
-0.265083 -0.458251   2.26198 255 255 255
 0.103567 -0.639936    2.5275 255 255 255
-0.371297 -0.615287   2.41071 255 255 255
 -0.33754 -0.590653   2.39358 255 255 255
-0.279378 -0.729065   2.53141 255 255 255
-0.536455 -0.799111   2.58377 255 255 255
-0.487141 -0.662497   2.45669 255 255 255
-0.239537   -0.5438   2.35146 255 255 255
-0.158774 -0.889734   2.70463 255 255 255
 0.215168 -0.778928   2.84744 255 255 255
 0.103483 -0.656284   2.55315 255 255 255
-0.106815   -0.9456    2.9149 255 255 255
 0.193662 -0.562804   2.47197 255 255 255
-0.328899 -0.697166    2.5046 255 255 255
-0.498245 -0.781077   2.57728 255 255 255
-0.208495 -0.615742   2.42595 255 255 255
-0.308433 -0.877499     2.658 255 255 255
-0.271496 -0.581775    2.3863 255 255 255
-0.497797 -0.734434   2.51972 255 255 255
-0.382332 -0.824677   2.61541 255 255 255
0.0489852 -0.715193   2.61445 255 255 255
-0.189916 -0.868371   2.68565 255 255 255
-0.290545 -0.456078   2.26346 255 255 255
-0.576921 -0.701005   2.48264 255 255 255
-0.467869 -0.475218   2.25846 255 255 255
-0.348915 -0.614014   2.40246 255 255 255
-0.428238 -0.769848   2.57616 255 255 255
 0.177688 -0.612069   2.52362 255 255 255
-0.301575 -0.661832   2.48344 255 255 255
 -0.32053 -0.896073   2.68112 255 255 255
-0.376811 -0.868171   2.68791 255 255 255
-0.0273049  -0.604654    2.41965 255 255 255
-0.327167  -0.90021   2.70038 255 255 255
-0.567292 -0.927975   2.72903 255 255 255
-0.463827 -0.768079   2.56956 255 255 255
-0.074748 -0.448318   2.25752 255 255 255
-0.0521755   -0.52932    2.34092 255 255 255
-0.226045 -0.787278   2.62121 255 255 255
 0.142142 -0.615808    2.5134 255 255 255
 -0.54849 -0.898196   2.69909 255 255 255
-0.493227 -0.699479   2.49064 255 255 255
-0.512336 -0.670982   2.44773 255 255 255
 0.142949 -0.801198   2.81331 255 255 255
-0.558313 -0.703124   2.48891 255 255 255
 0.189726 -0.601424   2.51376 255 255 255
-0.197508 -0.774711   2.60098 255 255 255
-0.0386126  -0.460978     2.2921 255 255 255
-0.511518 -0.693494   2.48122 255 255 255
-0.225237 -0.884744   2.60076 255 255 255
-0.252111 -0.495153   2.29706 255 255 255
-0.240141 -0.567916   2.36582 255 255 255
-0.533569 -0.705167   2.49504 255 255 255
-0.596396 -0.696258   2.48498 255 255 255
 0.035018 -0.530023   2.33552 255 255 255
 0.224224 -0.620056   2.58146 255 255 255
0.0188184 -0.757981   2.68908 255 255 255
 -0.49548 -0.548842    2.3277 255 255 255
-0.240714 -0.890834   2.58895 255 255 255
 0.206002 -0.448092    2.3255 255 255 255
   0.1261 -0.540593   2.42064 255 255 255
 0.297448 -0.710997   2.76861 255 255 255
-0.515725 -0.588754   2.36487 255 255 255
-0.512174 -0.808114   2.59742 255 255 255
-0.280228 -0.701032   2.51243 255 255 255
-0.0330307  -0.467168    2.30341 255 255 255
-0.128727  -0.53094   2.34072 255 255 255
 0.227363 -0.680183   2.70385 255 255 255
 0.083033 -0.834895   2.83971 255 255 255
 0.139552 -0.647486   2.55732 255 255 255
 0.185695 -0.760015   2.78777 255 255 255
 0.130019 -0.821643   2.84052 255 255 255
-0.607266 -0.890719   2.67733 255 255 255
0.0403541 -0.547065   2.36527 255 255 255
-0.279354 -0.461481   2.26991 255 255 255
 -0.27736 -0.452337   2.25958 255 255 255
-0.218209 -0.768788   2.58493 255 255 255
-0.462419 -0.866934   2.67095 255 255 255
 0.199935 -0.822486   2.89069 255 255 255
-0.461892 -0.572074    2.3483 255 255 255
0.158266 -0.90993  3.01828 255 255 255
 0.201682 -0.868082   2.98039 255 255 255
-0.0409962  -0.883417    2.84821 255 255 255
-0.507952 -0.708629   2.49806 255 255 255
 0.169185 -0.984938   3.20406 255 255 255
 0.257163 -0.566477   2.48329 255 255 255
0.106958 -0.78716  2.76712 255 255 255
-0.0279742  -0.458935    2.29615 255 255 255
 -0.10331 -0.842527   2.70106 255 255 255
0.0612506 -0.992499   3.09188 255 255 255
-0.270284  -0.46717    2.2705 255 255 255
-0.340825  -0.77039   2.56401 255 255 255
-0.594425 -0.944502   2.74805 255 255 255
-0.412708 -0.798072   2.60078 255 255 255
 0.115672 -0.617002   2.50006 255 255 255
-0.214732 -0.799288   2.60469 255 255 255
-0.462254  -0.74285   2.54914 255 255 255
-0.558787 -0.862197   2.65196 255 255 255
-0.590758  -0.92879   2.72803 255 255 255
-0.509023 -0.643681   2.42883 255 255 255
 0.200231 -0.781313    2.8383 255 255 255
-0.563727  -0.71828   2.49852 255 255 255
 0.128031 -0.550585   2.43304 255 255 255
-0.0780969  -0.458323    2.26736 255 255 255
0.148723 -0.95021  3.11812 255 255 255
-0.586243 -0.885952   2.67368 255 255 255
0.175519 -0.56464  2.46808 255 255 255
0.175528 -0.72864  2.73451 255 255 255
 0.231781 -0.939315    3.1399 255 255 255
0.0170228 -0.690817   2.56077 255 255 255
0.00170916  -0.581471    2.40411 255 255 255
 -0.63033 -0.893869   2.67692 255 255 255
-0.181225 -0.638751   2.43148 255 255 255
0.0062239 -0.792011    2.7401 255 255 255
0.174275 -0.57309  2.47364 255 255 255
-0.221255 -0.866286   2.60917 255 255 255
-0.392016 -0.554131   2.35705 255 255 255
-0.584278 -0.747364   2.49824 255 255 255
-0.266876 -0.673145   2.49335 255 255 255
-0.153032 -0.702968   2.53564 255 255 255
-0.122732 -0.513499   2.30456 255 255 255
0.177285 -0.91876  3.05024 255 255 255
-0.0960301  -0.720246     2.5733 255 255 255
-0.135401 -0.701756   2.53549 255 255 255
-0.173873 -0.768771   2.60695 255 255 255
-0.248409 -0.840253     2.661 255 255 255
-0.546395  -0.93091   2.72976 255 255 255
-0.193632 -0.716884   2.54088 255 255 255
 0.100191 -0.755444   2.71579 255 255 255
 0.157939 -0.731079   2.72671 255 255 255
-0.447062 -0.622262   2.41643 255 255 255
-0.487222 -0.721185   2.51208 255 255 255
-0.501092 -0.523291   2.31373 255 255 255
-0.343952   -0.8234   2.64109 255 255 255
0.0590388 -0.879806   2.90822 255 255 255
-0.240611 -0.861118   2.60169 255 255 255
-0.640029 -0.909657   2.70156 255 255 255
-0.541305 -0.607383   2.37569 255 255 255
0.118934 -0.78215   2.7628 255 255 255
 0.164782 -0.817584    2.8562 255 255 255
-0.509891 -0.589023   2.36684 255 255 255
-0.258475 -0.554962   2.36213 255 255 255
-0.559225 -0.944822   2.75026 255 255 255
-0.370739 -0.655223   2.45819 255 255 255
-0.400982 -0.554088   2.35736 255 255 255
 -0.56935 -0.691394   2.48362 255 255 255
-0.411684 -0.737191   2.54021 255 255 255
-0.284013 -0.441476    2.2545 255 255 255
-0.362726 -0.939118    2.6736 255 255 255
-0.0806438  -0.468156    2.27494 255 255 255
-0.109439  -0.54852   2.36144 255 255 255
0.0539239 -0.922679   2.95098 255 255 255
-0.159998 -0.665833   2.49959 255 255 255
-0.160005 -0.665901   2.50056 255 255 255
-0.360054 -0.949109   2.67694 255 255 255
-0.475446 -0.575945   2.36051 255 255 255
-0.197798 -0.433249   2.25026 255 255 255
-0.216994 -0.894975   2.62296 255 255 255
-0.398477 -0.533603   2.34125 255 255 255
-0.0445923  -0.757418    2.60847 255 255 255
-0.222674  -0.92453   2.65419 255 255 255
 0.315128 -0.729935   2.81093 255 255 255
-0.0415894  -0.975213      3.022 255 255 255
 0.171769 -0.794535   2.84234 255 255 255
-0.173113 -0.759668   2.59438 255 255 255
 -0.60527 -0.736426   2.50509 255 255 255
-0.283525 -0.817745   2.62345 255 255 255
-0.382566 -0.923648   2.68003 255 255 255
-0.319922 -0.719803   2.52769 255 255 255
-0.351157  -0.89379   2.69262 255 255 255
-0.442171  -0.56885   2.36382 255 255 255
0.0344844 -0.445624   2.25811 255 255 255
-0.602386 -0.877025   2.66538 255 255 255
0.0369373 -0.683723   2.57293 255 255 255
-0.0309574  -0.771274    2.62545 255 255 255
-0.169636 -0.666417   2.50299 255 255 255
-0.473294 -0.899837   2.70822 255 255 255
 -0.26683 -0.852136   2.64479 255 255 255
-0.222121 -0.748931   2.56629 255 255 255
-0.00192175   -0.967926     3.03445 255 255 255
 0.245201 -0.577861   2.50056 255 255 255
 -0.46042 -0.909106   2.71299 255 255 255
-0.0127785  -0.697852    2.54938 255 255 255
-0.550248 -0.693873   2.48596 255 255 255
 0.223338 -0.994152   3.22544 255 255 255
-0.173986 -0.490857   2.24448 255 255 255
-0.360523 -0.715141   2.52184 255 255 255
-0.432347   -0.5946   2.38744 255 255 255
0.0423525 -0.690264   2.58702 255 255 255
 0.238005 -0.619786   2.58109 255 255 255
-0.224606 -0.728077   2.55493 255 255 255
 0.247452 -0.539492   2.45149 255 255 255
0.0109134 -0.575931   2.40314 255 255 255
 0.054892 -0.549049   2.36758 255 255 255
 0.146696 -0.666517   2.58554 255 255 255
-0.537664 -0.763757   2.54948 255 255 255
-0.352764 -0.936852   2.68628 255 255 255
-0.266731 -0.558174   2.36379 255 255 255
0.236574 -0.84657  2.96709 255 255 255
-0.528056 -0.798199   2.58797 255 255 255
 0.193804 -0.771077    2.8185 255 255 255
-0.108613 -0.809809   2.66119 255 255 255
-0.273831 -0.556404   2.35992 255 255 255
 0.149084 -0.736887   2.72271 255 255 255
0.0388868 -0.851425     2.848 255 255 255
0.0924374 -0.700656   2.61505 255 255 255
-0.0708325   -0.62033    2.45585 255 255 255
 0.108205 -0.749861    2.7254 255 255 255
-0.0470267  -0.787483     2.6516 255 255 255
-0.373558 -0.795301   2.57091 255 255 255
 0.206652 -0.619964   2.56805 255 255 255
-0.220462  -0.82774   2.66428 255 255 255
0.0271411 -0.907907   2.92972 255 255 255
-0.402828 -0.827637   2.59658 255 255 255
 0.217789 -0.655543    2.6398 255 255 255
-0.0737214  -0.779952    2.63513 255 255 255
-0.454273 -0.563107   2.34989 255 255 255
-0.0761858  -0.802447    2.67151 255 255 255
-0.516955 -0.704208   2.48897 255 255 255
-0.0356256   -0.74966     2.6083 255 255 255
 -0.21468 -0.639764   2.44729 255 255 255
-0.328387 -0.945487   2.76752 255 255 255
-0.327912 -0.684378   2.49113 255 255 255
-0.21584 -0.85284  2.69614 255 255 255
-0.511841 -0.552245   2.33756 255 255 255
-0.360835 -0.912011   2.65382 255 255 255
  0.16797 -0.525834   2.41197 255 255 255
-0.146739 -0.850493   2.69157 255 255 255
-0.492425 -0.694625   2.48766 255 255 255
 0.217764 -0.766184   2.83053 255 255 255
 0.247681 -0.903995   3.10071 255 255 255
-0.0859223   -0.78767    2.65383 255 255 255
 0.290834 -0.570729   2.50995 255 255 255
-0.444615 -0.508263   2.29984 255 255 255
-0.513225 -0.543042   2.32556 255 255 255
 -0.51112 -0.559165   2.34071 255 255 255
 0.244577 -0.577083   2.50357 255 255 255
 -0.34185 -0.741678   2.54712 255 255 255
  -0.5405 -0.695339   2.48699 255 255 255
-0.451689 -0.552042   2.33742 255 255 255
-0.0130284  -0.918092    2.91766 255 255 255
-0.366128 -0.903848   2.67883 255 255 255
 0.182025 -0.811398   2.86755 255 255 255
0.0561003 -0.643058   2.51461 255 255 255
-0.456415 -0.626866   2.41464 255 255 255
-0.432623 -0.709666   2.51074 255 255 255
 0.185217 -0.787358   2.85059 255 255 255
-0.153649 -0.824701   2.65348 255 255 255
-0.0427889  -0.958111    2.99417 255 255 255
-0.0261347  -0.581195    2.40211 255 255 255
-0.450639 -0.572808   2.35291 255 255 255
-0.000675521    -0.738667      2.60698 255 255 255
-0.598469 -0.865788    2.6528 255 255 255
-0.155478  -0.65993     2.502 255 255 255
-0.284825 -0.804304   2.63057 255 255 255
-0.146907 -0.658209   2.51096 255 255 255
-0.401285 -0.833319   2.64357 255 255 255
 0.147177 -0.580864   2.47082 255 255 255
-0.517901 -0.485675    2.3092 255 255 255
-0.253464 -0.568607   2.37425 255 255 255
0.00175146  -0.848043     2.8122 255 255 255
-0.0997784  -0.921113    2.87793 255 255 255
-0.548943 -0.770874   2.55507 255 255 255
-0.436606 -0.556431   2.35163 255 255 255
-0.100957 -0.797334   2.65289 255 255 255
-0.100448 -0.785247   2.63929 255 255 255
0.0378334 -0.890844   2.91935 255 255 255
-0.402944  -0.61578   2.41462 255 255 255
-0.618842 -0.860324   2.63193 255 255 255
-0.234858 -0.448604   2.24876 255 255 255
 -0.45068 -0.877349   2.68021 255 255 255
0.0917859 -0.553576   2.39176 255 255 255
 0.214467 -0.647163   2.61711 255 255 255
0.0534395 -0.690876   2.59139 255 255 255
-0.429489 -0.512316   2.30315 255 255 255
-0.612422 -0.701524   2.48922 255 255 255
 0.011694 -0.925921   2.96265 255 255 255
-0.0532253  -0.769971     2.6184 255 255 255
-0.198075 -0.586219   2.40129 255 255 255
-0.617207 -0.843653   2.60738 255 255 255
-0.0699241   -0.71918    2.56865 255 255 255
0.165034 -0.65006  2.58037 255 255 255
-0.465029 -0.495946   2.29082 255 255 255
-0.467578 -0.636074   2.42622 255 255 255
-0.177225  -1.00718   2.98368 255 255 255
-0.117398 -0.740106   2.58206 255 255 255
-0.174272 -0.845873   2.66699 255 255 255
 0.145051 -0.597842   2.49569 255 255 255
-0.260305 -0.764987   2.59348 255 255 255
-0.570599 -0.790619   2.56917 255 255 255
0.0184987 -0.850863   2.83347 255 255 255
-0.499572 -0.538274   2.31453 255 255 255
0.00946759  -0.793921    2.73722 255 255 255
 0.227702 -0.812057   2.87284 255 255 255
 0.191046 -0.863267   2.95218 255 255 255
-0.192785 -0.910698   2.65987 255 255 255
 0.240184 -0.837717   2.95808 255 255 255
-0.0292327  -0.469576    2.30666 255 255 255
-0.216705  -0.88518   2.59908 255 255 255
0.278867 -1.01352  3.31516 255 255 255
 -0.18156 -0.563375   2.38107 255 255 255
-0.492046 -0.561486   2.34906 255 255 255
0.122531 -0.76664  2.74512 255 255 255
  0.22038 -0.700774   2.71977 255 255 255
-0.531039 -0.603168   2.37688 255 255 255
-0.390653 -0.789072   2.55866 255 255 255
0.0274529 -0.497287   2.27206 255 255 255
-0.550827 -0.851328   2.64874 255 255 255
0.0583257 -0.685485    2.5835 255 255 255
 0.234626 -0.907369   3.09011 255 255 255
-0.508173 -0.518986   2.31535 255 255 255
 0.140445 -0.879845   2.94733 255 255 255
-0.029459 -0.685974   2.53491 255 255 255
-0.276915 -0.586522   2.38978 255 255 255
-0.137781 -0.861957   2.72104 255 255 255
 0.109814 -0.643852   2.54333 255 255 255
0.0621563 -0.887945   2.91297 255 255 255
-0.395036 -0.824546   2.59767 255 255 255
-0.0414086  -0.934984    2.93482 255 255 255
-0.450943 -0.741525   2.53985 255 255 255
-0.513496 -0.700028   2.49257 255 255 255
-0.0710704  -0.614422    2.43224 255 255 255
 0.101336 -0.615211   2.49888 255 255 255
 0.263867 -0.606801   2.55508 255 255 255
-0.448101 -0.734667   2.53375 255 255 255
-0.351793 -0.607606   2.41236 255 255 255
-0.417971 -0.549151   2.34834 255 255 255
 0.262849 -0.614722   2.56834 255 255 255
0.201407 -0.90415  3.06361 255 255 255
 0.339049 -0.869469   3.07465 255 255 255
0.143558 -0.86782  2.95261 255 255 255
-0.166373 -0.659473   2.49463 255 255 255
-0.411034 -0.616866   2.41418 255 255 255
-0.0758249  -0.620377    2.43087 255 255 255
-0.411227 -0.605089   2.40259 255 255 255
-0.138792 -0.609985   2.39895 255 255 255
-0.448348  -0.63145   2.42409 255 255 255
 0.296166 -0.832165   2.99697 255 255 255
-0.0892561  -0.725499    2.58579 255 255 255
-0.464752 -0.732583   2.53122 255 255 255
0.0960901  -0.93241    3.0264 255 255 255
-0.404145 -0.681712   2.46999 255 255 255
0.0355245 -0.831156   2.80846 255 255 255
-0.441164 -0.749151    2.5495 255 255 255
 -0.43118 -0.932749    2.7379 255 255 255
-0.161051 -0.937963   2.86625 255 255 255
-0.156339 -0.596118   2.39449 255 255 255
-0.499802 -0.603875   2.37991 255 255 255
-0.244833 -0.811777   2.63439 255 255 255
-0.603561 -0.926489   2.72167 255 255 255
-0.0337543  -0.882238     2.8527 255 255 255
-0.541742 -0.794747   2.58058 255 255 255
  0.28371 -0.680093   2.72526 255 255 255
 0.120884 -0.634013   2.53467 255 255 255
-0.405478 -0.539912    2.3437 255 255 255
-0.491722 -0.535324   2.30679 255 255 255
-0.476315 -0.517068   2.30465 255 255 255
 0.157158 -0.735403   2.73993 255 255 255
-0.00813721   -0.597416     2.42293 255 255 255
-0.493425 -0.682362   2.47232 255 255 255
 0.247002 -0.733235   2.78973 255 255 255
 -0.21099 -0.522005   2.30037 255 255 255
-0.400807 -0.683725   2.47674 255 255 255
-0.388173 -0.574913   2.37421 255 255 255
-0.490166  -0.58494   2.35325 255 255 255
-0.479166 -0.821653   2.62499 255 255 255
-0.502501 -0.541104   2.31213 255 255 255
-0.276204 -0.693796   2.51175 255 255 255
-0.484905 -0.713247   2.50707 255 255 255
-0.119454 -0.660919   2.50263 255 255 255
-0.349559 -0.700835   2.51079 255 255 255
-0.237119 -0.759671   2.58208 255 255 255
-0.207312 -0.717748   2.54757 255 255 255
-0.495356 -0.704779   2.49656 255 255 255
-0.522758 -0.698444    2.4926 255 255 255
-0.0870798  -0.814402    2.68029 255 255 255
 0.217273 -0.682726   2.70232 255 255 255
-0.172949 -0.685104   2.51905 255 255 255
-0.581336 -0.857624   2.64367 255 255 255
 0.207778 -0.919326   3.09886 255 255 255
-0.505504 -0.613439   2.38819 255 255 255
-0.465985 -0.539851   2.31755 255 255 255
0.0869222 -0.888806   2.94064 255 255 255
 -0.49681 -0.508769    2.3078 255 255 255
-0.470964 -0.612547   2.39213 255 255 255
-0.596225 -0.670092   2.46081 255 255 255
-0.0844355  -0.701602    2.54754 255 255 255
-0.193312 -0.604229   2.41061 255 255 255
 0.281726 -0.911745   3.11636 255 255 255
-0.439398 -0.911412   2.71625 255 255 255
 0.252052 -0.568555    2.5025 255 255 255
-0.112489 -0.805502   2.65502 255 255 255
0.0711551 -0.987614   3.11917 255 255 255
-0.156555  -0.78119   2.61034 255 255 255
 0.233778 -0.800424   2.85096 255 255 255
0.0375051 -0.650217   2.51783 255 255 255
0.180537 -0.79989  2.86147 255 255 255
  -0.5141 -0.546176   2.31826 255 255 255
-0.330808 -0.881528   2.68154 255 255 255
 -0.15018 -0.769515    2.5987 255 255 255
-0.453574 -0.614714   2.40371 255 255 255
-0.575453 -0.906343   2.70291 255 255 255
  -0.6235 -0.802192   2.56761 255 255 255
-0.335367 -0.944982   2.68191 255 255 255
-0.448416 -0.495013   2.29087 255 255 255
-0.0959506  -0.714385    2.56582 255 255 255
0.0694199 -0.622754   2.50696 255 255 255
-0.468287 -0.508566   2.29934 255 255 255
-0.266858 -0.436544   2.23674 255 255 255
 0.193055 -0.555184   2.45842 255 255 255
-0.304589 -0.871152     2.669 255 255 255
-0.451508 -0.581961   2.36233 255 255 255
-0.292569 -0.623331   2.43654 255 255 255
-0.133266  -0.74957   2.58978 255 255 255
  0.23672 -0.574226   2.50533 255 255 255
 0.290495 -0.600589   2.56781 255 255 255
 0.012243 -0.810579   2.77947 255 255 255
  0.28219 -0.662083   2.69123 255 255 255
-0.524619 -0.593256   2.37058 255 255 255
0.00740534  -0.561152    2.40679 255 255 255
-0.196767 -0.758888   2.59357 255 255 255
-0.571619 -0.941625   2.74502 255 255 255
-0.298168 -0.630042   2.43904 255 255 255
-0.0625089  -0.728106     2.5774 255 255 255
0.0189497 -0.994192   3.08315 255 255 255
0.0963814  -0.63232    2.5185 255 255 255
0.0743787 -0.832909   2.82729 255 255 255
-0.0879653   -1.02891    3.09648 255 255 255
-0.527227 -0.516775   2.32693 255 255 255
 0.188891 -0.647963   2.59707 255 255 255
-0.131264 -0.744529   2.58987 255 255 255
-0.590622 -0.713936   2.49416 255 255 255
-0.369389 -0.733424    2.5396 255 255 255
-0.527708 -0.558725   2.33211 255 255 255
-0.178025 -0.687253   2.51789 255 255 255
 0.181452 -0.859111   2.95234 255 255 255
0.201506 -0.65786  2.63621 255 255 255
  0.10978 -0.499172   2.35013 255 255 255
-0.509889 -0.510353   2.31672 255 255 255
-0.455613  -0.50682   2.29863 255 255 255
-0.265059 -0.489429   2.27414 255 255 255
-0.611696 -0.805636   2.57972 255 255 255
-0.320761 -0.681805   2.49556 255 255 255
 0.151887 -0.580128   2.46993 255 255 255
-0.378277 -0.667047   2.47312 255 255 255
 0.166667 -0.570685   2.47163 255 255 255
-0.511356 -0.641266   2.43124 255 255 255
-0.197155 -0.732897   2.56016 255 255 255
 0.275101 -0.898646   3.09086 255 255 255
-0.124733  -0.60904   2.43331 255 255 255
-0.351065 -0.699751   2.48452 255 255 255
-0.365538 -0.871133   2.68374 255 255 255
0.0912633 -0.688637   2.61813 255 255 255
-0.529821 -0.526558   2.32197 255 255 255
 0.219218 -0.965221   3.19891 255 255 255
-0.569053 -0.911998   2.71293 255 255 255
-0.420181 -0.852473   2.62813 255 255 255
-0.358304 -0.828708   2.61778 255 255 255
0.0741293 -0.689584   2.60921 255 255 255
-0.0157706  -0.524139     2.2731 255 255 255
 0.291926 -0.585673   2.55811 255 255 255
-0.203105 -0.625093   2.41951 255 255 255
-0.441747  -0.67587    2.4682 255 255 255
-0.282406 -0.824949   2.64975 255 255 255
-0.0636869  -0.561282    2.45582 255 255 255
-0.00499965   -0.582717     2.40814 255 255 255
0.169567 -0.94426  3.12401 255 255 255
 0.128293 -0.887238   2.94592 255 255 255
 0.343949 -0.893208   3.12218 255 255 255
-0.540082 -0.945369   2.75567 255 255 255
-0.537295 -0.713329   2.49851 255 255 255
 0.126369 -0.628468   2.52586 255 255 255
-0.221791 -0.743881    2.5617 255 255 255
-0.370768 -0.660661   2.45053 255 255 255
-0.217997 -0.792941   2.61132 255 255 255
-0.221429 -0.794396   2.62361 255 255 255
-0.543162 -0.938142   2.74132 255 255 255
-0.253658 -0.807946   2.61562 255 255 255
-0.372531 -0.688398    2.4896 255 255 255
0.0912883 -0.658184   2.55457 255 255 255
 0.219443 -0.678443   2.69725 255 255 255
-0.497378 -0.455466   2.28316 255 255 255
 -0.45115 -0.862178   2.66958 255 255 255
-0.138152 -0.940434   2.87799 255 255 255
 0.264465 -0.759543   2.84226 255 255 255
  0.11079 -0.701705   2.61417 255 255 255
 0.120712 -0.518921   2.36957 255 255 255
-0.202237 -0.579994   2.39082 255 255 255
-0.0981653  -0.678751    2.53151 255 255 255
-0.0536603  -0.608054    2.42909 255 255 255
-0.152032  -1.03701   3.07464 255 255 255
-0.174875 -0.839112   2.66576 255 255 255
-0.0609925  -0.713576    2.56521 255 255 255
-0.0509044  -0.581603    2.41082 255 255 255
0.0770129 -0.619831   2.49405 255 255 255
-0.0905926  -0.744457     2.5931 255 255 255
-0.499649 -0.681515    2.4737 255 255 255
-0.222907 -0.529504   2.30528 255 255 255
-0.475419  -0.58491   2.36845 255 255 255
 0.046213 -0.545171   2.36128 255 255 255
 -0.60822 -0.811583   2.58781 255 255 255
 0.228287 -0.712472    2.7255 255 255 255
-0.222066 -0.438791   2.24756 255 255 255
0.0876997 -0.708725   2.61303 255 255 255
-0.546734 -0.812662   2.60239 255 255 255
 -0.33699 -0.742425   2.55378 255 255 255
0.00540822   -0.78731    2.73562 255 255 255
-0.229148  -0.74414   2.56623 255 255 255
0.0242062 -0.790062   2.72207 255 255 255
-0.412056  -0.72299   2.52676 255 255 255
-0.337569 -0.722146   2.52878 255 255 255
0.0607812 -0.657546   2.54385 255 255 255
-0.422611 -0.865776   2.64524 255 255 255
 0.184988 -0.668241   2.64294 255 255 255
 -0.51957 -0.495534   2.31429 255 255 255
 0.202385 -0.624006   2.57089 255 255 255
-0.585748  -0.70402   2.48877 255 255 255
0.0564931 -0.844727   2.83991 255 255 255
-0.542169 -0.595029   2.36423 255 255 255
-0.218613 -0.909854   2.64097 255 255 255
-0.519341 -0.713789   2.49507 255 255 255
0.00942135  -0.668883    2.52949 255 255 255
-0.236957 -0.852825   2.62743 255 255 255
-0.544926 -0.763565   2.54501 255 255 255
-0.430446 -0.521542   2.31206 255 255 255
-0.485681 -0.583367    2.3539 255 255 255
-0.206471 -0.633476   2.42655 255 255 255
-0.404647 -0.673474   2.46915 255 255 255
 -0.18495 -0.568143   2.38449 255 255 255
-0.393479 -0.761345   2.51539 255 255 255
-0.573473  -0.83734   2.62283 255 255 255
-0.110366 -0.741202   2.58602 255 255 255
-0.228509 -0.907356   2.63008 255 255 255
-0.556592 -0.902044   2.70275 255 255 255
-0.083447 -0.927579   2.90558 255 255 255
-0.499884 -0.644708   2.43239 255 255 255
-0.00360597    -1.05849     3.22376 255 255 255
-0.610676 -0.920232   2.72108 255 255 255
 0.156886 -0.610917   2.50469 255 255 255
-0.247603   -0.6927   2.51721 255 255 255
 0.291574 -0.693427    2.7629 255 255 255
-0.466562 -0.511875   2.30342 255 255 255
-0.594208 -0.860326   2.64876 255 255 255
-0.138296 -0.606132   2.39692 255 255 255
-0.101922 -0.951076   2.93172 255 255 255
-0.0846652   -0.72241    2.58384 255 255 255
 0.309784 -0.853333   3.03727 255 255 255
-0.377392 -0.824322   2.63363 255 255 255
 0.202836 -0.871267   2.98659 255 255 255
-0.607008 -0.901201   2.68857 255 255 255
0.0875183 -0.764037   2.70596 255 255 255
-0.181643  -0.57718   2.39301 255 255 255
-0.0763264   -0.91277    2.88226 255 255 255
-0.349475 -0.764446   2.53327 255 255 255
-0.50151 -0.59374  2.36658 255 255 255
-0.514337 -0.493677   2.31713 255 255 255
-0.0515331  -0.863049    2.80947 255 255 255
-0.368827 -0.679907   2.47933 255 255 255
 0.301078 -0.844246   3.02466 255 255 255
 0.268833 -0.760267   2.84172 255 255 255
 0.232569 -0.547212   2.46757 255 255 255
-0.195059 -0.752055   2.58745 255 255 255
-0.437248 -0.865195   2.67669 255 255 255
-0.0968375  -0.742969    2.58182 255 255 255
  0.21844 -0.633326    2.6015 255 255 255
-0.389311 -0.771323   2.57531 255 255 255
-0.438092 -0.508544   2.30235 255 255 255
-0.453411 -0.762324   2.55974 255 255 255
-0.381012 -0.705003   2.51006 255 255 255
-0.0218194   -1.01007    3.09466 255 255 255
-0.387445 -0.880406   2.69032 255 255 255
 0.194006 -0.646942   2.60897 255 255 255
0.00466653  -0.827127    2.79731 255 255 255
-0.0656842  -0.625952    2.43546 255 255 255
 0.31667 -0.69762  2.75581 255 255 255
 0.182722 -0.525464   2.43722 255 255 255
-0.123636 -0.451244   2.24772 255 255 255
 0.128711 -0.995522   3.18887 255 255 255
 0.348396 -0.816669   2.97524 255 255 255
-0.122953 -0.738847   2.58052 255 255 255
-0.0440248  -0.847574    2.78885 255 255 255
-0.537531 -0.760968   2.54435 255 255 255
 0.143182 -0.775481   2.76994 255 255 255
-0.480633  -0.84633   2.65079 255 255 255
  -0.4496 -0.554234   2.34576 255 255 255
-0.127751 -0.634176   2.42578 255 255 255
-0.507612  -0.54769   2.32372 255 255 255
 0.148908 -0.874534   2.95665 255 255 255
-0.180186 -0.635292   2.42837 255 255 255
 -0.32135 -0.714667   2.52422 255 255 255
-0.0968184  -0.732486    2.57838 255 255 255
-0.484141 -0.677926   2.47167 255 255 255
-0.576503 -0.929529   2.73251 255 255 255
-0.191965 -0.914686   2.68659 255 255 255
-0.159937 -0.596418   2.38129 255 255 255
-0.484482 -0.693598   2.48059 255 255 255
-0.438292 -0.735916   2.53499 255 255 255
-0.250947 -0.809677   2.63659 255 255 255
-0.246406 -0.807324   2.61923 255 255 255
0.0789584  -1.01901   3.20972 255 255 255
 0.216612 -0.541909    2.4548 255 255 255
 0.160861 -0.647404   2.58051 255 255 255
-0.403475 -0.446554   2.25911 255 255 255
-0.080892 -0.816442    2.6743 255 255 255
 -0.35446 -0.761613   2.57002 255 255 255
0.0662377 -0.900631   2.93581 255 255 255
-0.371448   -0.6664   2.46752 255 255 255
-0.354286 -0.768094   2.54172 255 255 255
-0.458107 -0.555435   2.34323 255 255 255
 0.179002 -0.749323   2.77128 255 255 255
-0.522163 -0.482344   2.30389 255 255 255
0.114306 -1.00743  3.19489 255 255 255
-0.426561 -0.497441   2.29459 255 255 255
0.0940532 -0.940588    3.0419 255 255 255
-0.090821 -0.995668   3.04361 255 255 255
-0.472733 -0.718175   2.51008 255 255 255
-0.118098 -0.892817    2.8267 255 255 255
0.0726939 -0.870486   2.90757 255 255 255
-0.531911 -0.751893   2.53642 255 255 255
-0.412203 -0.504377   2.30571 255 255 255
-0.426943 -0.736488   2.54109 255 255 255
-0.0633197  -0.838787    2.77236 255 255 255
 0.179371 -0.740774   2.75898 255 255 255
-0.604482 -0.706502   2.48507 255 255 255
 0.168849 -0.734351   2.74817 255 255 255
-0.0232213   -1.00343    3.08116 255 255 255
-0.0595551  -0.970276    2.99841 255 255 255
-0.259012  -0.71628   2.51222 255 255 255
-0.420731 -0.466378     2.272 255 255 255
-0.590478 -0.932929   2.73145 255 255 255
-0.0416579  -0.852512    2.79695 255 255 255
-0.250247  -1.00546   2.92827 255 255 255
-0.413772 -0.512419   2.31362 255 255 255
-0.121891 -0.705536    2.5571 255 255 255
-0.326739 -0.733907   2.51016 255 255 255
-0.133728 -0.579455   2.40165 255 255 255
-0.0157867   -1.02298    3.12815 255 255 255
 0.246534 -0.913385   3.11464 255 255 255
 -0.15775 -0.627721   2.42253 255 255 255
-0.558689 -0.909742   2.70941 255 255 255
 0.074838 -0.909818   2.96524 255 255 255
-0.0904869  -0.936567    2.91215 255 255 255
 0.150071 -0.745292   2.74056 255 255 255
-0.0874251  -0.999863    3.05228 255 255 255
-0.122241 -0.456538   2.25288 255 255 255
 0.11766 -0.64143  2.54054 255 255 255
-0.430361 -0.527418   2.32198 255 255 255
 0.030288 -0.746673   2.67759 255 255 255
-0.446641 -0.608658   2.39733 255 255 255
 -0.38017 -0.655518   2.45252 255 255 255
 -0.60611 -0.860652   2.64745 255 255 255
  0.23136 -0.837794   2.93885 255 255 255
 0.164094 -0.942376   3.12987 255 255 255
-0.431977 -0.490687   2.29099 255 255 255
-0.0974571  -0.906428    2.85302 255 255 255
-0.399581 -0.739356   2.54628 255 255 255
-0.434496 -0.663939   2.45863 255 255 255
-0.392894 -0.650735   2.44759 255 255 255
 0.198723 -0.777547   2.83597 255 255 255
-0.0283656   -0.64625    2.50414 255 255 255
-0.342601 -0.918179   2.63442 255 255 255
-0.386302 -0.514321    2.3212 255 255 255
0.179393  0.59026  1.68741 255 255 255
 0.14375 0.577789  1.69236 255 255 255
0.0378754   1.01552    1.4647 255 255 255
-0.285224   1.02288   1.53782 255 255 255
-0.187495   1.54932   1.23414 255 255 255
0.232753 0.994673  1.46514 255 255 255
-0.23369  1.52492    1.227 255 255 255
0.261177 0.608865  1.66373 255 255 255
0.362541  1.91254 0.877531 255 255 255
0.212193   1.9762 0.890456 255 255 255
0.0844692   1.81846   1.02913 255 255 255
-0.0812471    1.68037    1.10666 255 255 255
0.299659  2.02259 0.873113 255 255 255
0.0578615   1.78527     1.044 255 255 255
-0.00591217     1.69565     1.11041 255 255 255
 0.11683  1.92278 0.932429 255 255 255
0.324682  2.12704 0.789941 255 255 255
0.318263  2.00326 0.911364 255 255 255
0.00443789    1.63658    1.12232 255 255 255
0.373247  1.70557  1.03705 255 255 255
-0.00923409     1.78859     1.02212 255 255 255
-0.100282   1.64164   1.14946 255 255 255
