ply
format ascii 1.0
element vertex 1155
property float x
property float y
property float z
property uchar red
property uchar green
property uchar blue
end_header
0.376443  2.20004 0.733718 255 255 255
0.289268  1.67242  1.12149 255 255 255
0.427425  2.15239 0.807257 255 255 255
0.109272  1.87556 0.959261 255 255 255
0.345801  2.16171 0.748081 255 255 255
0.854815   1.4292  1.10127 255 255 255
0.228504  2.00851 0.863028 255 255 255
0.674022  1.50168  1.11831 255 255 255
-0.0683084     1.6993    1.11007 255 255 255
0.160366  1.94111 0.889387 255 255 255
0.453221  2.08397 0.831992 255 255 255
0.168648   1.8644   1.0003 255 255 255
0.109982  1.82151  1.04271 255 255 255
-0.103844   1.61852   1.16578 255 255 255
0.722385  2.12503 0.843477 255 255 255
0.396257  1.63429  1.15467 255 255 255
0.406464  2.17003 0.760592 255 255 255
0.509382  2.17614 0.779476 255 255 255
 0.19562  2.04378 0.799327 255 255 255
0.483038  2.14212 0.801438 255 255 255
0.457999  1.81807   1.0133 255 255 255
0.367231  2.11503 0.828105 255 255 255
-0.034315   1.73735   1.06902 255 255 255
0.29983 1.59023 1.15137 255 255 255
0.442557  1.84114 0.994289 255 255 255
0.220595  2.06089 0.806314 255 255 255
0.0502375   1.79171     1.035 255 255 255
 0.38537  2.15757 0.784426 255 255 255
 1.11541  1.70789 0.908136 255 255 255
0.411559   2.0278 0.861046 255 255 255
0.319771  1.70096  1.09675 255 255 255
0.481001  1.57665  1.15525 255 255 255
-0.0583891    1.73104    1.08318 255 255 255
0.023539  1.82389 0.997796 255 255 255
0.364321  1.97292 0.895931 255 255 255
0.0710193   1.75949   1.07921 255 255 255
 0.19787  2.07869 0.679432 255 255 255
 0.2481 1.68433 1.02783 255 255 255
 0.28508  2.11512 0.779011 255 255 255
 0.14976  1.91345 0.936582 255 255 255
0.352991   2.0882 0.837592 255 255 255
0.286588  1.58175  1.16436 255 255 255
0.415334  1.77454  1.05025 255 255 255
0.0442766   1.79659   1.01663 255 255 255
0.331527  2.10413 0.799286 255 255 255
0.367827  2.10771 0.835327 255 255 255
0.898786  1.66734  1.00204 255 255 255
0.00310001     1.7121    1.12035 255 255 255
1.04214 1.59475 0.95332 255 255 255
 0.18756   1.9008 0.976544 255 255 255
0.941941  1.50794  1.02996 255 255 255
0.594436  1.96435 0.919531 255 255 255
0.27094 1.64343 1.14997 255 255 255
-0.0316013    1.74698    1.06649 255 255 255
-0.103398   2.08368  0.859909 255 255 255
-0.291999   1.14451   1.48379 255 255 255
-0.270651   0.96682   1.59174 255 255 255
0.0523841   1.32213   1.34088 255 255 255
0.530854  1.07288  1.39536 255 255 255
0.0822351   1.60442   1.14003 255 255 255
-0.162482   1.62862    1.1742 255 255 255
-0.380997   1.39491   1.42479 255 255 255
-0.440202   1.33291   1.41107 255 255 255
-0.181428    1.3282   1.29526 255 255 255
0.171194  1.45209  1.22682 255 255 255
-0.104326   1.08733   1.52233 255 255 255
-0.493744     1.178   1.52854 255 255 255
0.317799 0.856328  1.55148 255 255 255
0.0361921   1.75044      1.09 255 255 255
-0.0444275    1.78316    1.05891 255 255 255
0.539136  1.27829  1.31008 255 255 255
0.557753  1.37242  1.22275 255 255 255
0.134293 0.923443  1.55005 255 255 255
0.472967  1.41358  1.22755 255 255 255
0.0106201   1.35559   1.29888 255 255 255
-0.159681    1.5584   1.22308 255 255 255
0.132266  1.22918  1.37078 255 255 255
0.496576  1.44825  1.21701 255 255 255
0.271133  1.51011  1.21541 255 255 255
-0.697365   1.48274   1.32982 255 255 255
0.577677 0.988705   1.4049 255 255 255
0.30293 1.63424 1.10887 255 255 255
0.810323  1.14186  1.33289 255 255 255
-0.562495   1.60976   1.23519 255 255 255
0.194101  1.48717  1.22855 255 255 255
0.577139  1.47691  1.14742 255 255 255
-0.172802   1.67677   1.08159 255 255 255
-0.127561  0.694793   1.72521 255 255 255
0.354336 0.356575  1.72884 255 255 255
-0.483858   1.42205   1.31009 255 255 255
0.76795 1.08668 1.32308 255 255 255
0.363772 0.835477   1.5756 255 255 255
0.301603  1.18184  1.37642 255 255 255
0.553268 0.947987   1.4527 255 255 255
0.327068 0.377966  1.72936 255 255 255
0.58414 1.32088 1.27501 255 255 255
-0.135146   1.13605   1.49917 255 255 255
0.522523  1.32567  1.24162 255 255 255
-0.544811   1.64404   1.22095 255 255 255
0.248324  1.31449  1.31305 255 255 255
0.297647 0.389687  1.73515 255 255 255
-0.0896754    1.64457    1.13624 255 255 255
-0.141741   1.70389   1.12315 255 255 255
0.398377 0.413247   1.7231 255 255 255
-0.189203   1.08148   1.54264 255 255 255
-0.359055    1.1141   1.51352 255 255 255
0.00816078    1.62245     1.1634 255 255 255
-0.593696   1.46954   1.30651 255 255 255
0.0330505   1.83658  0.991872 255 255 255
0.0718629   1.33928   1.34205 255 255 255
0.167868 0.702476  1.60011 255 255 255
0.346384  1.66313  1.08624 255 255 255
0.473981  1.56768  1.14353 255 255 255
0.296459  1.70899  1.05796 255 255 255
0.308384  1.58217  1.16941 255 255 255
-0.00684868     1.73856     1.06816 255 255 255
-0.504954   1.56444    1.2156 255 255 255
-0.496155   1.38924    1.3174 255 255 255
-0.562801   1.33588   1.39886 255 255 255
0.29941 1.26814 1.34478 255 255 255
-0.0921891    1.77151   0.943895 255 255 255
-0.439132   1.03601   1.58798 255 255 255
0.446201  1.56831  1.14899 255 255 255
0.143105  1.28024  1.36275 255 255 255
0.0380921  0.698691   1.65632 255 255 255
0.374184 0.440153  1.65921 255 255 255
-0.217774   1.26518   1.33002 255 255 255
 0.3214 1.61639 1.13744 255 255 255
-0.37076  1.49864  1.26811 255 255 255
-0.653303   1.35867    1.3337 255 255 255
0.769399  1.06078  1.32168 255 255 255
0.267932  1.70607  1.07563 255 255 255
-0.308754  0.848706   1.68108 255 255 255
0.302843 0.448563  1.69269 255 255 255
0.102896 0.561949  1.72813 255 255 255
-0.132275   1.64994   1.13521 255 255 255
0.381526  1.62289  1.12357 255 255 255
-0.276064   1.01061   1.59387 255 255 255
-0.604284   1.58561   1.25657 255 255 255
-0.592124   1.57792   1.26597 255 255 255
-0.216772   1.58157   1.19374 255 255 255
-0.727922   1.38467   1.38536 255 255 255
0.394489 0.392192  1.70918 255 255 255
0.587075  1.50664  1.16944 255 255 255
0.168202 0.950894   1.5247 255 255 255
-0.152742   1.56239   1.23013 255 255 255
0.525691  1.26595  1.31321 255 255 255
-0.688565   1.51893   1.32841 255 255 255
0.0799141  0.721426   1.62922 255 255 255
-0.150278   1.69064   1.09138 255 255 255
0.271544  1.63233  1.12058 255 255 255
-0.78666  1.31904  1.44291 255 255 255
-0.239545    1.5732   1.20291 255 255 255
-0.363465   1.48396   1.27431 255 255 255
-0.457854   1.45177   1.27489 255 255 255
-0.386702  0.936951   1.65981 255 255 255
0.559174 0.743403  1.53367 255 255 255
 0.25319 0.480189  1.66507 255 255 255
-0.500595    1.0151   1.61111 255 255 255
-0.0507353    1.56435    1.20822 255 255 255
0.125283  1.88668  0.95684 255 255 255
0.574828 0.748247  1.53044 255 255 255
-0.41887  0.85881  1.72018 255 255 255
0.558326 0.806841  1.54428 255 255 255
0.829274  1.16404  1.30672 255 255 255
-0.129729   1.49405   1.27104 255 255 255
0.421952 0.362008  1.72788 255 255 255
-0.259113   1.53813   1.22838 255 255 255
-0.248067     1.598   1.16764 255 255 255
 0.2506 1.62981 1.12599 255 255 255
-0.341175   1.37792   1.39131 255 255 255
 -0.695 1.19156 1.48733 255 255 255
-0.565509   1.36389   1.35092 255 255 255
-0.103983   1.71382    1.0955 255 255 255
-0.665007    1.5145   1.31839 255 255 255
-0.125281   1.63593   1.15155 255 255 255
0.517545  1.55415  1.16477 255 255 255
0.030143  1.72429   1.1164 255 255 255
0.146264  1.73588  1.07433 255 255 255
-0.281844    1.5535   1.21116 255 255 255
-0.248761   1.47572   1.30562 255 255 255
0.298676  1.59908  1.14402 255 255 255
0.00324272    1.81405    1.01938 255 255 255
-0.707577   1.51661   1.32937 255 255 255
0.249735 0.964294  1.50961 255 255 255
0.444795 0.413175  1.69271 255 255 255
-0.483718   1.16823   1.53444 255 255 255
0.0340145   1.75517   1.05046 255 255 255
-0.37692 0.836862   1.7128 255 255 255
0.00739231    1.59526    1.17787 255 255 255
-0.160037   1.67687   1.10063 255 255 255
0.120122  1.70756  1.09252 255 255 255
-0.005702   1.22509   1.43794 255 255 255
0.329368  1.70386  1.10353 255 255 255
-0.538924   1.54361   1.24559 255 255 255
0.253485  1.61505  1.12611 255 255 255
-0.173325   1.56935    1.1958 255 255 255
0.551255 0.710642  1.56997 255 255 255
-0.763074   1.33484   1.42697 255 255 255
0.218762   1.8098  1.01331 255 255 255
0.282075  1.20399  1.36394 255 255 255
0.0175026   0.64985   1.68745 255 255 255
-0.0940422    1.61029    1.18754 255 255 255
0.473587  1.09439  1.38076 255 255 255
-0.367993   1.05656    1.5913 255 255 255
-0.359247  0.852449   1.70017 255 255 255
0.127225  1.41875  1.28942 255 255 255
0.197742  0.96383  1.53519 255 255 255
0.172811  1.12484  1.45952 255 255 255
-0.11969   1.4714  1.26716 255 255 255
0.275152  1.53823  1.19899 255 255 255
-0.0800372    1.69256    1.09866 255 255 255
-0.210666   0.98918   1.58848 255 255 255
-0.214502   1.52028    1.2602 255 255 255
-0.064472   1.66876   1.13097 255 255 255
-0.018362   1.56737    1.1955 255 255 255
-0.0340809    1.55612    1.21592 255 255 255
-0.519361   1.00997   1.61214 255 255 255
0.140436  1.84278  1.01938 255 255 255
-0.0240486    1.78645    1.03601 255 255 255
-0.139516   1.45503   1.28797 255 255 255
-0.0373533    1.59116    1.19205 255 255 255
-0.0589919    1.74607    1.06814 255 255 255
-0.20705  1.40085  1.34809 255 255 255
0.181925  1.77055  1.03836 255 255 255
0.0154805   1.72502   1.10785 255 255 255
-0.0107087    1.79285    1.02674 255 255 255
0.0702231  0.933605   1.55621 255 255 255
-0.342122   1.05796   1.56796 255 255 255
0.0828763    1.9207  0.903687 255 255 255
-0.245311   1.78583   1.03139 255 255 255
0.301095  1.56891  1.17146 255 255 255
-0.241429   1.51738   1.21836 255 255 255
-0.052401   1.68396    1.1267 255 255 255
0.317758  1.60057  1.14715 255 255 255
0.290103  1.60695  1.13712 255 255 255
-0.031106   1.66118   1.15834 255 255 255
-0.30566  1.51098  1.25657 255 255 255
0.0232628   1.65432   1.14249 255 255 255
  0.578 1.39036 1.21468 255 255 255
-0.078385   1.50902   1.23611 255 255 255
0.201663   1.7942  1.02751 255 255 255
0.0928299   1.77681   1.06703 255 255 255
-0.060665  0.843475   1.64422 255 255 255
0.0392283   1.84981  0.984557 255 255 255
-0.442791   1.19836   1.50162 255 255 255
0.550526  0.79509  1.53428 255 255 255
0.328521  1.60214  1.14829 255 255 255
0.0670596   1.76887   1.04637 255 255 255
-0.202284  0.708958    1.7218 255 255 255
-0.416474   1.22244   1.49082 255 255 255
-0.433365   1.35042   1.39984 255 255 255
0.246836 0.424669  1.69533 255 255 255
0.437238   0.3706  1.72501 255 255 255
-0.00992391     1.78287     1.02574 255 255 255
0.0436486   1.81375   1.00708 255 255 255
-0.123397   1.61682    1.1555 255 255 255
0.0602573   1.88073  0.966033 255 255 255
-0.286123   1.53225   1.24015 255 255 255
-0.247119   1.49502   1.26822 255 255 255
0.401503  1.60627   1.1429 255 255 255
-0.513527   1.24089   1.51224 255 255 255
0.0123682   1.72358   1.08234 255 255 255
-0.369362    1.2602   1.45719 255 255 255
-0.458852   1.28621    1.4676 255 255 255
0.126445  1.84692  1.02518 255 255 255
-0.329103   1.02406   1.60355 255 255 255
0.0959011   1.93507   0.89375 255 255 255
0.300398  1.67612   1.0917 255 255 255
0.281885  1.57761  1.15433 255 255 255
0.0854527   1.84934  0.985417 255 255 255
-0.404079  0.929779   1.66121 255 255 255
-0.756721   1.45491   1.37276 255 255 255
0.0820307    1.3389   1.33813 255 255 255
0.0580185    1.8497   0.97926 255 255 255
0.0304089   1.86529  0.931167 255 255 255
0.416011  1.60901  1.13992 255 255 255
0.26149 1.63901 1.12051 255 255 255
0.208379  1.00778  1.50509 255 255 255
0.0488353   1.83303   0.98855 255 255 255
-0.143226   1.58411   1.19772 255 255 255
0.211739 0.934182  1.54125 255 255 255
0.387061 0.872616  1.53086 255 255 255
-0.106437   1.67942   1.11235 255 255 255
0.573513  1.34066  1.24618 255 255 255
-0.401204    1.2246   1.48453 255 255 255
0.269707  1.69421  1.04874 255 255 255
0.11247 1.82233 1.04206 255 255 255
0.0749172   1.88589  0.956645 255 255 255
0.153128  1.48641  1.22957 255 255 255
0.197437   1.5035  1.22163 255 255 255
0.0199542   1.31906   1.36296 255 255 255
0.026022  1.81065  1.00931 255 255 255
-0.121844   1.69096   1.10736 255 255 255
0.299789   1.1959  1.38027 255 255 255
0.0205394   1.84199  0.998797 255 255 255
0.210212 0.741072  1.60505 255 255 255
0.522916  0.69904  1.52093 255 255 255
-0.781611   1.34188   1.43577 255 255 255
0.168418  1.85786  1.00865 255 255 255
-0.58127  1.33293  1.39852 255 255 255
0.0237143   1.70455   1.12316 255 255 255
0.38885 1.61325 1.13081 255 255 255
-0.0612736    1.66747     1.1513 255 255 255
0.133135  1.80356  1.04623 255 255 255
0.00421611     1.7857    1.03756 255 255 255
0.254459  1.69894  1.02845 255 255 255
-0.216945   1.46338   1.31921 255 255 255
-0.0297853    1.65117    1.16206 255 255 255
-0.0446126   0.817226    1.65013 255 255 255
0.277752  1.56426  1.17103 255 255 255
0.15264 1.47548 1.23817 255 255 255
0.463209  1.31286  1.28063 255 255 255
-0.635973   1.16432   1.56242 255 255 255
-0.433963   1.42362   1.31344 255 255 255
0.038197  1.70191  1.11854 255 255 255
0.433159   1.3254  1.28735 255 255 255
-0.0915758    1.61272    1.19055 255 255 255
0.0462128   1.84745  0.985633 255 255 255
-0.284588   1.40189   1.36756 255 255 255
-0.0505775   0.842369     1.6486 255 255 255
0.138393  1.49956  1.22872 255 255 255
0.0753467   1.87826  0.956356 255 255 255
-0.133121   1.61613   1.15592 255 255 255
0.27931 1.62813 1.12812 255 255 255
-0.688239    1.2217   1.52637 255 255 255
0.337928  1.37792  1.29395 255 255 255
0.0515466   1.88407  0.965452 255 255 255
-0.728495   1.36958   1.39157 255 255 255
0.391491  0.41815  1.71757 255 255 255
0.466308 0.770739  1.52361 255 255 255
0.536975 0.797982  1.50566 255 255 255
0.409223 0.361683  1.72567 255 255 255
-0.0398941    1.69667    1.11092 255 255 255
0.486699  1.58048  1.13721 255 255 255
0.00934894    1.68839    1.13039 255 255 255
0.292034   1.2036  1.37637 255 255 255
-0.283801   1.51967   1.24874 255 255 255
-0.138055   1.68681   1.12334 255 255 255
0.519073 0.722619  1.52267 255 255 255
-0.520657   1.63528   1.21528 255 255 255
-0.606826   1.57075    1.2656 255 255 255
0.114336   1.8875  0.95018 255 255 255
0.405102 0.338108  1.74142 255 255 255
0.429121  1.58987  1.14689 255 255 255
-0.523418  0.990291   1.63257 255 255 255
0.670905 0.938314  1.33144 255 255 255
0.0392223   1.82947  0.994704 255 255 255
 0.16607 0.966233  1.51207 255 255 255
0.390666 0.443377  1.65848 255 255 255
0.478823  1.27602  1.28843 255 255 255
-0.354486   1.51193   1.25426 255 255 255
-0.182719   1.52549   1.26496 255 255 255
-0.0297941    1.56524    1.19347 255 255 255
0.121621 0.943632   1.5705 255 255 255
0.22328 1.49073 1.23468 255 255 255
0.356475  1.62798  1.13454 255 255 255
-0.0974336    1.69656    1.10109 255 255 255
-0.00466215     1.81783     1.01111 255 255 255
0.528988 0.803756  1.50552 255 255 255
-0.505851   1.65983    1.1984 255 255 255
0.0824655   1.78098   1.07076 255 255 255
0.0505493   1.69226   1.11405 255 255 255
0.128314   1.8956 0.943852 255 255 255
0.115336  1.80036  1.05156 255 255 255
-0.751116   1.44089   1.38114 255 255 255
-0.0830538    1.57129    1.22041 255 255 255
0.546059 0.669447  1.47928 255 255 255
0.415126 0.342391   1.7382 255 255 255
0.0786964   1.76055   1.07811 255 255 255
0.266541  1.46884  1.22716 255 255 255
-0.34245  1.37371  1.40294 255 255 255
-0.0579281    1.76431    1.05499 255 255 255
-0.181721   1.60718   1.17141 255 255 255
-0.0482474    1.64314    1.17271 255 255 255
0.173138 0.937955  1.51604 255 255 255
-0.361954    1.4187   1.33253 255 255 255
0.114737 0.462042  1.77074 255 255 255
-0.0398343     1.0176    1.54906 255 255 255
0.543662 0.953725  1.46858 255 255 255
-0.2008  1.5849 1.19043 255 255 255
0.811057  1.15872  1.32903 255 255 255
0.124412    1.485  1.25526 255 255 255
0.161584  1.22643  1.36699 255 255 255
-0.696258   1.52816   1.32013 255 255 255
0.0261525    1.7735   1.04594 255 255 255
0.459906  1.56752  1.14885 255 255 255
0.0221349   1.76845   1.05069 255 255 255
-0.539943    1.5572   1.25303 255 255 255
-0.497449   1.36096   1.40205 255 255 255
-0.142631   1.15631   1.49395 255 255 255
-0.0905704    1.68342    1.10575 255 255 255
-0.497747   1.30543   1.43161 255 255 255
-0.23601   1.0205  1.57794 255 255 255
-0.226922   1.58874   1.19368 255 255 255
-0.523945   1.65266   1.20937 255 255 255
-0.434288   1.40013   1.35836 255 255 255
-0.23331  1.31803  1.39107 255 255 255
0.338469  1.63014  1.11818 255 255 255
 0.53536 0.686541  1.49647 255 255 255
0.348919  1.63498  1.12942 255 255 255
0.432721  1.31784  1.27151 255 255 255
0.195206 0.947125   1.5541 255 255 255
-0.336415   0.89676   1.67324 255 255 255
-0.0537387    1.61232     1.1895 255 255 255
 0.53416 0.669355  1.48769 255 255 255
-0.588734   1.26515   1.47197 255 255 255
0.491907  0.69901  1.45538 255 255 255
0.140239  1.48252   1.2354 255 255 255
-0.774778   1.35361   1.42822 255 255 255
-0.268816   1.07088   1.51995 255 255 255
0.464328  1.11533  1.35859 255 255 255
-0.213523   1.48023    1.2913 255 255 255
0.100549    1.894 0.938952 255 255 255
-0.164679   1.65121   1.14229 255 255 255
-0.0497863    1.65914    1.15381 255 255 255
-0.210299   1.08192   1.53261 255 255 255
0.125522 0.460793   1.7605 255 255 255
-0.23135  1.46596  1.32252 255 255 255
 0.15631 0.967603  1.53976 255 255 255
 0.66936 0.955057  1.36787 255 255 255
-0.498369    1.3745   1.39533 255 255 255
0.0545146  0.902575   1.57893 255 255 255
0.00119624    1.82877    1.01101 255 255 255
-0.144496   1.63273   1.14998 255 255 255
-0.4393 1.46155  1.2975 255 255 255
-0.175798   1.51965   1.27088 255 255 255
0.0418943   1.72706   1.10299 255 255 255
-0.279714   1.42222    1.3563 255 255 255
-0.611652   1.47309   1.31774 255 255 255
0.427349 0.292207  1.69108 255 255 255
-0.50584  1.00224   1.6199 255 255 255
-0.11384  1.66544  1.12749 255 255 255
0.591516 0.806403  1.49986 255 255 255
0.145604  1.87638 0.998465 255 255 255
-0.807159   1.30304   1.45551 255 255 255
0.496272  0.71997  1.47875 255 255 255
-0.586789    1.2476   1.48129 255 255 255
0.212725  1.50131  1.20529 255 255 255
-0.0770662    1.66041    1.13703 255 255 255
0.528957 0.675093  1.47549 255 255 255
-0.309751  0.865954   1.68424 255 255 255
-0.584308   1.49543    1.3005 255 255 255
0.192849  1.83101  1.01455 255 255 255
0.423027 0.845754  1.41921 255 255 255
-0.633404   1.20178   1.52021 255 255 255
-0.0992297   0.725334    1.69031 255 255 255
0.352596  1.62676  1.12365 255 255 255
0.46693  0.9261 1.41369 255 255 255
-0.371447   1.44107   1.31694 255 255 255
0.0969827  0.448119   1.78367 255 255 255
0.664103 0.957624  1.36873 255 255 255
-0.466482   1.35974   1.38728 255 255 255
-0.807209   1.30972    1.4556 255 255 255
-0.224958   1.49041    1.2882 255 255 255
-0.0543824    1.76109    1.06107 255 255 255
0.78947  1.0576 1.35699 255 255 255
0.294346  1.57306  1.16867 255 255 255
0.184324  1.87308  0.99444 255 255 255
-0.0316013    1.74698    1.06649 255 255 255
-0.802593   1.39817   1.41044 255 255 255
0.137674  1.41376  1.29201 255 255 255
-0.0226036    1.67369     1.1525 255 255 255
0.686704 0.924333  1.33865 255 255 255
0.541916 0.671306  1.46396 255 255 255
0.017839  1.78799  1.03207 255 255 255
0.506396  1.35423   1.2451 255 255 255
0.454565 0.391993  1.70787 255 255 255
0.522148 0.870918  1.44602 255 255 255
0.396575 0.733001  1.53628 255 255 255
-0.13481 0.733042  1.70358 255 255 255
0.364107 0.366593  1.72385 255 255 255
-0.0641476    1.63037    1.19765 255 255 255
-0.41348  1.44357  1.32889 255 255 255
-0.182153   1.64796   1.15686 255 255 255
0.335531  1.59874  1.14202 255 255 255
-0.126265   1.70162   1.11904 255 255 255
-0.52017  1.33839  1.41771 255 255 255
-0.664767   1.21725   1.52404 255 255 255
-0.702154   1.21743   1.50389 255 255 255
0.218439 0.843346  1.60139 255 255 255
-0.218778    1.3984   1.34339 255 255 255
-0.189835   1.60773   1.17247 255 255 255
0.676037  0.94135  1.34381 255 255 255
-0.0618114    1.67774    1.12624 255 255 255
0.171818 0.484974  1.73395 255 255 255
-0.19868  1.41953  1.32098 255 255 255
-0.639682   1.53768   1.28739 255 255 255
-0.118971   1.57249   1.22832 255 255 255
0.719278  1.02766  1.25173 255 255 255
-0.636876   1.44212   1.33667 255 255 255
0.366804 0.250443  1.77599 255 255 255
-0.419473   1.32913   1.41862 255 255 255
-0.135154   1.55284   1.23779 255 255 255
-0.22092  1.05288  1.56003 255 255 255
-0.347194  0.983118   1.62182 255 255 255
0.290893  1.55154  1.17789 255 255 255
0.414998 0.416933   1.7186 255 255 255
-0.449262    1.3894   1.36953 255 255 255
-0.0913829     1.6201    1.16719 255 255 255
-0.0885674   0.714825    1.69308 255 255 255
-0.515746   1.31033   1.43167 255 255 255
-0.435787   1.31825   1.52704 255 255 255
-0.308827   1.37247   1.39043 255 255 255
-0.605322   1.60598   1.24524 255 255 255
0.0966093   1.93929  0.890685 255 255 255
0.545192  1.11325  1.30387 255 255 255
0.252788 0.779703  1.58436 255 255 255
-0.385907    1.4205   1.33095 255 255 255
0.10517 1.22332 1.38241 255 255 255
-0.542476     1.332   1.41774 255 255 255
0.217907  1.02057   1.4957 255 255 255
-0.301618   1.52699    1.2511 255 255 255
0.479558  1.55941  1.14619 255 255 255
0.285428  1.20925  1.38237 255 255 255
-0.774031   1.39287   1.40943 255 255 255
0.465763  1.11705  1.39067 255 255 255
-0.180447   1.51701   1.26718 255 255 255
-0.265257   1.01301   1.58951 255 255 255
-0.441268  0.893799   1.69633 255 255 255
-0.455515  0.884273   1.71355 255 255 255
0.203097  1.46597  1.26559 255 255 255
-0.455635   1.30681    1.4385 255 255 255
-0.859479   1.34784   1.46085 255 255 255
-0.415946   1.35808   1.38934 255 255 255
-0.765786   1.40029   1.40418 255 255 255
-0.577725   1.20616   1.52201 255 255 255
0.503541 0.705796  1.47128 255 255 255
-0.354824   1.42241   1.33303 255 255 255
-0.518823   1.00095   1.62772 255 255 255
-0.613455   1.17454   1.57215 255 255 255
-0.530962  0.999003   1.60188 255 255 255
-0.266121   1.43822   1.34196 255 255 255
-0.37506   1.4337  1.32322 255 255 255
0.151054 0.486211  1.75804 255 255 255
-0.588281   1.27426   1.47312 255 255 255
-0.560034   1.28876   1.45514 255 255 255
0.269905 0.843641  1.58672 255 255 255
-0.862245   1.35437   1.45091 255 255 255
0.414881 0.367781  1.72573 255 255 255
0.458005 0.454327  1.70347 255 255 255
-0.363284   1.51809   1.25191 255 255 255
-0.273947    1.4854   1.30648 255 255 255
-0.0686027    1.03806     1.5739 255 255 255
-0.120959     1.599   1.20846 255 255 255
0.0936198   1.77282   1.07257 255 255 255
-0.345718   1.06159   1.57742 255 255 255
0.452617  1.55509  1.16138 255 255 255
-0.191774   1.50587   1.26693 255 255 255
-0.44684 0.885166  1.70088 255 255 255
-0.0476642    1.75963    1.05831 255 255 255
-0.0417848    1.72732    1.06569 255 255 255
-0.61054  1.06425  1.61703 255 255 255
0.0343471   1.03921   1.52753 255 255 255
0.15997 1.75039 1.06317 255 255 255
0.291591  1.61715  1.14019 255 255 255
-0.151991   1.63055    1.1493 255 255 255
-0.644259   1.01695   1.64997 255 255 255
0.0896839    1.8612  0.974338 255 255 255
-0.149466   1.64631   1.14112 255 255 255
-0.258694   1.43841   1.34087 255 255 255
0.164329  1.47092  1.24334 255 255 255
-0.175461   1.65409   1.14489 255 255 255
0.300808   0.9255  1.50123 255 255 255
0.113581  1.88735 0.951194 255 255 255
-0.114763  0.439839   1.84824 255 255 255
0.0607964   0.37151   1.79665 255 255 255
0.0174487  0.195592   1.85851 255 255 255
-0.5301  0.9624 1.66414 255 255 255
-0.468696  0.151508   2.08712 255 255 255
-0.184939  0.383482   1.88468 255 255 255
-0.562098  0.984096   1.62248 255 255 255
-0.300442  0.486269   1.82876 255 255 255
-0.620002 0.0620314   2.24353 255 255 255
0.206114 0.287866  1.80337 255 255 255
0.0501279  0.215515   1.86365 255 255 255
-0.0371357 -0.0143607    1.95111 255 255 255
-0.0391503   0.426733    1.82475 255 255 255
-0.108037  0.261147   1.89425 255 255 255
0.168862 0.257738  1.80189 255 255 255
0.100334 0.341577  1.82023 255 255 255
0.0838711  0.195623   1.86005 255 255 255
-0.469252  0.292036   2.07144 255 255 255
-0.0377891   0.357656    1.83406 255 255 255
0.0320749  0.150154   1.89866 255 255 255
-0.0493036   0.202333    1.87063 255 255 255
 -0.123491 0.00417807     1.9764 255 255 255
-0.318237  0.316025   1.97574 255 255 255
  -0.14181 -0.0400345    1.97122 255 255 255
-0.25686 0.259595  1.91261 255 255 255
0.227721 0.297882  1.85303 255 255 255
-0.0764089  0.0237143    1.92517 255 255 255
-0.0308375   0.226974     1.8803 255 255 255
-0.421715  0.910494   1.67066 255 255 255
 -0.1929 0.028261  1.98633 255 255 255
0.0667342   0.16703   1.89812 255 255 255
-0.661822  0.714558    1.8048 255 255 255
0.00231219   0.535398    1.73255 255 255 255
 0.15529 0.127056   1.9144 255 255 255
-0.0286519  0.0805872    1.94128 255 255 255
 -0.216316 -0.0535093    1.98068 255 255 255
-0.221998  0.249867   1.92509 255 255 255
 -0.538295 -0.0058849    2.18858 255 255 255
0.235803 0.247943  1.86431 255 255 255
0.0308817  0.353428   1.83114 255 255 255
-0.752439  0.491533   1.98815 255 255 255
-0.0185827   0.454325    1.79787 255 255 255
-0.0237756   0.508239    1.75328 255 255 255
  -0.156816 -0.00709707     1.97587 255 255 255
 -0.174783 -0.0474701    1.99933 255 255 255
-0.35858 0.161107  2.04268 255 255 255
 0.06709 0.243457  1.87925 255 255 255
-0.766915   0.46386   2.00539 255 255 255
0.204821 0.385431  1.76404 255 255 255
 -0.216687 -0.0354596    2.00471 255 255 255
-0.880758  0.937429   1.76457 255 255 255
0.100438 0.139288  1.89621 255 255 255
0.121642 0.255397  1.86483 255 255 255
-0.516355  0.870969    1.7231 255 255 255
-0.137621  0.322717   1.90649 255 255 255
0.00293477   0.417867     1.7906 255 255 255
0.0623214  0.384051   1.81448 255 255 255
-1.06924 0.849753  1.85476 255 255 255
-0.337216  -0.20062    2.0837 255 255 255
-0.628566  0.408174   1.98075 255 255 255
  -0.18589 -0.0694658    2.00743 255 255 255
-0.317044 -0.195149   2.08034 255 255 255
0.0911053  0.102647   1.90938 255 255 255
-1.06938 0.937903  1.79411 255 255 255
-0.679898  0.129423   2.26957 255 255 255
0.231016 0.329879  1.83596 255 255 255
-0.732132  0.456887   1.99097 255 255 255
-0.164776 0.0557756   1.97361 255 255 255
-0.702805   0.77162    1.7902 255 255 255
0.188572 0.378455  1.76689 255 255 255
  -0.234 0.223459   1.9271 255 255 255
0.0693428 0.0887066   1.92368 255 255 255
-0.482619  0.323729    1.9388 255 255 255
 -0.246486 -0.0892063    2.02277 255 255 255
-0.335472   0.28692   1.94758 255 255 255
0.185564 0.296904  1.85456 255 255 255
-0.411815  0.818335   1.72487 255 255 255
-0.352513   0.86842   1.68406 255 255 255
-0.0227512   0.186211    1.88875 255 255 255
0.011124 0.090114  1.90554 255 255 255
-0.167783  0.149896   1.95131 255 255 255
0.103699 0.408561  1.80101 255 255 255
0.0373473  0.100537   1.90308 255 255 255
-0.0493751   0.490079    1.76613 255 255 255
-0.343933  0.504698   1.87264 255 255 255
0.0941023  0.361334   1.81402 255 255 255
 -0.539854 -0.0859516    2.20321 255 255 255
-0.390047  0.296577   2.02219 255 255 255
-0.686856 0.0149442   2.30696 255 255 255
-0.00422137    0.332387     1.84823 255 255 255
-0.363707  0.203346   2.02806 255 255 255
0.0626146    0.4017   1.80765 255 255 255
-0.214508  0.292344   1.91817 255 255 255
-0.372762 0.0977063   2.05499 255 255 255
0.0109799  0.140095   1.90442 255 255 255
0.0349324  0.390334   1.82873 255 255 255
-0.451543  0.961104   1.64011 255 255 255
-0.480614  0.219132   2.09448 255 255 255
0.0109541  0.312361   1.85403 255 255 255
0.167686 0.218032   1.8739 255 255 255
 0.10071 0.424837   1.7815 255 255 255
-0.526551  0.192765   2.07295 255 255 255
-0.379301  -0.20323   2.14294 255 255 255
  0.1211 0.287476  1.84257 255 255 255
0.0516539  0.491542   1.75663 255 255 255
0.0771041  0.530651   1.76489 255 255 255
 -0.329391 -0.0777757    2.05562 255 255 255
-0.374812  0.122046   2.05529 255 255 255
-0.122377  0.382435   1.86196 255 255 255
 -0.32919 -0.110298   2.09311 255 255 255
0.0252068  0.553177   1.72675 255 255 255
0.019462  0.29336  1.84511 255 255 255
-0.591355  0.311453   1.99451 255 255 255
0.0118578  0.532669   1.72639 255 255 255
-0.0444152   0.152868    1.90797 255 255 255
-0.811397   0.47429   2.02035 255 255 255
 0.106863 0.0828397   1.89599 255 255 255
0.0730184  0.355523    1.8266 255 255 255
0.101808 0.336896  1.82117 255 255 255
-0.0176043     0.1572    1.89968 255 255 255
-0.677012 0.0610478   2.11293 255 255 255
  -0.56566 -0.0720666    2.20728 255 255 255
-0.287706 0.0983268    2.0131 255 255 255
-0.342121 -0.173446   2.07778 255 255 255
-0.659906   1.07734   1.62549 255 255 255
-0.679398  0.796889   1.77181 255 255 255
-0.466925  0.222735   2.09795 255 255 255
0.0846539  0.114998   1.91218 255 255 255
-0.196965   -0.1295   2.00487 255 255 255
-0.0468504  -0.125111    1.96607 255 255 255
0.0790783  0.471044   1.76196 255 255 255
-0.625852  0.900866   1.71478 255 255 255
-0.106961  0.393786   1.86204 255 255 255
-0.509399   0.07416     2.151 255 255 255
0.0617321  0.420332   1.78854 255 255 255
-0.0313729   0.408439    1.79315 255 255 255
0.171572 0.156472  1.90257 255 255 255
-0.148987 0.0563054   1.94115 255 255 255
-0.222746  0.184398   1.96372 255 255 255
-0.594976  0.799648   1.74991 255 255 255
0.0424884 0.0579282   1.92704 255 255 255
0.156869 0.317855  1.82681 255 255 255
-0.537293  0.969619   1.64297 255 255 255
-0.074177  0.299409   1.87733 255 255 255
-0.833468  0.785914   1.81632 255 255 255
 -0.138271 0.00642437    1.97706 255 255 255
-0.0204376  -0.022329    1.95075 255 255 255
-0.115512  0.241971   1.89233 255 255 255
-0.136163  0.267102   1.90276 255 255 255
 -0.179241 -0.0147633    2.00338 255 255 255
-0.291285   0.28329   1.95881 255 255 255
-0.647362  0.558991   1.91305 255 255 255
-0.331676 0.0206531   2.04048 255 255 255
0.0444296  0.427569   1.78203 255 255 255
 0.25758 0.249199  1.88976 255 255 255
-0.841259  0.583044   1.94005 255 255 255
-0.0263705   0.575621    1.70821 255 255 255
0.0139983  0.380829   1.81742 255 255 255
-0.465419  0.207844   2.06959 255 255 255
0.0940792   0.34696   1.82466 255 255 255
0.129899 0.275051  1.84685 255 255 255
 -0.160859 -0.0250619     1.9852 255 255 255
-0.773643  0.983327   1.70092 255 255 255
  -0.329076 -0.00728358     2.03505 255 255 255
-0.724609  0.988775   1.68058 255 255 255
-0.0177103   0.177661    1.87014 255 255 255
0.0465153  0.380687   1.81651 255 255 255
0.0131815  0.185657    1.8712 255 255 255
-0.742297  0.999523   1.68683 255 255 255
0.160114 0.245384  1.86161 255 255 255
 -0.34476 -0.145765   2.08054 255 255 255
-0.629231 0.0876475   2.24657 255 255 255
-0.626325  0.236348   2.03215 255 255 255
0.208959 0.211862  1.89064 255 255 255
0.0833515  0.212007   1.86999 255 255 255
0.151107 0.296047  1.84287 255 255 255
-0.466236 0.0877222   2.05656 255 255 255
  -0.55601 0.00180803    2.19533 255 255 255
-0.0296786   0.590537    1.71002 255 255 255
-0.451745 -0.183254   2.16005 255 255 255
-0.54564 0.808061  1.73466 255 255 255
-0.190123  0.075704   1.96621 255 255 255
0.0450838  0.354189   1.80719 255 255 255
 -0.523398 -0.0579174    2.13939 255 255 255
-0.79088 0.455088  2.02075 255 255 255
0.0673441  0.142072    1.9046 255 255 255
-0.0927286   0.243463    1.89602 255 255 255
0.0191313  0.150859   1.87572 255 255 255
-0.486443 0.0858837   2.12665 255 255 255
0.133493 0.370471  1.80766 255 255 255
-0.0617699   0.410321    1.82545 255 255 255
0.188824   0.1504  1.91045 255 255 255
-0.0543622   0.402979    1.82524 255 255 255
0.0666875  0.493456   1.78106 255 255 255
-0.504148  0.879814    1.7163 255 255 255
-0.675894    1.0737   1.63658 255 255 255
0.0774889   0.34741   1.81206 255 255 255
0.120603  0.21891  1.88004 255 255 255
0.127741 0.330792  1.82603 255 255 255
-0.263943 0.0963196   2.00213 255 255 255
0.0313095  0.256388   1.86765 255 255 255
-0.31226 0.550468  1.81635 255 255 255
-0.118556  0.140939   1.93647 255 255 255
-0.628221  0.540377   1.90442 255 255 255
-0.976548   0.97221   1.74458 255 255 255
0.233556 0.333551  1.76237 255 255 255
-0.934029  0.861454   1.80852 255 255 255
-0.963186   0.97591   1.73621 255 255 255
-0.275143 -0.040613   2.02508 255 255 255
-0.42039 0.295947  1.97479 255 255 255
-0.256354 -0.179705   2.02369 255 255 255
-0.529655  0.976206   1.63873 255 255 255
0.0538264  0.314602   1.82958 255 255 255
-0.645763  0.164821   2.24272 255 255 255
-0.431221  0.352406   1.95107 255 255 255
-0.0376229   0.494954    1.76263 255 255 255
0.240769 0.263523  1.87837 255 255 255
-0.476771  0.883166    1.7074 255 255 255
 -0.614507 -0.0949654    2.25109 255 255 255
-0.718255  0.919523     1.711 255 255 255
-0.487375  0.928991    1.6864 255 255 255
-0.500788  0.157018    2.1131 255 255 255
0.113026 0.396475  1.79555 255 255 255
-0.0157433 -0.0125763    1.95909 255 255 255
-0.676663 0.0016803   2.29384 255 255 255
-0.338432  0.205816   2.00413 255 255 255
-0.0202284   0.170566    1.89234 255 255 255
-0.744087  0.909839   1.72511 255 255 255
0.116175 0.404172   1.7945 255 255 255
-0.848746  0.481204   2.02804 255 255 255
-0.236486  0.106948   1.98815 255 255 255
-0.619154  0.783238   1.76655 255 255 255
-0.708992  0.069883    2.3019 255 255 255
-0.690628   0.17007   2.08257 255 255 255
-0.239674  0.556392    1.7968 255 255 255
-0.433842  0.394638   1.93366 255 255 255
-0.654238  0.541289   1.92035 255 255 255
-0.368562   0.88486   1.68156 255 255 255
-0.0925755 0.00949297     1.9629 255 255 255
-0.293789  0.603455   1.81354 255 255 255
-0.172035  0.453794   1.85735 255 255 255
0.151335 0.305371  1.83987 255 255 255
 -0.148523 -0.0315118    1.99327 255 255 255
-1.03699 0.799689  1.86544 255 255 255
-0.245954  0.618205   1.77829 255 255 255
-0.206094  0.412558   1.86018 255 255 255
-0.0479455   0.368445    1.83453 255 255 255
-0.158891  0.352806   1.87999 255 255 255
-0.189134  0.110043   1.96974 255 255 255
-0.099446 0.0836213   1.93964 255 255 255
-0.187017  0.126854   1.95176 255 255 255
0.0793284  0.241991   1.85813 255 255 255
0.233361 0.321954  1.80694 255 255 255
0.0598398  0.438268   1.79881 255 255 255
 0.18645 0.291651  1.85467 255 255 255
-0.652451  0.722912    1.8022 255 255 255
 -0.187954 -0.0754237    2.00431 255 255 255
0.0684414  0.229692   1.86985 255 255 255
0.0142201  0.425031   1.78824 255 255 255
-0.596456  0.133513    2.2128 255 255 255
0.0933504  0.311363   1.83281 255 255 255
-0.428014  0.342025   1.95315 255 255 255
-0.246929 -0.157732   2.00765 255 255 255
-0.282693  0.248961   1.97538 255 255 255
-0.204888 0.0446648   1.98895 255 255 255
-0.505315  0.176685   2.12442 255 255 255
-1.13519 0.905182  1.80984 255 255 255
0.124087 0.119541  1.89427 255 255 255
-0.136644  0.288947   1.89479 255 255 255
0.071738 0.329877  1.81961 255 255 255
0.0406613  0.493096   1.75373 255 255 255
-0.0823353   0.305856    1.86979 255 255 255
0.0770709  0.205388     1.876 255 255 255
-0.130932  0.387815   1.86445 255 255 255
0.110432 0.119684    1.906 255 255 255
-0.121726   0.35387   1.85826 255 255 255
-0.674025  0.754748   1.79394 255 255 255
-0.779804  0.956532   1.71454 255 255 255
-0.966973  0.844139   1.83206 255 255 255
 -0.334514 -0.0904679    2.05845 255 255 255
-0.014517  0.216165   1.88767 255 255 255
0.159244 0.209306  1.89142 255 255 255
0.0913793  0.319501   1.82731 255 255 255
0.109245 0.375473  1.73744 255 255 255
0.033861 0.460014   1.7669 255 255 255
-0.717234  0.873704   1.74267 255 255 255
-0.343153 -0.164511   2.09785 255 255 255
-0.208963 -0.122653   2.01529 255 255 255
0.176823 0.192566  1.89782 255 255 255
 -0.6368 0.178718  2.07026 255 255 255
-0.0797487   0.141572    1.92228 255 255 255
0.0999114  0.317985   1.82356 255 255 255
-0.646304  0.797699   1.76367 255 255 255
-0.475279  0.176348   2.10286 255 255 255
-0.18769 0.254234  1.91319 255 255 255
-0.294671  0.155454   2.00884 255 255 255
0.0679568  0.299468   1.83676 255 255 255
0.0628656  0.155333   1.89291 255 255 255
-0.331514 -0.180595   2.07101 255 255 255
-0.277478  0.224715   1.95778 255 255 255
-0.710858  0.737091   1.81295 255 255 255
0.152265 0.327657  1.82085 255 255 255
-0.844949  0.616516   1.92978 255 255 255
-0.881667  0.792719   1.82071 255 255 255
0.0181643 0.0532242   1.86209 255 255 255
 0.020402 0.0406102   1.91754 255 255 255
-0.106656  0.314001   1.86322 255 255 255
-0.537719  0.123799   2.17592 255 255 255
 -0.673164 -0.0543691    2.29342 255 255 255
 -0.18267 -0.147027   2.00024 255 255 255
 -0.111716 -0.0205321    1.94279 255 255 255
0.0703392  0.422657   1.78989 255 255 255
-0.927542  0.969654   1.74858 255 255 255
-0.441412  0.275021    1.9637 255 255 255
-0.756213  0.786641   1.80118 255 255 255
-0.227146 -0.177591   2.01214 255 255 255
-0.650548  0.892319   1.71535 255 255 255
0.104045 0.161051  1.89374 255 255 255
-0.889405  0.589741   1.93135 255 255 255
 0.0484287 -0.0581542    1.92714 255 255 255
-0.056016  0.558521   1.72649 255 255 255
-0.0205606   0.361313    1.82611 255 255 255
-0.877744  0.566107   1.97006 255 255 255
-0.392235 -0.127656   2.13538 255 255 255
-0.340191  -0.22487    2.0868 255 255 255
-0.947684   1.02147   1.70826 255 255 255
-0.108649  0.291091   1.88981 255 255 255
-0.0665229 -0.0822649    1.96319 255 255 255
-0.0270425   0.553678    1.72682 255 255 255
-0.140576  0.234405   1.90564 255 255 255
-0.404942   0.13882   2.04874 255 255 255
-0.389866 -0.146685   2.13675 255 255 255
-0.411654  0.860527   1.70732 255 255 255
-0.136517   0.13214   1.94118 255 255 255
-0.0528119   0.227248    1.87367 255 255 255
-0.292558  0.136925   2.00352 255 255 255
-0.58713 0.161285  2.19449 255 255 255
-0.627375  0.982905   1.66478 255 255 255
-1.02242 0.873224  1.83303 255 255 255
0.000492671   0.0862236     1.90974 255 255 255
-0.573506  0.433426   1.93786 255 255 255
-0.591755  0.982698   1.65223 255 255 255
0.147656 0.185283  1.89896 255 255 255
-0.428777 -0.194981   2.12706 255 255 255
-0.40156 0.834084  1.71976 255 255 255
-0.577886 0.0610245   2.21889 255 255 255
-0.992685  0.953381   1.75665 255 255 255
-0.887953   1.04924   1.67392 255 255 255
-0.134041   0.34694   1.86533 255 255 255
-0.423345  0.349445   1.95431 255 255 255
-0.299282  0.062805   2.01786 255 255 255
-0.193332  0.281889   1.92584 255 255 255
 -0.417929 -0.0696104    2.10206 255 255 255
-0.742549  0.805902   1.78253 255 255 255
-0.646357 0.0828796   2.25785 255 255 255
-0.149155  -0.16291   1.99816 255 255 255
-0.696163   0.07462   2.30202 255 255 255
-0.126158  0.360698   1.86309 255 255 255
-0.615848   1.01525   1.64731 255 255 255
-0.660563   0.73016   1.80092 255 255 255
-0.564788  0.909289   1.68197 255 255 255
0.0519517  0.417161   1.80599 255 255 255
-0.0419746  -0.084056    1.96468 255 255 255
-1.06657  0.96594  1.76636 255 255 255
-0.358912  0.527238   1.85429 255 255 255
-0.774696  0.818408   1.78307 255 255 255
-0.563764  0.140244   2.18673 255 255 255
-0.590509  0.970267    1.6567 255 255 255
-0.090811  0.318812   1.87438 255 255 255
-0.210842 0.0782693    1.9709 255 255 255
 -0.019111 -0.0184029    1.94854 255 255 255
-0.0631451 -0.0562835    1.96582 255 255 255
0.0689649  0.427803   1.80161 255 255 255
0.131852 0.140463  1.90522 255 255 255
-0.884764  0.563953   1.96611 255 255 255
0.0224663  0.322721   1.83257 255 255 255
-0.0199564 -0.0652914    1.95868 255 255 255
-0.26738 0.077949  2.00351 255 255 255
-0.10532 0.221114  1.90914 255 255 255
-0.440681  0.810732   1.74101 255 255 255
-0.0531386   0.357369    1.83805 255 255 255
 -0.284306 -0.0354152    2.02863 255 255 255
 -0.548025 -0.0221803    2.14287 255 255 255
-0.056227  0.370347   1.83227 255 255 255
0.0583355  0.182009   1.87618 255 255 255
0.00451693  -0.024108    1.95269 255 255 255
-0.955746   0.66156   1.93313 255 255 255
-0.610168   1.08063   1.60971 255 255 255
-0.0552116   0.144666    1.91182 255 255 255
 -0.284381 -0.0151165    2.02725 255 255 255
-0.100739  0.373763   1.84997 255 255 255
-0.0886753   0.327841    1.87199 255 255 255
-0.470083 -0.238243   2.18554 255 255 255
-0.0266859  0.0999818    1.91973 255 255 255
0.0135598   0.30715   1.85177 255 255 255
-0.455187 0.0729769     2.114 255 255 255
-0.00883604    0.613236     1.67818 255 255 255
0.0874625  0.505991   1.73833 255 255 255
-0.723374   1.10287   1.63332 255 255 255
-0.31015 0.240549  1.99833 255 255 255
0.133781 0.180375  1.88846 255 255 255
0.0778576  0.227868   1.86436 255 255 255
 0.26629 0.352037  1.74614 255 255 255
-0.0535334   0.348323    1.83669 255 255 255
-0.712664  0.121506   2.30081 255 255 255
-0.256921  0.176657   1.98786 255 255 255
-0.243856  0.150915   1.98208 255 255 255
-0.216042  0.219215   1.94524 255 255 255
 -0.140845 -0.0186243    1.96433 255 255 255
0.0542711   0.37308   1.81358 255 255 255
-0.642785  0.901713   1.70833 255 255 255
-1.02918 0.798843  1.86961 255 255 255
0.215375 0.273947  1.79816 255 255 255
 -0.056259 -0.0913546    1.95779 255 255 255
-1.03822 0.979129  1.75461 255 255 255
-0.476367  0.214797   2.09294 255 255 255
-0.685051    1.1007   1.62073 255 255 255
0.0368332  0.277714   1.84123 255 255 255
 0.043046 0.0988445   1.92238 255 255 255
-0.517795  0.915631    1.6965 255 255 255
-0.202318  0.505172   1.81193 255 255 255
-1.04579 0.861609  1.84685 255 255 255
0.190947 0.228779  1.88145 255 255 255
-0.0320007   0.378467    1.82917 255 255 255
-0.0903128   0.458417    1.80972 255 255 255
-0.0165009   0.332337    1.84079 255 255 255
0.0758854 0.0780415   1.92602 255 255 255
0.247501 0.236087   1.8815 255 255 255
-0.683342  0.766289   1.78907 255 255 255
 -0.266523 -0.0179919    2.03278 255 255 255
-0.258275 0.0576114   2.00809 255 255 255
-0.198827 0.0844064   1.97125 255 255 255
-0.235731  0.239092   1.91558 255 255 255
0.191899 0.381134  1.71764 255 255 255
-0.327096  0.258273   1.96024 255 255 255
-0.812711  0.449338   2.02924 255 255 255
-0.106016 -0.152576   1.99896 255 255 255
-0.607721   1.01156   1.63937 255 255 255
 -0.302935 -0.0386757    2.06173 255 255 255
-0.419919  0.186407   2.01128 255 255 255
-0.116795  0.697422   1.72358 255 255 255
  0.1593 0.264701  1.85156 255 255 255
-0.0708804   0.229761    1.89793 255 255 255
-0.785099  0.706631   1.85655 255 255 255
0.185973 0.195063  1.88338 255 255 255
-1.09152 0.867732  1.85538 255 255 255
-0.109566  0.394061   1.86151 255 255 255
-0.277858  0.230127   1.97875 255 255 255
-0.662698 -0.031641   2.27982 255 255 255
-0.151082  0.229621   1.91238 255 255 255
0.277713 0.307993  1.77597 255 255 255
-0.605874   1.05104    1.6242 255 255 255
-0.532464  0.258099   2.00891 255 255 255
-0.428194  0.142365   2.08194 255 255 255
-0.760079  0.787101   1.79173 255 255 255
  -0.25426 -0.0612949     2.0176 255 255 255
-0.492357  0.105194   2.06366 255 255 255
-0.700777  0.107773   2.29737 255 255 255
0.0566471  0.415468   1.79709 255 255 255
0.0529812  0.185471   1.87669 255 255 255
-0.616354   1.07633   1.61344 255 255 255
-0.335282 0.0756145   2.04312 255 255 255
-0.405483  0.116548   2.05888 255 255 255
-0.381868  0.852675   1.70554 255 255 255
-0.931593  0.920648   1.76994 255 255 255
-0.104167  0.270704   1.89141 255 255 255
0.220991 0.321078   1.7651 255 255 255
0.00734402   0.323742    1.85266 255 255 255
0.00659046     0.3257    1.83694 255 255 255
-0.561989 0.0904984   2.18931 255 255 255
-0.53729 -0.10559  2.18769 255 255 255
-0.255813  0.195496   1.97877 255 255 255
-0.00947724    0.509463     1.75282 255 255 255
-0.811449  0.838004   1.77234 255 255 255
-0.174869  0.344756   1.86083 255 255 255
0.0245538   0.18587   1.87217 255 255 255
  -0.664781 -0.00211139      2.2768 255 255 255
-1.03303 0.866951  1.83788 255 255 255
-0.278534 -0.114165   2.02529 255 255 255
-0.207901  0.264844   1.90299 255 255 255
0.0300396  0.269881   1.85611 255 255 255
-0.157948    0.3274   1.88715 255 255 255
0.0205216  0.553007   1.72681 255 255 255
-0.570592  0.275377   2.04318 255 255 255
-0.347269  0.240743   2.02116 255 255 255
-0.915543  0.947741     1.765 255 255 255
-0.104935   0.15175   1.93525 255 255 255
-0.581225   1.01793   1.63114 255 255 255
-0.461104  0.882911   1.69877 255 255 255
-0.426399  0.323409   1.94324 255 255 255
 -0.163171 -0.0407488    1.97703 255 255 255
-0.229731    0.2294   1.94961 255 255 255
 -0.061544 -0.0993472    1.95929 255 255 255
-1.13574 0.917295  1.81189 255 255 255
-0.144619 0.0093019   1.97227 255 255 255
-0.754652  0.809638   1.78124 255 255 255
0.198847 0.315794  1.83917 255 255 255
-0.25561 0.159264  1.97789 255 255 255
-0.61867 0.757433  1.77643 255 255 255
-0.442366  0.173679   2.07419 255 255 255
-0.680582  0.118465   2.28459 255 255 255
0.164473 0.163307  1.90157 255 255 255
-0.270042  0.656511    1.7505 255 255 255
0.0179485  0.385274   1.80824 255 255 255
 -0.163405 -0.0768348    2.01176 255 255 255
-0.298582  0.112901   2.01938 255 255 255
-0.134725  0.298575   1.88917 255 255 255
-0.135095   0.29869   1.88801 255 255 255
-0.890552   1.05419   1.67104 255 255 255
0.0462736  0.239236   1.85028 255 255 255
 -0.165655 0.00486145    1.97283 255 255 255
-0.985916  0.988985   1.73697 255 255 255
-0.0951923   0.209398    1.90701 255 255 255
-0.478682  0.257291   2.08363 255 255 255
-0.220948  0.141883   1.96309 255 255 255
-0.839546  0.610074   1.92467 255 255 255
-0.515319  0.930917   1.69007 255 255 255
-0.6694 1.09309 1.62063 255 255 255
0.139315  0.30327  1.84397 255 255 255
-0.152123  0.236739    1.9154 255 255 255
0.0257519  0.174135   1.87476 255 255 255
-0.581672  0.145947   2.19519 255 255 255
0.105669 0.320439  1.82019 255 255 255
0.0441106  0.379676   1.82108 255 255 255
-0.250822  0.212677   1.97243 255 255 255
 -0.415082 -0.0457028    2.08709 255 255 255
-0.878915  0.924214   1.76623 255 255 255
-0.183608  0.398884   1.87265 255 255 255
-0.334791  0.259729   1.97019 255 255 255
-0.0508307  0.0633223    1.95027 255 255 255
-0.00817473    0.607243     1.67196 255 255 255
-0.16191 0.283602  1.91132 255 255 255
 0.0398251 -0.0601225    1.92569 255 255 255
-0.319726  0.271213   1.99318 255 255 255
-0.469063  0.427524   1.90254 255 255 255
-0.316653  0.379744   1.95973 255 255 255
-0.287476  0.241914   1.98155 255 255 255
-0.970712  0.903166   1.79902 255 255 255
-0.481092  0.829143   1.73806 255 255 255
0.102912 0.447183  1.76676 255 255 255
-0.0222769    0.45316    1.78515 255 255 255
-0.151221  0.327172   1.89233 255 255 255
0.0634733  0.291844   1.83714 255 255 255
 -0.21796 -0.125246   2.02048 255 255 255
-0.933175  0.638546   1.94454 255 255 255
-0.229748  0.117837   1.99038 255 255 255
-0.849702    1.0741   1.64864 255 255 255
0.0279696  0.312784   1.83967 255 255 255
-0.570956   1.03368   1.62384 255 255 255
 -0.111908 -0.0633232    1.98001 255 255 255
-0.647707  0.715552   1.80654 255 255 255
0.146451 0.188797  1.84215 255 255 255
0.0907517  0.498845   1.77385 255 255 255
 -0.27841 -0.123278   2.03142 255 255 255
0.0737744 0.0737331   1.90715 255 255 255
0.0764678  0.429718   1.80066 255 255 255
-0.957756  0.841314   1.82745 255 255 255
 -0.269198 -0.0901145    2.03064 255 255 255
-0.887774   1.00793   1.72508 255 255 255
-0.696788  0.954995   1.68594 255 255 255
0.0780751 0.0819946   1.89357 255 255 255
-0.703925  0.863972   1.74432 255 255 255
-0.515591 0.0145656   2.11213 255 255 255
-0.154668  0.424229    1.8519 255 255 255
0.0602719  0.230414   1.87008 255 255 255
-0.143614  0.122744   1.94932 255 255 255
-0.320999  0.323914   1.93747 255 255 255
0.0276662 0.0516947   1.91977 255 255 255
-0.0860519   0.111981    1.91643 255 255 255
-0.30367 0.009465  2.02462 255 255 255
-0.142419  0.428492   1.85113 255 255 255
0.0134269  0.326968   1.85128 255 255 255
0.0141819  0.326998   1.85203 255 255 255
-0.163361   0.35939   1.88262 255 255 255
-0.681446   1.10625   1.62035 255 255 255
-0.234818  0.254524   1.95143 255 255 255
-0.858483   1.07477   1.65147 255 255 255
-0.496159 0.0128656   2.14731 255 255 255
-0.587142  0.182461   2.20017 255 255 255
0.177179 0.224622  1.88606 255 255 255
-0.476134 0.0623804   2.12333 255 255 255
-0.0672516   0.216078    1.89692 255 255 255
-0.694265 0.0997311   2.29035 255 255 255
-0.155916  0.342326   1.88966 255 255 255
-0.880152  0.667382   1.91049 255 255 255
0.223123 0.264563   1.7924 255 255 255
-0.828156  0.511186   2.01158 255 255 255
 0.07102 0.204561  1.85841 255 255 255
-0.905145   0.98407   1.73882 255 255 255
-0.248869   0.18685   1.98055 255 255 255
