ply
format ascii 1.0
element vertex 1221
property float x
property float y
property float z
property uchar red
property uchar green
property uchar blue
end_header
 3.60241 0.256806   4.4896 255 255 255
 3.57395 0.587046  4.05134 255 255 255
2.71964 0.38168 3.41207 255 255 255
 2.39995 0.679295  3.00781 255 255 255
 2.98973 0.197364  4.02618 255 255 255
 2.79566 0.908427   2.9893 255 255 255
 3.57034 0.770561  3.81456 255 255 255
 2.33769 0.408431  3.09743 255 255 255
 2.28522 0.244413  3.26022 255 255 255
 2.47105 0.432219   3.1403 255 255 255
 3.37252 0.346281  4.20322 255 255 255
 3.45822 0.549028  3.95352 255 255 255
   2.73536 -0.0375904    4.17513 255 255 255
3.43619 0.35976 4.20774 255 255 255
2.85572 0.79295 3.15469 255 255 255
 3.95567 0.649533  4.35375 255 255 255
 3.37556 0.167311  4.43948 255 255 255
 3.3261  0.3107 4.20294 255 255 255
 3.31889 0.301136  4.18869 255 255 255
 3.49493 0.817087  3.68591 255 255 255
 2.96827 0.552659  3.48411 255 255 255
 2.39948 0.358933  3.21368 255 255 255
 3.44269 0.191695  4.43244 255 255 255
2.89215 0.79392 3.17325 255 255 255
 2.76277 0.335722  3.54462 255 255 255
 3.23239 0.798238  3.43555 255 255 255
 2.45603 0.239469  3.35945 255 255 255
 2.68606 0.833174  3.00332 255 255 255
 2.70781 0.366111  3.42513 255 255 255
 3.43274 0.668565  3.80688 255 255 255
 3.0339 0.13533 4.19072 255 255 255
 3.06864 0.188199  4.14729 255 255 255
 3.32743 0.390039  4.08504 255 255 255
 3.48144 0.231498  4.41177 255 255 255
 3.08358 0.155548  4.19984 255 255 255
 3.27264 0.629358  3.70257 255 255 255
 3.84049 0.596629   4.2925 255 255 255
 3.49739 0.233201  4.43598 255 255 255
 3.50741 0.558658  4.01848 255 255 255
 3.13142 0.586515  3.57689 255 255 255
 3.49054 0.290618  4.34432 255 255 255
 2.62866 0.321274  3.41592 255 255 255
3.75073 0.20676 4.65689 255 255 255
3.28781 0.39715  4.0169 255 255 255
 3.54406 0.745527  3.88156 255 255 255
 2.86707 0.583596  3.39353 255 255 255
 3.12375 0.717055  3.43161 255 255 255
 3.58842 0.865038  3.72831 255 255 255
 2.45966 0.493314  3.10928 255 255 255
  2.5412 0.129024   3.7384 255 255 255
 3.09452 0.456332  3.78825 255 255 255
 2.83313 0.430299  3.47063 255 255 255
 2.38985 0.424077  3.11545 255 255 255
 2.80319 0.328692  3.58113 255 255 255
 3.26479 0.844002  3.42794 255 255 255
 3.07756 0.149755  4.21278 255 255 255
 2.51827 0.273415  3.38754 255 255 255
 2.85336 0.328701  3.68754 255 255 255
 2.49313 0.209444  3.53645 255 255 255
 3.12727 0.811484  3.31866 255 255 255
 3.34821 0.129246  4.46876 255 255 255
 2.82063 0.685374  3.21833 255 255 255
   2.7372 0.0144973   4.07376 255 255 255
  3.0149 0.558798  3.52754 255 255 255
 2.73026 0.304816  3.55183 255 255 255
 2.63866 0.338452  3.36357 255 255 255
 2.36577 0.470559  3.07933 255 255 255
 2.63189 0.192334  3.65698 255 255 255
 2.98706 0.392227  3.72223 255 255 255
 2.87792 0.404825  3.54398 255 255 255
 2.60366 0.656626  3.10644 255 255 255
 3.20899 0.277901  4.13528 255 255 255
 3.27857 0.624825  3.72038 255 255 255
 2.71978 0.615849   3.1705 255 255 255
 2.72372 0.634862  3.18038 255 255 255
 3.17911 0.281488  4.09326 255 255 255
 2.85511 0.515271  3.44757 255 255 255
2.64779 0.48107 3.30123 255 255 255
  3.6394 0.624279  4.06601 255 255 255
 2.43709 0.402412  3.16638 255 255 255
 2.86506 0.311547  3.75565 255 255 255
 3.29047 0.649871  3.70508 255 255 255
 2.78923 0.401584  3.48519 255 255 255
 3.01905 0.191438  4.07599 255 255 255
  3.4115 0.651016  3.80647 255 255 255
  2.70488 0.0723892   3.93858 255 255 255
 3.45447 0.184226  4.47762 255 255 255
 2.65373 0.349625  3.36561 255 255 255
 3.37974 0.430961  4.05765 255 255 255
 3.09494 0.555248  3.57776 255 255 255
 3.37356 0.634426  3.80259 255 255 255
 2.67797 0.862217   2.9733 255 255 255
  2.76825 -0.129956   4.37536 255 255 255
2.97053 0.13695  4.1092 255 255 255
 2.58152 0.750785  3.05403 255 255 255
 3.01174 0.213616  4.02247 255 255 255
 2.79325 0.339546  3.56092 255 255 255
 3.10795 0.612817  3.54118 255 255 255
 3.79522 0.591318  4.26136 255 255 255
 3.41959 0.755683  3.69413 255 255 255
 2.87442 0.776157   3.1767 255 255 255
 2.82463 0.375476  3.54534 255 255 255
 2.88807 0.563189  3.35414 255 255 255
 3.54286 0.592453  3.98916 255 255 255
 3.32551 0.276643  4.24176 255 255 255
 3.71185 0.692718  4.04215 255 255 255
2.55383 0.24987 3.52666 255 255 255
 3.19816 0.345568  4.03081 255 255 255
  3.9409 0.675283  4.32272 255 255 255
 2.75793 0.559957   3.2759 255 255 255
 3.03616 0.569851  3.53857 255 255 255
 2.87527 0.569717  3.38319 255 255 255
 2.73872 0.246369  3.71028 255 255 255
 3.11001 0.472533  3.77064 255 255 255
 2.90198 0.331909  3.77463 255 255 255
  2.4161 0.395816   3.1991 255 255 255
 3.34817 0.753861  3.59905 255 255 255
3.40512 0.70117 3.73901 255 255 255
 3.17181 0.516119  3.79163 255 255 255
 2.60584 0.612127  3.12939 255 255 255
 3.35209 0.701736  3.68072 255 255 255
  2.79637 0.0216565   4.15767 255 255 255
 2.98346 0.144799  4.10956 255 255 255
  2.7877 0.302362  3.60929 255 255 255
3.33401 0.40631 4.05581 255 255 255
 3.45488 0.803637  3.66106 255 255 255
 3.54405 0.357038  4.33713 255 255 255
  2.74704 -0.099593   4.30798 255 255 255
 2.92399 0.215338  3.92436 255 255 255
 2.68729 0.220243   3.7444 255 255 255
 2.90913 0.530158  3.38795 255 255 255
 2.33185 0.255697  3.27058 255 255 255
  2.59445 0.0186544   3.90882 255 255 255
 3.80562 0.232333  4.66825 255 255 255
 2.94172 0.551966  3.47642 255 255 255
 2.72567 0.271425  3.59386 255 255 255
 2.80726 0.839731  3.07359 255 255 255
 2.50263 0.274783  3.34557 255 255 255
 3.01878 0.425542  3.66648 255 255 255
 3.32309 0.285411  4.23651 255 255 255
 3.22993 0.584442  3.69996 255 255 255
 2.53442 0.164245  3.64067 255 255 255
 3.03428 0.423068  3.73204 255 255 255
 2.48082 0.193735  3.53819 255 255 255
 2.79831 0.392209  3.52117 255 255 255
 2.77111 0.388428  3.46423 255 255 255
 3.33533 0.414844  4.03206 255 255 255
 2.35062 0.191793  3.32466 255 255 255
 2.43404 0.292566  3.28446 255 255 255
3.68909 0.60046 4.15631 255 255 255
 3.17273 0.170902  4.26769 255 255 255
 3.16622 0.708758  3.47406 255 255 255
 3.01625 0.419023  3.72057 255 255 255
 3.66778 0.534919  4.21989 255 255 255
 3.36793 0.482677  3.99825 255 255 255
 3.27159 0.428498  3.96744 255 255 255
 3.09159 0.176684  4.18024 255 255 255
2.88835 1.00336   2.985 255 255 255
3.22845 0.58005  3.7326 255 255 255
  2.82852 0.0415197   4.12364 255 255 255
3.21305 0.17409 4.30329 255 255 255
  3.1649 0.749474  3.43227 255 255 255
 3.55955 0.372267  4.33407 255 255 255
  3.22063 0.0409285   4.47755 255 255 255
 2.63251 0.347719  3.34461 255 255 255
 2.53482 0.298983  3.36416 255 255 255
 3.03588 0.421362  3.74956 255 255 255
  2.9538 0.720357  3.27097 255 255 255
 2.78191 0.258237  3.75759 255 255 255
 3.60808 0.447992  4.26938 255 255 255
 2.89977 0.774992  3.19997 255 255 255
  3.36583 0.0811848   4.53928 255 255 255
 2.92364 0.517109  3.48229 255 255 255
 3.23729 0.852286  3.39764 255 255 255
 2.46363 0.442258  3.16215 255 255 255
 3.05008 0.737696  3.34766 255 255 255
2.81411 0.75098 3.15705 255 255 255
 2.93912 0.385816  3.66379 255 255 255
 3.10688 0.489976  3.71974 255 255 255
 2.67577 0.637777  3.14316 255 255 255
 3.00368 0.642212  3.41673 255 255 255
 3.36269 0.371347  4.15638 255 255 255
 3.32834 0.246832  4.28966 255 255 255
 3.52195 0.159378  4.55885 255 255 255
 2.65492 0.226315  3.63637 255 255 255
 3.40609 0.108488  4.54132 255 255 255
 3.02946 0.484674  3.57533 255 255 255
 3.38039 0.683528  3.74471 255 255 255
 3.30752 0.688706  3.64768 255 255 255
 2.77492 0.337882  3.55083 255 255 255
  2.6701 0.331958  3.47123 255 255 255
 2.63807 0.389272  3.32245 255 255 255
 2.41539 0.382803  3.22037 255 255 255
 2.98318 0.673636  3.35919 255 255 255
 3.49059 0.273619   4.3777 255 255 255
 2.83843 0.763497   3.1629 255 255 255
 3.65071 0.657796  4.01577 255 255 255
 3.72158 0.679134  4.09476 255 255 255
 2.81623 0.361201  3.54754 255 255 255
 3.76541 0.640051   4.1783 255 255 255
   2.814 0.432746  3.44692 255 255 255
 2.37772 0.476532  3.07782 255 255 255
 2.93905 0.773425   3.2138 255 255 255
 3.26488 0.411041  3.98896 255 255 255
 3.73381 0.537189  4.27595 255 255 255
 3.53283 0.780705  3.76506 255 255 255
 3.46203 0.152998  4.51932 255 255 255
 2.62302 0.341852  3.35395 255 255 255
 3.18874 0.798379  3.41742 255 255 255
 2.63085 0.466525   3.3066 255 255 255
 2.99069 0.437097  3.57395 255 255 255
2.40469 0.26072 3.28154 255 255 255
 3.27547 0.387439  4.02477 255 255 255
 3.11027 0.109626  4.30199 255 255 255
   3.19077 -0.0084444    4.53025 255 255 255
3.32793  0.8158 3.52216 255 255 255
 2.86686 0.859638   3.0847 255 255 255
 2.88025 0.842075  3.08725 255 255 255
 3.36164 0.469899  4.00451 255 255 255
 2.95941 0.400948  3.68376 255 255 255
 3.10023 0.592797  3.55882 255 255 255
 2.52442 0.411968  3.25046 255 255 255
 2.47207 0.193001  3.53947 255 255 255
 3.04904 0.242059  4.01751 255 255 255
 3.10888 0.818479  3.31962 255 255 255
    3.19221 -0.00545976     4.51578 255 255 255
2.44372 0.21583 3.40343 255 255 255
 3.62253 0.551294  4.15193 255 255 255
 3.71729 0.536731  4.26214 255 255 255
 2.64003 0.338543  3.40161 255 255 255
  2.8424 0.709245  3.18976 255 255 255
 3.35809 0.634887  3.82156 255 255 255
 3.67864 0.670149  4.02708 255 255 255
 2.88491 0.557878  3.35238 255 255 255
 3.35841 0.201752  4.38235 255 255 255
  3.2838 0.572292  3.81101 255 255 255
 3.48681 0.838311  3.63491 255 255 255
 3.05517 0.437849  3.74111 255 255 255
 3.05538 0.439166  3.74182 255 255 255
 3.69963 0.828199  3.87539 255 255 255
  3.02124 0.0335478   4.34452 255 255 255
 2.57344 0.284893  3.40936 255 255 255
 2.87145 0.582485  3.35892 255 255 255
 3.49499 0.315586  4.33976 255 255 255
   3.638 0.572043  4.15031 255 255 255
 3.65074 0.475469   4.2715 255 255 255
2.69596 0.40016 3.36004 255 255 255
2.99911  0.2107 4.02257 255 255 255
 2.75162 0.329358  3.54483 255 255 255
 2.80235 0.417914  3.46286 255 255 255
 2.64639 0.202352  3.73389 255 255 255
 2.29465 0.288577  3.22774 255 255 255
 2.71939 0.230065  3.75114 255 255 255
 3.12632 0.554918  3.61265 255 255 255
  3.1282 0.644893  3.53266 255 255 255
    3.2337 0.00419594    4.54817 255 255 255
 3.41732 0.659482  3.85297 255 255 255
  2.9757 0.551726  3.47476 255 255 255
 2.42037 0.671652  2.96221 255 255 255
 3.25551 0.434107  3.90204 255 255 255
 3.13655 0.710679  3.44247 255 255 255
 3.12647 0.306957  4.01574 255 255 255
 2.88936 0.125351  4.03711 255 255 255
 3.13693 0.201028  4.15228 255 255 255
2.55198 0.69914 3.03685 255 255 255
 3.52639 0.205557   4.5079 255 255 255
 3.86601 0.776589  4.10833 255 255 255
 3.27884 0.210498    4.308 255 255 255
 3.21405 0.587153  3.68579 255 255 255
  3.11389 -0.046589   4.52184 255 255 255
   2.95582 -0.0604523    4.42017 255 255 255
 3.41416 0.478718  4.04261 255 255 255
    3.28 0.270205  4.19891 255 255 255
 3.28665 0.277067   4.2116 255 255 255
 2.35823 0.452279  3.09172 255 255 255
 3.19763 0.390222  3.90642 255 255 255
 3.07818 0.215044  4.11072 255 255 255
 3.59258 0.146258  4.62859 255 255 255
 2.26424 0.277587  3.05161 255 255 255
 2.38715 0.477803  3.08408 255 255 255
 2.66198 0.794744  3.00486 255 255 255
 3.09315 0.778011  3.34322 255 255 255
 3.08854 0.312651  3.84175 255 255 255
 3.38752 0.244555  4.34837 255 255 255
  3.23981 0.0496433   4.48677 255 255 255
 2.91675 0.784443  3.20175 255 255 255
 3.15059 0.206951  4.18745 255 255 255
 3.52814 0.484013  4.13962 255 255 255
 3.62956 0.217996   4.5537 255 255 255
 2.40574 0.400889  3.13602 255 255 255
  3.18401 0.0949655   4.37641 255 255 255
3.42223 0.22212 4.39832 255 255 255
 2.60871 0.610437  3.14644 255 255 255
 2.67728 0.361771  3.37608 255 255 255
  3.2288 0.776246  3.46732 255 255 255
 3.33454 0.797775  3.55537 255 255 255
 3.07484 0.234525   4.0435 255 255 255
 2.88609 0.557728  3.36382 255 255 255
 2.89554 0.159937  3.98332 255 255 255
 3.12422 0.226244  4.14166 255 255 255
 2.78779 0.391809  3.51867 255 255 255
 2.82621 0.749533  3.16791 255 255 255
 3.08672 0.698556  3.40101 255 255 255
 2.45974 0.338182   3.2603 255 255 255
 3.46319 0.343151  4.26956 255 255 255
 2.72579 0.923842  2.94117 255 255 255
 3.47814 0.243119  4.41347 255 255 255
 3.62513 0.534596  4.16187 255 255 255
 2.94167 0.157388  4.03732 255 255 255
  3.1439 0.628403  3.56385 255 255 255
 3.49095 0.164075  4.53059 255 255 255
  3.6152 0.273873  4.48599 255 255 255
  3.19798 0.0304607   4.48079 255 255 255
2.46582 0.24883 3.35481 255 255 255
 2.40078 0.216207  3.34286 255 255 255
 2.66154 0.343999  3.42057 255 255 255
 2.55084 0.185341  3.57673 255 255 255
 3.15584 0.246481  4.13942 255 255 255
 2.43636 0.430317  3.12927 255 255 255
 2.98879 0.670356  3.37172 255 255 255
  2.78499 -0.114135   4.36359 255 255 255
 3.61895 0.344247  4.40272 255 255 255
 3.10682 0.260058  4.03888 255 255 255
3.39923   0.825 3.59029 255 255 255
 2.75247 0.374078  3.48828 255 255 255
 2.63853 0.574526  3.15459 255 255 255
  2.60909 0.0163603   3.93326 255 255 255
    2.57943 -0.00861099     3.94975 255 255 255
 2.33812 0.462937  3.07321 255 255 255
 3.07477 0.253716  4.02356 255 255 255
3.07391  0.1247 4.25376 255 255 255
2.58003 0.16309 3.65484 255 255 255
 2.92248 0.241572  3.83341 255 255 255
 2.77152 0.507215  3.39473 255 255 255
 2.89826 0.531732  3.38248 255 255 255
 2.63272 0.582443  3.14436 255 255 255
 2.55356 0.475078  3.18395 255 255 255
 3.32074 0.046536  4.54926 255 255 255
 2.77582 0.386385  3.51918 255 255 255
 3.23823 0.216897  4.26356 255 255 255
  2.98437 0.0720061   4.25316 255 255 255
 3.06332 0.635398  3.47803 255 255 255
   2.719 0.297012  3.57147 255 255 255
 3.26931 0.417082  3.97258 255 255 255
 2.65788 0.743633  3.05046 255 255 255
 2.80618 0.503668  3.42555 255 255 255
2.66528 0.68031 3.11606 255 255 255
 2.75054 0.719373  3.12228 255 255 255
 3.46002 0.107766  4.57284 255 255 255
 3.45033 0.528975  3.95129 255 255 255
  2.75372 0.0644068   4.02486 255 255 255
 3.52296 0.489207  4.11929 255 255 255
 2.96946 0.402875  3.63671 255 255 255
 3.16192 0.689858  3.50294 255 255 255
 3.67844 0.564269  4.18856 255 255 255
 3.26848 0.646859   3.6854 255 255 255
   2.66597 -0.0596179    4.15265 255 255 255
2.52691 0.25972  3.4062 255 255 255
 2.39912 0.465717  3.09218 255 255 255
 2.64495 0.478171  3.28913 255 255 255
 3.22546 0.567616  3.75168 255 255 255
  2.71435 -0.085188   4.25773 255 255 255
3.01425 0.40733 3.76679 255 255 255
 3.65371 0.288608  4.49946 255 255 255
 3.41073 0.807912  3.60723 255 255 255
  3.22203 0.0491966    4.4702 255 255 255
 2.46723 0.213434  3.44066 255 255 255
 3.30103 0.277756  4.21971 255 255 255
 3.24005 0.555121  3.79966 255 255 255
 2.47454 0.250962  3.38184 255 255 255
 3.82034 0.624469   4.2494 255 255 255
 2.50183 0.636008  2.96659 255 255 255
 2.87476 0.199029  3.83992 255 255 255
  2.4913 0.275593  3.31478 255 255 255
 2.66926 0.358545  3.36826 255 255 255
 2.83478 0.147373  3.93777 255 255 255
 2.82064 0.435184  3.46065 255 255 255
 3.18514 0.260939  4.14441 255 255 255
 2.95983 0.057133  4.23989 255 255 255
2.67194  0.3558 3.40277 255 255 255
 3.42189 0.647595  3.85643 255 255 255
 3.48653 0.512203  4.06987 255 255 255
 2.94281 0.246925  3.85112 255 255 255
 3.39753 0.651936  3.84789 255 255 255
 3.61187 0.223791  4.54516 255 255 255
3.03531 0.52542 3.55623 255 255 255
2.69335 0.59706 3.18125 255 255 255
 3.71183 0.209945  4.63321 255 255 255
 2.42133 0.150188  3.52995 255 255 255
 2.72074 0.972421   2.9166 255 255 255
 2.49385 0.102324   3.6916 255 255 255
  2.9769 0.410865  3.63194 255 255 255
 2.87769 0.684373  3.25758 255 255 255
 3.43103 0.549837  3.90835 255 255 255
 3.65113 0.494638   4.2416 255 255 255
 3.67389 0.492737  4.27025 255 255 255
  2.74075 0.0322834   4.04795 255 255 255
2.98185 0.15525 4.05815 255 255 255
 2.37354 0.212594  3.34391 255 255 255
3.02762 0.78676 3.27159 255 255 255
   3.375 0.137302  4.47953 255 255 255
 2.56857 0.446467  3.27551 255 255 255
 3.36951 0.251271  4.32674 255 255 255
 2.56483 0.254072  3.48834 255 255 255
 3.14613 0.196906  4.21171 255 255 255
 2.68472 0.354212  3.40722 255 255 255
 3.52374 0.351786  4.31224 255 255 255
 2.30489 0.237292  3.27345 255 255 255
3.48899 0.32256 4.33187 255 255 255
    2.8225 0.00212721    4.22788 255 255 255
2.47268 0.20067 3.43108 255 255 255
 3.11933 0.649085  3.51786 255 255 255
 3.44873 0.788815  3.69309 255 255 255
3.58938 0.38006 4.33719 255 255 255
 3.30818 0.203042   4.2938 255 255 255
 2.68913 0.328647  3.52443 255 255 255
 2.73873 0.843346  3.02992 255 255 255
  2.74758 0.0604211   4.02804 255 255 255
 3.26533 0.206929  4.30287 255 255 255
  3.3194 0.800845  3.53663 255 255 255
   2.94421 0.00916867    4.29439 255 255 255
2.44382 0.17153 3.53353 255 255 255
 2.99819 0.431012  3.61235 255 255 255
 2.99801 0.432618  3.61225 255 255 255
   3.068 0.163359  4.17858 255 255 255
 2.85794 0.110152  4.03923 255 255 255
 2.83754 0.303501  3.73599 255 255 255
 3.07728 0.561326  3.56033 255 255 255
 3.22114 0.629761  3.65225 255 255 255
 2.60847 0.172939  3.73418 255 255 255
 2.94292 0.523284  3.49484 255 255 255
   2.89071 -0.0429392    4.32864 255 255 255
   2.8507 0.0855136   4.05942 255 255 255
  2.47708 0.0934058   3.68368 255 255 255
 3.73811 0.707108  4.04615 255 255 255
 2.68411 0.727186  3.10813 255 255 255
 3.40754 0.424866  4.10777 255 255 255
 2.42065 0.449491  3.11964 255 255 255
  3.3659 0.168278  4.40206 255 255 255
  3.0756 0.355218  3.83238 255 255 255
 3.21129 0.130789  4.35093 255 255 255
 2.89548 0.421068  3.54239 255 255 255
  2.9805 0.788346  3.24294 255 255 255
2.38363 0.21478 3.31485 255 255 255
 2.86761 0.387116  3.55679 255 255 255
2.73877  0.3432 3.53277 255 255 255
 2.33181 0.483449    3.061 255 255 255
 2.54635 0.137384  3.68643 255 255 255
 3.45836 0.403848  4.19166 255 255 255
 2.99909 0.778661  3.25089 255 255 255
 2.9642 1.13153 2.94309 255 255 255
3.08013 0.69967 3.41055 255 255 255
 3.48743 0.211929   4.4632 255 255 255
 2.66041 0.357682  3.36152 255 255 255
 3.74031 0.655587  4.14245 255 255 255
  3.05876 -0.045589   4.48277 255 255 255
  3.5072 0.416515  4.22424 255 255 255
  2.5832 0.532493  3.15776 255 255 255
 2.42576 0.478905   3.0928 255 255 255
   3.171 0.273732  4.10256 255 255 255
     2.853 -0.0735396    4.35311 255 255 255
3.05932 0.29713 3.92985 255 255 255
   2.81632 0.00921561    4.19595 255 255 255
  2.86002 0.0499689   4.16804 255 255 255
2.65634 0.26586 3.55059 255 255 255
 3.43976 0.873702   3.5747 255 255 255
 3.18983 0.863606  3.33027 255 255 255
 2.87171 0.205862  3.82738 255 255 255
 2.91368 0.116409  4.07337 255 255 255
 3.14981 0.268467  4.08688 255 255 255
   3.0071 0.0661023   4.27509 255 255 255
 3.08648 0.469531  3.72659 255 255 255
 3.17631 0.647163  3.56629 255 255 255
 2.82705 0.184062  3.83022 255 255 255
2.75589 0.13261 3.83856 255 255 255
   3.00193 -0.0150749    4.38612 255 255 255
  2.7536 0.615948   3.1832 255 255 255
3.04876 0.71255 3.38419 255 255 255
 2.43027 0.177574  3.48244 255 255 255
 2.67002 0.397515  3.34254 255 255 255
 3.12138 0.284491  4.02896 255 255 255
 3.10554 0.155061  4.23723 255 255 255
 2.50924 0.137749  3.65533 255 255 255
 2.44231 0.635213  2.98466 255 255 255
2.98209 0.17031  4.0505 255 255 255
 2.64191 0.747091  3.05349 255 255 255
 2.54664 0.246065  3.51353 255 255 255
 3.19496 0.205255  4.23609 255 255 255
3.91358 0.65794 4.30983 255 255 255
  2.7682 0.785382  3.08583 255 255 255
 3.02697 0.242152  4.00724 255 255 255
 3.27269 0.439564  3.89972 255 255 255
 2.97861 0.179382  4.04034 255 255 255
  2.6783 0.745254  3.10285 255 255 255
2.51693 0.46915  3.1362 255 255 255
 2.47964 0.266739  3.32027 255 255 255
   2.74632 -0.0760134    4.27734 255 255 255
 3.40668 0.117454  4.50908 255 255 255
 2.62991 0.339515  3.35923 255 255 255
 3.33762 0.398511  4.06897 255 255 255
  2.89255 0.0643543   4.18205 255 255 255
 3.02719 0.405595  3.78552 255 255 255
 3.85792 0.591781  4.32184 255 255 255
 3.80577 0.234701  4.65215 255 255 255
 2.78665 0.400348  3.46498 255 255 255
3.49552 0.55368  4.0227 255 255 255
   3.2872 0.0949579   4.45375 255 255 255
   2.74445 -0.0482706     4.2358 255 255 255
 3.11749 0.011826  4.44675 255 255 255
 3.00546 0.601722  3.48268 255 255 255
   3.606 0.549951  4.13699 255 255 255
 2.51919 0.173172  3.58196 255 255 255
 2.61163 0.304012  3.45288 255 255 255
 3.60287 0.768749   3.8935 255 255 255
2.53143 0.24025 3.45615 255 255 255
 3.05743 0.179929  4.14643 255 255 255
 2.91628 0.413364  3.55164 255 255 255
 2.93343 0.521428  3.49561 255 255 255
 2.63989 0.726589   3.1026 255 255 255
 3.44613 0.687957  3.85034 255 255 255
3.62141  0.6185 4.05742 255 255 255
 2.58917 0.557753  3.12933 255 255 255
 2.58906 0.168673  3.65532 255 255 255
 2.45487 0.180659  3.53079 255 255 255
  3.2048 0.589137  3.69466 255 255 255
 3.52153 0.854458  3.67347 255 255 255
  3.31832 0.0724422   4.51313 255 255 255
 3.07748 0.582243  3.54466 255 255 255
   2.9977 0.0678006    4.2731 255 255 255
 2.42485 0.232692  3.34134 255 255 255
  2.57283 0.0202261   3.89553 255 255 255
 3.36968 0.702207  3.70325 255 255 255
 3.19279 0.660391  3.57153 255 255 255
 3.40875 0.711513  3.72963 255 255 255
 3.24211 0.599226  3.70135 255 255 255
  3.8586 0.733311   4.1729 255 255 255
 3.72836 0.640122  4.14706 255 255 255
 2.79034 0.107005  3.96401 255 255 255
 2.47163 0.194916  3.50781 255 255 255
   3.0846 0.0451002    4.3726 255 255 255
 3.01166 0.223255  4.01875 255 255 255
 3.12318 0.752861  3.40268 255 255 255
 2.86417 0.440405  3.51989 255 255 255
  2.79482 0.0547676   4.06907 255 255 255
 2.28636 0.268299  3.24077 255 255 255
 3.06299 0.174317  4.16051 255 255 255
 3.24141 0.252811  4.19513 255 255 255
 3.43624 0.873921  3.55303 255 255 255
 3.58767 0.643184   3.9603 255 255 255
 3.57216 0.778656  3.80468 255 255 255
 3.06318 0.227029  4.04403 255 255 255
 3.22736 0.173265  4.31656 255 255 255
 2.99624 0.415924  3.69967 255 255 255
 3.05251 0.153783  4.18299 255 255 255
 2.79058 0.418992  3.47141 255 255 255
  2.66384 0.0397033   3.95299 255 255 255
   2.87681 -0.0404205    4.31989 255 255 255
 3.06586 0.482969  3.63314 255 255 255
 2.75535 0.379461  3.46078 255 255 255
 3.00254 0.739364   3.2992 255 255 255
 2.41728 0.216263  3.34911 255 255 255
 3.20671 0.713322  3.52381 255 255 255
 3.49914 0.849949  3.63169 255 255 255
 3.35169 0.264507  4.28744 255 255 255
2.44654 0.44793 3.11931 255 255 255
 2.72065 0.355004  3.49988 255 255 255
 3.34356 0.779755  3.58213 255 255 255
  3.3387 0.620371  3.80068 255 255 255
  2.5435 0.153564  3.64972 255 255 255
 2.36429 0.288986  3.25531 255 255 255
  2.3268 0.476257  3.06192 255 255 255
 2.80579 0.347074  3.55376 255 255 255
 2.43283 0.520109  3.05556 255 255 255
 3.28394 0.616326  3.72722 255 255 255
  3.5767 0.788951  3.79548 255 255 255
  3.6135 0.632704  4.04006 255 255 255
 2.77761 0.141157   3.8383 255 255 255
 3.12131 0.534987  3.68026 255 255 255
 2.72454 0.288464  3.56886 255 255 255
 3.18461 0.562295  3.70633 255 255 255
 3.01094 0.745894  3.31081 255 255 255
 2.64996 0.214262  3.64837 255 255 255
 3.82906 0.750475  4.12622 255 255 255
 3.09382 0.486663  3.70694 255 255 255
 3.01745 0.124487  4.20267 255 255 255
 2.80665 0.279902  3.75678 255 255 255
 2.72141 0.369355  3.45066 255 255 255
 3.48791 0.573945  3.95034 255 255 255
 3.14952 0.317198  4.01919 255 255 255
 3.40352 0.660419  3.83462 255 255 255
 3.45293 0.869319  3.59338 255 255 255
3.79185 0.54478 4.30696 255 255 255
 2.60083 0.334716  3.32901 255 255 255
   2.302 0.537279   2.9977 255 255 255
  2.5876 0.158572  3.73847 255 255 255
  2.72865 0.0429681   4.03369 255 255 255
 3.04265 0.234783  4.02872 255 255 255
 3.66587 0.195239   4.6168 255 255 255
 3.37489 0.201614  4.39263 255 255 255
  2.91113 0.0646655    4.1889 255 255 255
 2.96127 0.375199  3.74227 255 255 255
 2.47313 0.105682  3.66763 255 255 255
 2.62623 0.285009  3.54041 255 255 255
   3.02656 -0.0181203     4.4157 255 255 255
 2.86384 0.797482  3.09765 255 255 255
 2.88088 0.154968   3.9744 255 255 255
3.28071 0.64986 3.68773 255 255 255
 2.43532 0.123793  3.59426 255 255 255
 2.40566 0.164908  3.48703 255 255 255
    2.9219 -0.0457459    4.36685 255 255 255
 3.56852 0.617063  3.96782 255 255 255
  2.77116 -0.135521   4.38163 255 255 255
  2.52563 0.0226584   3.80424 255 255 255
  2.72778 0.0469575   4.02515 255 255 255
 3.35207 0.715896  3.66767 255 255 255
 2.73649 0.675269  3.15165 255 255 255
 2.63913 0.342339  3.35637 255 255 255
 2.48233 0.134517  3.62034 255 255 255
 3.54463 0.733517  3.89096 255 255 255
 3.07174 0.197972  4.12859 255 255 255
 2.84644 0.154091  3.94315 255 255 255
 3.62879 0.261729  4.51337 255 255 255
 3.10681 0.182195   4.1884 255 255 255
    2.69634 -0.00507182     4.06356 255 255 255
  3.3784 0.234974  4.35385 255 255 255
 3.47899 0.449419  4.14832 255 255 255
 2.96626 0.172315  4.03355 255 255 255
  2.68853 0.0388499   3.98013 255 255 255
    2.97624 -0.00601602     4.34128 255 255 255
 3.01854 0.423267  3.71051 255 255 255
  2.94615 0.0627919   4.22576 255 255 255
 2.89428 0.103838  4.08772 255 255 255
  2.76005 0.0749886   4.02697 255 255 255
 2.98098 0.114927  4.17777 255 255 255
3.50594 0.27729 4.39663 255 255 255
 3.36182 0.824989  3.53435 255 255 255
  3.11313 0.0631203   4.36863 255 255 255
3.61477 0.17835 4.60759 255 255 255
 2.70109 0.369091  3.42266 255 255 255
  2.82962 0.0753858   4.05736 255 255 255
   2.82117 -0.0068661    4.22842 255 255 255
 2.57486 0.174264  3.64638 255 255 255
 2.61705 0.294974  3.45604 255 255 255
 3.61868 0.494841  4.20993 255 255 255
 3.24028 0.319516  4.10423 255 255 255
 2.64815 0.201802  3.71746 255 255 255
3.71131 0.16724 4.69066 255 255 255
 2.45621 0.114198  3.65191 255 255 255
 3.15482 0.115043  4.33024 255 255 255
 2.64359 0.268222  3.54589 255 255 255
 3.31263 0.756313  3.57914 255 255 255
 2.62748 0.329265  3.40327 255 255 255
 3.92889 0.751229  4.23393 255 255 255
  2.4061 0.435135  3.11442 255 255 255
 2.75447 0.381683  3.45392 255 255 255
 2.87562 0.209924  3.81932 255 255 255
 3.02688 0.603552  3.49604 255 255 255
 3.45724 0.567479  3.91591 255 255 255
 3.56892 0.333777  4.34736 255 255 255
3.32196 0.44178 3.98637 255 255 255
 2.54691 0.270214  3.43529 255 255 255
  2.82004 0.0820296   4.04336 255 255 255
 2.46913 0.131161  3.61367 255 255 255
 2.85599 0.443786  3.50582 255 255 255
 2.68649 0.370213  3.39555 255 255 255
  2.85812 0.0527019   4.15575 255 255 255
   3.13859 -0.0239265    4.51651 255 255 255
 2.80389 0.413877  3.44851 255 255 255
 3.33566 0.641986  3.73179 255 255 255
  2.9748 0.193583  4.02291 255 255 255
 2.60477 0.618249   3.1219 255 255 255
2.80725 0.46561 3.43626 255 255 255
 2.48411 0.384178  3.24327 255 255 255
 2.46133 0.107351  3.66488 255 255 255
 3.52037 0.109201  4.62916 255 255 255
 3.11074 0.238806  4.09107 255 255 255
    2.7289 -0.0451096    4.20759 255 255 255
 2.93226 0.162082   4.0281 255 255 255
 2.59407 0.236348  3.55299 255 255 255
 2.78372 0.490613  3.40475 255 255 255
 3.27125 0.295344  4.16709 255 255 255
    3.67 0.691421  3.98526 255 255 255
2.41108 0.15587 3.51227 255 255 255
 2.62185 0.454016  3.30538 255 255 255
 2.59866 0.277832  3.52199 255 255 255
 3.22158 0.810602  3.42804 255 255 255
  2.7496 0.957044  2.92913 255 255 255
 2.87515 0.854806  3.08543 255 255 255
 2.80264 0.416961  3.47445 255 255 255
  2.79411 -0.101699   4.35076 255 255 255
 3.24224 0.581667   3.7446 255 255 255
 2.63655 0.349138  3.35451 255 255 255
 2.91392 0.374691  3.60271 255 255 255
 3.12745 0.661503  3.49877 255 255 255
3.71455 0.57196 4.21646 255 255 255
2.82424 0.13063 3.96548 255 255 255
 3.46091 0.856657  3.60591 255 255 255
  2.7078 0.346298  3.50094 255 255 255
 2.45611 0.402077  3.20249 255 255 255
  2.7639 0.464261  3.41329 255 255 255
 2.79902 0.310349  3.60946 255 255 255
 3.46844 0.256953  4.39411 255 255 255
 3.48099 0.727867  3.79498 255 255 255
 2.75519 0.376537  3.50178 255 255 255
 3.10776 0.457376  3.79628 255 255 255
  2.75446 0.0895814   3.95894 255 255 255
 3.25955 0.426781  3.96241 255 255 255
 3.67553 0.181797  4.63496 255 255 255
  3.1193 0.823021  3.31794 255 255 255
 3.44154 0.513789  4.02133 255 255 255
 2.62262 0.614679  3.14438 255 255 255
 2.95705 0.242921  3.87939 255 255 255
    2.68 0.602716  3.17393 255 255 255
   2.7276 0.0144341   4.06662 255 255 255
 2.72533 0.654102  3.15627 255 255 255
 2.79023 0.709369   3.1757 255 255 255
 2.75635 0.275775   3.6843 255 255 255
  3.5648 0.160055  4.58863 255 255 255
 2.52169 0.149146  3.64577 255 255 255
 2.37358 0.193942  3.35595 255 255 255
 3.26826 0.382341  4.02732 255 255 255
 3.56054 0.557927  4.08249 255 255 255
 3.26791 0.773598  3.51165 255 255 255
   3.547 0.194911  4.53471 255 255 255
 3.09432 0.831896  3.28842 255 255 255
3.56647 0.54817  4.1094 255 255 255
   2.6744 0.0774057   3.88847 255 255 255
 3.07505 0.307627  3.83907 255 255 255
 3.03383 0.549815  3.54128 255 255 255
 3.40982 0.231235  4.38711 255 255 255
2.82596 0.67353  3.2499 255 255 255
   2.946 0.140229  4.06075 255 255 255
 3.75183 0.300123   4.5542 255 255 255
 2.98832 0.643718   3.3968 255 255 255
 2.41657 0.492327  3.08332 255 255 255
 3.20578 0.768429  3.45323 255 255 255
 3.15961 0.637912  3.56869 255 255 255
 3.23385 0.347731  4.03454 255 255 255
 2.49558 0.655692  2.97894 255 255 255
 3.03196 0.223892  4.02865 255 255 255
 3.62922 0.147257   4.6446 255 255 255
 2.43848 0.128639  3.58023 255 255 255
  3.06385 0.0466349     4.349 255 255 255
 2.92198 0.933869  3.04038 255 255 255
 3.78353 0.727715  4.10617 255 255 255
 2.92281 0.376338  3.61016 255 255 255
 2.45098 0.381487  3.21823 255 255 255
 2.87025 0.450314  3.50211 255 255 255
 2.97458 0.809004  3.21083 255 255 255
 3.09037 0.494773  3.68367 255 255 255
 3.06494 0.145378  4.20671 255 255 255
     2.7894 -0.00426047     4.17594 255 255 255
  2.80679 0.0939203   4.02577 255 255 255
   2.77516 -0.0668348    4.28913 255 255 255
 2.61152 0.627528  3.13778 255 255 255
   2.56297 0.00352954    3.90462 255 255 255
  2.88465 0.0769612   4.13542 255 255 255
2.57741 0.15095 3.73859 255 255 255
 2.61462 0.164854  3.74638 255 255 255
3.15665 0.11271 4.34333 255 255 255
    2.97004 -0.00664876     4.34644 255 255 255
 3.61217 0.775226  3.91371 255 255 255
 3.67706 0.341872  4.45524 255 255 255
  2.8112 0.911004  2.98229 255 255 255
 2.46261 0.376882  3.23678 255 255 255
 3.68991 0.576685  4.17957 255 255 255
 3.27241 0.440828  3.96728 255 255 255
 2.43321 0.190852  3.46289 255 255 255
2.67455 0.59078 3.16016 255 255 255
  2.8079 0.770055  3.14168 255 255 255
3.55063  0.1575 4.57929 255 255 255
 3.40775 0.176258  4.44695 255 255 255
 2.41418 0.404353  3.13533 255 255 255
 3.47599 0.509181  4.07035 255 255 255
  2.9068 0.524635  3.42603 255 255 255
 2.80934 0.775947  3.12273 255 255 255
 3.20098 0.165894  4.30416 255 255 255
 3.90298 0.720305  4.23743 255 255 255
 2.36309 0.207991  3.33633 255 255 255
 2.46687 0.109565  3.66251 255 255 255
 2.96003 0.382007  3.77447 255 255 255
 3.65407 0.273175  4.51646 255 255 255
 3.29056 0.413264  4.02047 255 255 255
  2.7737 0.377832  3.52206 255 255 255
 2.67344 0.272252  3.55092 255 255 255
  2.69177 0.0193768   4.03532 255 255 255
 2.90743 0.195606  3.94778 255 255 255
 2.77443 0.464313  3.42255 255 255 255
  2.8176 0.817733  3.08762 255 255 255
 3.29329 0.109206  4.44228 255 255 255
 2.82091 0.296088  3.72245 255 255 255
 3.12418 0.530622  3.68872 255 255 255
  2.8203 0.422487   3.4955 255 255 255
 2.80485 0.782863   3.1233 255 255 255
 2.57613 0.546776  3.13408 255 255 255
 3.66635 0.496062  4.25944 255 255 255
 2.50437 0.272215   3.3581 255 255 255
 2.50017 0.256303   3.3966 255 255 255
 3.23741 0.842098  3.40808 255 255 255
 2.80077 0.146428  3.86224 255 255 255
 2.67409 0.374148  3.35911 255 255 255
2.49687 0.16641 3.59122 255 255 255
 3.22205 0.184372  4.28553 255 255 255
2.95814  0.2436 3.92344 255 255 255
  3.1153 0.496887  3.70278 255 255 255
 3.10715 0.164033  4.21898 255 255 255
 2.38049 0.184675  3.40014 255 255 255
 2.67291 0.653511  3.13504 255 255 255
3.39193 0.23758 4.36625 255 255 255
 3.47129 0.317983  4.32161 255 255 255
2.77199 0.33214 3.55539 255 255 255
 3.01554 0.230146  4.01385 255 255 255
  2.70152 0.0492846   3.99043 255 255 255
3.13171 0.77409 3.39423 255 255 255
3.13941 0.75326  3.4138 255 255 255
 3.45826 0.552976  3.93741 255 255 255
 3.20257 0.570227  3.71193 255 255 255
  2.66645 0.0708754   3.89562 255 255 255
 2.75721 0.278762  3.65979 255 255 255
 2.95037 0.477359  3.53391 255 255 255
  2.75997 0.0242478   4.08682 255 255 255
 2.41817 0.355067  3.22578 255 255 255
 3.3264 0.30395 4.21413 255 255 255
 2.75979 0.260933  3.71414 255 255 255
 2.38152 0.181558  3.44475 255 255 255
 3.55455 0.395086  4.28355 255 255 255
 3.41982 0.287226  4.32463 255 255 255
 3.16804 0.579448  3.66692 255 255 255
 3.09838 0.110719  4.28804 255 255 255
3.51095 0.81534  3.6815 255 255 255
 2.35611 0.511772   3.0504 255 255 255
 3.13947 0.620441  3.56775 255 255 255
  2.77753 0.0559543   4.04392 255 255 255
 3.88016 0.631046   4.3033 255 255 255
   2.91048 -0.0927575    4.41953 255 255 255
 2.67496 0.590235  3.16919 255 255 255
 2.33988 0.309209  3.22994 255 255 255
  2.71984 0.0465535   4.02777 255 255 255
  2.5894 0.297299  3.40758 255 255 255
 2.83082 0.149249  3.92561 255 255 255
 2.71689 0.296454  3.55608 255 255 255
3.18342 0.11859 4.35291 255 255 255
 2.51834 0.275803  3.35645 255 255 255
2.62313 0.54725   3.168 255 255 255
 2.44019 0.634302   2.9897 255 255 255
 3.80913 0.626928  4.24892 255 255 255
 2.64773 0.234359  3.58234 255 255 255
   2.79963 -0.0185918    4.22867 255 255 255
  2.9827 0.725387  3.29597 255 255 255
2.66133 0.36332  3.3577 255 255 255
 3.37503 0.417874  4.09359 255 255 255
 2.44659 0.234946  3.35004 255 255 255
 3.78326 0.741437  4.04809 255 255 255
3.57757 0.49862 4.18629 255 255 255
 2.70398 0.469626  3.34251 255 255 255
  2.5391 0.273577  3.40112 255 255 255
 2.68506 0.272085  3.56031 255 255 255
    2.95732 -0.00199923     4.32833 255 255 255
  3.21894 0.0934771   4.40988 255 255 255
 2.43907 0.301738  3.27347 255 255 255
 3.42055 0.526067  3.93912 255 255 255
 3.04385 0.218244   4.0393 255 255 255
 3.28413 0.754288  3.55251 255 255 255
 3.43351 0.878246  3.56165 255 255 255
  3.11306 0.0571532   4.37372 255 255 255
 3.26632 0.132223   4.3954 255 255 255
 2.99898 0.395604  3.74901 255 255 255
 3.18614 0.324931  4.01864 255 255 255
 3.2904 0.40363 4.00374 255 255 255
 2.42651 0.625438  2.99243 255 255 255
 2.93758 0.148566  4.04026 255 255 255
  2.73826 0.0974612   3.91442 255 255 255
 2.54384 0.169006  3.64517 255 255 255
 2.47936 0.579276  3.03222 255 255 255
 2.62499 0.351425  3.33127 255 255 255
  2.76831 0.0264015   4.09665 255 255 255
 3.69753 0.552936  4.22428 255 255 255
  2.97858 -0.073269   4.45009 255 255 255
 2.58065 0.266234  3.51569 255 255 255
    3.14397 -0.00788525     4.49282 255 255 255
 2.70956 0.258861  3.63815 255 255 255
 2.35546 0.427576  3.10155 255 255 255
 2.32057 0.227113  3.28193 255 255 255
 2.54025 0.184075  3.61983 255 255 255
 2.69288 0.275173   3.5572 255 255 255
2.69784 0.68174 3.13275 255 255 255
 2.28359 0.268801  3.23478 255 255 255
 2.92323 0.160365  4.02631 255 255 255
 3.22233 0.543652  3.79378 255 255 255
  2.7817 0.392196  3.48758 255 255 255
 2.57406 0.437938  3.28378 255 255 255
 2.84462 0.171025  3.86846 255 255 255
 2.83481 0.500011  3.43368 255 255 255
 2.85106 0.520439  3.40027 255 255 255
 2.90597 0.452888  3.53031 255 255 255
 2.48769 0.105709  3.67229 255 255 255
 2.85698 0.193894  3.84789 255 255 255
 2.77402 0.279902  3.69867 255 255 255
 3.30751 0.793133  3.53493 255 255 255
 3.23192 0.558918  3.77125 255 255 255
 2.65873 0.241972  3.56227 255 255 255
 2.98511 0.204367  4.02624 255 255 255
 2.58762 0.214029  3.56341 255 255 255
 3.35103 0.820661  3.53644 255 255 255
 2.73267 0.400034  3.40539 255 255 255
  2.95994 0.0789843   4.20418 255 255 255
  3.3014 0.806338  3.50268 255 255 255
 3.22316 0.266319   4.1739 255 255 255
 2.61128 0.262262  3.53918 255 255 255
 2.81017 0.805445  3.09212 255 255 255
 3.51507 0.313086  4.36608 255 255 255
2.47877  0.2421  3.3999 255 255 255
 3.41056 0.205421  4.40562 255 255 255
  2.73737 0.0684505   3.97229 255 255 255
 3.04151 0.517784  3.55915 255 255 255
  3.0419 0.518763  3.55974 255 255 255
 2.76396 0.724905   3.1265 255 255 255
 3.31177 0.134349   4.4299 255 255 255
 2.65827 0.230936  3.63146 255 255 255
 2.38285 0.371017  3.20786 255 255 255
 3.09054 0.444289  3.79054 255 255 255
 3.01061 0.718931  3.34042 255 255 255
  2.6457 0.466281  3.31879 255 255 255
 3.21521 0.551655  3.76629 255 255 255
 2.83853 0.155672  3.92346 255 255 255
 3.37171 0.806472  3.57045 255 255 255
 3.31733 0.637645  3.74711 255 255 255
 2.74292 0.241295  3.75389 255 255 255
 3.31249 0.778071  3.54844 255 255 255
 2.51707 0.459861  3.18167 255 255 255
 2.35586 0.200376  3.33699 255 255 255
 2.86017 0.598123  3.39118 255 255 255
 3.22321 0.579588  3.72259 255 255 255
  3.23193 0.0289514   4.50283 255 255 255
  2.69341 0.0258956   4.02964 255 255 255
   2.85989 0.00643139    4.24039 255 255 255
 3.28826 0.722823  3.57771 255 255 255
 2.97749 0.435587  3.57375 255 255 255
 3.77369 0.729112  4.04994 255 255 255
 2.44755 0.503079  3.07473 255 255 255
  2.71617 0.0584683   3.97383 255 255 255
 2.66216 0.618339  3.15359 255 255 255
 3.05525 0.766884  3.32286 255 255 255
2.59067 0.20091 3.58262 255 255 255
 2.63152 0.540481  3.16853 255 255 255
 2.53305 0.687968   3.0344 255 255 255
 2.90935 0.146089  4.03219 255 255 255
 2.57292 0.151158  3.67902 255 255 255
 3.43158 0.170783  4.42511 255 255 255
3.31125 0.47436 3.88418 255 255 255
3.24502 0.27324 4.18123 255 255 255
 2.77726 0.358729  3.53466 255 255 255
 3.11345 0.219202  4.14127 255 255 255
 2.36054 0.594384  2.98642 255 255 255
  3.2295 0.417029  3.88941 255 255 255
  3.11528 0.0728854   4.36296 255 255 255
 3.03203 0.435911  3.71738 255 255 255
  2.73713 0.0486984   4.03175 255 255 255
3.00791 0.23407 3.97898 255 255 255
 2.82658 0.383061  3.53903 255 255 255
 3.76972 0.738722  4.02973 255 255 255
 2.86172 0.695698  3.24614 255 255 255
 3.67031 0.273043  4.51825 255 255 255
3.20827 0.62532 3.64406 255 255 255
2.58252 0.27703 3.44711 255 255 255
 2.30134 0.265384  3.07223 255 255 255
 2.89945 0.619533  3.36004 255 255 255
 3.25493 0.318677  4.12091 255 255 255
 3.02346 0.475035  3.57756 255 255 255
 2.92215 0.427251  3.55188 255 255 255
 3.73901 0.256048  4.59343 255 255 255
3.63512 0.48207 4.24711 255 255 255
 2.68468 0.355342  3.41678 255 255 255
    2.8108 -0.0983006    4.36394 255 255 255
 3.07904 0.156314  4.19993 255 255 255
2.79892 0.79866  3.0924 255 255 255
 3.90603 0.631479  4.33283 255 255 255
 2.63347 0.295963  3.52594 255 255 255
 2.54972 0.133202  3.73851 255 255 255
 2.46719 0.182489   3.4537 255 255 255
 3.13184 0.660131  3.50882 255 255 255
 2.63278 0.630551  3.14588 255 255 255
  2.4859 0.509996  3.09282 255 255 255
 2.37041 0.417872  3.11237 255 255 255
 3.73213 0.849124  3.96244 255 255 255
 3.02452 0.113301   4.2067 255 255 255
3.04182 0.19392 4.10926 255 255 255
 3.22385 0.658901  3.59303 255 255 255
 3.03788 0.503505  3.56753 255 255 255
 2.78537 0.276723  3.75001 255 255 255
  2.61357 0.0270679   3.91037 255 255 255
 3.51337 0.862928  3.62468 255 255 255
     2.74 -0.102428   4.31637 255 255 255
  2.6263 0.244726  3.55543 255 255 255
 2.69573 0.335951  3.50909 255 255 255
  2.67837 0.0754322   3.89706 255 255 255
 2.56776 0.540415  3.13493 255 255 255
 2.76256 0.626041  3.21161 255 255 255
 2.56388 0.140778  3.73234 255 255 255
 3.21974 0.764941   3.4786 255 255 255
 2.51757 0.255562  3.40646 255 255 255
 2.63854 0.276452  3.54134 255 255 255
 2.63003 0.547382  3.18199 255 255 255
  3.5507 0.586177  4.03642 255 255 255
  2.91966 0.0239005   4.25791 255 255 255
 2.82494 0.528843  3.41276 255 255 255
 2.39884 0.440137  3.10898 255 255 255
 2.88981 0.404596  3.55093 255 255 255
 2.94405 0.481408  3.52225 255 255 255
 2.41793 0.309237  3.26067 255 255 255
 2.80039 0.428418  3.45544 255 255 255
 2.56008 0.474163  3.18822 255 255 255
 2.50733 0.129923  3.65597 255 255 255
 3.25864 0.561584   3.8002 255 255 255
 2.92279 0.988797  3.02587 255 255 255
 3.35845 0.063702  4.55691 255 255 255
 3.26833 0.781851  3.50747 255 255 255
 3.75121 0.715064  4.04474 255 255 255
3.63159 0.44657 4.28702 255 255 255
  3.1386 0.364375  3.87279 255 255 255
3.14341 0.37197 3.88227 255 255 255
 3.62437 0.776896  3.86743 255 255 255
    3.0647 -0.0128039    4.43595 255 255 255
 2.42812 0.225335  3.37078 255 255 255
 3.35407 0.326266  4.20342 255 255 255
 4.06238 0.674021  4.41856 255 255 255
 2.44941 0.495316  3.08611 255 255 255
 3.93617 0.701577  4.27576 255 255 255
 3.17179 0.632028  3.58191 255 255 255
 2.54036 0.577104   3.1009 255 255 255
 3.90013 0.697167   4.2514 255 255 255
  3.16744 0.0762171   4.38808 255 255 255
 3.16581 0.717772  3.46458 255 255 255
 3.12605 0.112223  4.31296 255 255 255
 2.56697 0.637993  3.05112 255 255 255
 3.20798 0.243285  4.19322 255 255 255
 2.80622 0.283825  3.71448 255 255 255
  3.1186 0.752079  3.38871 255 255 255
 2.89019 0.699346  3.25911 255 255 255
 3.02358 0.563554  3.52305 255 255 255
 3.57495 0.572264  4.05922 255 255 255
  2.721 0.92309  2.9455 255 255 255
 2.61941 0.213228    3.626 255 255 255
 3.71881 0.584399  4.19945 255 255 255
  2.58774 0.0359743   3.79788 255 255 255
 3.56492 0.876102  3.69895 255 255 255
 2.99749 0.397657  3.77491 255 255 255
3.45531 0.49848 4.02377 255 255 255
 3.42605 0.851187  3.58217 255 255 255
 2.73163 0.408806  3.40468 255 255 255
 2.80924 0.422354  3.46458 255 255 255
 3.55714 0.337534    4.356 255 255 255
     2.97574 -0.000357499      4.33613 255 255 255
    2.89792 -0.00460411     4.27604 255 255 255
  2.45583 0.0858744   3.68144 255 255 255
 3.59195 0.597221  4.05436 255 255 255
2.77631 0.42525 3.44895 255 255 255
   2.936 0.190816  3.97256 255 255 255
 3.64795 0.532068  4.19912 255 255 255
  3.10646 0.0442194   4.38014 255 255 255
 2.8046 0.12374 3.95067 255 255 255
 2.92623 0.377517  3.63038 255 255 255
 2.64589 0.196464  3.66769 255 255 255
 2.58721 0.199286  3.59574 255 255 255
 3.64569 0.359012  4.40593 255 255 255
   2.6652 0.0752513   3.89151 255 255 255
 3.08335 0.488146  3.68709 255 255 255
 2.65626 0.723029  3.09898 255 255 255
 2.76957 0.425251  3.44371 255 255 255
 3.64083 0.268472  4.51254 255 255 255
 2.83208 0.428462  3.49351 255 255 255
 3.30255 0.855589   3.4516 255 255 255
 3.88765 0.671818  4.27219 255 255 255
 3.66159 0.327541  4.46128 255 255 255
 3.07123 0.442547  3.76771 255 255 255
 2.94032 0.371075  3.72244 255 255 255
 2.49592 0.170072  3.56882 255 255 255
 3.44052 0.706657  3.77637 255 255 255
 2.74402 0.366638   3.4968 255 255 255
 2.81617 0.107762  4.02322 255 255 255
 2.69188 0.810841  3.01424 255 255 255
 2.99264 0.410027  3.70652 255 255 255
 3.50759 0.891737  3.61256 255 255 255
 3.10544 0.140842  4.25325 255 255 255
3.11611 0.71897 3.43942 255 255 255
 3.62149 0.446051  4.28597 255 255 255
 2.47944 0.412748  3.20556 255 255 255
3.10849 0.16957 4.21103 255 255 255
 3.76379 0.719186  4.05065 255 255 255
  2.8865 0.364815  3.60351 255 255 255
 2.77126 0.390805   3.4442 255 255 255
 3.61753 0.326269  4.41531 255 255 255
 2.97903 0.851821  3.16719 255 255 255
 2.58354 0.323174  3.32926 255 255 255
 3.34117 0.347264  4.18299 255 255 255
 3.32131 0.321066  4.14516 255 255 255
 2.79732 0.718859  3.17406 255 255 255
 2.46484 0.461895  3.12009 255 255 255
 3.35722 0.804528  3.54204 255 255 255
 3.05136 0.116014  4.23753 255 255 255
 3.77501 0.700234  4.12752 255 255 255
 2.68527 0.797452  3.02605 255 255 255
 3.19161 0.284397  4.09326 255 255 255
 3.23198 0.800097  3.43995 255 255 255
 2.73549 0.668806  3.15547 255 255 255
 3.39438 0.687129  3.75889 255 255 255
 2.80287 0.409668    3.494 255 255 255
 3.00788 0.860132  3.17773 255 255 255
  3.7115 0.544335  4.25589 255 255 255
 2.37025 0.193564  3.34971 255 255 255
   2.78073 -0.0395357    4.24548 255 255 255
 2.57582 0.450986  3.27069 255 255 255
  2.77207 0.0940091   3.97097 255 255 255
3.52503 0.27239 4.41271 255 255 255
 3.27266 0.726399  3.57589 255 255 255
 3.27511 0.274334  4.18859 255 255 255
 2.74465 0.670464  3.15888 255 255 255
 2.67578 0.011813  4.03569 255 255 255
 3.42606 0.172797  4.45771 255 255 255
 3.78736 0.243451  4.65686 255 255 255
  3.2487 0.557503  3.79556 255 255 255
 2.67817 0.301923  3.54034 255 255 255
2.90715 -0.1093 4.43657 255 255 255
 3.64359 0.498776  4.23262 255 255 255
 2.53865 0.442388  3.19823 255 255 255
 3.06319 0.689017  3.41729 255 255 255
 2.85702 0.811878  3.10541 255 255 255
 3.48088 0.745258  3.75983 255 255 255
2.90467 0.51706 3.47049 255 255 255
 3.42035 0.802343  3.60316 255 255 255
 3.17006 0.279182  4.06622 255 255 255
  3.2422 0.417325  3.96052 255 255 255
 2.41009 0.160523  3.49787 255 255 255
 3.62284 0.649818  3.98828 255 255 255
  2.9074 0.376936  3.59798 255 255 255
 2.98836 0.419674  3.61091 255 255 255
 2.79791 0.398719   3.5159 255 255 255
 3.39888 0.111755  4.53719 255 255 255
 3.04242 0.560636  3.54098 255 255 255
   2.72898 -0.0821105    4.27042 255 255 255
 2.68646 0.605217   3.1695 255 255 255
 2.63817 0.896349    2.933 255 255 255
 3.59748 0.637195   3.9811 255 255 255
 3.57604 0.148531  4.61334 255 255 255
  3.16573 0.0206809   4.46567 255 255 255
 3.32659 0.113883  4.45944 255 255 255
   2.84347 -0.0147932     4.2559 255 255 255
 2.97932 0.533463  3.50916 255 255 255
 3.21307 0.062259  4.44902 255 255 255
  3.17293 0.0537614   4.42675 255 255 255
 2.62461 0.310791   3.4431 255 255 255
 3.50826 0.354897  4.30203 255 255 255
 3.67507 0.336229  4.46151 255 255 255
 2.88981 0.391741   3.5568 255 255 255
 2.67884 0.640634  3.15721 255 255 255
2.73851 0.66601  3.1599 255 255 255
  2.6526 0.629357  3.15335 255 255 255
   2.91566 -0.0517989    4.37447 255 255 255
 2.78836 0.723804  3.16087 255 255 255
 3.10173 0.566679  3.57126 255 255 255
2.90841 0.17437 3.97916 255 255 255
   3.364 0.365816  4.16364 255 255 255
 2.44994 0.227754  3.40178 255 255 255
 2.90294 0.379193  3.57974 255 255 255
 3.31768 0.742275  3.59679 255 255 255
 2.71087 0.381662  3.46901 255 255 255
3.22953 0.65072 3.63244 255 255 255
 2.88221 0.392071  3.55114 255 255 255
 2.88333 0.393861  3.55368 255 255 255
 2.85389 0.390145  3.54937 255 255 255
 3.17498 0.564552  3.69718 255 255 255
 2.99195 0.572041  3.49744 255 255 255
 2.80081 0.464268  3.43951 255 255 255
   2.82294 -0.0672583    4.31398 255 255 255
  2.93121 0.0647288   4.20726 255 255 255
 2.89374 0.121392  4.04423 255 255 255
  3.1005 0.510637  3.67901 255 255 255
  3.12781 0.0549172   4.39109 255 255 255
 2.60992 0.281134  3.51027 255 255 255
 2.7473 0.39821 3.42239 255 255 255
2.74471 0.69904 3.13889 255 255 255
 2.63997 0.300375  3.50918 255 255 255
 3.72494 0.833704  3.91303 255 255 255
 2.99953 0.404385  3.72503 255 255 255
 3.01967 0.605719  3.48683 255 255 255
 2.93834 0.732224  3.24154 255 255 255
 2.84494 0.443587   3.4869 255 255 255
 2.65176 0.630403  3.15999 255 255 255
 2.74962 0.380731  3.44651 255 255 255
 3.06462 0.628836  3.49098 255 255 255
 2.79018 0.424643  3.45842 255 255 255
 3.51344 0.855537  3.65582 255 255 255
 3.11265 0.140007  4.25579 255 255 255
3.22905 0.79834 3.44744 255 255 255
 2.84845 0.679994  3.25532 255 255 255
 3.47303 0.785391  3.70788 255 255 255
 2.94042 0.251791  3.83265 255 255 255
 3.15368 0.627854  3.56993 255 255 255
 2.75413 0.935324  2.95066 255 255 255
  3.3407 0.327285  4.18444 255 255 255
 3.18557 0.304633  4.03712 255 255 255
2.69568 0.67052 3.13765 255 255 255
 3.43775 0.269547  4.35365 255 255 255
 2.85987 0.844635  3.08622 255 255 255
 2.87044 0.765043  3.18741 255 255 255
 3.12423 0.362723  3.85533 255 255 255
3.17312 0.16201 4.28315 255 255 255
 3.06506 0.768765  3.32054 255 255 255
 3.27698 0.345639  4.11587 255 255 255
 3.02482 0.233609  4.01697 255 255 255
 2.58085 0.320895  3.34452 255 255 255
 3.68093 0.310175  4.48537 255 255 255
 3.64677 0.619902   4.0815 255 255 255
2.85259 0.75691 3.18381 255 255 255
 3.51486 0.292922  4.38971 255 255 255
 3.00109 0.852832  3.17994 255 255 255
 3.42354 0.872548  3.55245 255 255 255
  3.14467 0.0120512   4.45558 255 255 255
 3.0975 0.54455  3.5914 255 255 255
 2.62456 0.829038  2.98521 255 255 255
 3.67286 0.596396  4.14921 255 255 255
