ply
format ascii 1.0
element vertex 1144
property float x
property float y
property float z
property uchar red
property uchar green
property uchar blue
end_header
-0.571974 -0.443042    2.3489 255 255 255
-0.461211  -0.60314   2.39477 255 255 255
 0.170501 -0.535396   2.10645 255 255 255
-0.494939 -0.251012   2.21005 255 255 255
 0.162949 -0.595392   2.17319 255 255 255
 -0.550189 -0.0903025    2.11051 255 255 255
-0.107618 -0.518159    2.2394 255 255 255
0.164661 -0.36851  1.89999 255 255 255
 0.213224 -0.484045   2.01087 255 255 255
-0.564717 -0.579914   2.37377 255 255 255
-0.299744 -0.217853   2.12625 255 255 255
 0.183069 -0.600347   2.17847 255 255 255
 0.277817 -0.508526   1.98871 255 255 255
-0.296124 -0.381354   2.22166 255 255 255
-0.617646 -0.430399    2.2444 255 255 255
 0.269987 -0.484649   1.96331 255 255 255
0.321239 -0.52524  1.96877 255 255 255
 0.250758 -0.511721   2.02008 255 255 255
-0.180074 -0.597855   2.31319 255 255 255
 0.304695 -0.554185   2.02872 255 255 255
 0.230966 -0.187648   1.54822 255 255 255
-0.430009 -0.368225   2.27487 255 255 255
-0.205696 -0.550159   2.29112 255 255 255
-0.196045 -0.578593   2.29924 255 255 255
-0.577204 -0.570867   2.36772 255 255 255
-0.122937 -0.581613   2.27457 255 255 255
-0.108575 -0.556097   2.27834 255 255 255
-0.0471709  -0.200372    1.80852 255 255 255
-0.525308 -0.278944    2.2237 255 255 255
-0.170074 -0.588723   2.32069 255 255 255
 -0.184811 -0.0959186    1.98813 255 255 255
 0.214273 -0.369711   1.84537 255 255 255
 0.243005 -0.199752   1.40159 255 255 255
-0.678764 -0.504229   2.34292 255 255 255
 0.101741 -0.448195     2.063 255 255 255
-0.499946  -0.19922   2.17872 255 255 255
-0.558074 -0.585853   2.37629 255 255 255
-0.316421  -0.59941   2.35071 255 255 255
-0.481025 -0.365602    2.2785 255 255 255
 0.250748 -0.382848   1.82525 255 255 255
0.159708 -0.56774  2.14116 255 255 255
 -0.239973 -0.0805908    2.01722 255 255 255
0.0483608 -0.536604   2.15985 255 255 255
-0.00103374   -0.485518     2.13362 255 255 255
 0.114609 -0.268642   1.74169 255 255 255
0.0750977 -0.354315   1.94502 255 255 255
 0.285498 -0.490586   1.94277 255 255 255
 0.120696 -0.391921   1.99356 255 255 255
 0.265159 -0.322336   1.68552 255 255 255
 0.191537 -0.170577   1.47313 255 255 255
 0.308955 -0.556305    2.0207 255 255 255
0.0996326 -0.451066   2.06689 255 255 255
-0.489308 -0.232014   2.20578 255 255 255
-0.503042 -0.608436   2.34332 255 255 255
-0.486084 -0.139537   2.14459 255 255 255
 0.034957 -0.583443   2.20228 255 255 255
 0.220468 -0.202323   1.51978 255 255 255
-0.555537  -0.21994   2.21092 255 255 255
0.0552326 -0.264373   1.80879 255 255 255
 0.191876 -0.339265    1.8228 255 255 255
-0.00092912   -0.521625     2.14093 255 255 255
0.0794444 -0.294122   1.80653 255 255 255
 0.177881 -0.192462   1.87487 255 255 255
 0.170827 -0.284738   1.91208 255 255 255
0.372654 0.442738  1.67064 255 255 255
0.0894125 0.0184624   1.86152 255 255 255
0.0156871  0.193203   1.84148 255 255 255
0.163045 0.181939  1.79377 255 255 255
0.218261 0.170784  1.77972 255 255 255
0.387378 0.259706  1.70844 255 255 255
0.422791 0.190023   1.6895 255 255 255
-0.0604319  0.0589387    1.90392 255 255 255
0.514913 0.162592  1.66059 255 255 255
0.199288 0.275855  1.75503 255 255 255
0.138342 0.225224  1.79355 255 255 255
0.133669 0.264926  1.78459 255 255 255
-0.0253643   0.363791    1.81066 255 255 255
0.14488 0.13549 1.81426 255 255 255
0.00283263   0.154971    1.85194 255 255 255
-0.197616 0.0375176   1.96263 255 255 255
0.096563 0.236834  1.80265 255 255 255
0.632456 0.115478  1.70881 255 255 255
 0.0455161 -0.0659825    1.89658 255 255 255
-0.0870613  0.0788801     1.9065 255 255 255
0.0714348  0.181377   1.82731 255 255 255
 0.417935 0.0382017   1.73204 255 255 255
 0.321024 -0.217694   1.83108 255 255 255
 0.390417 -0.201926   1.80744 255 255 255
  0.19217 0.0459476   1.82152 255 255 255
0.116797 0.531349  1.71179 255 255 255
0.0771449  0.113058   1.84061 255 255 255
0.288916 -0.21167  1.83905 255 255 255
0.0695923  0.253407   1.80951 255 255 255
 0.413751 0.0766583   1.72501 255 255 255
0.733911 0.469175  1.54467 255 255 255
 0.15959 0.282589  1.76953 255 255 255
0.688097 0.995073  1.34581 255 255 255
-0.141589 0.0364379   1.94155 255 255 255
0.560476 0.203004  1.63761 255 255 255
 0.0917613 -0.0555233    1.88085 255 255 255
  0.210909 -0.0143949    1.82041 255 255 255
 0.370763 0.0951864   1.74276 255 255 255
 0.368926 -0.277702   1.83415 255 255 255
0.339705 0.278357  1.70441 255 255 255
0.259514 0.554755   1.6611 255 255 255
-0.0592391   0.280385    1.84545 255 255 255
 0.268642 -0.336657   1.88481 255 255 255
 0.132783 0.0281768   1.84216 255 255 255
 0.338679 0.0792866   1.75822 255 255 255
0.708603 0.481331  1.56268 255 255 255
0.224161 0.139708    1.797 255 255 255
 0.21634 0.136488  1.78692 255 255 255
0.398545 0.366765  1.68531 255 255 255
 0.407316 -0.181767   1.79524 255 255 255
-0.163826 0.0672587    1.9358 255 255 255
0.0582132 0.0970392   1.85493 255 255 255
0.241509 0.153512  1.77205 255 255 255
  0.523146 -0.0707758     1.7133 255 255 255
0.479045 0.050242  1.70716 255 255 255
0.180837 0.179108  1.79058 255 255 255
 0.0482426 -0.0549383     1.8922 255 255 255
0.0275965  0.122599   1.85316 255 255 255
0.0310982   0.12414   1.85884 255 255 255
 0.473806 -0.190233   1.77665 255 255 255
 0.493483 -0.026513   1.71463 255 255 255
0.255495 0.422739  1.67994 255 255 255
 0.320268 -0.284536   1.85701 255 255 255
 0.18247 0.203654  1.78036 255 255 255
 0.340897 -0.244367    1.8383 255 255 255
0.0807223 -0.211652   1.92429 255 255 255
-0.0907513   0.128878    1.89767 255 255 255
0.268727 0.115849  1.77427 255 255 255
0.362708 0.120136   1.7356 255 255 255
0.541396 0.355498  1.64918 255 255 255
0.0651056 -0.256742   1.93737 255 255 255
-0.0295412   0.182529    1.86338 255 255 255
  0.289207 -0.0299648    1.79711 255 255 255
-0.211482 0.0629489    1.9536 255 255 255
0.0991443 -0.136321   1.89362 255 255 255
0.304444 0.570239  1.64261 255 255 255
-0.0678074   0.240685     1.8577 255 255 255
0.162129 0.307705  1.76226 255 255 255
 0.244468 0.0424117   1.79823 255 255 255
0.210953 0.530117  1.68408 255 255 255
 0.476066 0.0726737   1.70698 255 255 255
 0.158581 -0.168354   1.88279 255 255 255
0.608986 0.436686  1.59645 255 255 255
 0.447712 -0.166215   1.78424 255 255 255
-0.0316857   0.092796    1.88385 255 255 255
0.0578612  0.483193   1.74549 255 255 255
-0.215991  0.135121    1.9454 255 255 255
 0.422529 0.0223521   1.72855 255 255 255
  0.50382 -0.148524   1.74873 255 255 255
 0.388559 0.0807134   1.73512 255 255 255
0.223842 0.211221  1.76146 255 255 255
0.561147 0.381339  1.62938 255 255 255
0.0634181 0.0184927   1.87374 255 255 255
0.261338 0.194064  1.75559 255 255 255
0.176644 0.131018  1.80247 255 255 255
0.446564  0.23427  1.66999 255 255 255
 0.178028 -0.153231   1.87139 255 255 255
-0.0686978   0.181314    1.88258 255 255 255
   0.271731 -0.00286684      1.7951 255 255 255
 0.150539 -0.153497   1.88363 255 255 255
 0.295881 0.0373759   1.78252 255 255 255
 0.214437 -0.184363   1.86174 255 255 255
 0.390744 -0.124305   1.78506 255 255 255
  0.55045 0.0459782   1.68003 255 255 255
0.419141 0.337197  1.66084 255 255 255
  0.16143 -0.190333   1.88792 255 255 255
-0.023511 -0.020579   1.91313 255 255 255
0.413522 0.145921  1.70653 255 255 255
0.222508 0.346577  1.73338 255 255 255
  0.178989 -0.0922432    1.84862 255 255 255
0.0230633 -0.158586   1.91936 255 255 255
-0.140134 0.0148015    1.9437 255 255 255
0.099469 0.119744  1.83182 255 255 255
 0.132878 -0.106134   1.87861 255 255 255
  0.385997 -0.0180542    1.75184 255 255 255
0.0965462  0.411313   1.75956 255 255 255
0.0830329 -0.126502   1.89333 255 255 255
0.247047 0.176801  1.76417 255 255 255
 0.391702 0.0023194    1.7463 255 255 255
-0.0926399 -0.0855691    1.95399 255 255 255
0.389326  0.16826   1.7146 255 255 255
-0.00163214     0.30983     1.82084 255 255 255
-0.0309351   0.200361    1.84992 255 255 255
0.0158301 -0.112967   1.91058 255 255 255
-0.235999  0.123459   1.95527 255 255 255
0.0608911  0.502077   1.74349 255 255 255
  0.445925 -0.0301845     1.7342 255 255 255
 0.310223 -0.196335    1.8284 255 255 255
 0.275898 -0.121305   1.83073 255 255 255
-0.05246 0.225284  1.85796 255 255 255
0.173151 0.365532  1.74219 255 255 255
0.503724 0.133013  1.67608 255 255 255
-0.10364 0.139234  1.89948 255 255 255
 0.235784 -0.301437   1.89523 255 255 255
0.485775 0.177359  1.66803 255 255 255
 0.536601 0.0324011   1.68909 255 255 255
 0.459422 0.0127811   1.72049 255 255 255
0.458818 0.188021  1.67867 255 255 255
0.220162 0.247293  1.75697 255 255 255
0.291403 0.352075  1.70363 255 255 255
 0.187991 0.0130121   1.82685 255 255 255
 0.106942 -0.100067   1.88428 255 255 255
 0.10878 0.178378  1.81285 255 255 255
 0.354614 -0.227532   1.83021 255 255 255
  0.195463 -0.0955128    1.84634 255 255 255
 0.242064 -0.286726   1.88874 255 255 255
0.391235  0.23201   1.6924 255 255 255
0.0128195  0.176558   1.84324 255 255 255
0.0754417 -0.224353   1.93271 255 255 255
 0.0718736 0.00796757    1.86712 255 255 255
0.729922 0.835829  1.39447 255 255 255
0.288799 -0.30415  1.87598 255 255 255
 0.331366 -0.265118   1.84416 255 255 255
 0.263022 -0.125182   1.83771 255 255 255
0.576259 0.284958  1.61407 255 255 255
0.307999  0.23077  1.72799 255 255 255
0.643882  0.74878  1.45165 255 255 255
0.0125471 -0.232459   1.95486 255 255 255
0.0961405 -0.113575   1.89111 255 255 255
0.524209 0.228469  1.64318 255 255 255
0.215227 -0.29412  1.90116 255 255 255
0.673578 0.462098  1.57124 255 255 255
 0.398972 0.0475811    1.7374 255 255 255
0.0702623  0.357693   1.78241 255 255 255
0.369981 0.211624  1.70358 255 255 255
-0.0310053  -0.106079     1.9331 255 255 255
0.0454622 0.0593638   1.86152 255 255 255
 0.0357076 -0.0157309    1.90327 255 255 255
  0.347013 -0.0249771    1.77136 255 255 255
0.0919899 -0.101753   1.89236 255 255 255
0.375345 0.304794  1.68872 255 255 255
 0.483683 -0.171476   1.76505 255 255 255
   0.1834 -0.241805   1.88806 255 255 255
0.334205 0.207607  1.72123 255 255 255
0.345692 0.170305  1.73112 255 255 255
 0.538979 0.0565878    1.6853 255 255 255
 0.383079 0.0340672   1.74653 255 255 255
0.098059 0.324895  1.78349 255 255 255
 0.303397 -0.254553   1.85553 255 255 255
0.362336 0.193614  1.71657 255 255 255
0.636229 0.793972  1.45747 255 255 255
 0.120156 -0.132052   1.88733 255 255 255
-0.039887  0.160042     1.874 255 255 255
  0.471961 -0.0251972    1.72269 255 255 255
 0.359145 -0.140862   1.79597 255 255 255
0.172126 0.552748  1.68866 255 255 255
0.0349253  0.153935   1.83958 255 255 255
0.642218 0.728374  1.45902 255 255 255
-0.131533 0.0406262   1.93888 255 255 255
 0.0219451 -0.0298008    1.89661 255 255 255
0.364345 0.179583   1.7188 255 255 255
 -0.042398 -0.0381362    1.92384 255 255 255
 0.39963 0.313945  1.67671 255 255 255
0.0834957  0.282167   1.79688 255 255 255
0.0171587  0.295236   1.81922 255 255 255
  0.204839 -0.0885821    1.83771 255 255 255
0.0598561  0.319712   1.80086 255 255 255
 0.146163 -0.105432   1.87223 255 255 255
 0.549393 0.0247594   1.68431 255 255 255
0.101466 0.360448  1.76899 255 255 255
 0.228073 -0.144775   1.84735 255 255 255
 0.0160448 -0.0580721     1.9009 255 255 255
-0.160725  0.167766   1.91716 255 255 255
 0.12442 0.337083  1.76776 255 255 255
-0.028154   0.16661   1.86753 255 255 255
0.399664 0.153158  1.71204 255 255 255
0.0612046  0.288388   1.79872 255 255 255
   0.492472 -0.00162542     1.71875 255 255 255
-0.0515078  -0.154553    1.95194 255 255 255
-0.00844025    -0.13637     1.92464 255 255 255
0.197498  0.25507  1.76435 255 255 255
0.0610365 -0.227632   1.93554 255 255 255
-0.0120011 -0.0464781    1.91757 255 255 255
 0.448007 0.0791674     1.713 255 255 255
0.112726 0.279683  1.78477 255 255 255
-0.243085 0.0560988   1.96948 255 255 255
  0.471272 -0.0463837    1.72681 255 255 255
0.107878 0.212588  1.80628 255 255 255
0.157985 0.216277  1.78563 255 255 255
-0.247585  0.110343   1.96234 255 255 255
0.414646 0.292928  1.67354 255 255 255
0.0824313 0.0314608   1.85864 255 255 255
  0.319421 -0.0829476    1.80385 255 255 255
0.177748 0.225083  1.77549 255 255 255
 0.306638 -0.167679   1.82538 255 255 255
0.160307 0.144409  1.80586 255 255 255
 0.331542 -0.158597   1.81532 255 255 255
0.445021 0.138913  1.69647 255 255 255
0.0910285 0.0836561   1.84665 255 255 255
0.433149 0.291606  1.67191 255 255 255
-0.0740271 -0.0942704    1.94702 255 255 255
-0.253722  0.106053   1.96487 255 255 255
0.0360614 -0.254433   1.94713 255 255 255
0.0831549  0.093151   1.84849 255 255 255
 0.364054 -0.223226   1.82399 255 255 255
  0.445563 -0.0524333    1.73725 255 255 255
-0.114541  0.149181   1.90304 255 255 255
 0.114366 0.0673006   1.83969 255 255 255
0.510195    0.186  1.65474 255 255 255
 -0.130407 -0.0368707    1.95723 255 255 255
0.268222 0.257412  1.73942 255 255 255
 0.34591 0.125378  1.74525 255 255 255
 0.465076 -0.117429   1.75748 255 255 255
0.264812 0.049581  1.79059 255 255 255
-0.0662249 -0.0025174    1.92436 255 255 255
0.539206 0.349616  1.64973 255 255 255
  0.35023 -0.149356   1.80873 255 255 255
 0.430108 -0.130235   1.76744 255 255 255
0.125786 0.150824  1.81472 255 255 255
 0.491417 0.0800886   1.69698 255 255 255
 0.425484 -0.202278   1.79528 255 255 255
0.260518 0.410185  1.68541 255 255 255
-0.0555126   0.179476    1.87244 255 255 255
 0.276288 -0.103628   1.82285 255 255 255
 0.189938 -0.079952   1.84435 255 255 255
  0.187964 -0.0691684    1.84229 255 255 255
-0.0850918   0.293154    1.85073 255 255 255
0.00669809 -0.0104238    1.89664 255 255 255
 0.51976 0.081209  1.68016 255 255 255
  0.160412 -0.0738849    1.85392 255 255 255
  0.321928 -0.0264536    1.78523 255 255 255
-0.120358  0.197725    1.8919 255 255 255
0.248521 -0.30479  1.88813 255 255 255
 0.299482 -0.242379   1.85361 255 255 255
0.498499 0.267318  1.65221 255 255 255
  0.184015 -0.0564816    1.84247 255 255 255
0.423399 0.316222  1.66742 255 255 255
  0.31356 -0.341334   1.87271 255 255 255
0.136805 0.303764  1.77632 255 255 255
0.0864996 0.0466922   1.85706 255 255 255
 0.283751 -0.131698   1.82826 255 255 255
 0.176325 0.0672555   1.81896 255 255 255
0.293142 0.548565  1.65438 255 255 255
-0.156194 0.0933186    1.9263 255 255 255
  0.509346 -0.0790111    1.72341 255 255 255
 0.154158 -0.266821   1.91243 255 255 255
0.301545 0.314532  1.71167 255 255 255
   0.301395 -0.00369187     1.78583 255 255 255
0.471514 0.168007  1.67355 255 255 255
  0.307695 -0.0697925    1.80293 255 255 255
0.503773 0.174331  1.66495 255 255 255
0.467736 0.157489  1.68198 255 255 255
0.0748051  0.157658   1.82991 255 255 255
 0.348807 0.0607702   1.75722 255 255 255
 0.386806 -0.265789   1.82641 255 255 255
  0.280422 -0.0542714    1.80907 255 255 255
 0.357862 -0.290734   1.84304 255 255 255
 0.0928768 -0.0602985    1.87856 255 255 255
0.156124 0.519823    1.701 255 255 255
0.236221 0.347242  1.72532 255 255 255
  0.36253 0.0535173   1.75327 255 255 255
 0.38429 0.277452  1.68924 255 255 255
0.466591 0.444254  1.64609 255 255 255
-0.107346  0.204864   1.88573 255 255 255
 0.0483474 0.00740557    1.88107 255 255 255
-0.185274 0.0640424    1.9505 255 255 255
  0.194923 -0.0427602    1.83693 255 255 255
-0.0531442   0.310209    1.84128 255 255 255
0.605204 0.965169  1.37569 255 255 255
  0.130721 0.00302324    1.84217 255 255 255
0.0986224 -0.269072   1.92724 255 255 255
 0.0372382 -0.0123532    1.88703 255 255 255
0.104172 0.347842  1.77377 255 255 255
 0.424223 0.0446039     1.734 255 255 255
 0.299061 -0.150022   1.82663 255 255 255
 0.342389 0.0483181   1.75962 255 255 255
-0.0882805   0.216959    1.87463 255 255 255
0.0885742 -0.149785    1.9006 255 255 255
0.119099 0.428281  1.74896 255 255 255
 0.279603 -0.326437   1.88706 255 255 255
  0.38388 -0.275747   1.82594 255 255 255
  0.0150218 -0.00555181     1.89317 255 255 255
0.316185 0.322149  1.70338 255 255 255
-0.0699872   0.167334    1.87994 255 255 255
0.390673 0.334692  1.67657 255 255 255
0.449256 0.349759  1.64729 255 255 255
 0.222986 -0.358255   1.91418 255 255 255
0.133377 0.282859  1.77636 255 255 255
 0.126429 0.0198218   1.84144 255 255 255
   -0.17357 -0.00347341      1.9606 255 255 255
  0.324278 -0.0118138    1.78006 255 255 255
0.110367 0.200517    1.807 255 255 255
 0.308329 -0.356023   1.87936 255 255 255
 0.418576 -0.210112   1.80011 255 255 255
0.225026 0.262015  1.75469 255 255 255
-0.095897   0.11358   1.90164 255 255 255
  -0.264386 -0.00294105     1.99933 255 255 255
  0.37958 -0.133363   1.78914 255 255 255
 0.404551 -0.140131   1.78074 255 255 255
0.274788 0.235498  1.74423 255 255 255
-0.10822 0.299547  1.86127 255 255 255
 0.376832 -0.229186   1.81782 255 255 255
0.0977601  0.238664   1.79881 255 255 255
-0.105993 -0.158758    1.9764 255 255 255
-0.0723778   0.315712    1.84486 255 255 255
  0.258437 -0.0235867    1.81294 255 255 255
  0.179405 -0.0730132    1.84562 255 255 255
0.0126199   0.14033   1.85941 255 255 255
0.191166 0.125638  1.79885 255 255 255
-0.0836178  0.0104867    1.92714 255 255 255
0.552997 0.100043  1.67048 255 255 255
  0.460003 -0.0523937    1.73202 255 255 255
 0.0808542 -0.0599954    1.89044 255 255 255
 0.152453 -0.117483   1.87482 255 255 255
 0.508444 0.0598857   1.69491 255 255 255
  0.437276 -0.0112554    1.73524 255 255 255
 0.347015 -0.237723   1.83566 255 255 255
0.263228  0.13671  1.76807 255 255 255
0.533501 0.464798  1.61203 255 255 255
0.206742  0.23237  1.76344 255 255 255
  0.267094 -0.0260826    1.80652 255 255 255
 0.136936 -0.129792   1.88375 255 255 255
0.593235 0.124346  1.64692 255 255 255
0.521329 0.202701  1.65044 255 255 255
 0.427284 0.0817789   1.71877 255 255 255
-0.142271  0.272502   1.88213 255 255 255
0.170965 0.172149  1.79297 255 255 255
0.238484  0.20335  1.75418 255 255 255
0.0896219  0.170569   1.82087 255 255 255
0.548304 0.420684  1.62235 255 255 255
0.290293 -0.11059   1.8156 255 255 255
 0.340197 -0.253723   1.83918 255 255 255
  0.136427 -0.0730456     1.8592 255 255 255
0.327862 0.334539  1.69462 255 255 255
 0.204631 -0.288925   1.90403 255 255 255
 0.441435 -0.206481   1.79186 255 255 255
  0.2734 0.562397  1.65539 255 255 255
 0.0549685 -0.0394827    1.88675 255 255 255
0.100999 0.300712  1.78405 255 255 255
0.450841 0.293665  1.66061 255 255 255
 0.0228279 -0.0498818    1.89725 255 255 255
 0.0887062 -0.0808395    1.88431 255 255 255
 0.201227 -0.333691   1.91588 255 255 255
0.0708198  0.271784   1.80199 255 255 255
0.0766618  0.128411   1.83618 255 255 255
0.0109665  0.323962    1.8126 255 255 255
 0.234755 -0.277748   1.88967 255 255 255
  0.388741 -0.0855528    1.77601 255 255 255
 -0.208666 -0.0232595    1.98114 255 255 255
  0.422307 -0.0347695    1.74519 255 255 255
 0.460351 0.0450611   1.71773 255 255 255
  0.219725 -0.0945679    1.83388 255 255 255
0.449556 0.338775  1.65034 255 255 255
0.0153615  0.110392   1.86596 255 255 255
  0.564711 -0.0994293    1.71614 255 255 255
0.0747467 0.0378699   1.86007 255 255 255
0.371965 0.129234  1.72978 255 255 255
0.0962975 -0.239633   1.92259 255 255 255
0.591002 0.968976  1.38164 255 255 255
 0.254212 -0.277391    1.8792 255 255 255
 0.324493 0.0048859   1.77893 255 255 255
0.114745 0.448593  1.74414 255 255 255
 0.310838 -0.122224   1.80914 255 255 255
 0.269381 -0.169093   1.83711 255 255 255
0.252466  0.21538  1.75017 255 255 255
0.113196 0.187761  1.81279 255 255 255
 0.173498 -0.105398   1.85574 255 255 255
 -0.26134 0.0725311    1.9771 255 255 255
0.0450956  0.370476    1.7916 255 255 255
 0.321138 -0.125461   1.80911 255 255 255
 0.329898 -0.103187   1.80298 255 255 255
0.0267786 0.0993083   1.86502 255 255 255
0.0197193  0.343574   1.80921 255 255 255
0.262033 -0.10382  1.83241 255 255 255
 0.283976 0.0477327   1.78654 255 255 255
  0.116976 -0.0942513    1.88067 255 255 255
 0.363802 -0.153592   1.79588 255 255 255
-0.0511091   0.229981    1.85579 255 255 255
 0.0066335 -0.0827704    1.91605 255 255 255
0.565078 0.348892  1.60071 255 255 255
0.0806194   0.24421   1.80408 255 255 255
0.0515644  0.254398   1.81906 255 255 255
  0.381918 -0.0957448    1.77933 255 255 255
  0.322454 -0.0514367    1.78409 255 255 255
0.580918 0.171932  1.64036 255 255 255
 0.15237 0.297062  1.76979 255 255 255
-0.0385763   0.170684    1.86994 255 255 255
  -0.222287 -0.00281957     1.99083 255 255 255
0.0635208  0.150346   1.83712 255 255 255
 0.368564 0.0980058   1.77524 255 255 255
0.305652 0.326174  1.70927 255 255 255
0.304407 -0.37024  1.88466 255 255 255
0.0190861  0.224769   1.83504 255 255 255
  0.36562 0.0481352   1.76547 255 255 255
0.290829 0.305264  1.71842 255 255 255
0.294747 0.100401  1.76951 255 255 255
  0.434334 -0.0365554    1.74106 255 255 255
 0.275188 -0.369327   1.89784 255 255 255
0.521851 0.267578  1.63813 255 255 255
 0.266125 -0.101059   1.82578 255 255 255
0.486917  0.27835  1.64832 255 255 255
-0.0607165 -0.0682798    1.93942 255 255 255
-0.0861115  -0.161656    1.97106 255 255 255
0.167061 0.061258  1.82405 255 255 255
 0.290466 -0.277646   1.86531 255 255 255
  0.30854 -0.332779   1.87237 255 255 255
-0.0649701   0.156696    1.88256 255 255 255
 0.0906242 0.00791527    1.85713 255 255 255
 0.218236 -0.327789   1.90483 255 255 255
 0.574942 0.0802284   1.66728 255 255 255
  0.532588 -0.0554555    1.70705 255 255 255
 0.341912 0.0143977   1.76662 255 255 255
0.277106 0.262467  1.73397 255 255 255
-0.136503  0.193186   1.89789 255 255 255
 0.414292 0.0123001   1.73701 255 255 255
0.235618 0.222606  1.75181 255 255 255
 0.164403 -0.345489   1.93591 255 255 255
-0.182488  0.152332   1.92781 255 255 255
-0.0212451  -0.128537    1.92994 255 255 255
0.463405 0.428667  1.64862 255 255 255
0.209008 0.210662  1.76916 255 255 255
0.227723  -0.2915  1.89554 255 255 255
0.0354088 -0.279098   1.94989 255 255 255
 -0.125769 -0.0234314     1.9545 255 255 255
 0.519189 0.0701517   1.68801 255 255 255
 0.106845 0.0415327   1.84564 255 255 255
 0.524612 -0.169201   1.74634 255 255 255
0.438147 0.271155  1.66773 255 255 255
 0.251932 -0.151853   1.84089 255 255 255
0.459164 0.362251  1.64179 255 255 255
0.116926 0.348967  1.76755 255 255 255
  0.478334 -0.0734549    1.73252 255 255 255
0.0690886  0.265415   1.80792 255 255 255
-0.194431  0.183057   1.92202 255 255 255
-0.0535066  0.0454021    1.89549 255 255 255
0.0739277 0.0269892   1.86405 255 255 255
 0.267878 0.0336195   1.79004 255 255 255
   0.346599 -0.00611186     1.76732 255 255 255
0.0301827 0.0702479   1.86354 255 255 255
 0.337287 -0.351276   1.87089 255 255 255
 0.097703 0.0192334    1.8506 255 255 255
 0.221379 -0.311351   1.90048 255 255 255
0.0471021 -0.227348   1.94023 255 255 255
 0.164461 -0.106991   1.85842 255 255 255
-0.0704687 -0.0946987    1.94313 255 255 255
0.0775078  0.214432   1.81345 255 255 255
0.322291 0.311049  1.69973 255 255 255
 0.0285844 -0.0827601    1.89944 255 255 255
 -0.201121 -0.0463725    1.98733 255 255 255
0.362757 -0.33917  1.85539 255 255 255
-0.189117  0.156572   1.92776 255 255 255
0.0296025 -0.234193   1.94917 255 255 255
0.200157 0.302606  1.75136 255 255 255
0.111194 0.340838  1.77011 255 255 255
0.0602024  0.362568   1.78102 255 255 255
0.295166 0.191166  1.74074 255 255 255
0.405995 0.233116  1.68381 255 255 255
0.391052 0.158005  1.71668 255 255 255
0.100631 0.314464  1.78211 255 255 255
0.127088 0.311073  1.77474 255 255 255
0.272948 0.597772    1.641 255 255 255
0.296176 0.163173  1.74444 255 255 255
-0.0253857 -0.0718859    1.92669 255 255 255
0.068651  0.19233  1.82357 255 255 255
0.581746 0.101648  1.65776 255 255 255
-0.215018 0.0373273   1.96306 255 255 255
0.337867  0.35037  1.68786 255 255 255
 0.172828 0.0147171   1.83217 255 255 255
0.263265  0.59477  1.64263 255 255 255
  0.47458 0.0976921   1.69833 255 255 255
0.564811 0.076253  1.67117 255 255 255
 0.369077 -0.142601   1.79215 255 255 255
-0.0876073 -0.0518472    1.94889 255 255 255
 0.123928 0.0102853     1.844 255 255 255
 0.234103 0.0510013   1.80337 255 255 255
 0.101431 -0.247451   1.92212 255 255 255
 0.133599 -0.141525   1.89077 255 255 255
0.0512156 -0.251584   1.93871 255 255 255
0.289974 0.235204  1.73654 255 255 255
 0.612154 0.0966453    1.6467 255 255 255
0.360437 -0.23522  1.82896 255 255 255
 0.557904 0.0709116    1.6748 255 255 255
0.578537 0.033401  1.67402 255 255 255
 0.305315 -0.101828   1.81046 255 255 255
  0.416012 -0.0427217    1.74771 255 255 255
0.612097 0.388591  1.59436 255 255 255
 0.365539 0.0418189   1.75266 255 255 255
 0.58088 0.351218  1.59406 255 255 255
 0.344365 -0.162525   1.81089 255 255 255
 0.049619 -0.077037    1.8917 255 255 255
0.304357 0.295867  1.71068 255 255 255
  0.3768 0.181046   1.7147 255 255 255
 -0.113524 -0.0811311    1.96281 255 255 255
  0.365329 0.00391275     1.7584 255 255 255
0.262852 0.331369   1.7227 255 255 255
 0.104682 -0.121134   1.89104 255 255 255
  0.341319 -0.0915875     1.7898 255 255 255
 0.179445 -0.110548   1.85382 255 255 255
0.576735 0.118371  1.65528 255 255 255
-0.0496235  0.0313917    1.90156 255 255 255
 0.332917 0.0338178   1.76656 255 255 255
 0.103487 -0.264201   1.92443 255 255 255
0.406946 0.346979  1.66444 255 255 255
0.338391 0.554738  1.63682 255 255 255
0.428476 0.274218  1.67144 255 255 255
0.0759686 -0.294685   1.94106 255 255 255
0.320602  0.33129  1.69971 255 255 255
  0.336485 -0.0792984    1.78827 255 255 255
-0.0740231  -0.081968    1.94612 255 255 255
-0.0294657   0.347315    1.81957 255 255 255
 0.539808 -0.106021   1.72804 255 255 255
-0.141382  0.211634    1.8934 255 255 255
0.224062 0.045771  1.80943 255 255 255
 0.10868 -0.24867  1.91785 255 255 255
 0.50869 0.068761  1.69366 255 255 255
0.0535595  0.191187   1.82678 255 255 255
0.500723 0.214017  1.65442 255 255 255
0.194561  0.21729  1.77314 255 255 255
0.282079 0.229685  1.73977 255 255 255
0.0717064   0.43578   1.76385 255 255 255
0.0185749 0.0586184   1.87191 255 255 255
-0.0774683  -0.179665    1.96735 255 255 255
0.406853 0.259814  1.67827 255 255 255
 0.275842 -0.133128   1.83312 255 255 255
-0.0570072   0.208621    1.86191 255 255 255
0.0516406  0.375189   1.78494 255 255 255
  0.123497 -0.0208869    1.84874 255 255 255
  0.133513 -0.0312313    1.84741 255 255 255
0.033295 0.268941  1.82097 255 255 255
  0.299835 -0.0202456     1.7939 255 255 255
 0.134242 0.0129021   1.84068 255 255 255
0.180571 0.526873  1.69796 255 255 255
-0.0553687   0.221285    1.86136 255 255 255
0.00781687 -0.0256098     1.9039 255 255 255
0.400544 0.211578  1.69021 255 255 255
0.149709 0.145127  1.80917 255 255 255
0.244965 0.179267   1.7665 255 255 255
-0.0765281   0.143601    1.88702 255 255 255
 0.276841 0.0406902   1.78465 255 255 255
0.240185 0.137574   1.7793 255 255 255
-0.073139  0.286809   1.85181 255 255 255
0.0683751  0.192611   1.82354 255 255 255
  0.13228 -0.118831    1.8833 255 255 255
0.0261356  0.107022   1.86346 255 255 255
 0.263452 0.0131765   1.79352 255 255 255
-0.0530295  0.0744913    1.89552 255 255 255
0.153037 0.305132  1.76875 255 255 255
0.387378 0.033418  1.74629 255 255 255
 0.225752 -0.186546   1.86198 255 255 255
0.201305 0.333884  1.74381 255 255 255
-0.0246223 -0.0150902    1.90967 255 255 255
0.275023 0.438663  1.67487 255 255 255
-0.140131  0.204994   1.89725 255 255 255
0.399558 0.119003  1.71699 255 255 255
-0.0833903 -0.0786388    1.95013 255 255 255
 0.383666 -0.218074   1.81639 255 255 255
 0.0147994 -0.0228455    1.90107 255 255 255
-0.0129072   0.183629     1.8526 255 255 255
0.477039 0.244832  1.65686 255 255 255
 0.154067 -0.155697   1.88204 255 255 255
0.0383001  0.296195   1.81032 255 255 255
 0.202568 -0.146741   1.85223 255 255 255
0.0573538 -0.259813    1.9385 255 255 255
 0.07637 0.202085  1.81995 255 255 255
0.0895517  0.186301   1.82172 255 255 255
0.304597 0.241247  1.72738 255 255 255
0.275003 0.286081  1.72774 255 255 255
0.0912474 -0.215198   1.92039 255 255 255
  0.232355 -0.0502914    1.82037 255 255 255
 0.166918 -0.148504   1.87498 255 255 255
0.0983162 0.0264962   1.84896 255 255 255
 0.184652 0.0266281   1.82789 255 255 255
0.00320278   0.110566     1.8688 255 255 255
0.0481497 -0.239443   1.93905 255 255 255
 0.398778 0.0189161    1.7418 255 255 255
0.432296 0.358376  1.65135 255 255 255
0.166818 0.370156  1.72495 255 255 255
 0.12041 0.320475  1.77561 255 255 255
0.207724 0.227313  1.76514 255 255 255
-0.0315293   0.156555    1.86784 255 255 255
0.127172 0.533156  1.71273 255 255 255
-0.0657917   0.178161    1.87925 255 255 255
 0.302708 -0.209541   1.83252 255 255 255
0.241468 0.331164   1.7278 255 255 255
-0.0713089  -0.074907    1.94406 255 255 255
0.317307 0.216679  1.72566 255 255 255
 0.063679 -0.133629   1.89952 255 255 255
0.00530102  -0.243786    1.96374 255 255 255
0.581183 0.972579  1.38682 255 255 255
-0.0444901  0.0925504    1.88747 255 255 255
0.115844 0.371065  1.76022 255 255 255
0.407311 0.241252  1.68176 255 255 255
 0.494909 0.0246747   1.70475 255 255 255
 0.58707 0.249161  1.61892 255 255 255
 0.356659 0.0558714   1.75413 255 255 255
0.515937 0.109601  1.67935 255 255 255
0.314921 0.247763  1.72193 255 255 255
0.0581958  0.142024   1.84296 255 255 255
 0.13998 -0.20863  1.89819 255 255 255
0.503869 0.347323  1.62571 255 255 255
-0.14112 0.141692  1.91463 255 255 255
  0.195165 0.00314398    1.82692 255 255 255
0.561056 0.109198  1.66449 255 255 255
0.50142 0.28442 1.63825 255 255 255
 0.231218 -0.208492   1.86032 255 255 255
 -0.056579 -0.0548936    1.94206 255 255 255
0.296664 0.297718  1.71643 255 255 255
0.0402294  0.209721   1.82716 255 255 255
 0.325653 -0.361243   1.87373 255 255 255
 0.267949 -0.156226   1.83767 255 255 255
 0.150159 -0.307622   1.92975 255 255 255
  0.30495 0.0636719    1.7709 255 255 255
0.187779 0.349925  1.74041 255 255 255
  0.201513 -0.0517935    1.83511 255 255 255
0.194198 0.176974   1.7829 255 255 255
0.397221 0.126911  1.71847 255 255 255
  0.0301995 -0.00610482      1.8895 255 255 255
-0.00229053  -0.0112679     1.90103 255 255 255
 0.387119 0.0561569   1.74236 255 255 255
-0.0106055  -0.101389       1.92 255 255 255
0.528932 0.276709  1.62959 255 255 255
 0.374919 -0.221019   1.81847 255 255 255
 0.253464 -0.378904   1.90835 255 255 255
0.0598162  0.261084   1.81217 255 255 255
 0.449029 -0.256406   1.80036 255 255 255
0.107452  0.22163  1.80068 255 255 255
-0.123654 -0.149153   1.98055 255 255 255
  0.305537 -0.0474266    1.79078 255 255 255
0.489069 0.637314  1.50923 255 255 255
 0.173981 -0.126256   1.85969 255 255 255
0.390875 0.258084  1.68611 255 255 255
0.0367848  0.272315   1.81738 255 255 255
-0.000437695    -0.161488       1.9276 255 255 255
0.489984 0.217079  1.65914 255 255 255
0.201681 0.294982  1.74994 255 255 255
0.351058 0.261462   1.7055 255 255 255
  0.38125 0.0983474    1.7336 255 255 255
 0.118267 0.0267163    1.8418 255 255 255
0.0789217  0.295824   1.78812 255 255 255
 0.075641 -0.162862   1.90009 255 255 255
-0.00402339    0.293853     1.82643 255 255 255
0.310942 0.220805  1.72805 255 255 255
0.0029116  -0.25864   1.96879 255 255 255
  0.304682 -0.0236862    1.79009 255 255 255
 0.234861 -0.289994     1.892 255 255 255
-0.0418346   0.354442    1.82309 255 255 255
0.0833387  0.168384   1.82535 255 255 255
 0.178885 -0.209223   1.87762 255 255 255
-0.250199 0.0272539   1.97698 255 255 255
0.520985 0.123715  1.66948 255 255 255
 0.0815678 -0.0471025    1.88247 255 255 255
-0.163371 0.0185787   1.95509 255 255 255
0.0352189 -0.235608   1.94564 255 255 255
0.0176267  0.300157   1.81518 255 255 255
0.00248655   0.349952    1.81264 255 255 255
0.210087  -0.2549  1.87908 255 255 255
 0.42198 0.321316  1.66533 255 255 255
 0.227153 0.0906971   1.79752 255 255 255
-0.0825009   0.309418    1.85176 255 255 255
 0.111555 0.0346084   1.84469 255 255 255
 0.189522 -0.284988   1.89363 255 255 255
   0.1979 -0.282948   1.90481 255 255 255
0.0317701  0.318232   1.80871 255 255 255
0.169446 0.121975  1.80704 255 255 255
  0.13348 0.0250276   1.84002 255 255 255
 0.480075 -0.182913   1.76996 255 255 255
0.0588966  0.329585   1.79525 255 255 255
0.323176 0.254148  1.71714 255 255 255
-0.0985127 -0.0144689    1.93968 255 255 255
-0.103546  0.152099   1.89871 255 255 255
 0.439368 -0.229954   1.79482 255 255 255
-0.0381327   -0.13184    1.94162 255 255 255
-0.0542619   0.234738    1.86104 255 255 255
 0.350154 0.0161833   1.76261 255 255 255
0.152592 0.114772  1.81534 255 255 255
-0.0342043   0.226814    1.85202 255 255 255
 0.607672 0.0568046   1.65518 255 255 255
0.0715454  0.236361   1.81252 255 255 255
-0.113461 -0.156929   1.97912 255 255 255
 0.014072 0.0849706    1.8686 255 255 255
  0.332043 -0.0253561    1.78322 255 255 255
0.0758632  0.403669   1.76945 255 255 255
0.217953 0.366563  1.72517 255 255 255
 0.328877 0.0541622   1.76415 255 255 255
  0.331596 -0.0062045    1.77158 255 255 255
  0.332246 0.00211289    1.77312 255 255 255
 0.498786 0.0110028   1.70498 255 255 255
0.0243964  0.146987   1.85287 255 255 255
 0.501428 0.0588301   1.69765 255 255 255
 0.203989 -0.340212   1.91818 255 255 255
0.176471 0.287756  1.76325 255 255 255
-0.0581008  -0.104185     1.9406 255 255 255
0.459942 0.175048  1.68468 255 255 255
0.867168 0.595183  1.46104 255 255 255
-0.134247  0.291947   1.87241 255 255 255
0.276975 0.148395  1.75778 255 255 255
 0.175657 -0.187023   1.87796 255 255 255
0.150754 0.157518   1.8012 255 255 255
0.471161 0.178152  1.67426 255 255 255
-0.0227448  -0.113538      1.928 255 255 255
  0.302066 -0.0619257    1.80201 255 255 255
 0.317462 0.0125862   1.77777 255 255 255
 0.343957 0.0938353   1.78203 255 255 255
-0.0790839   0.169016    1.88324 255 255 255
  0.11518 0.0464115   1.84449 255 255 255
0.0637739  0.293999   1.79831 255 255 255
0.0949721  0.031365   1.85192 255 255 255
0.202642 0.196661  1.77185 255 255 255
0.309675 0.176636  1.73885 255 255 255
  0.584266 -0.0148727    1.68141 255 255 255
 0.172616 -0.211433    1.8837 255 255 255
-0.0733603 -0.0590718    1.94367 255 255 255
-0.131215   -0.1066   1.97599 255 255 255
0.309205 0.169101  1.73682 255 255 255
 0.394228 0.0226671   1.74484 255 255 255
 0.173549 0.0530505    1.8215 255 255 255
 0.536705 -0.127492   1.73193 255 255 255
-0.0509755   0.206826    1.85995 255 255 255
-0.0710351    -0.1601    1.96291 255 255 255
 0.41145 0.334446  1.69124 255 255 255
0.158468  0.33402  1.75443 255 255 255
 0.11823 0.193805  1.80685 255 255 255
 0.145756 -0.182109   1.89232 255 255 255
0.132406 0.292596  1.77601 255 255 255
0.590925 -0.11614  1.70747 255 255 255
 0.297824 -0.121104   1.81395 255 255 255
-0.0166505   0.388123    1.80858 255 255 255
 0.119363 0.0419035   1.84288 255 255 255
0.605429 0.850509  1.42358 255 255 255
0.0741831  0.166532   1.83247 255 255 255
 0.402903 -0.155496   1.78255 255 255 255
 0.525305 -0.161859    1.7431 255 255 255
 0.482869 0.0393664   1.70772 255 255 255
-0.0831217   0.325216    1.84519 255 255 255
-0.212634  0.161163   1.93634 255 255 255
0.515141 0.123257  1.67483 255 255 255
0.0937607 -0.262065   1.92543 255 255 255
 0.402931 -0.125128   1.77293 255 255 255
0.229939 0.241783  1.75238 255 255 255
-0.00248453   -0.171027     1.93418 255 255 255
0.499383 0.334873   1.6359 255 255 255
 0.140023 0.0203364   1.83812 255 255 255
 0.140462 -0.137536   1.88396 255 255 255
 0.0300923 -0.0473999    1.89481 255 255 255
 0.361863 0.0700885   1.74973 255 255 255
0.251675 -0.32971  1.89541 255 255 255
0.0365058  -0.04515   1.89167 255 255 255
0.216956 0.138389  1.78626 255 255 255
 0.240089 0.0849653   1.79251 255 255 255
0.0659087  0.320018   1.79497 255 255 255
0.254799 0.140703  1.77429 255 255 255
  0.540508 -0.0217316    1.70005 255 255 255
  0.201806 -0.0632653    1.83547 255 255 255
 0.333221 -0.358595   1.87079 255 255 255
  0.27962 -0.337331   1.88809 255 255 255
0.505157 0.013144  1.70138 255 255 255
-0.259839 0.0896197   1.97181 255 255 255
-0.157313  0.243262   1.89205 255 255 255
 0.422143 0.0301004   1.73089 255 255 255
   0.136011 -0.00483047     1.84193 255 255 255
  0.397194 -0.0961831    1.77148 255 255 255
 0.087632 0.0758683   1.84992 255 255 255
 0.27427 0.133573  1.76586 255 255 255
-0.0787494 -0.0415089     1.9473 255 255 255
-0.218589 0.0582371   1.95888 255 255 255
-0.206197  0.138289   1.93949 255 255 255
0.00262039  0.0993346    1.87076 255 255 255
 0.384944 0.0929535   1.73359 255 255 255
0.553845 0.304303  1.61524 255 255 255
   0.123344 -0.00288186     1.84525 255 255 255
  0.31384 0.0177138   1.77933 255 255 255
0.199962 -0.30354  1.90757 255 255 255
0.593333 0.171066  1.63595 255 255 255
 0.221021 -0.282493   1.89725 255 255 255
 0.192575 -0.177782   1.86926 255 255 255
 -0.035205 -0.0372512     1.9225 255 255 255
-0.0778172  -0.119934    1.95006 255 255 255
0.0863726  0.327115   1.78463 255 255 255
 -0.25923 0.0952002   1.96777 255 255 255
0.684013 0.428443  1.56018 255 255 255
  0.449089 -0.0412349    1.73483 255 255 255
0.0924921  0.353575   1.77825 255 255 255
  0.118885 -0.0329612    1.85342 255 255 255
0.256699 0.149725  1.76748 255 255 255
-0.297831 0.0322554   1.99679 255 255 255
 0.199374 -0.175964   1.86642 255 255 255
  0.442569 -0.0210841    1.73535 255 255 255
0.295631 0.559464  1.65123 255 255 255
  0.460133 -0.0811226    1.74114 255 255 255
 0.33466 0.053368   1.7614 255 255 255
0.442299 -0.17433  1.78275 255 255 255
  -0.1109 0.0377594   1.92971 255 255 255
0.394421 0.224544  1.69071 255 255 255
 0.429816 0.0700099   1.71948 255 255 255
-0.0696077 -0.0653667    1.94295 255 255 255
-0.0813531   0.250891    1.86373 255 255 255
-0.0617089   0.231635    1.86323 255 255 255
0.0395541  0.316961   1.80602 255 255 255
0.0401134   0.13715   1.84964 255 255 255
 0.426052 -0.215267    1.7985 255 255 255
 0.184432 0.0444575   1.81958 255 255 255
0.514484  0.24721  1.64737 255 255 255
 0.256814 0.0283731   1.79731 255 255 255
0.0781372  0.334338   1.79145 255 255 255
0.107457 0.313324  1.78065 255 255 255
  0.191069 -0.0312973    1.83847 255 255 255
-0.207612 0.0560765   1.96056 255 255 255
0.00554374   0.226354    1.84519 255 255 255
0.522931 0.295899  1.62778 255 255 255
0.365447 0.104849  1.74231 255 255 255
0.0227723  0.305323   1.81454 255 255 255
-0.0136738   0.136617    1.87125 255 255 255
 0.327761 -0.255667    1.8441 255 255 255
-0.270384 0.0478426   1.98672 255 255 255
0.0302382   0.14568   1.85206 255 255 255
-0.0073215   0.379437    1.80622 255 255 255
-0.147449  0.276396   1.88246 255 255 255
0.103448 0.372901  1.76711 255 255 255
0.0909866 -0.111261   1.89526 255 255 255
0.591413 0.014847  1.66967 255 255 255
0.125811 0.298459  1.77799 255 255 255
0.151851 0.197275  1.79426 255 255 255
 0.104097 0.0309084   1.84787 255 255 255
-0.0262294  -0.177905    1.94517 255 255 255
  0.076905 -0.0161118    1.87587 255 255 255
0.268726 0.290063   1.7285 255 255 255
 0.492549 0.0746957   1.69795 255 255 255
 0.23852 -0.15206  1.84637 255 255 255
  0.501425 -0.0531711    1.72017 255 255 255
0.0361587  0.214406   1.82626 255 255 255
0.254418 -0.38567  1.91137 255 255 255
 0.557289 -0.102223   1.71998 255 255 255
 0.333952 -0.114224   1.80236 255 255 255
-0.105856  0.324163   1.84556 255 255 255
 0.0933282 -0.0265688    1.86141 255 255 255
0.0686956  0.379541   1.77695 255 255 255
 0.429948 -0.190648   1.79271 255 255 255
-0.0705392 0.00872149    1.92468 255 255 255
 0.150782 0.0096187   1.83683 255 255 255
 0.229227 -0.061026   1.82273 255 255 255
 0.287172 -0.188731   1.83429 255 255 255
0.391075 0.313276  1.67715 255 255 255
 0.199459 -0.164465   1.86286 255 255 255
 0.356161 -0.105876    1.7863 255 255 255
 0.223535 -0.197743    1.8624 255 255 255
0.378772 -0.28039  1.83117 255 255 255
0.128906 0.245999  1.78841 255 255 255
0.188161 0.173894  1.78616 255 255 255
 0.27977 0.302542  1.72232 255 255 255
-0.0477759 -0.0699692    1.93583 255 255 255
    0.573709 -0.000955691      1.68113 255 255 255
   0.1406 -0.231331   1.90295 255 255 255
  0.500101 -0.0844087    1.72691 255 255 255
0.0398618 -0.050622   1.89363 255 255 255
0.0407076 -0.250424   1.94391 255 255 255
0.457974 0.431688  1.65368 255 255 255
0.0284708  0.308036   1.81548 255 255 255
 0.451335 -0.135981   1.76129 255 255 255
-0.0105948 -0.0757787    1.91882 255 255 255
0.319624 0.242623  1.71895 255 255 255
 0.34709 0.341487  1.68545 255 255 255
0.445517 0.358315  1.64547 255 255 255
 0.585021 -0.116812   1.71247 255 255 255
0.108914  0.32831  1.77957 255 255 255
-0.00548079    0.373321     1.80556 255 255 255
  0.126992 -0.0156935    1.84598 255 255 255
-0.0248455   0.287475    1.83653 255 255 255
-0.122836 0.0548708   1.92957 255 255 255
  -0.01282 -0.0234474    1.90973 255 255 255
 0.171812 -0.203693   1.88352 255 255 255
0.483687 0.354748  1.63435 255 255 255
 0.068675 0.0283998    1.8666 255 255 255
  0.446239 -0.0819252    1.74644 255 255 255
0.0612299  0.193677   1.82414 255 255 255
 -0.125315 -0.0764582    1.96722 255 255 255
0.513746 0.175828  1.66049 255 255 255
-0.00251837   -0.100294     1.91761 255 255 255
0.0718767 -0.116322   1.89584 255 255 255
  -0.231137 -0.00812068     1.98595 255 255 255
0.0486269  0.137755   1.84709 255 255 255
 0.0109947 -0.0814121    1.90561 255 255 255
  0.359105 -0.0296679    1.76693 255 255 255
0.0894774  -0.23502   1.92448 255 255 255
-0.220955 0.0415436   1.96304 255 255 255
0.454337 0.223361  1.66401 255 255 255
0.32591  0.2738 1.71141 255 255 255
0.145835 -0.13244  1.88211 255 255 255
 0.432439 -0.229256   1.79694 255 255 255
-0.176026  0.226768   1.90557 255 255 255
 0.489784 0.0296638   1.70652 255 255 255
-0.149658 0.0121741   1.95134 255 255 255
-0.229336 0.0491731   1.96362 255 255 255
  0.197952 -0.0214717    1.83005 255 255 255
 0.0650444 -0.0242044     1.8827 255 255 255
 0.103514 -0.303411   1.93162 255 255 255
-0.0442947  -0.105958    1.93901 255 255 255
 0.238017 0.0913435   1.79137 255 255 255
0.305028 0.557515  1.64911 255 255 255
0.144624 0.302298  1.77173 255 255 255
 0.232353 0.0259602   1.80791 255 255 255
 0.12377 0.293255  1.77987 255 255 255
 0.292732 -0.361161   1.85692 255 255 255
-0.0391299 -0.0312104    1.92212 255 255 255
-0.13009 0.265695  1.87615 255 255 255
 0.106121 -0.269296   1.92326 255 255 255
0.0885504 -0.240875   1.92322 255 255 255
 0.263407 0.0202865   1.79324 255 255 255
0.365921 0.300362  1.69194 255 255 255
0.297951 0.269034  1.72277 255 255 255
-0.149988  0.189206   1.90525 255 255 255
0.539929 -0.14694  1.73575 255 255 255
 0.238485 -0.295549   1.89056 255 255 255
 0.280789 -0.269999   1.87333 255 255 255
-0.0278674   0.319478    1.83072 255 255 255
-0.217239 0.0862403   1.95796 255 255 255
 0.528234 0.0670155   1.68573 255 255 255
  0.409286 -0.0452726    1.75113 255 255 255
  0.102755 0.00678495    1.84885 255 255 255
  0.410099 0.00522036    1.73851 255 255 255
   0.23995 -0.0435375    1.82021 255 255 255
0.227926 0.198176  1.76415 255 255 255
-0.176783  0.110545   1.93292 255 255 255
0.270185 -0.34128  1.89136 255 255 255
 0.390246 -0.256059   1.82079 255 255 255
-0.0943024   0.304074    1.85738 255 255 255
0.0303751  0.195354   1.83049 255 255 255
0.227825 0.399102  1.69561 255 255 255
 0.249931 -0.290559   1.88729 255 255 255
-0.0590362 -0.0289683    1.92978 255 255 255
 0.139712 0.0619159   1.83524 255 255 255
0.463374 0.146096  1.68898 255 255 255
0.293404 0.115632  1.76454 255 255 255
-0.0746932  -0.124095    1.94984 255 255 255
0.393583  0.27704   1.6829 255 255 255
  0.39836 -0.223507   1.80672 255 255 255
 0.236167 0.0328705   1.80385 255 255 255
 0.277179 -0.186333   1.83644 255 255 255
  0.314932 -0.0438324    1.78645 255 255 255
0.0456358  0.322053   1.80399 255 255 255
  0.315161 -0.0211794     1.7858 255 255 255
-0.0433555 -0.0785215     1.9355 255 255 255
 0.388314 -0.215348   1.80693 255 255 255
  0.442885 -0.0737734    1.74473 255 255 255
0.372738 0.223965  1.70376 255 255 255
-0.0759268  -0.065434      1.944 255 255 255
 0.458913 -0.136247   1.75875 255 255 255
-0.00280901    0.337467     1.81767 255 255 255
 0.242871 -0.295935   1.88853 255 255 255
0.119778 0.153215  1.81839 255 255 255
-0.0881593  -0.117957    1.97708 255 255 255
0.241956 0.166249  1.77064 255 255 255
-0.0656683 -0.0724567    1.94159 255 255 255
0.464211 0.511017  1.59284 255 255 255
0.0263148 0.0628739   1.86649 255 255 255
0.0717187  0.208926   1.81644 255 255 255
 0.0513438 -0.0561474    1.88896 255 255 255
-0.243108  0.136457   1.95405 255 255 255
0.111746 -0.14157  1.89042 255 255 255
  0.212329 -0.0981895     1.8384 255 255 255
-0.248509 0.0711559   1.97166 255 255 255
0.352757 0.104692   1.7437 255 255 255
 0.384626 -0.269557    1.8265 255 255 255
-5.00693e-05    -0.038529      1.90612 255 255 255
0.453405 0.190925  1.67748 255 255 255
0.0310268  0.214329   1.82971 255 255 255
0.164409 0.204958  1.78637 255 255 255
 0.43122 0.035985   1.7243 255 255 255
 0.283255 0.0751937   1.78144 255 255 255
 0.559156 -0.137237   1.72894 255 255 255
0.531633 0.350956  1.61484 255 255 255
 0.0183425 -0.0685247    1.90178 255 255 255
 0.371189 -0.327436   1.84667 255 255 255
0.728146 0.356816  1.58196 255 255 255
-0.0477516  -0.101457    1.93686 255 255 255
-0.0774856  -0.106175    1.95025 255 255 255
-0.222731  0.047873   1.96355 255 255 255
0.300742 0.284721  1.71772 255 255 255
 0.15222 0.172533  1.79714 255 255 255
-0.030425  0.268385   1.84335 255 255 255
 0.0324667 -0.0693676    1.89445 255 255 255
0.282747 0.279671   1.7265 255 255 255
 0.405764 0.0547674   1.73413 255 255 255
  -0.101841 0.000379197     1.93737 255 255 255
  -0.21898 -0.0125095    1.97833 255 255 255
0.184349 0.312105  1.75261 255 255 255
 0.265885 -0.086104   1.82593 255 255 255
0.0293046 -0.245118   1.94974 255 255 255
0.518557 0.173212  1.65802 255 255 255
0.463502 0.215693  1.66417 255 255 255
-0.0636439  0.0826835    1.90129 255 255 255
0.0526722  0.326027   1.79939 255 255 255
-0.227961   0.13775   1.94766 255 255 255
 0.322671 -0.174333   1.82049 255 255 255
-0.016265  0.104476   1.88145 255 255 255
0.0988673 0.0900172   1.84412 255 255 255
 0.450495 -0.208047   1.78447 255 255 255
 0.266632 -0.181968   1.84083 255 255 255
0.112966 0.367459  1.76355 255 255 255
-0.0374545   0.391873    1.81429 255 255 255
0.487031 0.146781  1.68011 255 255 255
 0.282005 -0.362052   1.89158 255 255 255
0.0918262 0.0979462   1.84304 255 255 255
0.0656749 -0.233307   1.93266 255 255 255
 -0.22138 0.0552341   1.96225 255 255 255
   0.339206 -0.00795554     1.77039 255 255 255
0.471528 0.184603  1.67199 255 255 255
-0.00241648    0.455354     1.76856 255 255 255
 0.414075 -0.269812    1.8138 255 255 255
0.028192 0.206658  1.82899 255 255 255
0.530587 0.248147  1.64012 255 255 255
  0.215667 -0.0205893    1.82472 255 255 255
  0.310271 -0.0290359    1.78753 255 255 255
0.070222 0.328721  1.79463 255 255 255
 0.273851 -0.152719   1.83544 255 255 255
0.429459 0.131655  1.70297 255 255 255
0.058875 0.277238  1.80638 255 255 255
-0.237632  0.141723   1.95084 255 255 255
0.400041  0.24138  1.68361 255 255 255
0.228808 0.279204  1.74538 255 255 255
0.076167 0.325597  1.78909 255 255 255
 0.482578 -0.175496   1.76772 255 255 255
0.385974 0.307342  1.68389 255 255 255
0.184972 0.357246  1.73947 255 255 255
0.475779 0.208758   1.6647 255 255 255
0.0468643 -0.110803   1.89751 255 255 255
 0.566168 -0.107007    1.7179 255 255 255
  0.130115 0.00643207    1.84302 255 255 255
 0.232875 -0.389159   1.92229 255 255 255
0.260012 0.170702  1.75999 255 255 255
  0.613198 -0.0361824    1.67473 255 255 255
0.105068 0.334249  1.77512 255 255 255
0.445956 0.347957  1.65091 255 255 255
-0.186341  0.177225   1.92251 255 255 255
  0.377622 -0.0120787    1.75711 255 255 255
0.288577 0.283883   1.7212 255 255 255
 0.120225 0.0364622   1.84258 255 255 255
-0.0968056   0.308636     1.8554 255 255 255
  0.202481 -0.0374634    1.82742 255 255 255
0.501781 0.588994  1.55038 255 255 255
0.187813  0.18002  1.78286 255 255 255
  0.058538 -0.0263973    1.88527 255 255 255
 0.122857 0.0478124   1.84264 255 255 255
-0.103861  0.299587   1.86148 255 255 255
0.216239 -0.30368  1.90277 255 255 255
0.495997 0.275515  1.64538 255 255 255
0.0298547 -0.112865   1.90385 255 255 255
 0.339197 -0.124131   1.80144 255 255 255
 0.34134 0.335684  1.68973 255 255 255
-0.220433 0.0711573   1.96224 255 255 255
-0.117622 -0.106425   1.96967 255 255 255
