ply
format ascii 1.0
element vertex 1147
property float x
property float y
property float z
property uchar red
property uchar green
property uchar blue
end_header
   2.93292    3.85828 -0.0201934 255 255 255
  3.09013    3.7942 0.0267931 255 255 255
  3.15579   4.01638 0.0459621 255 255 255
  2.86869   3.48344 -0.183285 255 255 255
    2.99186     3.79908 -0.00904387 255 255 255
  3.05187   3.87314 0.0302576 255 255 255
  3.07823   3.88088 0.0407996 255 255 255
   2.94193    3.69017 -0.0555621 255 255 255
   2.97507     3.6988 -0.0491819 255 255 255
   2.99161    3.73364 -0.0315683 255 255 255
  2.93685   3.51885 -0.155924 255 255 255
  3.03611   3.85739 0.0166926 255 255 255
   3.02076    3.73688 -0.0160607 255 255 255
  3.09177   3.86494 0.0460016 255 255 255
   2.96841    3.69511 -0.0483715 255 255 255
  2.87933   3.48789 -0.179261 255 255 255
  3.14656   3.89659 0.0298957 255 255 255
    2.9977    3.88365 0.00844021 255 255 255
  3.14922   3.96268 0.0355657 255 255 255
   3.01738    3.72872 -0.0242411 255 255 255
  3.16073   4.05309 0.0611919 255 255 255
   3.06757     3.7378 0.00628046 255 255 255
    3.0319     3.8178 0.00498015 255 255 255
   3.05238    3.68264 -0.0192975 255 255 255
  2.86504   3.53919 -0.167783 255 255 255
  3.14167   3.93686 0.0295397 255 255 255
  3.05635   3.79792 0.0131875 255 255 255
   2.97071    3.78254 -0.0225422 255 255 255
    3.0231    3.80604 0.00123234 255 255 255
  3.15661   3.89607 0.0272839 255 255 255
  3.12285   3.77789 0.0344759 255 255 255
   3.1007    3.7783 0.0289913 255 255 255
  3.19758   3.92376 0.0455846 255 255 255
   3.1682    3.8799 0.0261251 255 255 255
   3.00961    3.87519 0.00983721 255 255 255
    2.9893    3.81451 -0.0123957 255 255 255
  3.15312   3.89507 0.0266134 255 255 255
  3.10504   3.99686 0.0230198 255 255 255
  3.10518   3.71582 0.0171435 255 255 255
   3.01359    3.73905 -0.0184945 255 255 255
   3.01082    3.83547 0.00374098 255 255 255
  2.96631   3.77169 -0.030437 255 255 255
  3.18251   3.90062 0.0361976 255 255 255
  3.12636   3.99899 0.0324116 255 255 255
  2.56074   3.86946 -0.157395 255 255 255
  3.09489   3.85865 0.0471666 255 255 255
  2.66342   3.89213 -0.148018 255 255 255
  2.85429   3.47877 -0.192335 255 255 255
  3.01741   3.87649 0.0146277 255 255 255
  3.18878   4.01533 0.0542404 255 255 255
 2.85895  3.53974 -0.15985 255 255 255
   2.71415    3.90322 -0.0952954 255 255 255
   3.1862   4.01956 0.0537458 255 255 255
    2.98398     3.80878 -0.00979978 255 255 255
   2.98835    3.78886 -0.0162624 255 255 255
  3.00854   3.83863 0.0049624 255 255 255
  2.85793   3.53672 -0.169993 255 255 255
   2.8477   3.49114 -0.187805 255 255 255
   2.93272    3.73973 -0.0504461 255 255 255
  2.84541   3.49707 -0.186408 255 255 255
    2.98957     3.84999 -0.00212146 255 255 255
   2.99366    3.86829 0.00316858 255 255 255
  1.61992    3.9011 -0.232401 255 255 255
  2.05007    3.4987 -0.204525 255 255 255
  1.64664   3.81802 -0.180319 255 255 255
  2.17103   3.52643 -0.267234 255 255 255
  2.08614   3.62838 -0.302422 255 255 255
  1.60635   4.11378 -0.200725 255 255 255
  2.03562   3.52154 -0.233317 255 255 255
  1.92791   3.39748 -0.226358 255 255 255
  1.76636   3.64442 -0.177903 255 255 255
   2.4219   3.13175 -0.101174 255 255 255
  1.68144   4.16565 -0.193252 255 255 255
   2.2426   3.43014 -0.313785 255 255 255
 1.60372  3.54587 -0.11436 255 255 255
  2.27708   3.77155 -0.341068 255 255 255
  1.69841   3.93214 -0.220484 255 255 255
  1.83843   3.86323 -0.186459 255 255 255
  2.20121   3.75191 -0.319035 255 255 255
  1.93437   3.70202 -0.313639 255 255 255
  1.93472   3.67756 -0.305163 255 255 255
  1.99364   3.39158 -0.322353 255 255 255
  1.57626   3.71332 -0.172201 255 255 255
  2.18884   3.76746 -0.320427 255 255 255
  1.53481   3.67103 -0.198482 255 255 255
  1.85989    3.5526 -0.275595 255 255 255
  1.61134   3.83911 -0.174044 255 255 255
  2.15824   3.77749 -0.317658 255 255 255
  1.64068   4.04197 -0.197181 255 255 255
  1.54255   3.99255 -0.246341 255 255 255
  1.82766   4.04531 -0.282828 255 255 255
   2.1786   3.78082 -0.323422 255 255 255
  1.60173   4.20752 -0.159596 255 255 255
   2.1014   3.74991 -0.290825 255 255 255
  2.11023   3.70112 -0.288084 255 255 255
  2.06258    3.2405 -0.224467 255 255 255
  2.18555   3.56659 -0.305765 255 255 255
  1.67107   4.13327 -0.199591 255 255 255
 1.67548  3.56271 -0.12756 255 255 255
  1.77951   3.82638 -0.220276 255 255 255
  1.77431   3.82471 -0.210399 255 255 255
  2.07325   3.26034 -0.151101 255 255 255
   1.7265   3.75184 -0.149224 255 255 255
  1.81825   3.80146 -0.221554 255 255 255
  1.56328   3.26385 0.0457335 255 255 255
  2.02731   3.49861 -0.229167 255 255 255
  2.09084   3.78449 -0.315731 255 255 255
  1.78487      3.73 -0.189806 255 255 255
  1.94149   3.43299 -0.199956 255 255 255
 1.73513  4.21129 -0.19593 255 255 255
  1.52303   4.30785 -0.147159 255 255 255
  1.61093   3.45014 -0.117972 255 255 255
  1.64091   4.14152 -0.194903 255 255 255
  1.87751   3.35404 -0.349156 255 255 255
  1.50962    3.6019 -0.263964 255 255 255
  1.85612   3.52708 -0.254465 255 255 255
  2.03457   3.39758 -0.194267 255 255 255
  2.39541   3.24914 -0.124913 255 255 255
  2.47919   3.22496 -0.232799 255 255 255
  1.49748   4.25221 -0.166182 255 255 255
  2.00985   3.81277 -0.314825 255 255 255
  1.49112   3.52036 -0.118198 255 255 255
  2.03664   3.46006 -0.223959 255 255 255
  2.16478   3.63245 -0.257184 255 255 255
   1.3511   4.30004 -0.105993 255 255 255
  2.31606   3.70194 -0.336276 255 255 255
  1.88555   3.61461 -0.292001 255 255 255
  2.19704    3.8155 -0.336895 255 255 255
  1.51757   3.27945 0.0393063 255 255 255
  2.00919   3.20695 -0.272089 255 255 255
  1.80237   4.10957 -0.221934 255 255 255
  2.08807   3.37092 -0.203236 255 255 255
  2.04031   3.33975 -0.273978 255 255 255
  1.80051   3.67015 -0.218678 255 255 255
  2.06412    3.6465 -0.255268 255 255 255
  1.53651   4.08461 -0.247052 255 255 255
  1.61486    3.8217 -0.180915 255 255 255
  1.56445    4.0192 -0.230695 255 255 255
  2.04122    3.4543 -0.204335 255 255 255
  1.65822   3.84682 -0.190792 255 255 255
  1.99526   3.80095 -0.296749 255 255 255
  2.18599   3.67562 -0.289446 255 255 255
  1.83388   3.66943 -0.180094 255 255 255
  1.86915   3.42157 -0.244598 255 255 255
  1.99772   3.81503 -0.309091 255 255 255
  1.52636   3.70791 -0.185026 255 255 255
  1.66241   3.99362 -0.210703 255 255 255
  1.60473   4.10874 -0.225787 255 255 255
  1.58971   4.04446 -0.214856 255 255 255
   1.9927    3.1905 -0.256237 255 255 255
  1.55361   3.68976 -0.199705 255 255 255
   1.43873    3.49382 -0.0436196 255 255 255
    1.5729    3.32454 -0.0541671 255 255 255
  1.52667    4.0709 -0.259107 255 255 255
  1.56262    4.0491 -0.235257 255 255 255
  1.54415   4.45992 -0.117306 255 255 255
  1.92262   3.68616 -0.313875 255 255 255
  1.78083   4.13031 -0.213551 255 255 255
  2.15169   3.56754 -0.245302 255 255 255
   1.8421   3.75888 -0.215078 255 255 255
  1.99381   3.77448 -0.329226 255 255 255
  1.76528   3.87058 -0.218295 255 255 255
  1.61332   4.14395 -0.224495 255 255 255
  1.74321   4.00552 -0.221806 255 255 255
   1.8486   3.87406 -0.224365 255 255 255
  1.56278   4.05387 -0.253655 255 255 255
 1.55166  3.65514 -0.13294 255 255 255
  2.16761   3.95451 -0.489154 255 255 255
  1.68319   3.91441 -0.203655 255 255 255
 1.54739  3.99301 -0.22412 255 255 255
  1.93285    3.7281 -0.284126 255 255 255
  1.57646   4.05476 -0.221759 255 255 255
  2.04829   3.59768 -0.245398 255 255 255
  1.41033   3.70357 -0.200324 255 255 255
   1.48353    3.57024 -0.0704156 255 255 255
  1.53773   3.68774 -0.216135 255 255 255
   2.0247   3.35509 -0.211538 255 255 255
  1.61069   3.98777 -0.194126 255 255 255
  2.23049   3.55511 -0.260671 255 255 255
  1.52057    3.6151 -0.242323 255 255 255
  1.93441   3.35862 -0.343902 255 255 255
  1.68138   3.91687 -0.231914 255 255 255
    2.3508    3.02027 -0.0483374 255 255 255
  1.68709   3.69681 -0.184093 255 255 255
  2.19567   3.74516 -0.313954 255 255 255
  1.67973   3.98088 -0.220159 255 255 255
 1.55974  3.69166 -0.19113 255 255 255
   1.6778   4.08996 -0.208047 255 255 255
   1.5459   4.23578 -0.192299 255 255 255
  1.76368   3.89412 -0.227833 255 255 255
  1.74881   3.87729 -0.241117 255 255 255
  2.16421   3.71184 -0.294335 255 255 255
  1.74968    4.0144 -0.215273 255 255 255
  1.62466   4.07124 -0.192267 255 255 255
  2.41547   3.25702 -0.133861 255 255 255
  2.38526   3.20105 -0.102016 255 255 255
  2.34584   3.09174 -0.110939 255 255 255
  2.30485   3.70037 -0.333267 255 255 255
 1.71111  4.11691 -0.20927 255 255 255
  1.37875   4.25699 -0.112539 255 255 255
  1.80911   3.45104 -0.248648 255 255 255
  1.56964   4.00857 -0.200535 255 255 255
  1.52287   3.62187 -0.137726 255 255 255
 1.79383   3.4215 -0.23212 255 255 255
  1.90938   3.61168 -0.301886 255 255 255
  1.69228   4.10836 -0.204038 255 255 255
  1.75127   3.95208 -0.237404 255 255 255
  2.03697   3.48522 -0.221498 255 255 255
  1.98715    3.7853 -0.323528 255 255 255
 2.01537  3.46532 -0.22173 255 255 255
   2.0998    3.4031 -0.185869 255 255 255
  1.58636   3.55789 -0.131249 255 255 255
  2.40308   3.23741 -0.143798 255 255 255
 2.17306  3.81873 -0.33341 255 255 255
  1.38355   3.66989 -0.201102 255 255 255
  2.29528   3.71896 -0.334446 255 255 255
    1.55268     3.32767 -0.00242359 255 255 255
  1.92973   3.24553 -0.285859 255 255 255
  1.66621   4.39233 -0.201466 255 255 255
   1.5878   3.75324 -0.172796 255 255 255
   2.10426    3.18797 -0.0943609 255 255 255
  1.59654   3.51599 -0.130251 255 255 255
  1.60547   4.16866 -0.172121 255 255 255
  1.47401   4.35445 -0.127801 255 255 255
   1.6899   4.12732 -0.202197 255 255 255
  1.83078   3.47868 -0.245782 255 255 255
  2.04062   3.49383 -0.227279 255 255 255
 1.99398  3.29809 -0.26443 255 255 255
  1.52653   4.29963 -0.146084 255 255 255
  2.04322    3.4443 -0.218164 255 255 255
  1.57479   4.06576 -0.224487 255 255 255
  1.76756   3.88829 -0.216835 255 255 255
  2.05893   3.32487 -0.221938 255 255 255
  1.91483   3.43123 -0.204769 255 255 255
  1.91893   3.43321 -0.214195 255 255 255
  1.66228   3.93465 -0.226835 255 255 255
2.05525 3.56535 -0.2329 255 255 255
  1.83357   3.66142 -0.182783 255 255 255
  1.52164   3.96224 -0.223609 255 255 255
  1.76903   3.94641 -0.227998 255 255 255
 1.78705  3.98204 -0.22507 255 255 255
  1.74699   3.97001 -0.223209 255 255 255
    2.083   3.66059 -0.269924 255 255 255
  1.49202   4.34698 -0.130743 255 255 255
  2.05648   3.58886 -0.249576 255 255 255
  1.99142   3.83558 -0.304685 255 255 255
  1.80405   3.63002 -0.176461 255 255 255
  2.01308   3.72535 -0.280636 255 255 255
  2.20307   3.81724 -0.332856 255 255 255
  1.84579   3.88033 -0.230783 255 255 255
  2.27655   3.77154 -0.335051 255 255 255
  1.93094   3.37312 -0.326525 255 255 255
   2.0894   3.34254 -0.195492 255 255 255
  1.47741   3.49415 -0.120993 255 255 255
  2.06481   3.31844 -0.222329 255 255 255
   2.0316   3.42301 -0.225782 255 255 255
  1.68005   3.93068 -0.207394 255 255 255
  2.25866    3.6779 -0.300254 255 255 255
  1.84857   3.45332 -0.249165 255 255 255
 1.66112  4.08853 -0.19306 255 255 255
  1.80337   3.66796 -0.181513 255 255 255
  1.85621    3.5438 -0.276002 255 255 255
   1.9094   3.77377 -0.276478 255 255 255
  1.55557   3.48252 -0.120604 255 255 255
  1.55548   3.48291 -0.122448 255 255 255
   1.6107   4.06728 -0.182495 255 255 255
-0.10448 0.454566  1.76203 255 255 255
0.0761429   0.38194   1.69741 255 255 255
0.0348334  0.196077   1.77523 255 255 255
-0.5454 1.00145 1.55565 255 255 255
-0.46904 0.159915  1.96545 255 255 255
-0.177396  0.396091   1.79633 255 255 255
-0.579546   1.02211   1.51422 255 255 255
-0.300582  0.504639   1.73222 255 255 255
-0.621406 0.0725435   2.09661 255 255 255
 0.23049 0.291726  1.72099 255 255 255
0.0700775  0.217397   1.77733 255 255 255
-0.0183942 -0.0277227    1.87832 255 255 255
-0.025996   0.44004   1.73599 255 255 255
-0.0963924   0.266384    1.80534 255 255 255
0.191351 0.260023  1.71972 255 255 255
0.117772 0.351223  1.71734 255 255 255
0.106758 0.196178  1.77578 255 255 255
-0.469281   0.30687   1.94404 255 255 255
-0.0236996   0.367209    1.75118 255 255 255
0.0502728  0.150758   1.80307 255 255 255
-0.0352377   0.203468    1.78773 255 255 255
  -0.109685 -0.00631419     1.89925 255 255 255
-0.315162  0.327935   1.87362 255 255 255
 -0.128958 -0.0546717    1.89943 255 255 255
-0.252434  0.264865   1.82724 255 255 255
0.246262 0.308202  1.72605 255 255 255
-0.0614642  0.0145703    1.84578 255 255 255
-0.0152388   0.230313    1.79415 255 255 255
-0.431487   0.94615   1.56516 255 255 255
-0.18356 0.019326  1.91136 255 255 255
0.0872343   0.16781   1.80574 255 255 255
-0.682509  0.747752   1.69652 255 255 255
0.013921 0.551936  1.64107 255 255 255
0.179214 0.127226  1.81299 255 255 255
-0.0105717  0.0750456     1.8599 255 255 255
 -0.207934 -0.0667451    1.90245 255 255 255
-0.215564  0.256256   1.83565 255 255 255
  -0.540614 -0.00418578     2.06798 255 255 255
  0.2537 0.257352  1.73228 255 255 255
0.0479145  0.362853    1.7426 255 255 255
-0.777444   0.51841   1.88273 255 255 255
-0.00526341    0.468563     1.70944 255 255 255
-0.0126655   0.524078     1.6614 255 255 255
 -0.145322 -0.0183919    1.90002 255 255 255
  -0.16361 -0.0613309    1.92324 255 255 255
-0.356555  0.164962   1.94728 255 255 255
0.0873785  0.247803   1.78918 255 255 255
-0.793074  0.489425   1.90115 255 255 255
0.229769 0.396185  1.66912 255 255 255
 -0.207932 -0.0481099     1.9258 255 255 255
-0.913734  0.983545   1.64628 255 255 255
0.121642 0.139433   1.7986 255 255 255
0.141563 0.261824  1.76057 255 255 255
-0.529806  0.907989    1.6149 255 255 255
-0.126579  0.331469   1.82711 255 255 255
0.0164612  0.430163   1.69819 255 255 255
0.0796387  0.394864   1.72005 255 255 255
-1.11471 0.897006  1.73412 255 255 255
-0.333956 -0.223396   2.00761 255 255 255
-0.646507  0.428299   1.88157 255 255 255
 -0.175178 -0.0847538    1.93026 255 255 255
-0.312716 -0.218692   2.00718 255 255 255
 0.113307 0.0998677   1.81756 255 255 255
-1.11405 0.987361  1.67172 255 255 255
-0.679326  0.146148   2.10191 255 255 255
0.247806 0.341378  1.70486 255 255 255
-0.756072  0.481256    1.8876 255 255 255
-0.153537 0.0492578   1.89327 255 255 255
-0.725866  0.807805   1.67991 255 255 255
0.212298 0.388735  1.67084 255 255 255
-0.228502  0.226831   1.84352 255 255 255
0.0925365  0.083226   1.84182 255 255 255
-0.485882  0.332164   1.85171 255 255 255
-0.238944 -0.105684   1.94843 255 255 255
  -0.335 0.296348  1.85684 255 255 255
0.205688 0.306012  1.74001 255 255 255
-0.420083  0.851903   1.62111 255 255 255
-0.358671  0.902023   1.58048 255 255 255
-0.0062456   0.186853      1.803 255 255 255
0.0304567 0.0844119   1.82629 255 255 255
-0.635281   1.11018   1.51627 255 255 255
-0.15753 0.150174  1.86561 255 255 255
0.121193  0.42071  1.70132 255 255 255
0.0593185 0.0950302   1.82487 255 255 255
-0.0388577   0.505417    1.67561 255 255 255
-0.345154   0.52604   1.77383 255 255 255
0.111232 0.371704  1.71221 255 255 255
-0.542258 -0.088483   2.08417 255 255 255
-0.388998  0.309115   1.91218 255 255 255
-0.687304 0.0273411   2.14437 255 255 255
0.0116704  0.340922    1.7609 255 255 255
-0.36156 0.211182  1.91987 255 255 255
0.0799247  0.413627   1.71311 255 255 255
-0.207753  0.300901   1.82679 255 255 255
-0.370864  0.099634   1.95214 255 255 255
0.0301085  0.137797   1.82247 255 255 255
0.0516558  0.401878   1.73681 255 255 255
-0.463352  0.997998    1.5339 255 255 255
-0.481019  0.231028   1.96912 255 255 255
0.0282056  0.320263    1.7659 255 255 255
0.188796 0.223508  1.76405 255 255 255
0.116713 0.437422  1.67903 255 255 255
-0.536678  0.198653   1.98496 255 255 255
-0.377854 -0.218484   2.04309 255 255 255
0.139656 0.295326  1.73614 255 255 255
0.0662113  0.506545   1.66382 255 255 255
0.093661  0.54766  1.66592 255 255 255
 -0.325882 -0.0896523    1.96927 255 255 255
-0.373127  0.124843   1.95465 255 255 255
-0.11193 0.394118  1.77899 255 255 255
0.0376387   0.57036    1.6351 255 255 255
0.0360091  0.300058    1.7552 255 255 255
-0.596415  0.319906   1.90564 255 255 255
0.0230806  0.548783   1.63086 255 255 255
-0.0283859   0.151546    1.82524 255 255 255
-0.840524  0.501378   1.91505 255 255 255
  0.13358 0.0746797   1.82022 255 255 255
0.0903999  0.365615   1.72878 255 255 255
0.119198 0.346409   1.7175 255 255 255
-0.000600452     0.156479      1.81492 255 255 255
-0.685616 0.0590205   2.03394 255 255 255
 -0.568087 -0.0718354    2.08085 255 255 255
-0.282989  0.095563   1.93044 255 255 255
-0.338951 -0.191454   1.99262 255 255 255
-0.681898   1.12125   1.51256 255 255 255
-0.701146  0.833426   1.66127 255 255 255
-0.467372  0.234021   1.97841 255 255 255
 0.10657 0.113018  1.81985 255 255 255
-0.186704 -0.149781   1.93346 255 255 255
-0.0291364  -0.146616    1.88917 255 255 255
0.0939075  0.485204   1.66233 255 255 255
-0.645164  0.939989   1.60409 255 255 255
-0.0954711    0.40595    1.78177 255 255 255
 -0.51072 0.0796729   2.02885 255 255 255
0.0786127  0.431685   1.70065 255 255 255
-0.0198914   0.420597    1.69634 255 255 255
0.194392 0.159143  1.79451 255 255 255
-0.138048 0.0507421   1.85634 255 255 255
-0.215282  0.186686   1.87867 255 255 255
-0.612361  0.834652   1.64159 255 255 255
0.0638921 0.0511888   1.84329 255 255 255
0.174369 0.327568  1.71128 255 255 255
-0.553415   1.00796    1.5351 255 255 255
-0.0610482   0.306916    1.78898 255 255 255
-0.864142   0.82525   1.70289 255 255 255
  -0.125476 -0.00399392     1.90001 255 255 255
-0.000598588   -0.0364459      1.87853 255 255 255
-0.104328  0.246073   1.80792 255 255 255
-0.125342  0.272788    1.8206 255 255 255
 -0.168063 -0.0263451     1.9266 255 255 255
-0.287674  0.292536   1.86758 255 255 255
-0.666462   0.58707   1.80817 255 255 255
  -0.3284 0.0159356   1.94841 255 255 255
0.0594349  0.440107   1.68845 255 255 255
0.276929 0.259147  1.75552 255 255 255
-0.872212  0.614865   1.83041 255 255 255
-0.0173279   0.593152    1.61298 255 255 255
0.0294068  0.391628   1.72783 255 255 255
-0.468277  0.215953    1.9723 255 255 255
0.112321 0.356563  1.72665 255 255 255
0.148614 0.282612  1.73847 255 255 255
-0.149297 -0.037645   1.91252 255 255 255
-0.800791   1.02754   1.58523 255 255 255
 -0.325809 -0.0170778    1.95388 255 255 255
-0.749349   1.03171   1.56649 255 255 255
-0.00173935    0.177381     1.78689 255 255 255
0.0637697  0.391759   1.72341 255 255 255
0.0295894  0.187768   1.77664 255 255 255
-0.768172    1.0437   1.57223 255 255 255
0.179917 0.252244  1.74943 255 255 255
-0.341665 -0.161642   1.99393 255 255 255
-0.631142 0.0988955   2.10127 255 255 255
-0.633138  0.242291   1.94896 255 255 255
0.230197 0.218635  1.77057 255 255 255
0.102684 0.215705  1.77186 255 255 255
0.170849  0.30427  1.73573 255 255 255
-0.468194 0.0854562    1.9776 255 255 255
 -0.558494 0.00484143    2.07091 255 255 255
-0.0202199   0.609018    1.61863 255 255 255
-0.452436 -0.203521   2.08919 255 255 255
-0.560596  0.842402   1.62739 255 255 255
-0.181025 0.0703846   1.88697 255 255 255
0.0603106  0.363965   1.70916 255 255 255
 -0.527312 -0.0686104    2.06575 255 255 255
-0.818684  0.480677   1.91654 255 255 255
0.0887153  0.140849   1.81614 255 255 255
-0.0800881   0.248138    1.80917 255 255 255
0.0359233  0.151275   1.78092 255 255 255
-0.487536 0.0908497   2.00926 255 255 255
0.150764 0.381479  1.69915 255 255 255
-0.0492027   0.422716    1.74239 255 255 255
0.212301 0.153159  1.80037 255 255 255
-0.0414352   0.414952    1.74201 255 255 255
0.0823295  0.508859   1.68169 255 255 255
-0.517354   0.91713   1.60994 255 255 255
-0.6985 1.11821 1.52287 255 255 255
0.0940536  0.357022   1.71199 255 255 255
0.140804 0.224007  1.77444 255 255 255
0.145863 0.340311  1.71921 255 255 255
-0.257995 0.0932234   1.91962 255 255 255
0.0499425  0.260794    1.7821 255 255 255
-0.313295  0.572231    1.7176 255 255 255
-0.105585  0.138775   1.85853 255 255 255
-0.646294   0.56678   1.80053 255 255 255
-1.01525  1.02011  1.62412 255 255 255
0.257228  0.33849  1.68111 255 255 255
-0.97054 0.905846  1.69077 255 255 255
-1.00105  1.02341  1.61607 255 255 255
 -0.269245 -0.0510178    1.94031 255 255 255
-0.424828  0.307277   1.88156 255 255 255
-0.249375 -0.200154   1.94392 255 255 255
-0.545474    1.0146   1.53102 255 255 255
0.0707581  0.322569   1.73449 255 255 255
-0.645913  0.181068   2.08328 255 255 255
-0.43662 0.366977  1.85565 255 255 255
-0.0267595   0.510422    1.67136 255 255 255
0.260326 0.273246  1.74893 255 255 255
-0.488513  0.919734   1.60019 255 255 255
 -0.616644 -0.0922953    2.11203 255 255 255
-0.742761  0.960339   1.59835 255 255 255
-0.50025 0.967318  1.57997 255 255 255
-0.501608  0.166704   1.98667 255 255 255
0.129609 0.408209  1.69036 255 255 255
0.00471976 -0.0261805    1.88723 255 255 255
-0.677323 0.0130133   2.13416 255 255 255
-0.335694  0.212953   1.89963 255 255 255
-0.00318944     0.17017     1.81064 255 255 255
-0.769671   0.95101   1.61159 255 255 255
0.132644 0.416265  1.68816 255 255 255
-0.880467  0.509272   1.92192 255 255 255
-0.229206  0.104459   1.90581 255 255 255
-0.637663   0.81831   1.65781 255 255 255
-0.707667 0.0863883   2.12726 255 255 255
-0.698894  0.173511   2.00044 255 255 255
-0.237377  0.577309   1.69963 255 255 255
-0.439581  0.411529   1.83665 255 255 255
-0.673271  0.568503   1.81509 255 255 255
-0.375584  0.919474   1.57818 255 255 255
 -0.0779151 -0.00157299     1.88841 255 255 255
-0.293774  0.628075   1.71349 255 255 255
-0.16451 0.469626  1.76882 255 255 255
0.170512 0.314183  1.73051 255 255 255
 -0.135348 -0.0464609    1.92489 255 255 255
-1.08074 0.843991  1.74712 255 255 255
-0.244422  0.641882   1.67963 255 255 255
 -0.2005 0.426808  1.75884 255 255 255
-0.0346351     0.3788    1.74913 255 255 255
   -0.15 0.363346  1.79525 255 255 255
-0.179516  0.106889   1.89002 255 255 255
-0.0854429   0.078335     1.8596 255 255 255
-0.177753  0.125054    1.8684 255 255 255
0.0979733  0.247092   1.75965 255 255 255
0.257692 0.327729  1.71454 255 255 255
0.076187 0.451523  1.70202 255 255 255
0.206039 0.300809  1.73767 255 255 255
-0.67234  0.75634   1.6932 255 255 255
 -0.177126 -0.0924275    1.93366 255 255 255
0.0877949  0.233694   1.77612 255 255 255
0.0287279  0.437472   1.69961 255 255 255
-0.597861  0.145809   2.06978 255 255 255
0.111288 0.319678  1.73178 255 255 255
-0.433226  0.355927   1.85822 255 255 255
-0.239726 -0.176779   1.92788 255 255 255
-0.278148  0.256084   1.88435 255 255 255
 -0.19575 0.0378365   1.90862 255 255 255
-0.506417  0.187043   1.99961 255 255 255
-1.18446 0.954058  1.68718 255 255 255
0.145499 0.119456  1.79237 255 255 255
-0.126162  0.295976   1.81085 255 255 255
0.0884126  0.338774   1.72007 255 255 255
0.0547035  0.508118   1.66166 255 255 255
-0.0694984   0.313145    1.78751 255 255 255
0.0971206   0.20812   1.78259 255 255 255
-0.121151  0.400033   1.77621 255 255 255
0.132553 0.118804  1.80868 255 255 255
-0.111542  0.364045   1.77281 255 255 255
-0.695224  0.789833   1.68397 255 255 255
-0.807277   1.00007   1.59914 255 255 255
-1.00567 0.888974  1.71384 255 255 255
-0.331117  -0.10205   1.96848 255 255 255
0.00224802   0.218885    1.80227 255 255 255
0.181915 0.213793  1.78686 255 255 255
0.109025 0.328105  1.72639 255 255 255
0.125853 0.382658  1.65233 255 255 255
0.0477068  0.473804   1.67254 255 255 255
-0.741326  0.913539   1.63016 255 255 255
-0.199132 -0.143445   1.94718 255 255 255
0.199263 0.197202  1.78736 255 255 255
-0.643842  0.182323   1.98805 255 255 255
-0.0654869   0.140218    1.83898 255 255 255
0.117369 0.326648   1.7204 255 255 255
-0.666346  0.833668   1.65417 255 255 255
-0.476096  0.185437   1.98469 255 255 255
-0.179479  0.260219   1.82533 255 255 255
-0.290156  0.157215   1.92098 255 255 255
0.0851868  0.307164   1.73766 255 255 255
0.0836266  0.154695   1.80492 255 255 255
 -0.32797 -0.200311   1.98966 255 255 255
-0.272709  0.228827   1.87393 255 255 255
-0.734281  0.772372   1.70307 255 255 255
0.169462 0.337613  1.70594 255 255 255
-0.875999  0.650197   1.81896 255 255 255
-0.915277  0.833068    1.7061 255 255 255
0.0354917  0.045091   1.78267 255 255 255
0.0396611 0.0338249   1.83013 255 255 255
-0.0956335   0.322102    1.77693 255 255 255
-0.539649  0.132327    2.0507 255 255 255
 -0.674341 -0.0458819    2.13808 255 255 255
-0.171599 -0.168792    1.9296 255 255 255
-0.0983226  -0.032055    1.86326 255 255 255
0.0876517  0.434183   1.70217 255 255 255
-0.963225   1.01717   1.62881 255 255 255
-0.447393    0.2843   1.87232 255 255 255
-0.782257  0.824668   1.68928 255 255 255
-0.218661 -0.199293   1.93608 255 255 255
-0.671212  0.931198   1.60447 255 255 255
0.125669 0.161976  1.79774 255 255 255
 -0.9236 0.621947  1.82075 255 255 255
  0.070122 -0.0724445    1.85039 255 255 255
-0.0475125   0.575899    1.63176 255 255 255
-0.00646623     0.37126     1.73774 255 255 255
-0.911134  0.598202   1.86023 255 255 255
-0.390023 -0.140994   2.04128 255 255 255
 -0.33703 -0.249113   2.01037 255 255 255
-0.984634   1.06984   1.58821 255 255 255
-0.096993  0.298338   1.80284 255 255 255
-0.0490301  -0.100657     1.8933 255 255 255
-0.0171352   0.570879    1.63359 255 255 255
-0.130323  0.238358   1.82247 255 255 255
-0.407133  0.139816   1.96393 255 255 255
-0.387383 -0.160768   2.04112 255 255 255
-0.420102  0.895329   1.60183 255 255 255
-0.12451 0.129668  1.86265 255 255 255
-0.038545  0.230258   1.78825 255 255 255
-0.287994  0.137893   1.91386 255 255 255
-0.588578  0.174208   2.05345 255 255 255
-0.647624   1.02396    1.5539 255 255 255
-1.06451 0.920407  1.71271 255 255 255
0.0190058 0.0810331   1.82839 255 255 255
-0.587679  0.453548   1.83796 255 255 255
-0.610099   1.02255    1.5421 255 255 255
0.170299 0.188549  1.79555 255 255 255
-0.428701 -0.209549   2.02846 255 255 255
-0.40937 0.868175  1.61584 255 255 255
-0.580802 0.0674492   2.09169 255 255 255
-1.0324 1.00098 1.63604 255 255 255
-0.921646   1.09661   1.55559 255 255 255
-0.124384  0.356995   1.77844 255 255 255
-0.42795 0.363912  1.85889 255 255 255
-0.294736 0.0574123   1.93733 255 255 255
-0.185119   0.28916   1.84161 255 255 255
 -0.417863 -0.0821274    2.02216 255 255 255
-0.767773  0.843992   1.67033 255 255 255
-0.647915 0.0949811    2.1075 255 255 255
-0.135835 -0.187199   1.93128 255 255 255
-0.696225 0.0896225   2.13593 255 255 255
-0.116253  0.371549    1.7746 255 255 255
-0.641238   1.05758   1.54643 255 255 255
-0.680924  0.764016   1.69162 255 255 255
-0.581641   0.94669   1.57363 255 255 255
0.0689767  0.429964   1.71184 255 255 255
-0.0226643  -0.102915    1.89367 255 255 255
-1.11092   1.0155  1.64408 255 255 255
-0.361415  0.549347   1.75478 255 255 255
-0.801769  0.857527   1.66994 255 255 255
-0.565519  0.151023   2.05317 255 255 255
-0.609033   1.00985   1.54719 255 255 255
-0.0789244   0.327519    1.78359 255 255 255
-0.202672 0.0733754    1.8918 255 255 255
0.000832761  -0.0324738     1.87708 255 255 255
-0.0458154 -0.0723252     1.8938 255 255 255
0.086608 0.440992  1.70747 255 255 255
0.154892 0.140729  1.80696 255 255 255
-0.91868 0.595778  1.85629 255 255 255
0.0385571  0.330874   1.74137 255 255 255
0.000484258  -0.0829346     1.88789 255 255 255
-0.261416 0.0733005   1.92328 255 255 255
-0.0929397   0.224409    1.82463 255 255 255
-0.449859  0.844711     1.635 255 255 255
-0.0401298   0.367289    1.74911 255 255 255
 -0.278854 -0.0456474    1.94461 255 255 255
 -0.552697 -0.0302748    2.06806 255 255 255
-0.0436026   0.380899    1.74508 255 255 255
   0.077 0.184006  1.78034 255 255 255
 0.0256911 -0.0378398    1.87807 255 255 255
-0.995128  0.699273    1.8207 255 255 255
-0.629964   1.12332   1.49842 255 255 255
-0.039648  0.142883   1.82934 255 255 255
 -0.278977 -0.0243975    1.94429 255 255 255
-0.089347  0.384556   1.76901 255 255 255
-0.0766786   0.336754    1.78163 255 255 255
-0.00864855   0.0950356     1.84177 255 255 255
0.0305405  0.314524   1.76225 255 255 255
-0.455793 0.0756513   2.00416 255 255 255
-0.000386626     0.631273      1.58122 255 255 255
0.101838 0.521076  1.63956 255 255 255
-0.748545    1.1492   1.51846 255 255 255
 -0.3065 0.247988  1.90387 255 255 255
 0.15557 0.183122  1.78654 255 255 255
0.0969488  0.232115   1.76758 255 255 255
0.290617 0.357204  1.66631 255 255 255
-0.0405523   0.357695    1.75047 255 255 255
-0.71128 0.139544  2.12518 255 255 255
-0.250801  0.178676   1.90397 255 255 255
-0.237145  0.151555   1.89673 255 255 255
-0.208581  0.222998   1.86244 255 255 255
 -0.128393 -0.0306208    1.88767 255 255 255
0.0704408  0.383752    1.7169 255 255 255
-0.663106  0.940677   1.59755 255 255 255
-1.07239 0.843237  1.75137 255 255 255
0.246205 0.279597  1.71269 255 255 255
-0.0381855  -0.109614    1.88275 255 255 255
-1.08072  1.02855  1.63274 255 255 255
-0.476845  0.226198   1.96979 255 255 255
-0.70843  1.14579  1.50717 255 255 255
0.0544595  0.283336   1.75322 255 255 255
0.0646668 0.0940609   1.84058 255 255 255
-0.531856  0.953762   1.58818 255 255 255
-0.197776  0.522473   1.70729 255 255 255
-1.08955 0.908999  1.72629 255 255 255
0.212879 0.235083  1.76911 255 255 255
-0.0179243   0.389177    1.74464 255 255 255
-0.0798702   0.473217    1.72451 255 255 255
-0.00123591    0.340655     1.75641 255 255 255
0.0995038 0.0719508   1.84398 255 255 255
0.265634 0.245789  1.74562 255 255 255
-0.705122  0.801892   1.67876 255 255 255
-0.259797 -0.028814   1.95489 255 255 255
-0.251802 0.0524816   1.92523 255 255 255
-0.189993 0.0797288   1.89402 255 255 255
-0.230928  0.243424   1.83429 255 255 255
0.211557 0.387367  1.63526 255 255 255
-0.32586 0.266019  1.87069 255 255 255
-0.842067  0.474909   1.92496 255 255 255
-0.0897727  -0.176253     1.9317 255 255 255
-0.626992   1.05234   1.52858 255 255 255
 -0.297592 -0.0506716    1.98515 255 255 255
-0.423815  0.190281   1.92403 255 255 255
-0.110674  0.722187   1.62677 255 255 255
0.178068 0.272586  1.73665 255 255 255
-0.0569092   0.233367    1.81285 255 255 255
-0.812416   0.74252    1.7448 255 255 255
0.206762 0.200608  1.76698 255 255 255
-1.13834 0.916359  1.73367 255 255 255
-0.0986404   0.407181    1.76982 255 255 255
-0.273037  0.235676   1.89201 255 255 255
 -0.664409 -0.0234373    2.12903 255 255 255
-0.141184  0.233403   1.82925 255 255 255
0.304025 0.311625  1.69662 255 255 255
-0.625658   1.09331   1.51376 255 255 255
-0.536541  0.264716   1.92394 255 255 255
-0.428067  0.148034   1.97301 255 255 255
-0.786309   0.82466   1.67958 255 255 255
 -0.247331 -0.0739654    1.93617 255 255 255
-0.495279   0.10415   1.98511 255 255 255
-0.699951    0.1247   2.12578 255 255 255
0.0735611  0.426977   1.70856 255 255 255
0.071362 0.187711  1.78058 255 255 255
-0.636388   1.11907   1.50194 255 255 255
-0.332224 0.0737136   1.95248 255 255 255
-0.407577  0.115989   1.97514 255 255 255
-0.388926   0.88676   1.60096 255 255 255
-0.967733  0.966526   1.65117 255 255 255
-0.0919549   0.277003    1.80391 255 255 255
0.244219 0.325492  1.68377 255 255 255
0.0242871   0.33228   1.76408 255 255 255
0.0225112  0.333814   1.74923 255 255 255
-0.563876 0.0988935   2.05762 255 255 255
-0.539217 -0.108051   2.06525 255 255 255
-0.24982 0.198735  1.89356 255 255 255
0.0027142  0.525373   1.66443 255 255 255
-0.840814  0.878074   1.65859 255 255 255
-0.168349  0.354556   1.77712 255 255 255
0.0412894  0.188275   1.77563 255 255 255
  -0.66571 0.00831772    2.12066 255 255 255
-1.07587 0.914091  1.71751 255 255 255
-0.272796 -0.129631   1.94296 255 255 255
-0.201814  0.270594   1.82072 255 255 255
 0.04756 0.275423  1.76649 255 255 255
-0.148864  0.336686   1.80172 255 255 255
0.032832 0.570213  1.63577 255 255 255
-0.583843  0.287158   1.95045 255 255 255
-0.344901  0.249119   1.92233 255 255 255
-0.950555  0.994801    1.6457 255 255 255
-0.0913266   0.150908    1.85368 255 255 255
-0.599686   1.05859   1.52166 255 255 255
-0.472226  0.918881   1.59217 255 255 255
-0.42765 0.332035  1.85506 255 255 255
 -0.151591 -0.0547476     1.9032 255 255 255
-0.222996  0.234596   1.86136 255 255 255
-0.0440367  -0.118338    1.88764 255 255 255
-1.18497 0.967038  1.68877 255 255 255
  -0.132288 -0.00115729     1.89766 255 255 255
-0.780607  0.847984    1.6688 255 255 255
0.216743 0.326225  1.71603 255 255 255
-0.249942  0.159722   1.89542 255 255 255
-0.636926  0.791426   1.66766 255 255 255
-0.442259  0.182148   1.95703 255 255 255
-0.680956  0.134107   2.12191 255 255 255
 0.18726 0.166054  1.79492 255 255 255
-0.270524  0.681253   1.65117 255 255 255
0.0332142  0.396113   1.71868 255 255 255
  -0.15102 -0.0928381    1.93585 255 255 255
-0.294054  0.112541   1.93017 255 255 255
-0.124286  0.306057    1.8053 255 255 255
-0.12468 0.306753  1.79929 255 255 255
-0.924435   1.10169   1.55274 255 255 255
0.0648555  0.242121   1.76594 255 255 255
  -0.154488 -0.00539348     1.89562 255 255 255
-1.02513   1.0375  1.61611 255 255 255
-0.0818835   0.211416    1.82635 255 255 255
-0.478952   0.27085   1.95661 255 255 255
-0.213829  0.141046   1.88183 255 255 255
-0.8703 0.64307 1.81421 255 255 255
-0.529229  0.969449   1.58139 255 255 255
-0.692499   1.13801   1.50843 255 255 255
0.158478 0.311935  1.73608 255 255 255
-0.14209 0.241148  1.82964 255 255 255
0.0425804  0.176033    1.7779 255 255 255
-0.583193   0.15799   2.05587 255 255 255
 0.12294 0.329292  1.71543 255 255 255
0.0613068  0.390615   1.72814 255 255 255
-0.244696  0.216964   1.88626 255 255 255
 -0.414792 -0.0566973    2.01196 255 255 255
-0.911835  0.969623   1.64836 255 255 255
-0.176261  0.412054   1.78522 255 255 255
-0.333756  0.267852   1.88048 255 255 255
-0.0330039  0.0551942    1.87665 255 255 255
-0.00019365    0.624693     1.57324 255 255 255
-0.152269  0.290445   1.82919 255 255 255
 0.0609683 -0.0745548     1.8489 255 255 255
-0.316589   0.28047   1.89708 255 255 255
-0.477338  0.445681    1.8042 255 255 255
-0.313744  0.394628   1.85643 255 255 255
-0.283053  0.248771   1.89023 255 255 255
-1.00928 0.949919  1.67933 255 255 255
-0.492441  0.864313     1.631 255 255 255
0.120441 0.460198  1.67438 255 255 255
-0.00938999    0.467009     1.69858 255 255 255
-0.141515  0.336298   1.80942 255 255 255
0.0818665  0.297946   1.74497 255 255 255
-0.208584 -0.146256   1.95265 255 255 255
-0.971142  0.675034   1.83324 255 255 255
-0.222112  0.116822   1.90494 255 255 255
-0.881516   1.12098   1.53162 255 255 255
0.0447389  0.320423   1.74946 255 255 255
-0.589023   1.07467   1.51449 255 255 255
-0.0974264 -0.0794202     1.9079 255 255 255
-0.66752 0.748788  1.69837 255 255 255
0.174024 0.188902   1.7595 255 255 255
0.107063 0.514233  1.67393 255 255 255
-0.272556 -0.139465   1.94952 255 255 255
0.0981472 0.0652385    1.8309 255 255 255
0.0937408  0.442562   1.70486 255 255 255
-0.995887  0.885657   1.70961 255 255 255
-0.262856  -0.10409   1.94785 255 255 255
-0.921077   1.05595   1.60563 255 255 255
-0.720419  0.996279   1.57367 255 255 255
 0.103327 0.0751784   1.81717 255 255 255
-0.727234  0.903218   1.63242 255 255 255
 -0.519118 0.00844506    2.03591 255 255 255
-0.146336  0.438249   1.76578 255 255 255
0.0792425  0.234462   1.77651 255 255 255
-0.13213 0.120163  1.87107 255 255 255
-0.319905  0.335802   1.84424 255 255 255
0.0476485 0.0451241   1.83396 255 255 255
-0.072354  0.107984   1.83606 255 255 255
  -0.299244 0.000573626     1.94366 255 255 255
-0.13339 0.442656  1.76663 255 255 255
0.0305882  0.335618   1.76237 255 255 255
0.0309569  0.335476   1.76308 255 255 255
-0.154614  0.370333   1.79826 255 255 255
-0.704648   1.15157   1.50676 255 255 255
-0.228284  0.260937    1.8651 255 255 255
-0.890772   1.12195    1.5342 255 255 255
-0.497707 0.0139008   2.03261 255 255 255
-0.588535  0.196292   2.05857 255 255 255
0.199545 0.230324  1.77729 255 255 255
-0.477053  0.065719   2.00828 255 255 255
-0.0527259   0.218382    1.81549 255 255 255
-0.693746   0.11596   2.12133 255 255 255
-0.146497   0.35225   1.80732 255 255 255
-0.914236  0.703958    1.7991 255 255 255
0.247747 0.266662  1.71171 255 255 255
-0.858174  0.540741   1.90432 255 255 255
0.0929142  0.205612   1.77274 255 255 255
-0.939477   1.03167   1.61932 255 255 255
-0.242463  0.189528    1.8956 255 255 255
 -0.610783 -0.0652273    2.11996 255 255 255
-0.0709265   0.319773    1.79247 255 255 255
-0.100703  0.279895   1.81231 255 255 255
0.0346323  0.100921   1.83175 255 255 255
-0.240013 0.0233866   1.90428 255 255 255
-0.264514  0.144465   1.89996 255 255 255
-0.00924647    0.378188      1.7381 255 255 255
0.00182926  -0.073806    1.88529 255 255 255
 -0.432174 -0.0289219    2.00328 255 255 255
-0.659318  0.199101   2.07483 255 255 255
-0.692009  0.150083   2.11792 255 255 255
-0.0244964   0.385464    1.75096 255 255 255
-0.0675344  0.0262671    1.87636 255 255 255
-0.345882  0.287746   1.90228 255 255 255
0.00129733    0.12113    1.83008 255 255 255
-0.0236091   0.392083    1.74447 255 255 255
-0.0194176   0.151013    1.80822 255 255 255
 -0.21084 0.0267444   1.89663 255 255 255
0.0833445  0.498897   1.66168 255 255 255
-0.650192  0.962537   1.58124 255 255 255
-0.281224  0.211411   1.88783 255 255 255
-0.295462  0.198802   1.90561 255 255 255
-0.108179 0.0850767   1.85042 255 255 255
 -0.480653 -0.0622347    2.03878 255 255 255
-0.568251  0.353055   1.86211 255 255 255
 -0.152218 -0.0323133    1.90537 255 255 255
-0.489734 -0.255937   2.07632 255 255 255
-0.0127978   0.290513    1.78402 255 255 255
-0.0781164   0.224901    1.82549 255 255 255
-0.194671 0.0609943   1.89676 255 255 255
-0.00346508    0.308146     1.77391 255 255 255
-0.0715205   0.351395    1.77867 255 255 255
-0.176214   0.23251   1.84439 255 255 255
-0.671851   0.12991   2.10721 255 255 255
-0.23797 0.207344  1.88583 255 255 255
 -0.555909 -0.0485157    2.08696 255 255 255
0.00621036   0.357962    1.74243 255 255 255
-0.660381  0.948443   1.59541 255 255 255
-0.182179  0.361487   1.78554 255 255 255
-0.644804 0.0693882   2.04837 255 255 255
-0.71446   0.8453  1.65811 255 255 255
  -0.167 0.326052  1.79039 255 255 255
-0.188574  0.202808   1.86843 255 255 255
0.150465 0.184727  1.74172 255 255 255
 -0.285434 -0.0318259    1.94738 255 255 255
-0.027405  0.403504   1.73991 255 255 255
-0.170154  0.180264    1.8562 255 255 255
-0.257654 0.0810622   1.92296 255 255 255
-0.0797884  -0.103837    1.90893 255 255 255
-0.292477  0.308574   1.87484 255 255 255
-0.501486  0.174195   2.01988 255 255 255
   -0.663553 -0.000689839      2.12069 255 255 255
-0.234518 0.0446087   1.90863 255 255 255
-0.0544854  -0.154036     1.8856 255 255 255
-0.324641  0.217737   1.88859 255 255 255
-0.116359  0.384283   1.75985 255 255 255
-0.441042 -0.267909      2.04 255 255 255
-0.143119  0.184219   1.84889 255 255 255
-0.159249  0.171646   1.86121 255 255 255
-0.179799  0.182282   1.85859 255 255 255
-0.707133  0.120134   2.12429 255 255 255
-0.260259 0.0866883   1.91295 255 255 255
-0.10298 0.233137  1.82183 255 255 255
0.0545503  0.391888   1.73472 255 255 255
-0.193642  0.246296    1.8526 255 255 255
-0.168837  0.153786   1.86464 255 255 255
-0.169341   0.15213   1.87558 255 255 255
-0.960974  0.736635   1.79532 255 255 255
-0.272834  0.120724   1.91673 255 255 255
-0.288124 0.0659228   1.92986 255 255 255
-0.150751  0.185028   1.85166 255 255 255
0.0689379  0.238661   1.77609 255 255 255
-0.671329 0.0985586   2.11853 255 255 255
-0.581611  0.202657   2.05308 255 255 255
-0.0598422    0.28605    1.79327 255 255 255
-0.209019  0.170117   1.86556 255 255 255
-0.689311 0.0610839   2.12981 255 255 255
-0.282273 0.0775763   1.92201 255 255 255
-0.427367 0.0978156   1.96405 255 255 255
0.0337651  0.204792   1.73935 255 255 255
  -0.144039 -0.00226102     1.89895 255 255 255
 -0.14352 -0.163466   1.94208 255 255 255
-0.0886923   0.195189    1.81784 255 255 255
-0.537505  0.123095   2.04279 255 255 255
-0.194461 -0.158537   1.95012 255 255 255
-0.716556  0.165936   2.12703 255 255 255
-0.112495  0.353467    1.7826 255 255 255
-0.237688  0.110448     1.893 255 255 255
-0.132211  0.388772   1.78512 255 255 255
-0.206004  0.141137   1.87726 255 255 255
-0.465858  0.469276   1.81341 255 255 255
-0.0646343   0.134921     1.8366 255 255 255
-0.577604  0.164408   2.05317 255 255 255
 -0.329011 -0.0771697    1.97494 255 255 255
-0.0349066   0.609931    1.62175 255 255 255
-0.158915  0.167092   1.85923 255 255 255
-0.256045  0.155687   1.90508 255 255 255
-0.274545  0.072274   1.92414 255 255 255
-0.280272 0.0722263   1.92411 255 255 255
0.0206308  0.487262   1.68184 255 255 255
-0.486435   0.11176   1.97098 255 255 255
-0.163086  0.186322   1.85332 255 255 255
-0.185887 0.0645019   1.89053 255 255 255
-0.547609  0.161095   2.03626 255 255 255
-0.160451  0.228982   1.83783 255 255 255
-0.214317 0.0398704   1.90772 255 255 255
-0.648399 0.0302474   2.11465 255 255 255
0.000303469   -0.117886     1.87669 255 255 255
-0.193059  0.227905    1.8679 255 255 255
-0.247607  0.153137   1.88557 255 255 255
-0.591527  0.155616   2.05226 255 255 255
-0.108788  0.202097   1.83471 255 255 255
0.262746 0.301886  1.69999 255 255 255
-0.234992  0.119315    1.8943 255 255 255
 -0.12295 0.0853914     1.848 255 255 255
-0.0400627  0.0375689    1.86338 255 255 255
-0.695352  0.159964    2.1087 255 255 255
-0.202462  0.055623   1.89792 255 255 255
-0.275709 0.0206824   1.94269 255 255 255
0.00345529    0.28529    1.78017 255 255 255
0.0163761   0.31684   1.76665 255 255 255
-0.27107 0.277591  1.86578 255 255 255
-0.298718 0.0444597   1.94115 255 255 255
-0.0908958 -0.0758563    1.90676 255 255 255
-0.11327  0.18133  1.84219 255 255 255
-0.207885 -0.194835    1.9296 255 255 255
-0.326464  0.230351   1.89472 255 255 255
-0.219751 -0.181399   1.94487 255 255 255
-0.348223  0.466822   1.71585 255 255 255
-0.242881  0.159556   1.88319 255 255 255
-0.0676256   0.275256     1.7921 255 255 255
-0.740512  0.532021   1.85578 255 255 255
-0.17754 0.131811  1.87408 255 255 255
-0.528105  0.178681   2.02192 255 255 255
-0.62639 0.206011  2.07459 255 255 255
 -0.161926 -0.0150075    1.90391 255 255 255
-0.0892063  -0.119859    1.91818 255 255 255
-0.236354  0.176145   1.87661 255 255 255
-0.445776 0.0853948   1.98428 255 255 255
-0.103864  0.344269   1.76287 255 255 255
 -0.29304 0.0119211   1.93224 255 255 255
-0.174924  0.362319   1.80279 255 255 255
 4.13012  3.47912 0.456132 255 255 255
 3.82718  3.92526 0.429047 255 255 255
 4.16026   3.3231 0.487296 255 255 255
3.85836 3.71812 0.33192 255 255 255
 3.96293  3.84124 0.452324 255 255 255
 3.88215  3.25833 0.286985 255 255 255
4.03524 3.99144 0.55261 255 255 255
  3.9228  3.95279 0.481311 255 255 255
 4.15706  3.26598 0.459838 255 255 255
 4.17327  3.56687 0.584566 255 255 255
 4.02634  4.02326 0.573547 255 255 255
 3.81939  3.43562 0.312401 255 255 255
 3.95822  3.63181 0.423756 255 255 255
 3.70737  3.38146 0.132949 255 255 255
3.83321 3.27172 0.28104 255 255 255
  4.2057  3.44837 0.513028 255 255 255
   4.274  3.52829 0.577274 255 255 255
 3.74177  3.12028 0.127153 255 255 255
  4.1348  3.94087 0.627401 255 255 255
 4.08492  3.87931 0.557097 255 255 255
  3.7635  3.43305 0.291739 255 255 255
 3.99487  3.98644 0.512935 255 255 255
 3.85005  3.28205 0.271704 255 255 255
 3.74157   3.1956 0.176471 255 255 255
3.77205 3.11007 0.16629 255 255 255
 3.75392  3.19833 0.185027 255 255 255
 3.7986 3.08981 0.18505 255 255 255
 3.81503  3.04285 0.195074 255 255 255
 4.09075  3.89507 0.554623 255 255 255
4.12175 3.32833 0.45069 255 255 255
 3.78649  3.07158 0.162789 255 255 255
 3.78854  3.06454 0.174075 255 255 255
 4.13783  2.93673 0.546581 255 255 255
 3.88821   3.9849 0.450736 255 255 255
 3.82327   3.0197 0.199109 255 255 255
  4.083 3.18633 0.38641 255 255 255
 3.76133  3.05277 0.165052 255 255 255
 3.70166     3.12 0.109991 255 255 255
 3.84682  3.98723 0.433592 255 255 255
 3.82204  3.22305 0.258013 255 255 255
 4.10667  3.88008 0.560591 255 255 255
3.97126 4.01277 0.53257 255 255 255
 4.00258  3.12154 0.341777 255 255 255
 4.08277  2.78525 0.490753 255 255 255
 3.69198  3.16897 0.140586 255 255 255
  3.6828  3.15499 0.134474 255 255 255
 4.19517  3.54555 0.594905 255 255 255
 3.82959  4.03959 0.509605 255 255 255
4.13849 3.22917 0.43366 255 255 255
 3.82353  3.99735 0.432968 255 255 255
 3.72921  3.14306 0.154349 255 255 255
 4.10485  4.06734 0.615505 255 255 255
 4.07044   3.1824 0.400384 255 255 255
 3.72173   3.9966 0.357604 255 255 255
 4.18899  3.25047 0.466072 255 255 255
 4.08274  3.23433 0.406077 255 255 255
 3.72969  3.46287 0.268163 255 255 255
 3.86678  3.88271 0.433774 255 255 255
 3.95778  3.11316 0.425723 255 255 255
 4.03424  2.88626 0.499291 255 255 255
 4.40464  3.88806 0.713709 255 255 255
 3.87647  3.89228 0.447008 255 255 255
 3.95053  4.02921 0.524275 255 255 255
 4.21855   3.9167 0.592944 255 255 255
 3.85704   3.0334 0.225177 255 255 255
 4.06146  3.92411 0.563591 255 255 255
 3.99984   3.1431 0.372684 255 255 255
 3.86664  4.01242 0.459266 255 255 255
4.21748 3.90326 0.58663 255 255 255
 3.89272   3.8409 0.431161 255 255 255
3.97696 2.78977 0.46059 255 255 255
 4.01482   3.8192 0.471086 255 255 255
 3.74769  3.91601 0.349298 255 255 255
 3.92302  3.88236 0.461737 255 255 255
3.77069 3.17785  0.1721 255 255 255
 3.76816  3.83192 0.353982 255 255 255
 3.86914  3.76524 0.371331 255 255 255
 3.9385 3.88514 0.42729 255 255 255
 3.96809  3.45333 0.413118 255 255 255
 4.10155  3.99213 0.604898 255 255 255
 3.93323  3.99459 0.487885 255 255 255
 3.97194  3.99675 0.526427 255 255 255
 4.03065  4.05411 0.574442 255 255 255
  4.0203  2.87614 0.477435 255 255 255
  3.9428  3.83339 0.462699 255 255 255
 4.14012  2.55532 0.632752 255 255 255
 4.17569  3.51303 0.503351 255 255 255
 3.88988  2.98362 0.264797 255 255 255
  4.0227  2.66034 0.520126 255 255 255
  3.8782  3.74509 0.362715 255 255 255
 4.09914  3.23031 0.451134 255 255 255
  4.1944  3.88252 0.613376 255 255 255
 3.96167   4.0353 0.536685 255 255 255
 4.05327  4.04024 0.565579 255 255 255
 3.81058  3.93326 0.391466 255 255 255
 3.82998  3.22337 0.278212 255 255 255
 3.75972  3.94829 0.364392 255 255 255
 4.16046  3.92354 0.639432 255 255 255
 3.73401   3.8505 0.348838 255 255 255
 3.77611  3.53044 0.324203 255 255 255
 4.06916  2.82155 0.543517 255 255 255
 3.85012  4.00398 0.435331 255 255 255
 3.87527  3.81857 0.417371 255 255 255
 3.88426  4.03267 0.474203 255 255 255
 3.99485  3.12394 0.355118 255 255 255
 3.95032  3.84817 0.469929 255 255 255
 3.84721  2.97923 0.215026 255 255 255
 3.94338  3.47841 0.418084 255 255 255
 3.88111  3.99129 0.460914 255 255 255
 4.19294  3.39784 0.523672 255 255 255
3.98977 3.33652 0.34561 255 255 255
 4.02145  3.15372 0.340408 255 255 255
 4.20118  3.44172 0.512032 255 255 255
 4.20249   3.5364 0.596309 255 255 255
 4.06139  2.90885 0.475734 255 255 255
 4.00306  3.75337 0.435166 255 255 255
 3.86486  2.92734 0.231728 255 255 255
 3.84284  2.98338 0.219202 255 255 255
 4.10607  2.76861 0.495133 255 255 255
 3.82357  3.02369 0.202401 255 255 255
 4.07057  3.91799 0.563799 255 255 255
 4.10862  3.15651 0.415096 255 255 255
3.84807 2.92566 0.21636 255 255 255
 4.34852  3.89082 0.669737 255 255 255
  4.1559  2.92058 0.538386 255 255 255
 4.05616  2.76544 0.474622 255 255 255
 3.71211  3.23556 0.138513 255 255 255
 4.11051  2.60547 0.595848 255 255 255
 4.16778  3.49529 0.517503 255 255 255
 3.82253  3.70926 0.306818 255 255 255
 3.89173  3.90147 0.458151 255 255 255
 3.84866  3.90752 0.430762 255 255 255
 3.79167  3.94796 0.384565 255 255 255
 3.81181  3.96844 0.400565 255 255 255
 3.83614  2.98928 0.209841 255 255 255
 3.98167  2.88913 0.398673 255 255 255
 4.00137  2.89621 0.476776 255 255 255
  3.7375  3.24185 0.158312 255 255 255
 3.76133  3.41015 0.292731 255 255 255
 3.98417  3.33153 0.350785 255 255 255
 3.72072  3.78675 0.288175 255 255 255
 4.19476  3.46871 0.512595 255 255 255
  3.7974  3.37293 0.302752 255 255 255
 3.98145  3.81449 0.485398 255 255 255
 3.73928  3.85432 0.351257 255 255 255
3.71927 3.83962 0.33692 255 255 255
 3.85594  2.92802 0.222062 255 255 255
 4.21695  4.01678 0.695475 255 255 255
 3.74732  3.89882 0.353667 255 255 255
 3.78598  3.47385 0.318669 255 255 255
 3.78465  3.47526 0.310097 255 255 255
