ply
format ascii 1.0
element vertex 1137
property float x
property float y
property float z
property uchar red
property uchar green
property uchar blue
end_header
-0.401423  0.949028   1.64933 255 255 255
-0.289436  0.688434   1.73457 255 255 255
0.221953   0.9442  1.52288 255 255 255
-0.240659   1.06052   1.57195 255 255 255
-0.754214    1.2045   1.54073 255 255 255
0.251363 0.849971  1.54546 255 255 255
-0.585926   1.31751   1.42891 255 255 255
-0.360333   1.46571   1.32899 255 255 255
-0.39367  1.47181  1.33419 255 255 255
-1.10778 0.852185  1.83529 255 255 255
-0.312195   1.37247   1.41827 255 255 255
-0.912168  0.654697   1.94269 255 255 255
-0.913249  0.930398   1.77497 255 255 255
-0.079759   1.09995   1.51285 255 255 255
-0.103499  0.304339   1.87224 255 255 255
-0.609686   1.04332   1.63488 255 255 255
-1.06537  1.11142  1.61362 255 255 255
-0.515105   1.40823   1.34459 255 255 255
  0.1347 0.408528  1.70579 255 255 255
-0.723042   1.17458   1.58028 255 255 255
0.131591 0.520543  1.71449 255 255 255
-0.943931  0.651352   1.94928 255 255 255
-0.312438   1.49412   1.29897 255 255 255
-0.0417845   0.239477    1.87337 255 255 255
-0.0366579   0.766074    1.63004 255 255 255
0.111832 0.357608  1.75478 255 255 255
 0.11177 0.358074  1.75959 255 255 255
-0.703728    1.1924   1.56865 255 255 255
0.0194849  0.372033   1.82869 255 255 255
-0.307535   1.49968   1.29391 255 255 255
-0.478618   1.30052   1.47584 255 255 255
-0.620667   1.07614   1.62401 255 255 255
-0.975859   1.08037   1.58081 255 255 255
0.130692 0.554134  1.72727 255 255 255
-1.06502 0.928026  1.78587 255 255 255
-0.741675   1.18752   1.57919 255 255 255
-1.06621  0.92065  1.79722 255 255 255
-0.907096  0.938485   1.77271 255 255 255
-0.730943  0.681208   1.79252 255 255 255
-0.456457    1.0768    1.5704 255 255 255
-0.978248  0.756435   1.80309 255 255 255
-0.311499   1.43914   1.35404 255 255 255
-0.708014   1.27246   1.39881 255 255 255
0.0240457   1.02464   1.53167 255 255 255
-0.322169  0.971197    1.6259 255 255 255
-0.502237    1.3674   1.42626 255 255 255
-0.730128  0.867743   1.75109 255 255 255
-0.455695    1.3262   1.45544 255 255 255
-0.0477391   0.627127     1.6863 255 255 255
-0.761183   1.02806   1.68177 255 255 255
-0.649214   1.24261   1.51901 255 255 255
-0.331933    0.4315   1.81874 255 255 255
-0.831452  0.933361   1.75307 255 255 255
-0.579693   1.21487   1.53837 255 255 255
0.131875 0.352098  1.73253 255 255 255
-0.523839    1.3304   1.44913 255 255 255
-0.831274  0.808077   1.80271 255 255 255
-0.53661  1.38595  1.38547 255 255 255
-0.641469   1.18388   1.56285 255 255 255
-0.564544  0.556843   1.85454 255 255 255
-0.684191   1.09022   1.63058 255 255 255
0.210286 0.509054  1.70553 255 255 255
-0.377187   1.45637   1.33468 255 255 255
0.120311 0.288518  1.78326 255 255 255
-0.159688  0.327271   1.88931 255 255 255
-0.331912  0.834882   1.70714 255 255 255
-0.898309  0.959247    1.7608 255 255 255
-0.271518   0.17201   1.98796 255 255 255
-0.4407 1.46734 1.32057 255 255 255
-0.674223  0.741285   1.79635 255 255 255
-0.572839   1.23059   1.51322 255 255 255
-0.258943   1.00445   1.59424 255 255 255
-0.321573  0.880533   1.67287 255 255 255
0.212513 0.833398  1.55772 255 255 255
-0.0185749   0.941599    1.56268 255 255 255
-0.0465838    1.20921    1.44975 255 255 255
0.302581 0.913674  1.49486 255 255 255
 0.09848 0.361724  1.73943 255 255 255
0.0816498    1.0992    1.4781 255 255 255
-0.810807   0.54461   1.95202 255 255 255
-0.865922   1.14388   1.54379 255 255 255
-1.18274 0.894505  1.83387 255 255 255
-0.403494  0.838783   1.72016 255 255 255
-0.779136   1.13334   1.59112 255 255 255
-0.624714  0.933966   1.68147 255 255 255
-0.777972  0.836882   1.78019 255 255 255
-0.629646   1.18018   1.56372 255 255 255
-0.293291  0.991206   1.60715 255 255 255
-0.608103   1.34382   1.36272 255 255 255
-0.521594   1.34801   1.43433 255 255 255
-0.653007  0.994417   1.66438 255 255 255
-0.638305   1.07117   1.62669 255 255 255
-0.351536   1.48062   1.31177 255 255 255
-0.612975  0.612709   1.84653 255 255 255
-0.656695   1.15245   1.55926 255 255 255
0.0841518  0.168544   1.85522 255 255 255
-0.715577  0.861918   1.74479 255 255 255
-0.783707   1.15712   1.60176 255 255 255
0.158378 0.505094  1.73926 255 255 255
-0.903525   1.02376   1.69699 255 255 255
-0.182455  0.398453   1.85169 255 255 255
0.256378 0.782231  1.58533 255 255 255
-0.0653882   0.376999    1.83547 255 255 255
0.0229192  0.203745   1.79789 255 255 255
-1.07608  1.10282  1.61617 255 255 255
-0.834629   1.09302   1.64776 255 255 255
0.304118   0.9229  1.49294 255 255 255
-0.628709   1.17396   1.56952 255 255 255
-0.216036   1.06154   1.56767 255 255 255
-0.722246  0.789505   1.78471 255 255 255
-0.731656  0.981139   1.68843 255 255 255
-0.406452   1.37297   1.40854 255 255 255
-0.384227   1.38112   1.40774 255 255 255
-0.79591  1.02012   1.6951 255 255 255
-0.600866   1.06087   1.61786 255 255 255
-0.425316  0.829963   1.71715 255 255 255
-0.399913   1.45239   1.34702 255 255 255
-1.01739 0.878339  1.83277 255 255 255
-0.426436   1.41009   1.37815 255 255 255
-0.365775   1.26488   1.47317 255 255 255
-0.640566   1.11415   1.60749 255 255 255
-0.490577  0.831477   1.74178 255 255 255
-0.351363   1.41366   1.37842 255 255 255
-0.0522637    1.23018    1.46541 255 255 255
-0.343775   1.06354   1.58927 255 255 255
-0.877534  0.584995   1.95694 255 255 255
-0.980912  0.754806   1.79668 255 255 255
-0.016334   0.91892    1.5651 255 255 255
-0.0519481   0.233777     1.8805 255 255 255
-0.358403   1.36474   1.43491 255 255 255
-0.307169   1.45798   1.33383 255 255 255
-0.390027   1.47933   1.32692 255 255 255
-0.848648  0.749513   1.84039 255 255 255
-0.526569   1.27277   1.50604 255 255 255
-0.486781   0.83709    1.7344 255 255 255
-0.259333   1.04823   1.57538 255 255 255
-0.578443   1.16074    1.5799 255 255 255
-0.0379478    0.49409    1.74606 255 255 255
-0.167484   0.96948   1.58771 255 255 255
-0.00435301    0.306835     1.84668 255 255 255
 0.24968 0.947239  1.52306 255 255 255
-0.428324   1.44992   1.31486 255 255 255
-0.639753  0.690475   1.81025 255 255 255
-0.541836   1.23542   1.54155 255 255 255
0.232933  0.44311  1.65992 255 255 255
-1.02035 0.926355  1.77547 255 255 255
-0.256177   1.04209   1.58063 255 255 255
0.0243854  0.208976   1.81575 255 255 255
-0.859682   0.85229   1.79761 255 255 255
-0.81252 0.549474   1.9512 255 255 255
-0.888154  0.820639   1.82139 255 255 255
-0.587867  0.675079   1.81447 255 255 255
-0.515236   1.41184   1.30508 255 255 255
-0.345021   1.42538    1.3598 255 255 255
-0.572483  0.560455   1.86636 255 255 255
-0.41748  1.45055  1.35679 255 255 255
-0.998769   1.09409   1.57122 255 255 255
-0.567666   1.28573   1.48203 255 255 255
-0.032663  0.240791   1.87922 255 255 255
-0.501999   1.15267   1.55942 255 255 255
-0.569871   1.21214   1.55913 255 255 255
-0.300551  0.235533   1.94841 255 255 255
-0.101322 0.0427227   1.97043 255 255 255
0.350647 0.780322  1.50035 255 255 255
0.237116 0.982931  1.50879 255 255 255
-0.20698 0.948814  1.60956 255 255 255
-0.343357  0.278217   1.96223 255 255 255
0.223359 0.935411  1.53279 255 255 255
-0.552156   1.12438   1.58337 255 255 255
-1.04771  1.04852  1.58642 255 255 255
-1.01889 0.932137  1.77601 255 255 255
-0.524009  0.927996   1.69638 255 255 255
-0.345612   1.50629   1.29663 255 255 255
-0.382692  0.850903   1.70959 255 255 255
-0.462126  0.412239   1.91051 255 255 255
-0.616083   1.26157    1.5089 255 255 255
0.244559 0.986321  1.50539 255 255 255
-0.767005  0.721827   1.84062 255 255 255
-0.406769   1.43567   1.35987 255 255 255
0.0161031  0.871956   1.55227 255 255 255
-0.369893  0.935919   1.66764 255 255 255
-1.14137 0.902999  1.78986 255 255 255
-0.252748   1.46187   1.35849 255 255 255
-0.192855  0.352374   1.87665 255 255 255
0.358945 0.778411  1.50827 255 255 255
-1.02401 0.961103  1.76115 255 255 255
-0.900018   1.04397   1.68931 255 255 255
-0.00486381    0.964972     1.53302 255 255 255
0.0309054   1.01201   1.51253 255 255 255
-0.110535  0.189342   1.90314 255 255 255
-0.646016   1.11393   1.60728 255 255 255
-0.443647   1.42672   1.37534 255 255 255
-0.553099   1.30677   1.47016 255 255 255
-0.4181 1.49909 1.24042 255 255 255
-0.537312   1.32804   1.45428 255 255 255
-0.239228  0.249138    1.9336 255 255 255
-0.917423  0.663693   1.94709 255 255 255
 0.20517 0.555361  1.68509 255 255 255
-0.679278   1.22517   1.54808 255 255 255
-0.419874   1.36549   1.42221 255 255 255
-0.109471  0.736362   1.68569 255 255 255
-0.387179  0.493502   1.83014 255 255 255
 0.113636 -0.589074   2.56545 255 255 255
-0.418427 -0.658599   2.56385 255 255 255
-0.385996 -0.613519   2.50676 255 255 255
-0.258854 -0.490817    2.3208 255 255 255
  -0.4552 -0.518317   2.38609 255 255 255
0.0986785 -0.422077   2.29611 255 255 255
 -0.52548 -0.609615   2.47929 255 255 255
-0.409685 -0.707247   2.63575 255 255 255
  0.18313 -0.631772   2.71592 255 255 255
-0.408728 -0.591018    2.4912 255 255 255
 0.160745 -0.610108   2.62915 255 255 255
-0.162506 -0.531474   2.40253 255 255 255
-0.534429 -0.754885   2.67465 255 255 255
-0.408916 -0.617633   2.51302 255 255 255
-0.00461911   -0.549337     2.42619 255 255 255
-0.452555 -0.735234   2.67004 255 255 255
-0.00886043   -0.635686     2.59106 255 255 255
0.0241546 -0.975699   3.33504 255 255 255
 0.155537 -0.566282   2.55071 255 255 255
-0.0642773  -0.859794    3.02423 255 255 255
-0.134899 -0.581708   2.46347 255 255 255
-0.332895 -0.658788   2.57033 255 255 255
-0.254602 -0.727651   2.66421 255 255 255
-0.0854598  -0.599275    2.55556 255 255 255
 0.298654 -0.917467    3.4382 255 255 255
-0.269594 -0.704385    2.6398 255 255 255
-0.133301 -0.527936   2.38412 255 255 255
0.0734348 -0.634057   2.60966 255 255 255
-0.162193 -0.566897   2.43566 255 255 255
-0.388641 -0.568099   2.46919 255 255 255
0.0219835 -0.922525   3.20497 255 255 255
-0.115302 -0.684628   2.64387 255 255 255
-0.536789 -0.705405   2.60332 255 255 255
-0.496876 -0.553958   2.41793 255 255 255
-0.108456 -0.937179    3.1277 255 255 255
-0.361419 -0.522116   2.41111 255 255 255
-0.0732218   -0.83157    2.94072 255 255 255
-0.489331 -0.712333   2.62299 255 255 255
-0.517782 -0.586589   2.45778 255 255 255
-0.192554 -0.895729   2.84453 255 255 255
-0.220389 -0.515759   2.36437 255 255 255
-0.508003 -0.667365   2.57772 255 255 255
0.0280072 -0.883531   3.12385 255 255 255
-0.265526 -0.443359   2.30734 255 255 255
0.0929132 -0.614862   2.59215 255 255 255
-0.377559 -0.598269   2.48842 255 255 255
-0.342383 -0.573539   2.46435 255 255 255
-0.290408 -0.710167   2.63008 255 255 255
-0.555328  -0.78649   2.70976 255 255 255
-0.497419 -0.647283   2.55114 255 255 255
-0.243082 -0.526044   2.40949 255 255 255
-0.174937 -0.872114   2.84088 255 255 255
 0.199657 -0.754198   2.99648 255 255 255
0.0923866 -0.630952   2.62335 255 255 255
-0.131828 -0.934658   3.11625 255 255 255
 0.181644 -0.538353   2.51791 255 255 255
-0.339207 -0.679082   2.59945 255 255 255
-0.516055 -0.767427   2.70005 255 255 255
-0.214979 -0.596045   2.49717 255 255 255
-0.324687 -0.861474   2.78679 255 255 255
-0.275732 -0.563812   2.45104 255 255 255
-0.512315 -0.719748   2.63046 255 255 255
-0.397286 -0.808332   2.73211 255 255 255
0.0370003 -0.690523    2.7056 255 255 255
-0.204906 -0.850097   2.81347 255 255 255
 -0.28953 -0.442038   2.30489 255 255 255
-0.589197 -0.687499   2.58458 255 255 255
-0.462998 -0.463356   2.30273 255 255 255
-0.354378 -0.596721   2.47658 255 255 255
-0.444211 -0.754579   2.69401 255 255 255
 0.165592 -0.586374   2.58141 255 255 255
-0.311139 -0.643356   2.57267 255 255 255
-0.338911 -0.881315    2.8187 255 255 255
-0.398301 -0.854962   2.83288 255 255 255
-0.0337542  -0.582423    2.47422 255 255 255
-0.347438 -0.886634    2.8457 255 255 255
-0.597516 -0.921341   2.89543 255 255 255
 -0.48025 -0.753477   2.68811 255 255 255
-0.077004 -0.432028    2.2878 255 255 255
-0.0568423  -0.509707    2.38299 255 255 255
-0.240927 -0.768619      2.74 255 255 255
 0.130925 -0.590601   2.57187 255 255 255
-0.575988 -0.889713   2.85637 255 255 255
 -0.50569 -0.684411   2.59366 255 255 255
-0.521956 -0.656144   2.54089 255 255 255
0.127384  -0.7776  2.95578 255 255 255
-0.571913 -0.689226   2.59488 255 255 255
 0.177627 -0.575663   2.56809 255 255 255
-0.209221 -0.754533   2.70474 255 255 255
-0.0424111   -0.44365    2.32465 255 255 255
-0.523458 -0.678795   2.58202 255 255 255
 -0.23674 -0.865857   2.71196 255 255 255
-0.25362 -0.47897   2.3466 255 255 255
-0.244053 -0.549629   2.42655 255 255 255
-0.546789 -0.690992   2.59994 255 255 255
-0.608645 -0.683097   2.58669 255 255 255
0.0295289 -0.509477   2.36773 255 255 255
 0.210344 -0.593452   2.64767 255 255 255
0.00485647  -0.734692    2.80314 255 255 255
-0.497161 -0.534865   2.39307 255 255 255
-0.249461 -0.870526   2.68781 255 255 255
  0.19579 -0.428306   2.34831 255 255 255
 0.116336 -0.517876   2.46222 255 255 255
 0.282448 -0.682952   2.88203 255 255 255
-0.519995 -0.574403   2.43953 255 255 255
-0.531445 -0.795297   2.72575 255 255 255
-0.290727 -0.682113   2.60709 255 255 255
-0.0376687  -0.449363    2.33837 255 255 255
-0.132522 -0.512069    2.3893 255 255 255
 0.212527 -0.653065   2.80366 255 255 255
0.0660983 -0.813749   2.99632 255 255 255
0.127848 -0.62169  2.62524 255 255 255
 0.170565 -0.734645   2.91772 255 255 255
0.113846 -0.79923  2.99372 255 255 255
-0.634521 -0.882719   2.83013 255 255 255
0.0338936 -0.525646   2.40366 255 255 255
-0.279531 -0.446967   2.31549 255 255 255
-0.277236 -0.438121   2.30358 255 255 255
 -0.2292 -0.74873  2.68529 255 255 255
-0.485194 -0.855233   2.81585 255 255 255
0.184135 -0.79983  3.05793 255 255 255
-0.465126 -0.557211   2.41805 255 255 255
  0.13984 -0.894968   3.24151 255 255 255
 0.185056 -0.849209   3.18392 255 255 255
-0.0608587  -0.866782    3.01909 255 255 255
-0.521307 -0.693908   2.60402 255 255 255
  0.14812 -0.982213   3.51577 255 255 255
  0.24396 -0.540507   2.52354 255 255 255
0.0919311 -0.763278   2.89659 255 255 255
-0.0321447  -0.441519    2.32859 255 255 255
-0.118678 -0.822866   2.83142 255 255 255
0.0369716 -0.987291   3.35676 255 255 255
-0.270958 -0.452042   2.31745 255 255 255
-0.352853 -0.751759   2.66997 255 255 255
-0.627164 -0.939461   2.92122 255 255 255
-0.431009 -0.783221   2.72846 255 255 255
 0.105222 -0.592195   2.55783 255 255 255
-0.228029 -0.780089   2.71758 255 255 255
-0.477524  -0.72785   2.66276 255 255 255
-0.583072 -0.852153   2.79671 255 255 255
-0.621739 -0.922675   2.89514 255 255 255
-0.517584 -0.628782   2.51799 255 255 255
 0.184676 -0.756745   2.98503 255 255 255
-0.578231 -0.704608   2.60751 255 255 255
 0.118066 -0.527484   2.47679 255 255 255
-0.0802755  -0.441791    2.29852 255 255 255
 0.127934 -0.941564   3.38759 255 255 255
-0.612756 -0.877371   2.82511 255 255 255
 0.163822 -0.540492   2.51227 255 255 255
 0.160602 -0.702474   2.84535 255 255 255
 0.215203 -0.929185   3.41524 255 255 255
0.00669075  -0.666651    2.64116 255 255 255
-0.00478449   -0.559443     2.45257 255 255 255
-0.657793 -0.886284   2.82939 255 255 255
-0.187251 -0.618417   2.50029 255 255 255
-0.0105803  -0.770838    2.88018 255 255 255
 0.162818 -0.548525   2.52111 255 255 255
 -0.23356 -0.847471   2.72259 255 255 255
-0.396308 -0.538477   2.42607 255 255 255
 -0.59693 -0.734119   2.60329 255 255 255
-0.276579 -0.654017   2.58297 255 255 255
-0.163244 -0.681826   2.62641 255 255 255
 -0.12519 -0.495287   2.34596 255 255 255
 0.159118 -0.905048   3.28692 255 255 255
-0.107682 -0.698501   2.67022 255 255 255
-0.145681 -0.680283   2.62619 255 255 255
-0.187375 -0.748717   2.71864 255 255 255
-0.265254 -0.823233   2.79169 255 255 255
 -0.57589 -0.923896   2.89546 255 255 255
-0.204346 -0.696482   2.63607 255 255 255
0.0860945 -0.730735   2.82944 255 255 255
 0.143453 -0.705331   2.83884 255 255 255
-0.454425 -0.606402   2.50019 255 255 255
-0.501019 -0.706191   2.62013 255 255 255
-0.503127 -0.509642   2.37776 255 255 255
-0.361885 -0.807844   2.77121 255 255 255
0.0398021 -0.862182   3.09216 255 255 255
-0.250854 -0.841346   2.70506 255 255 255
-0.669981  -0.90327   2.86148 255 255 255
-0.545815 -0.593169   2.45242 255 255 255
 0.104092 -0.757892   2.88981 255 255 255
 0.148844 -0.794733   3.01272 255 255 255
-0.514912 -0.574474   2.44307 255 255 255
-0.261819 -0.537403   2.42146 255 255 255
-0.590815  -0.93906   2.92259 255 255 255
-0.379056 -0.637931   2.54485 255 255 255
-0.405373 -0.538558   2.42705 255 255 255
-0.582053 -0.677781   2.58626 255 255 255
-0.425756 -0.721029   2.65041 255 255 255
-0.284453 -0.427182    2.3005 255 255 255
-0.381401 -0.926166   2.81317 255 255 255
-0.0831448   -0.45111    2.30827 255 255 255
-0.114024 -0.528853   2.41252 255 255 255
0.0335176 -0.908322   3.15419 255 255 255
-0.168836 -0.644974   2.58112 255 255 255
-0.168828 -0.645002    2.5826 255 255 255
-0.378741 -0.936347   2.81733 255 255 255
-0.480066 -0.561143   2.43435 255 255 255
-0.198152 -0.418825   2.28767 255 255 255
-0.229527 -0.876537   2.73965 255 255 255
-0.402089 -0.518256   2.40806 255 255 255
-0.0560719  -0.734456    2.70756 255 255 255
-0.236677 -0.907327   2.77966 255 255 255
 0.299255 -0.701642   2.92885 255 255 255
-0.0686013  -0.968146     3.2609 255 255 255
0.155872 -0.77082  2.99252 255 255 255
-0.185989 -0.739389   2.70239 255 255 255
-0.618625 -0.723612   2.61146 255 255 255
-0.297069 -0.799558   2.73761 255 255 255
-0.402521 -0.911127   2.82246 255 255 255
-0.331518  -0.70171   2.62802 255 255 255
 -0.37199 -0.880601    2.8381 255 255 255
-0.447178 -0.553571   2.43755 255 255 255
0.0295802 -0.428646   2.28124 255 255 255
-0.628684 -0.868404   2.81489 255 255 255
0.0258831 -0.659323   2.65488 255 255 255
-0.042675 -0.748144   2.72685 255 255 255
-0.178659 -0.645754   2.58696 255 255 255
-0.498923 -0.889904   2.86418 255 255 255
-0.280967 -0.834266   2.76422 255 255 255
-0.234404 -0.729323   2.67091 255 255 255
-0.0275955  -0.960113    3.27619 255 255 255
 0.231933 -0.551902   2.54814 255 255 255
-0.485836 -0.899184    2.8696 255 255 255
-0.0227651  -0.674085    2.63055 255 255 255
-0.563098 -0.679936   2.58919 255 255 255
 0.205967 -0.991079    3.5395 255 255 255
-0.173438 -0.474397   2.27935 255 255 255
-0.372303 -0.697784   2.62285 255 255 255
-0.438267 -0.578812   2.46497 255 255 255
 0.031103 -0.665793     2.671 255 255 255
 0.223906 -0.592963   2.64597 255 255 255
-0.236636 -0.708414   2.65698 255 255 255
 0.234515 -0.514814   2.48993 255 255 255
0.00411403  -0.553951    2.45111 255 255 255
0.0483154  -0.52748   2.40337 255 255 255
0.134543 -0.64042  2.65876 255 255 255
 -0.55439 -0.750417   2.66729 255 255 255
-0.372076 -0.923999   2.82873 255 255 255
-0.270762 -0.540649   2.42557 255 255 255
0.220988  -0.8258  3.16226 255 255 255
-0.547187 -0.785484   2.71488 255 255 255
 0.178348 -0.746155   2.95853 255 255 255
-0.122682 -0.789227    2.7808 255 255 255
-0.277543 -0.538858   2.42158 255 255 255
 0.134484 -0.711133   2.83304 255 255 255
0.0208246 -0.831857   3.01133 255 255 255
0.0804191 -0.675286   2.70087 255 255 255
-0.0800802  -0.599444    2.52957 255 255 255
0.0937872 -0.725113   2.84113 255 255 255
-0.059873 -0.765163   2.76227 255 255 255
-0.384705 -0.777668   2.67322 255 255 255
 0.193278 -0.593661   2.63231 255 255 255
-0.237017 -0.810016   2.79398 255 255 255
0.00635033  -0.893002    3.12644 255 255 255
-0.416528 -0.811244   2.70824 255 255 255
0.203625 -0.62854  2.72191 255 255 255
-0.0864175  -0.758012    2.74432 255 255 255
 -0.45768 -0.548263   2.41953 255 255 255
 -0.09032 -0.781315   2.78955 255 255 255
-0.529727 -0.689563     2.593 255 255 255
-0.0473716  -0.726524    2.70688 255 255 255
-0.221911 -0.619869   2.52335 255 255 255
-0.352968 -0.934996    2.9338 255 255 255
-0.337334 -0.666175   2.58247 255 255 255
-0.233741 -0.835977   2.83441 255 255 255
-0.513431 -0.538554   2.40366 255 255 255
 -0.37817 -0.897555   2.78526 255 255 255
 0.157034 -0.503361    2.4459 255 255 255
-0.162566 -0.831801   2.82313 255 255 255
-0.504656 -0.679521   2.58979 255 255 255
0.202348 -0.74093  2.97313 255 255 255
 0.231831 -0.889842   3.35474 255 255 255
-0.0995956  -0.766344    2.76942 255 255 255
 0.276329 -0.543661   2.54913 255 255 255
-0.445374 -0.494447   2.35893 255 255 255
-0.513334 -0.529663   2.38756 255 255 255
-0.514401 -0.545077    2.4107 255 255 255
 0.230748 -0.551432   2.54913 255 255 255
-0.354899 -0.724201   2.65435 255 255 255
-0.553331 -0.681231   2.59028 255 255 255
-0.454405 -0.537375   2.40446 255 255 255
-0.0346514  -0.903811    3.11195 255 255 255
-0.386105 -0.890371   2.81948 255 255 255
 0.166081 -0.788312   3.02669 255 255 255
0.0464233 -0.618764   2.57989 255 255 255
-0.463833 -0.611125    2.4989 255 255 255
-0.444903 -0.693633   2.61343 255 255 255
 0.169256 -0.763424   3.00274 255 255 255
-0.166835 -0.804556   2.76795 255 255 255
-0.0687977  -0.949171    3.22191 255 255 255
-0.0323408  -0.559532    2.45326 255 255 255
-0.455041 -0.557633   2.42515 255 255 255
-0.0119869  -0.714805    2.70078 255 255 255
-0.623709 -0.856609   2.79879 255 255 255
-0.164611 -0.639193   2.58527 255 255 255
-0.301149 -0.787149   2.75505 255 255 255
-0.156817 -0.637393   2.59764 255 255 255
-0.420697  -0.81918   2.77756 255 255 255
 0.136335 -0.556659   2.51782 255 255 255
-0.514826 -0.474089   2.36106 255 255 255
-0.257809  -0.55048   2.43743 255 255 255
-0.015947 -0.828413   2.96679 255 255 255
-0.12297 -0.90795  3.06574 255 255 255
-0.566262 -0.757883   2.67472 255 255 255
-0.440828 -0.541388   2.42218 255 255 255
-0.114689  -0.77637   2.76957 255 255 255
-0.113741 -0.764018   2.75238 255 255 255
0.0176194 -0.874433   3.10946 255 255 255
-0.409738   -0.5993   2.49512 255 255 255
-0.642348 -0.850889   2.77182 255 255 255
-0.235004  -0.43378   2.29006 255 255 255
-0.473543 -0.865727   2.82669 255 255 255
0.0837884 -0.531298   2.42826 255 255 255
  0.20044 -0.620037   2.69118 255 255 255
0.0419956 -0.666144    2.6754 255 255 255
-0.431484 -0.498125   2.36444 255 255 255
-0.624475  -0.68864   2.59074 255 255 255
-0.0108326  -0.913018    3.17319 255 255 255
-0.0650095  -0.747296    2.72086 255 255 255
-0.203717 -0.566861   2.46669 255 255 255
-0.638593 -0.833423   2.74049 255 255 255
-0.0807086  -0.696535    2.66029 255 255 255
  0.15251 -0.623904   2.65083 255 255 255
-0.464368 -0.482802   2.34667 255 255 255
-0.475479 -0.620457   2.51281 255 255 255
-0.208922  -1.00352   3.21723 255 255 255
-0.129034 -0.718494   2.68174 255 255 255
-0.188073 -0.826496   2.78637 255 255 255
 0.133939 -0.573144   2.54815 255 255 255
 -0.27458 -0.746543   2.70732 255 255 255
-0.589142 -0.778395   2.69282 255 255 255
0.000420495   -0.831424     2.99381 255 255 255
 -0.50132 -0.524441   2.37873 255 255 255
-0.00588941   -0.771769     2.86647 255 255 255
 0.212656 -0.788183   3.03153 255 255 255
 0.174527 -0.843604   3.14494 255 255 255
-0.205149 -0.891641   2.77711 255 255 255
0.224673 -0.81634  3.14913 255 255 255
-0.0337314  -0.451683    2.34113 255 255 255
-0.227824 -0.865967   2.70874 255 255 255
0.264914  -1.0152  3.67114 255 255 255
-0.186551 -0.544262   2.44129 255 255 255
-0.495382 -0.547193   2.41955 255 255 255
 0.107954 -0.741929   2.86607 255 255 255
 0.205657 -0.673807   2.82508 255 255 255
-0.536408 -0.588756   2.45533 255 255 255
-0.400994 -0.771517    2.6577 255 255 255
0.0236649 -0.478485   2.29429 255 255 255
-0.574782 -0.840877   2.79232 255 255 255
0.0469201 -0.660712   2.66586 255 255 255
 0.218318 -0.893293   3.34035 255 255 255
-0.511558 -0.505752   2.38345 255 255 255
 0.122645 -0.861655   3.14148 255 255 255
-0.0390937  -0.662592     2.6143 255 255 255
-0.281297 -0.568548   2.45561 255 255 255
-0.154768  -0.84388   2.86047 255 255 255
0.0987792 -0.618687   2.60966 255 255 255
 0.042958 -0.870693   3.09918 255 255 255
-0.408672 -0.808004   2.70928 255 255 255
-0.0647669  -0.922694    3.13846 255 255 255
-0.465863 -0.726156   2.65269 255 255 255
 -0.52662 -0.685364   2.59743 255 255 255
-0.0783494  -0.593457    2.49674 255 255 255
0.0911375 -0.590718   2.55716 255 255 255
 0.249654 -0.579675   2.61157 255 255 255
-0.462518 -0.719147    2.6447 255 255 255
-0.358032 -0.590371   2.48901 255 255 255
-0.422251 -0.533843   2.41808 255 255 255
0.248389 -0.58763  2.62744 255 255 255
 0.183831 -0.889661   3.30387 255 255 255
 0.326781 -0.849943   3.30177 255 255 255
 0.125515 -0.849267   3.14765 255 255 255
-0.175672 -0.638684   2.57861 255 255 255
-0.417892 -0.600539   2.49519 255 255 255
-0.0822547  -0.598666    2.49152 255 255 255
-0.417662 -0.588834   2.48164 255 255 255
-0.143515 -0.589416   2.45754 255 255 255
-0.456193 -0.615614   2.50951 255 255 255
 0.281953 -0.810288   3.19785 255 255 255
-0.101395 -0.703722   2.68607 255 255 255
-0.479424 -0.717368    2.6427 255 255 255
0.0750271 -0.920156   3.25723 255 255 255
-0.413259  -0.66477   2.56163 255 255 255
0.0185551 -0.810299   2.95825 255 255 255
-0.456509 -0.733727   2.66421 255 255 255
-0.457131 -0.923335   2.90001 255 255 255
-0.185848 -0.926524   3.05482 255 255 255
  -0.1615 -0.575962   2.45562 255 255 255
-0.505087 -0.589126   2.45776 255 255 255
-0.260322 -0.793849   2.75718 255 255 255
-0.634299 -0.920366   2.88708 255 255 255
-0.0537561  -0.865365    3.02483 255 255 255
-0.560625 -0.782164    2.7062 255 255 255
 0.268499 -0.652057   2.82636 255 255 255
 0.109783 -0.608845   2.59795 255 255 255
-0.409584 -0.524584   2.41199 255 255 255
-0.491149 -0.521768   2.36581 255 255 255
-0.476407 -0.503557   2.36395 255 255 255
 0.142428 -0.709831   2.85612 255 255 255
-0.0150535  -0.575138    2.47611 255 255 255
-0.504575 -0.667282    2.5703 255 255 255
 0.231941 -0.706512   2.91576 255 255 255
-0.212293 -0.504685   2.34707 255 255 255
-0.410248 -0.666734   2.56955 255 255 255
-0.392961  -0.55871   2.44613 255 255 255
-0.493478 -0.570293   2.42465 255 255 255
-0.499512 -0.808749   2.75857 255 255 255
-0.501799 -0.527636   2.37153 255 255 255
-0.286782 -0.674836   2.60618 255 255 255
  -0.4984 -0.698167   2.61382 255 255 255
-0.128256 -0.639379   2.58193 255 255 255
-0.360722 -0.683213   2.60875 255 255 255
 -0.25046 -0.740595   2.69196 255 255 255
-0.218918 -0.697707   2.64693 255 255 255
-0.508283 -0.689796    2.6012 255 255 255
-0.535744 -0.684046    2.5966 255 255 255
-0.101508 -0.793659   2.80289 255 255 255
 0.202521 -0.655771   2.80242 255 255 255
-0.182329 -0.664383   2.60612 255 255 255
-0.605555 -0.847792   2.78695 255 255 255
0.190143 -0.90686  3.35543 255 255 255
-0.511251 -0.598697   2.46786 255 255 255
-0.467421 -0.525596   2.38108 255 255 255
0.0676329  -0.87187   3.13547 255 255 255
-0.498313 -0.495388   2.36981 255 255 255
-0.476731 -0.597254    2.4713 255 255 255
-0.606212 -0.656795   2.55552 255 255 255
-0.0947239  -0.679227    2.63627 255 255 255
-0.199153 -0.584474   2.47765 255 255 255
 0.267665 -0.897714   3.37455 255 255 255
-0.464458 -0.901197   2.87306 255 255 255
 0.23791 -0.54305   2.5472 255 255 255
 -0.12589 -0.784668    2.7689 255 255 255
0.0463846 -0.983082   3.39494 255 255 255
-0.169484 -0.760776   2.72075 255 255 255
 0.218967 -0.775734   3.00104 255 255 255
0.0279079 -0.626125   2.58628 255 255 255
 0.164481 -0.776473   3.01794 255 255 255
-0.513281 -0.532825   2.37807 255 255 255
-0.349826 -0.866941   2.82024 255 255 255
 -0.16278 -0.748801   2.70608 255 255 255
 -0.46003 -0.599129   2.48456 255 255 255
-0.603912  -0.89867   2.86206 255 255 255
-0.641703 -0.790882   2.68983 255 255 255
-0.353722 -0.931684   2.82209 255 255 255
-0.448516 -0.481511   2.34796 255 255 255
-0.107376  -0.69251   2.66157 255 255 255
0.0595089 -0.598636   2.56939 255 255 255
-0.468581 -0.495072   2.35808 255 255 255
-0.266528 -0.422412   2.27876 255 255 255
 0.181423 -0.530712   2.50058 255 255 255
-0.321536 -0.855132   2.79999 255 255 255
-0.456159 -0.566755   2.43582 255 255 255
-0.299742 -0.604931   2.51477 255 255 255
-0.145386 -0.728371   2.69301 255 255 255
0.223015 -0.54875  2.55217 255 255 255
 0.275207 -0.573436   2.62319 255 255 255
-0.0044639  -0.789349    2.92169 255 255 255
0.266976 -0.63404  2.78206 255 255 255
 -0.52964 -0.578869   2.44748 255 255 255
0.000375389   -0.539549     2.45553 255 255 255
 -0.21003 -0.739107   2.70329 255 255 255
-0.603254 -0.935901   2.91633 255 255 255
-0.305394 -0.611664   2.51807 255 255 255
-0.0734856  -0.705327    2.67057 255 255 255
-0.00732257   -0.989499     3.34544 255 255 255
0.0859023 -0.607509   2.58206 255 255 255
0.0576414 -0.811608    2.9801 255 255 255
-0.120909  -1.02962   3.37212 255 255 255
-0.526237 -0.504311   2.38566 255 255 255
 0.175629 -0.621423   2.67044 255 255 255
-0.143139 -0.723232   2.69123 255 255 255
-0.603576  -0.70076   2.59851 255 255 255
-0.382479 -0.716387   2.64649 255 255 255
-0.528705 -0.545021   2.39713 255 255 255
-0.187197  -0.66661    2.6041 255 255 255
  0.16453 -0.839499   3.14531 255 255 255
 0.187583 -0.631105   2.71856 255 255 255
 0.101872 -0.478252   2.38022 255 255 255
-0.511694  -0.49704   2.38013 255 255 255
-0.456126  -0.49319    2.3574 255 255 255
-0.265389 -0.473729    2.3207 255 255 255
-0.631259 -0.794436   2.70601 255 255 255
-0.330849 -0.663613   2.58827 255 255 255
 0.140951 -0.555879   2.51631 255 255 255
-0.387777 -0.649876   2.56412 255 255 255
 0.155201 -0.546473   2.51727 255 255 255
-0.520292 -0.626491   2.52104 255 255 255
-0.208823 -0.712714   2.66078 255 255 255
  0.26066 -0.883146   3.33761 255 255 255
-0.132515 -0.588334    2.5066 255 255 255
-0.357866 -0.680752   2.56917 255 255 255
-0.386425 -0.857646   2.82717 255 255 255
0.0789416 -0.663451   2.70494 255 255 255
-0.527914 -0.514029   2.37899 255 255 255
0.201364 -0.95975  3.50486 255 255 255
-0.598151 -0.904592   2.87478 255 255 255
-0.437202 -0.837555   2.75128 255 255 255
-0.372926 -0.811968   2.73448 255 255 255
0.0621252 -0.664656   2.69543 255 255 255
-0.018185 -0.504767   2.29933 255 255 255
 0.276442 -0.558909   2.61096 255 255 255
-0.208811  -0.60533   2.48755 255 255 255
-0.451705 -0.659769   2.56232 255 255 255
-0.299579 -0.808287   2.77928 255 255 255
-0.0748902  -0.539657    2.54146 255 255 255
-0.011563  -0.56073   2.45816 255 255 255
0.149725 -0.93507    3.395 255 255 255
  0.11025 -0.869508    3.1404 255 255 255
 0.332362 -0.876219   3.37035 255 255 255
-0.571492 -0.939385   2.92893 255 255 255
 -0.55125 -0.699157   2.60617 255 255 255
 0.115261 -0.603243   2.58837 255 255 255
 -0.23215 -0.723746   2.65868 255 255 255
-0.378629 -0.643214   2.53598 255 255 255
-0.230119 -0.773233   2.71836 255 255 255
-0.236202 -0.775702   2.74257 255 255 255
 -0.57352 -0.931601   2.91044 255 255 255
-0.266139 -0.789082   2.72673 255 255 255
-0.382605  -0.67107   2.58383 255 255 255
0.0803547 -0.633108   2.62534 255 255 255
 0.204698 -0.651443   2.79567 255 255 255
-0.491961 -0.444831   2.32688 255 255 255
 -0.47354 -0.850114   2.81347 255 255 255
-0.162578 -0.928844   3.06868 255 255 255
 0.249456 -0.733444   2.98534 255 255 255
0.0987573 -0.675953   2.69792 255 255 255
 0.112003 -0.497592   2.39962 255 255 255
 -0.20741 -0.560836    2.4543 255 255 255
-0.108321 -0.656741    2.6182 255 255 255
-0.0603539  -0.586115    2.48852 255 255 255
-0.187634   -1.0387   3.34469 255 255 255
-0.190167 -0.820426    2.7923 255 255 255
-0.0716336  -0.690759    2.65509 255 255 255
-0.057334 -0.560224   2.46641 255 255 255
0.0672739 -0.595589   2.55416 255 255 255
-0.102264 -0.722395   2.69337 255 255 255
-0.511042 -0.666564   2.57236 255 255 255
-0.224235 -0.512125   2.35354 255 255 255
-0.480416 -0.569978   2.44385 255 255 255
0.0399322 -0.523854   2.39689 255 255 255
-0.639182 -0.803952   2.74465 255 255 255
 0.213694 -0.685372   2.83218 255 255 255
 -0.22194 -0.424503   2.28603 255 255 255
0.0756758 -0.683306    2.6998 255 255 255
  -0.5673 -0.800729   2.73378 255 255 255
-0.350194 -0.724935   2.66134 255 255 255
-0.0113343  -0.766044    2.87448 255 255 255
-0.241587 -0.724669   2.67117 255 255 255
0.0096338 -0.767253   2.84514 255 255 255
-0.424894 -0.706689    2.6319 255 255 255
-0.349382 -0.704395   2.63017 255 255 255
0.0503694 -0.632985    2.6154 255 255 255
-0.441432 -0.851662     2.775 255 255 255
 0.171235 -0.641683   2.72837 255 255 255
-0.519175 -0.482938   2.37258 255 255 255
 0.189093 -0.597691   2.63615 255 255 255
-0.598461 -0.690716   2.59203 255 255 255
0.0390851 -0.824383   2.99881 255 255 255
-0.545703  -0.58096   2.43782 255 255 255
-0.231993 -0.892048   2.76259 255 255 255
-0.532156 -0.699339   2.59932 255 255 255
-0.000152829    -0.644999      2.60343 255 255 255
-0.251152 -0.834859   2.74779 255 255 255
-0.561483 -0.750318   2.66213 255 255 255
-0.431932 -0.507224   2.37332 255 255 255
-0.489211  -0.56865   2.42572 255 255 255
-0.212653 -0.613483   2.49764 255 255 255
-0.414132 -0.656733   2.56091 255 255 255
-0.190042 -0.548969   2.44566 255 255 255
-0.400598 -0.743225   2.60283 255 255 255
-0.596065 -0.826644   2.76051 255 255 255
-0.122071 -0.719501   2.68659 255 255 255
-0.241477 -0.889467   2.74937 255 255 255
-0.584683 -0.893936   2.86157 255 255 255
-0.107303 -0.915134   3.10198 255 255 255
-0.508751 -0.629713   2.52206 255 255 255
-0.0369162   -1.06638    3.55653 255 255 255
-0.641813 -0.914146   2.88683 255 255 255
 0.145557 -0.585693   2.55786 255 255 255
-0.258282 -0.673258   2.61149 255 255 255
 0.276274 -0.665458   2.87507 255 255 255
-0.467012 -0.498265   2.36302 255 255 255
-0.619086  -0.85089    2.7936 255 255 255
-0.143433 -0.585506   2.45721 255 255 255
-0.127581 -0.940872   3.13921 255 255 255
-0.0968185  -0.700564    2.68387 255 255 255
 0.296246 -0.832983   3.25372 255 255 255
 -0.39558 -0.809355   2.76355 255 255 255
 0.186196 -0.852695   3.19283 255 255 255
-0.635113 -0.893678   2.84447 255 255 255
0.0737789 -0.739458   2.81794 255 255 255
 -0.18703 -0.557759   2.45569 255 255 255
-0.0988391   -0.89878    3.06886 255 255 255
-0.357774 -0.745825   2.62454 255 255 255
-0.505737  -0.57915   2.44117 255 255 255
-0.513035 -0.481547    2.3735 255 255 255
-0.0703196  -0.845133    2.96778 255 255 255
-0.378105 -0.662402   2.57076 255 255 255
 0.287102 -0.823434   3.23685 255 255 255
 0.253908 -0.734075   2.98423 255 255 255
 0.219114 -0.522822   2.50676 255 255 255
-0.208057 -0.732157   2.69556 255 255 255
-0.459813  -0.85306   2.82202 255 255 255
-0.108076 -0.720908   2.67978 255 255 255
 0.204536 -0.606575   2.67333 255 255 255
 -0.40518 -0.755309   2.69371 255 255 255
-0.439292  -0.49446   2.36267 255 255 255
-0.468968 -0.747348   2.67537 255 255 255
-0.392478 -0.687965   2.60958 255 255 255
-0.0508155    -1.0079    3.36511 255 255 255
-0.409288 -0.867717   2.83673 255 255 255
0.180489  -0.6204   2.6846 255 255 255
-0.0134846  -0.807433    2.95255 255 255 255
-0.0722948  -0.603833    2.49729 255 255 255
 0.301454 -0.669083   2.86176 255 255 255
 0.170837 -0.502589   2.47505 255 255 255
-0.124716 -0.435386   2.28026 255 255 255
 0.105434 -0.993719   3.49561 255 255 255
 0.335243 -0.792137   3.15604 255 255 255
-0.134613 -0.717357   2.68086 255 255 255
-0.0620969  -0.828753    2.94053 255 255 255
-0.553921 -0.747549     2.661 255 255 255
 0.128293 -0.750799   2.89743 255 255 255
-0.502604 -0.834262   2.79103 255 255 255
-0.453258  -0.53933   2.41553 255 255 255
-0.133789 -0.612877   2.49117 255 255 255
-0.507899 -0.534102   2.38613 255 255 255
 0.131058 -0.856259   3.15363 255 255 255
-0.185916 -0.614932   2.49609 255 255 255
-0.332793 -0.696577   2.62372 255 255 255
-0.108107 -0.710442   2.67565 255 255 255
-0.495184 -0.662681    2.5691 255 255 255
-0.607407 -0.923262   2.90045 255 255 255
-0.207414 -0.897624   2.81949 255 255 255
-0.164407  -0.57633   2.43992 255 255 255
-0.495902 -0.678377   2.57989 255 255 255
-0.452045 -0.720241   2.64367 255 255 255
-0.266847 -0.791948   2.76078 255 255 255
-0.259151 -0.788289   2.72993 255 255 255
0.0518707  -1.02106   3.52947 255 255 255
 0.203728 -0.517977   2.49289 255 255 255
 0.148339 -0.621369   2.65138 255 255 255
-0.402699 -0.433694   2.30926 255 255 255
-0.0948782  -0.795444    2.79468 255 255 255
-0.368699 -0.744707   2.68236 255 255 255
0.0465664 -0.884439   3.13072 255 255 255
-0.380477 -0.649079   2.55683 255 255 255
-0.363217 -0.749672   2.63533 255 255 255
-0.461544 -0.540658   2.41268 255 255 255
 0.163964 -0.723777   2.89613 255 255 255
-0.517494 -0.471196   2.35199 255 255 255
0.0900472  -1.00713   3.50589 255 255 255
-0.427528 -0.483435   2.35323 255 255 255
0.0725093 -0.929408   3.27984 255 255 255
-0.121439 -0.991937   3.29566 255 255 255
-0.485713  -0.70294   2.61527 255 255 255
-0.139684 -0.877709   2.99806 255 255 255
0.0537703 -0.852243   3.08996 255 255 255
-0.547751 -0.738228   2.65109 255 255 255
-0.414057 -0.489914   2.36657 255 255 255
-0.440912  -0.72065   2.65056 255 255 255
-0.0811949  -0.819699    2.92037 255 255 255
 0.164449 -0.715018   2.87974 255 255 255
-0.61615 -0.69344  2.58581 255 255 255
 0.15398 -0.70865  2.86614 255 255 255
-0.0517481   -1.00024    3.34554 255 255 255
-0.0864119  -0.962464    3.22909 255 255 255
-0.266373 -0.696466   2.59736 255 255 255
-0.420312 -0.453201   2.32503 255 255 255
-0.621609 -0.926972   2.89933 255 255 255
-0.0599311  -0.833908    2.95096 255 255 255
-0.282151   -1.0012    3.1455 255 255 255
-0.416024 -0.497781   2.37606 255 255 255
-0.133106 -0.684016   2.65254 255 255 255
 -0.33374 -0.714878   2.59528 255 255 255
-0.139606  -0.55927    2.4628 255 255 255
-0.0458264   -1.02316    3.41374 255 255 255
 0.230627 -0.900306   3.37558 255 255 255
-0.163781 -0.607012   2.48961 255 255 255
 -0.58716 -0.901965   2.86982 255 255 255
0.0545933  -0.89477   3.17131 255 255 255
-0.114802 -0.924801   3.11128 255 255 255
 0.135455 -0.719887   2.85767 255 255 255
-0.118253 -0.996656   3.30775 255 255 255
-0.123457 -0.440453   2.28604 255 255 255
 0.106569 -0.616175   2.60543 255 255 255
 -0.43245 -0.512933   2.38525 255 255 255
0.0167049 -0.722971   2.78703 255 255 255
 -0.45258 -0.593025   2.47625 255 255 255
-0.388478 -0.638369   2.53914 255 255 255
 -0.63109 -0.851414   2.79208 255 255 255
 0.215867 -0.816096   3.12296 255 255 255
 0.143751 -0.933411   3.40352 255 255 255
-0.432643 -0.476943   2.34869 255 255 255
-0.119434 -0.891924   3.03154 255 255 255
-0.413301 -0.723019   2.65526 255 255 255
-0.443896 -0.647753   2.55009 255 255 255
 -0.40047 -0.633755   2.53262 255 255 255
 0.183118 -0.752918   2.98193 255 255 255
-0.0374435  -0.623293    2.57702 255 255 255
-0.357434 -0.902539   2.75781 255 255 255
-0.389006 -0.499219   2.38386 255 255 255
0.168433 0.573533  1.72505 255 255 255
0.133648 0.561484  1.73059 255 255 255
0.0341027  0.997679   1.52701 255 255 255
-0.194504    1.0296   1.57492 255 255 255
-0.287572    1.0014   1.60847 255 255 255
 0.22961 0.977171  1.51734 255 255 255
0.394815 0.390635  1.74519 255 255 255
 0.24734 0.591089  1.69943 255 255 255
 0.147053 -0.502832   2.44875 255 255 255
-0.484827 -0.591603   2.49104 255 255 255
-0.455101 -0.440631   2.32353 255 255 255
-0.536378 -0.327494   2.22327 255 255 255
 -0.58518 -0.414394   2.31922 255 255 255
-0.133098 -0.419074   2.28292 255 255 255
0.0547936 -0.513954   2.39554 255 255 255
-0.765447 -0.302571    2.2464 255 255 255
-0.265907 -0.397182   2.23736 255 255 255
-0.403672 -0.347401   2.23417 255 255 255
-0.439212 -0.538199   2.41723 255 255 255
-0.0881056  -0.383236    2.24726 255 255 255
-0.433273 -0.493441   2.38509 255 255 255
-0.158273 -0.612775   2.51105 255 255 255
0.0948431 -0.488194   2.37303 255 255 255
-0.502189 -0.377758   2.21809 255 255 255
-0.755818 -0.399358   2.32191 255 255 255
-0.243533 -0.503193   2.37056 255 255 255
-0.383267 -0.285635   2.15327 255 255 255
-0.0513053  -0.463082    2.34196 255 255 255
-0.0496107  -0.482732    2.35407 255 255 255
-0.732426 -0.620448   2.52467 255 255 255
-0.135097 -0.581602   2.46304 255 255 255
 0.127024 -0.426112   2.30165 255 255 255
-0.562774 -0.431753   2.33074 255 255 255
-0.745455 -0.469063   2.38128 255 255 255
-0.539602 -0.541496   2.39537 255 255 255
-0.664517 -0.433481   2.31101 255 255 255
0.0681197 -0.366254   2.18784 255 255 255
0.0547572 -0.622109    2.5812 255 255 255
 0.183276 -0.435239    2.3266 255 255 255
0.0721584 -0.610879   2.57442 255 255 255
 0.175321 -0.557541   2.52857 255 255 255
 0.111681 -0.359599   2.22606 255 255 255
-0.587293 -0.435543   2.27572 255 255 255
 0.194192 -0.545401   2.51187 255 255 255
 0.205079 -0.560688   2.55234 255 255 255
-0.506466 -0.599773   2.49631 255 255 255
 0.098702 -0.391005   2.28373 255 255 255
-0.0316488  -0.463512    2.34638 255 255 255
 0.130617 -0.542367    2.4688 255 255 255
 0.101937 -0.367217   2.25248 255 255 255
-0.547977 -0.447414   2.33908 255 255 255
-0.142609 -0.408167   2.26683 255 255 255
-0.565799 -0.598546   2.44615 255 255 255
 0.182217 -0.536359   2.49761 255 255 255
 0.201133 -0.354109   2.23915 255 255 255
-0.464036 -0.511292   2.36768 255 255 255
0.0627636  -0.44938   2.27767 255 255 255
-0.769446 -0.321576   2.25502 255 255 255
-0.499862 -0.535221   2.39943 255 255 255
-0.545473 -0.528442   2.39737 255 255 255
-0.560891 -0.552989    2.4168 255 255 255
-0.132998 -0.397452   2.25275 255 255 255
0.00510322  -0.356701    2.17965 255 255 255
-0.796428 -0.324961   2.26388 255 255 255
-0.534427 -0.471221    2.3636 255 255 255
 -0.53438 -0.491462    2.3925 255 255 255
0.0886306 -0.468574   2.31534 255 255 255
-0.480455 -0.300617   2.17435 255 255 255
-0.656264 -0.496605   2.37997 255 255 255
-0.554388 -0.518154   2.40205 255 255 255
 -0.73843 -0.254654   2.21257 255 255 255
-0.527458 -0.502449   2.39514 255 255 255
-0.120413 -0.435373   2.28046 255 255 255
-0.716592 -0.258849   2.20883 255 255 255
-0.483985 -0.500516   2.37252 255 255 255
-0.777149 -0.365808   2.29201 255 255 255
  0.19515 -0.646592   2.72018 255 255 255
 0.206731 -0.514738   2.48762 255 255 255
  0.19378 -0.405633   2.28518 255 255 255
-0.0561865  -0.664413    2.62083 255 255 255
 0.317485 -0.489142   2.47326 255 255 255
 -0.71256 -0.246724   2.19499 255 255 255
-0.395313 -0.574211   2.47489 255 255 255
-0.466757 -0.433117   2.26272 255 255 255
-0.197829 -0.412386   2.29586 255 255 255
-0.671701 -0.457763    2.3687 255 255 255
-0.304269 -0.656264    2.5781 255 255 255
-0.121756 -0.602412    2.4921 255 255 255
-0.710729  -0.25453   2.21204 255 255 255
-0.754558 -0.248758   2.19841 255 255 255
 0.162302 -0.547876   2.51245 255 255 255
0.0790163 -0.493563   2.36996 255 255 255
-0.509649 -0.439243   2.33864 255 255 255
-0.761929 -0.326462   2.26263 255 255 255
-0.554469 -0.497711   2.39641 255 255 255
-0.568943 -0.523412   2.40655 255 255 255
-0.751801 -0.258699   2.21023 255 255 255
-0.535484 -0.592024   2.47264 255 255 255
0.0332545 -0.525881   2.40601 255 255 255
 -0.56175 -0.603205    2.4752 255 255 255
-0.559268 -0.534538    2.4023 255 255 255
-0.759734 -0.432346   2.33691 255 255 255
-0.453882 -0.289541    2.1787 255 255 255
-0.607509 -0.563166   2.44186 255 255 255
-0.499236  -0.55908   2.42014 255 255 255
 0.209184 -0.592896   2.62319 255 255 255
-0.369183 -0.552102   2.44216 255 255 255
-0.765615 -0.412404   2.33295 255 255 255
-0.414302 -0.593129   2.49291 255 255 255
 0.196998 -0.371596   1.90346 255 255 255
-0.0198544  -0.658494    2.61395 255 255 255
-0.0367556   -0.63039    2.58349 255 255 255
-0.799421 -0.386681   2.27648 255 255 255
 -0.15789 -0.642906   2.57931 255 255 255
-0.0256694  -0.449052    2.32771 255 255 255
0.0425013 -0.544437   2.44725 255 255 255
-0.784609 -0.277773   2.22821 255 255 255
-0.758695 -0.433213   2.32153 255 255 255
-0.785653 -0.297699   2.24069 255 255 255
-0.177967 -0.644989   2.57903 255 255 255
-0.670249 -0.523269   2.41939 255 255 255
-0.467727 -0.324692   2.20437 255 255 255
-0.582155 -0.527019   2.40042 255 255 255
-0.529704 -0.497951   2.38641 255 255 255
-0.698288 -0.625935   2.53749 255 255 255
 -0.52272 -0.521103   2.38635 255 255 255
0.0448786 -0.611835   2.56714 255 255 255
-0.699965 -0.465456    2.3845 255 255 255
-0.714419 -0.238092   2.19005 255 255 255
-0.660198 -0.503825   2.37687 255 255 255
-0.0668337  -0.481639    2.35615 255 255 255
-0.452529  -0.57145    2.4421 255 255 255
-0.682817 -0.631535   2.54678 255 255 255
 -0.29974 -0.662638   2.58062 255 255 255
-0.158209 -0.661177   2.60327 255 255 255
-0.713652 -0.464079   2.37893 255 255 255
-0.593524 -0.562039   2.42569 255 255 255
-0.150331 -0.643266   2.58277 255 255 255
-0.566464 -0.530744   2.40303 255 255 255
 -0.27144 -0.580333   2.46817 255 255 255
-0.474695 -0.451312   2.32065 255 255 255
-0.742786 -0.264259   2.22123 255 255 255
-0.508581 -0.558881   2.42348 255 255 255
-0.573314 -0.494247   2.38849 255 255 255
-0.774514  -0.31166   2.25425 255 255 255
-0.526001 -0.377605   2.27951 255 255 255
-0.550839    -0.587   2.45802 255 255 255
-0.142631 -0.565565   2.45247 255 255 255
-0.792626 -0.383812   2.27881 255 255 255
-0.480954 -0.516609   2.37469 255 255 255
-0.749383 -0.395768   2.30926 255 255 255
-0.777767 -0.275865   2.23083 255 255 255
-0.558514 -0.445582   2.34336 255 255 255
-0.0566908  -0.476314    2.35904 255 255 255
  -0.6054 -0.583255   2.46799 255 255 255
-0.806149 -0.358687   2.26086 255 255 255
   0.3068 -0.467453   2.43327 255 255 255
 0.146469 -0.553593   2.50863 255 255 255
-0.514325 -0.530005   2.38908 255 255 255
-0.587092 -0.582568   2.44279 255 255 255
-0.725115 -0.263277   2.21203 255 255 255
-0.461627 -0.489126    2.3601 255 255 255
-0.683084 -0.617295   2.52753 255 255 255
 -0.57539 -0.549373   2.41006 255 255 255
-0.654215 -0.660595   2.57627 255 255 255
-0.424361 -0.667064   2.57447 255 255 255
-0.789593  -0.31153   2.25106 255 255 255
-0.473832 -0.601228    2.4796 255 255 255
-0.396019  -0.28977   2.17013 255 255 255
 0.252987 -0.583863   2.58921 255 255 255
-0.424755  -0.66121   2.55998 255 255 255
  0.30459 -0.472712   2.43325 255 255 255
-0.577841 -0.565013   2.42241 255 255 255
-0.791552 -0.279853   2.22702 255 255 255
0.0286848 -0.650119   2.63549 255 255 255
-0.478666 -0.597774   2.47642 255 255 255
0.0404973 -0.620668   2.56668 255 255 255
-0.479364 -0.269471   2.15518 255 255 255
-0.584704 -0.557869   2.42116 255 255 255
 0.066645 -0.601027   2.56417 255 255 255
-0.751228 -0.390917    2.3095 255 255 255
-0.525926 -0.535916   2.39858 255 255 255
 -0.41872 -0.398385   2.27983 255 255 255
-0.526459 -0.508429   2.38583 255 255 255
 0.136533 -0.481762   2.40259 255 255 255
-0.577947 -0.328472   2.26167 255 255 255
-0.505864 -0.637294    2.5325 255 255 255
 0.183367 -0.423019   2.32219 255 255 255
-0.469449 -0.293633   2.18117 255 255 255
-0.534833  -0.51394   2.39505 255 255 255
 0.273064 -0.573555   2.57952 255 255 255
-0.309206 -0.664978   2.58577 255 255 255
0.0899805 -0.673432   2.67905 255 255 255
-0.422176 -0.364429   2.33905 255 255 255
-0.667943 -0.566846    2.4746 255 255 255
 -0.71435 -0.234531    2.1711 255 255 255
-0.432417 -0.259675   2.15219 255 255 255
0.0120873 -0.621612   2.57568 255 255 255
-0.759626  -0.24246   2.19838 255 255 255
-0.796023 -0.303492   2.25001 255 255 255
-0.655217 -0.591936   2.49643 255 255 255
 -0.49668 -0.498416    2.3733 255 255 255
0.0363789  -0.62282   2.56824 255 255 255
-0.586306 -0.581677   2.44976 255 255 255
-0.521207 -0.552407   2.42485 255 255 255
 0.236669 -0.510428   2.48777 255 255 255
 0.256385 -0.489817   2.43377 255 255 255
-0.734741 -0.645343   2.54055 255 255 255
-0.708803 -0.493843    2.3609 255 255 255
-0.391449 -0.595893   2.49014 255 255 255
-0.0989961  -0.654366    2.60519 255 255 255
-0.453592 -0.294782   2.18363 255 255 255
 -0.50826 -0.542474   2.41585 255 255 255
-0.581266 -0.561507   2.41851 255 255 255
-0.475455 -0.284668   2.17045 255 255 255
-0.764975 -0.275464   2.22508 255 255 255
-0.485758 -0.496118    2.3663 255 255 255
-0.792372 -0.293891   2.24096 255 255 255
-0.644154  -0.60699   2.51278 255 255 255
-0.549737 -0.518213   2.39926 255 255 255
-0.540832 -0.490543    2.3932 255 255 255
-0.778504 -0.272944    2.2227 255 255 255
-0.534345 -0.562368   2.43175 255 255 255
-0.524662 -0.372014   2.29276 255 255 255
-0.545991 -0.502822   2.40367 255 255 255
-0.519266  -0.42203   2.32625 255 255 255
 0.197491 -0.319173   2.18831 255 255 255
-0.510827 -0.103311   2.16096 255 255 255
-0.269772  0.246295   1.92345 255 255 255
-0.565354 -0.256907   2.24072 255 255 255
 -0.46464 0.0406079   2.12286 255 255 255
