ply
format ascii 1.0
element vertex 1188
property float x
property float y
property float z
property uchar red
property uchar green
property uchar blue
end_header
-0.117869 -0.620913    2.3525 255 255 255
-0.344382 -0.710608   2.40198 255 255 255
-0.356287 -0.881164   2.58306 255 255 255
0.0981418 -0.702244   2.53135 255 255 255
-0.524177 -0.535632   2.24913 255 255 255
 0.228273 -0.978091   3.06393 255 255 255
 -0.55873 -0.920756   2.60874 255 255 255
-0.411683 -0.862653    2.5337 255 255 255
-0.350672 -0.839392   2.52582 255 255 255
0.0809792 -0.703066   2.52273 255 255 255
-0.0111604  -0.536011    2.21079 255 255 255
 0.299212 -0.600066   2.48562 255 255 255
-0.197313 -0.636461   2.34387 255 255 255
-0.434598 -0.685916   2.38469 255 255 255
-0.274025 -0.835746   2.55343 255 255 255
-0.0561525  -0.573959    2.37008 255 255 255
0.000646943   -0.595257     2.33639 255 255 255
 0.178647 -0.956879   2.99352 255 255 255
 0.136641 -0.900274   2.83085 255 255 255
  0.35258 -0.908555   3.00404 255 255 255
-0.529115 -0.953976   2.64751 255 255 255
-0.529673 -0.722849   2.41189 255 255 255
0.132747 -0.64209  2.44874 255 255 255
-0.214913 -0.755381   2.47504 255 255 255
-0.364035 -0.671129   2.36925 255 255 255
-0.211002 -0.804498     2.522 255 255 255
-0.213655 -0.805714   2.53065 255 255 255
-0.532438 -0.946815   2.63448 255 255 255
-0.246683  -0.81928   2.52512 255 255 255
-0.365409  -0.69887    2.4053 255 255 255
0.0977673  -0.67171   2.47318 255 255 255
 0.226762 -0.693016   2.60907 255 255 255
-0.491589 -0.464574   2.21275 255 255 255
-0.441584 -0.871756   2.56927 255 255 255
 -0.12822 -0.951047   2.76229 255 255 255
 0.272282 -0.774559   2.74435 255 255 255
 0.117484 -0.715421   2.52835 255 255 255
 0.126401 -0.531802   2.30334 255 255 255
-0.196311 -0.591351   2.31642 255 255 255
-0.0915252   -0.69104    2.44856 255 255 255
-0.047898 -0.620398   2.35497 255 255 255
-0.139831  -1.04578   2.93868 255 255 255
-0.167006  -0.85055   2.56963 255 255 255
-0.0543705  -0.726105    2.48065 255 255 255
-0.0451694  -0.593885    2.33803 255 255 255
0.0831719 -0.633066   2.41826 255 255 255
-0.0835973  -0.756757    2.50495 255 255 255
-0.492267 -0.691215   2.38938 255 255 255
-0.217577 -0.540465   2.23631 255 255 255
-0.469296 -0.594593   2.29243 255 255 255
0.0516136 -0.557756   2.29391 255 255 255
-0.598899 -0.820408   2.49183 255 255 255
 0.235598 -0.727145   2.63554 255 255 255
-0.217025 -0.449208   2.18328 255 255 255
0.0944306 -0.722291   2.52768 255 255 255
-0.537927 -0.821972   2.50766 255 255 255
-0.329222 -0.753095    2.4646 255 255 255
0.0134549 -0.800115    2.6364 255 255 255
-0.221868 -0.755522   2.47807 255 255 255
0.0318224 -0.802979   2.62432 255 255 255
-0.404165 -0.733208   2.43862 255 255 255
-0.330046 -0.732831   2.44159 255 255 255
0.0672383 -0.670867    2.4626 255 255 255
-0.413788 -0.875839   2.54896 255 255 255
  0.19198 -0.682503   2.55761 255 255 255
-0.513519 -0.504694   2.24152 255 255 255
  0.20912 -0.638173   2.49241 255 255 255
-0.578607 -0.713235   2.40359 255 255 255
0.0647376 -0.857515   2.73206 255 255 255
-0.536088 -0.604295   2.28795 255 255 255
-0.211182 -0.920781   2.54592 255 255 255
 -0.51186 -0.723374   2.40913 255 255 255
0.0157936 -0.681855   2.44841 255 255 255
-0.229321 -0.863848   2.53354 255 255 255
-0.536903 -0.772985   2.45507 255 255 255
-0.424787 -0.531234    2.2406 255 255 255
-0.479813 -0.592895   2.27908 255 255 255
 -0.20049 -0.644898   2.34973 255 255 255
-0.397353 -0.683742   2.38557 255 255 255
-0.179078 -0.579578   2.31084 255 255 255
-0.386852 -0.771903     2.432 255 255 255
 -0.56449 -0.846459    2.5265 255 255 255
-0.103361 -0.753378    2.4982 255 255 255
-0.221164 -0.918251   2.53583 255 255 255
-0.546386 -0.910903   2.59936 255 255 255
-0.0736345  -0.938575    2.78809 255 255 255
-0.493012 -0.654358   2.35137 255 255 255
0.00803112   -1.06747    3.07541 255 255 255
 -0.60027 -0.928783   2.61638 255 255 255
 0.163152 -0.624658   2.42956 255 255 255
-0.240587 -0.703994   2.43264 255 255 255
 0.299396 -0.708607   2.67367 255 255 255
-0.460984 -0.521298   2.23232 255 255 255
-0.584922 -0.869276   2.55036 255 255 255
-0.132739 -0.617879   2.32367 255 255 255
-0.0917267   -0.96167    2.81132 255 255 255
-0.0773728  -0.734664    2.49534 255 255 255
 0.318199 -0.868524   2.92472 255 255 255
-0.368631 -0.834516   2.53722 255 255 255
 0.211079 -0.885145   2.87154 255 255 255
-0.597204 -0.909922   2.58681 255 255 255
0.0947613 -0.777515   2.61135 255 255 255
-0.175752 -0.588659   2.31888 255 255 255
-0.066795 -0.924007   2.76725 255 255 255
 -0.34285 -0.775241   2.44876 255 255 255
-0.495548 -0.603206   2.29079 255 255 255
-0.508432 -0.502818   2.24455 255 255 255
-0.0433201   -0.87546    2.70625 255 255 255
-0.361833 -0.690414   2.39584 255 255 255
 0.309471 -0.859369    2.9126 255 255 255
  0.27665 -0.775326   2.74418 255 255 255
 0.239128 -0.560935   2.39858 255 255 255
-0.187709 -0.763656   2.49813 255 255 255
-0.427632 -0.874825   2.57584 255 255 255
-0.0899502  -0.755227    2.49455 255 255 255
 0.225365 -0.647667   2.52132 255 255 255
-0.381244 -0.781624   2.48372 255 255 255
-0.432418 -0.518165    2.2314 255 255 255
-0.445094 -0.772238   2.46862 255 255 255
-0.373398 -0.715424    2.4236 255 255 255
-0.0110317   -1.02009    2.95942 255 255 255
-0.377989  -0.89025   2.58877 255 255 255
 0.200873 -0.661183   2.52693 255 255 255
0.0129311 -0.839881   2.69428 255 255 255
-0.0599508  -0.638253    2.36071 255 255 255
 0.324582 -0.712991   2.66909 255 255 255
 0.189023 -0.538858   2.36805 255 255 255
-0.118592 -0.462418   2.18409 255 255 255
0.138457 -1.00692  3.04964 255 255 255
 0.356854 -0.832489   2.87147 255 255 255
-0.115955 -0.750943   2.49299 255 255 255
-0.0358914   -0.86006    2.68709 255 255 255
-0.529481 -0.770429   2.45443 255 255 255
 0.150635 -0.789365    2.6717 255 255 255
-0.471196 -0.855831   2.55196 255 255 255
-0.443514 -0.563973   2.27148 255 255 255
-0.122064 -0.646077   2.35069 255 255 255
-0.502099 -0.556937   2.25106 255 255 255
 0.157259 -0.887836   2.84145 255 255 255
-0.174436 -0.646844   2.35252 255 255 255
-0.313941 -0.725464   2.43767 255 255 255
-0.0899154  -0.744762    2.49144 255 255 255
 -0.47674 -0.687718   2.38749 255 255 255
-0.565882 -0.938137   2.62659 255 255 255
-0.184075 -0.925655    2.5879 255 255 255
-0.154438 -0.607989   2.30869 255 255 255
-0.477047 -0.703385   2.39574 255 255 255
-0.430263  -0.74596   2.44597 255 255 255
-0.242886 -0.820745   2.54197 255 255 255
-0.239345  -0.81872   2.52903 255 255 255
0.0894194  -1.02945   3.06597 255 255 255
0.223044 -0.55552  2.38595 255 255 255
 0.167512 -0.661395   2.49936 255 255 255
 -0.39799 -0.456162   2.19141 255 255 255
-0.0733358  -0.828573     2.5789 255 255 255
-0.346464 -0.772137   2.47925 255 255 255
0.0749835 -0.912974   2.81916 255 255 255
-0.364259 -0.676876   2.38445 255 255 255
-0.347522 -0.778867   2.45641 255 255 255
-0.452103 -0.565106   2.26915 255 255 255
 0.186485 -0.763576   2.67454 255 255 255
-0.516322 -0.491385   2.23197 255 255 255
0.124214  -1.0185  3.05437 255 255 255
-0.420906 -0.507103   2.22423 255 255 255
 0.103255 -0.952613   2.91594 255 255 255
-0.0796073   -1.00548    2.91203 255 255 255
-0.464939 -0.728029   2.42287 255 255 255
-0.108764 -0.904048   2.71641 255 255 255
0.0812941 -0.883146   2.79382 255 255 255
-0.523924 -0.761392   2.44711 255 255 255
-0.406362 -0.514199   2.23453 255 255 255
-0.418849 -0.746601   2.45166 255 255 255
-0.0548134  -0.850819    2.66824 255 255 255
 0.186811 -0.755044   2.66334 255 255 255
-0.597561  -0.71561    2.4003 255 255 255
 0.176278 -0.748546   2.65295 255 255 255
-0.0125238   -1.01356    2.94726 255 255 255
-0.0491404  -0.980768     2.8721 255 255 255
-0.252395 -0.727587   2.42838 255 255 255
 -0.41522 -0.475945   2.20332 255 255 255
-0.579928 -0.941484   2.62574 255 255 255
-0.0334952  -0.865004    2.69467 255 255 255
-0.238776  -1.01459   2.80579 255 255 255
-0.407854 -0.522268   2.24182 255 255 255
 -0.11472 -0.717603   2.47026 255 255 255
-0.320309 -0.744768   2.42743 255 255 255
-0.127914  -0.59123   2.32792 255 255 255
-0.00479302    -1.03276     2.98961 255 255 255
 0.255163 -0.927285   2.98997 255 255 255
-0.151969 -0.639428   2.34705 255 255 255
-0.548422 -0.918559   2.60549 255 255 255
0.0837223 -0.922103   2.84605 255 255 255
-0.0805762  -0.947428     2.7939 255 255 255
 0.157439 -0.759311   2.64519 255 255 255
-0.0761746   -1.00962    2.91988 255 255 255
-0.117187 -0.467743   2.18897 255 255 255
 0.124065 -0.655083    2.4611 255 255 255
-0.424584 -0.537151   2.24978 255 255 255
0.0376674 -0.759789   2.58403 255 255 255
-0.440193 -0.618561    2.3193 255 255 255
-0.373094 -0.665927   2.37048 255 255 255
-0.596897 -0.869558   2.54925 255 255 255
 0.239356 -0.852231   2.83009 255 255 255
 0.173286 -0.954913   2.99841 255 255 255
-0.426348 -0.500288   2.22088 255 255 255
-0.0880462  -0.917638    2.74047 255 255 255
 -0.39155 -0.749633   2.45675 255 255 255
-0.427231 -0.674021   2.37562 255 255 255
-0.386454 -0.661102   2.36693 255 255 255
 0.206456 -0.791903   2.73448 255 255 255
-0.0220394  -0.658945    2.42453 255 255 255
-0.334999 -0.928694   2.54014 255 255 255
-0.380221 -0.524396   2.24888 255 255 255
0.186038 0.593515  1.64227 255 255 255
0.150075 0.580948  1.64756 255 255 255
0.0392277   1.02372   1.43109 255 255 255
-0.28919  1.03359  1.50128 255 255 255
-0.193131   1.56504    1.2019 255 255 255
0.237746  1.00182   1.4319 255 255 255
-0.240976    1.5403   1.19651 255 255 255
 0.26913 0.612542  1.61859 255 255 255
0.363584  1.92512 0.854184 255 255 255
0.209651  1.99046 0.865638 255 255 255
0.0799315   1.83357   1.00396 255 255 255
-0.0869548    1.69564     1.0783 255 255 255
0.297458  2.03659 0.850217 255 255 255
0.0533852   1.80045     1.018 255 255 255
-0.0112961    1.71087    1.08424 255 255 255
0.113174  1.93777 0.906097 255 255 255
0.322759  2.14067 0.766697 255 255 255
0.315341  2.01807 0.889986 255 255 255
0.000710326     1.65164     1.09565 255 255 255
0.373621  1.71738  1.01315 255 255 255
-0.0139767    1.80346   0.993957 255 255 255
-0.105672   1.65707   1.11975 255 255 255
0.0330442   1.84308  0.968517 255 255 255
-0.00385448     1.65415     1.12397 255 255 255
0.338524  1.70986  1.04411 255 255 255
0.115274  1.73812  1.02986 255 255 255
-0.148863   1.55672   1.18449 255 255 255
0.0864989   1.72928   1.04139 255 255 255
-0.00705276     1.83108    0.978902 255 255 255
0.104937  2.00095 0.858179 255 255 255
0.0454733   1.85502   0.96693 255 255 255
0.691581  2.10926 0.681445 255 255 255
0.469322  2.13441 0.761245 255 255 255
0.258902  1.89173 0.925221 255 255 255
-0.0316614    1.84321   0.975603 255 255 255
0.00302454    1.64896    1.10118 255 255 255
0.162781  2.07031 0.814199 255 255 255
0.261685  2.10808 0.779484 255 255 255
0.553367  2.23092 0.689344 255 255 255
0.292043   1.9284 0.897749 255 255 255
0.148063  2.02393  0.84809 255 255 255
0.617073  2.37085 0.610315 255 255 255
-0.0754496    1.62912    1.13403 255 255 255
0.269207  2.11956 0.770711 255 255 255
-0.0893743      1.681    1.09049 255 255 255
0.0566897   1.89435   0.93607 255 255 255
0.761496   2.5104 0.514746 255 255 255
 0.34498  1.98635 0.857652 255 255 255
 1.08703  2.39113 0.520478 255 255 255
-0.104129   1.73969   1.04601 255 255 255
0.221402  1.96483 0.901223 255 255 255
0.0484274   1.77969    1.0297 255 255 255
-0.0348231    1.67249    1.09939 255 255 255
0.262704  2.00322 0.875405 255 255 255
0.283597  2.02413 0.858822 255 255 255
0.0386248   1.78151   1.03381 255 255 255
-0.0550386    1.65353    1.11274 255 255 255
 0.82892  2.31406 0.632206 255 255 255
 1.01148  2.25017 0.513963 255 255 255
0.311244  1.73146  1.04094 255 255 255
0.0348259   1.83457  0.976298 255 255 255
0.284536  2.12364 0.772328 255 255 255
0.0900098   1.92097  0.916812 255 255 255
0.388879  2.04353 0.825704 255 255 255
0.256719  2.00731  0.87318 255 255 255
   1.04 2.36654 0.57479 255 255 255
 0.46257  1.89431 0.905772 255 255 255
 0.90998  2.39157 0.553157 255 255 255
0.308371   2.1334 0.769877 255 255 255
 1.29166  2.35822 0.390324 255 255 255
0.308664  2.14531 0.757135 255 255 255
 1.03373  2.35193 0.587291 255 255 255
0.412546  2.32905  0.66864 255 255 255
0.410091  2.20101 0.733616 255 255 255
 1.20174  2.56497 0.448983 255 255 255
 1.01585  2.02195 0.624825 255 255 255
0.831794   2.2933  0.65226 255 255 255
0.778885  2.25514  0.67823 255 255 255
0.634419  2.08004 0.763578 255 255 255
-0.229632   1.52917   1.22024 255 255 255
-0.171957   1.57278   1.19326 255 255 255
 0.163442 -0.539038   2.34671 255 255 255
-0.470503 -0.616503   2.32734 255 255 255
-0.450477 -0.462165   2.20257 255 255 255
-0.522503 -0.343734   2.09525 255 255 255
-0.576514 -0.433581   2.18509 255 255 255
-0.124355 -0.443853   2.17715 255 255 255
0.0673582 -0.546936   2.28875 255 255 255
-0.757324  -0.31651    2.1182 255 255 255
-0.259149 -0.418634   2.13168 255 255 255
-0.397204 -0.366092   2.12418 255 255 255
-0.429215 -0.562862   2.27377 255 255 255
-0.079713 -0.407242   2.15158 255 255 255
-0.424466 -0.517349   2.24886 255 255 255
-0.146332 -0.646815   2.38166 255 255 255
 0.107774 -0.521944   2.28124 255 255 255
 -0.48145 -0.391702   2.06508 255 255 255
-0.744069 -0.415673   2.17691 255 255 255
-0.235769 -0.530568   2.25024 255 255 255
-0.0408871  -0.491466    2.23336 255 255 255
-0.0404174   -0.51322    2.25323 255 255 255
-0.710286 -0.639777   2.33894 255 255 255
-0.124336 -0.613836   2.33149 255 255 255
 0.140254 -0.457143   2.22749 255 255 255
-0.555302 -0.451575     2.199 255 255 255
-0.731673  -0.48694   2.22529 255 255 255
-0.530228  -0.56405   2.25058 255 255 255
-0.655442 -0.451424   2.17279 255 255 255
0.0763686 -0.391547   2.12938 255 255 255
0.0708833 -0.659954   2.43879 255 255 255
  0.19876 -0.467954   2.25133 255 255 255
0.0884395 -0.648799   2.43449 255 255 255
 0.193269 -0.596658   2.41016 255 255 255
  0.12339 -0.386231   2.16407 255 255 255
-0.582961 -0.454225   2.15464 255 255 255
 0.212462 -0.584471     2.399 255 255 255
 0.224291 -0.600714   2.43151 255 255 255
-0.491388 -0.624234   2.32928 255 255 255
 0.111066 -0.419887   2.21008 255 255 255
-0.0209445  -0.492403    2.23914 255 255 255
  0.14636 -0.579639   2.36065 255 255 255
 0.113902 -0.394616   2.18444 255 255 255
-0.541322 -0.467717   2.20791 255 255 255
-0.134281 -0.432247   2.16316 255 255 255
  -0.5554 -0.622394   2.29163 255 255 255
0.199987 -0.57478  2.38671 255 255 255
 0.215996 -0.381799   2.17815 255 255 255
-0.457573  -0.53457   2.23568 255 255 255
0.0721434 -0.479826   2.20257 255 255 255
-0.760941 -0.335814   2.12437 255 255 255
-0.490206 -0.558455   2.25554 255 255 255
-0.535384 -0.550703   2.25132 255 255 255
-0.549276 -0.575386   2.26397 255 255 255
-0.124912 -0.421173   2.15222 255 255 255
0.0108758 -0.380415   2.11838 255 255 255
 -0.78771 -0.338965   2.13156 255 255 255
-0.525361 -0.492657   2.22507 255 255 255
-0.523827 -0.513526   2.24777 255 255 255
 0.100921 -0.499952   2.23196 255 255 255
-0.465003 -0.315621   2.04242 255 255 255
-0.644673 -0.516282   2.22947 255 255 255
-0.543709 -0.540185   2.25461 255 255 255
-0.732445 -0.267662     2.094 255 255 255
-0.516696 -0.524775    2.2494 255 255 255
-0.115378  -0.46201   2.19064 255 255 255
-0.710305 -0.272239   2.09017 255 255 255
-0.475101 -0.523367    2.2344 255 255 255
-0.766656 -0.381012   2.15261 255 255 255
 0.216641 -0.690476   2.56626 255 255 255
 0.225381 -0.552901   2.38123 255 255 255
 0.209156 -0.436578   2.21862 255 255 255
-0.0398606   -0.69996    2.45758 255 255 255
 0.340843 -0.529696   2.39098 255 255 255
-0.707312 -0.259667   2.08009 255 255 255
-0.382697 -0.600738   2.32095 255 255 255
-0.446699 -0.450906   2.11702 255 255 255
-0.188839 -0.436274    2.1836 255 255 255
-0.659745 -0.476677   2.21961 255 255 255
-0.287671  -0.68553   2.40444 255 255 255
-0.108927 -0.634326   2.34956 255 255 255
-0.704149  -0.26801   2.09295 255 255 255
-0.750782 -0.260918   2.08498 255 255 255
 0.179723 -0.586291    2.3967 255 255 255
0.0913234 -0.527154   2.27736 255 255 255
-0.501901 -0.460204   2.20763 255 255 255
-0.752729 -0.341039   2.13007 255 255 255
-0.543819 -0.519456   2.25043 255 255 255
-0.558242 -0.545161   2.25815 255 255 255
-0.746523 -0.271435   2.09264 255 255 255
-0.521611 -0.615745   2.30973 255 255 255
0.0453633  -0.55956   2.29963 255 255 255
-0.546778 -0.626102   2.30925 255 255 255
-0.548794 -0.556649   2.25431 255 255 255
-0.747877 -0.449068   2.18896 255 255 255
-0.442363 -0.305974   2.06284 255 255 255
-0.594085 -0.584995   2.28154 255 255 255
-0.489494 -0.583182   2.27362 255 255 255
  0.22948 -0.634176   2.48648 255 255 255
-0.358281 -0.578528   2.29727 255 255 255
 -0.75338 -0.428831   2.18542 255 255 255
-0.400917 -0.619595   2.33394 255 255 255
-0.00365707   -0.694951     2.45557 255 255 255
-0.0212695  -0.666152    2.43252 255 255 255
-0.790538 -0.401438   2.13967 255 255 255
-0.142472 -0.675684     2.417 255 255 255
-0.0168685   -0.47861    2.23541 255 255 255
0.0555219 -0.579603   2.33476 255 255 255
-0.778799 -0.290604   2.10663 255 255 255
-0.747955 -0.449718   2.17667 255 255 255
-0.778449 -0.311117   2.11455 255 255 255
-0.162665 -0.677485   2.41662 255 255 255
-0.656552 -0.543378    2.2603 255 255 255
-0.454813 -0.341598   2.08155 255 255 255
-0.572843 -0.549129   2.25478 255 255 255
-0.523274 -0.519941   2.25162 255 255 255
-0.674934 -0.645889   2.34788 255 255 255
-0.514368  -0.54356   2.24591 255 255 255
0.0606534 -0.649207   2.42673 255 255 255
-0.686819 -0.484158   2.23084 255 255 255
-0.709603 -0.250761   2.07684 255 255 255
-0.649172 -0.523468   2.22722 255 255 255
-0.0583161  -0.511864     2.2546 255 255 255
-0.441006 -0.596445   2.29068 255 255 255
 -0.65883 -0.651772    2.3548 255 255 255
-0.283559  -0.69233    2.4077 255 255 255
-0.142552 -0.694418   2.43596 255 255 255
-0.700628 -0.482449   2.22556 255 255 255
-0.583778 -0.584858   2.27505 255 255 255
-0.135333 -0.676477   2.42149 255 255 255
-0.555443 -0.552717   2.25338 255 255 255
-0.259073 -0.608563   2.32015 255 255 255
-0.470349 -0.472683    2.1988 255 255 255
-0.736115 -0.277549   2.10011 255 255 255
-0.497643 -0.582417   2.27344 255 255 255
-0.563532 -0.515397   2.24448 255 255 255
-0.766052 -0.325697   2.12418 255 255 255
-0.522224 -0.396007   2.16236 255 255 255
-0.537115 -0.609975   2.29702 255 255 255
-0.132172 -0.597261   2.32324 255 255 255
-0.783505 -0.398687   2.14165 255 255 255
-0.472602 -0.539689   2.23721 255 255 255
-0.738591 -0.411933   2.16721 255 255 255
-0.771396 -0.288876   2.10826 255 255 255
-0.551264 -0.465743   2.21038 255 255 255
-0.0459506  -0.505164    2.24663 255 255 255
 -0.59046 -0.605431   2.30164 255 255 255
-0.798009 -0.372834   2.12794 255 255 255
 0.329125 -0.506059   2.35575 255 255 255
 0.163322 -0.591801   2.39236 255 255 255
 -0.50505 -0.552783   2.24646 255 255 255
-0.576949 -0.606005   2.28915 255 255 255
 -0.71873 -0.276665   2.09254 255 255 255
-0.453584  -0.51209   2.22641 255 255 255
-0.660968 -0.637621   2.34142 255 255 255
-0.565833 -0.571957    2.2623 255 255 255
-0.628725 -0.681262   2.37727 255 255 255
-0.406696 -0.693784    2.3935 255 255 255
-0.781826 -0.325223   2.12221 255 255 255
-0.460263 -0.626282   2.31823 255 255 255
-0.397249 -0.305459   2.08249 255 255 255
 0.274211 -0.626993   2.47109 255 255 255
-0.408954 -0.688424    2.3855 255 255 255
0.326767 -0.51151  2.35555 255 255 255
-0.568054 -0.587967   2.27233 255 255 255
-0.786183 -0.292541   2.10609 255 255 255
0.0459001 -0.687796   2.47703 255 255 255
-0.465286 -0.622713    2.3158 255 255 255
0.0560544 -0.658119   2.42602 255 255 255
-0.475298 -0.284122   2.05662 255 255 255
-0.573277  -0.57975   2.26818 255 255 255
0.0828368 -0.638518   2.42582 255 255 255
-0.740242 -0.407023   2.16728 255 255 255
-0.515651  -0.55867   2.25203 255 255 255
-0.411287 -0.418633   2.16087 255 255 255
-0.517979 -0.531264   2.24778 255 255 255
  0.1518 -0.51652  2.30928 255 255 255
-0.570701 -0.345638    2.1385 255 255 255
 -0.49152 -0.663236   2.36201 255 255 255
  0.19895 -0.455172    2.2475 255 255 255
-0.464541 -0.309419   2.07805 255 255 255
-0.524747 -0.536213   2.25028 255 255 255
 0.295014 -0.617037   2.46722 255 255 255
-0.293245 -0.694791   2.41221 255 255 255
 0.108291 -0.712721   2.51426 255 255 255
-0.413444 -0.385731   2.21409 255 255 255
 -0.65027 -0.587335   2.30357 255 255 255
-0.711469 -0.246572   2.06308 255 255 255
-0.421273 -0.276907   2.04182 255 255 255
0.0276955 -0.658341   2.43029 255 255 255
-0.756217 -0.254388   2.08594 255 255 255
-0.788422 -0.316975   2.12193 255 255 255
-0.636259 -0.612835   2.32013 255 255 255
-0.487605  -0.52101   2.23425 255 255 255
0.0519097 -0.660207   2.42678 255 255 255
-0.572701 -0.603843   2.28911 255 255 255
-0.509879 -0.575631   2.27373 255 255 255
  0.25632 -0.549082   2.38453 255 255 255
 0.275966 -0.527589   2.34438 255 255 255
-0.711453 -0.664539   2.35038 255 255 255
-0.697748 -0.512288   2.21126 255 255 255
-0.378955 -0.622971   2.33383 255 255 255
-0.0829125  -0.688641    2.44124 255 255 255
 -0.44847 -0.310842   2.08054 255 255 255
-0.497541 -0.565776   2.26771 255 255 255
 -0.57167 -0.584333   2.26921 255 255 255
-0.470932 -0.299981   2.06915 255 255 255
-0.758635 -0.288586   2.10324 255 255 255
  -0.4772 -0.518803   2.22949 255 255 255
-0.785559 -0.307102   2.11555 255 255 255
-0.624149 -0.628167   2.33246 255 255 255
-0.538907  -0.54034    2.2515 255 255 255
-0.530447 -0.512421   2.24886 255 255 255
-0.773113  -0.28566   2.10264 255 255 255
-0.522935 -0.585563   2.27903 255 255 255
-0.51739 -0.39113   2.1679 255 255 255
-0.534784 -0.524928   2.25575 255 255 255
-0.511744 -0.442371     2.197 255 255 255
 0.212029 -0.344016   2.14136 255 255 255
 1.22898  2.52038 0.465002 255 255 255
2.08105 1.69556 0.43602 255 255 255
 1.46693  1.97112 0.518297 255 255 255
0.83481 2.49303 0.50693 255 255 255
1.37777 1.32157 1.05213 255 255 255
 1.19366  2.35144 0.500106 255 255 255
 1.24781  2.65098 0.421202 255 255 255
0.944605  2.31053 0.597966 255 255 255
 1.08989  2.40067 0.515354 255 255 255
2.11801 1.72305  0.4119 255 255 255
0.957762  2.48194 0.528147 255 255 255
  1.111 2.60289 0.44122 255 255 255
 1.67405  2.18018 0.427623 255 255 255
 1.33414  2.03802 0.569305 255 255 255
 1.57489  1.50112 0.864057 255 255 255
 1.28693  1.76661 0.704178 255 255 255
 1.47125     1.91 0.540157 255 255 255
 1.44837  2.00551 0.516214 255 255 255
1.24515 2.47301 0.49563 255 255 255
 1.20002  2.50465 0.475052 255 255 255
 2.04359  1.81774 0.405494 255 255 255
 2.02218  1.76285 0.440254 255 255 255
 1.52945  2.27014 0.436867 255 255 255
 1.60897  2.38209 0.421154 255 255 255
0.840783  1.84567 0.678856 255 255 255
 2.07607  1.83999 0.398229 255 255 255
 1.48119  2.14333 0.515146 255 255 255
 1.48307  2.10745 0.511637 255 255 255
 1.38053  2.00765 0.602012 255 255 255
 1.63137  1.68263 0.580253 255 255 255
0.730427  2.30479 0.609449 255 255 255
 2.03009  1.79074 0.427231 255 255 255
0.849626  2.39859 0.561693 255 255 255
  1.0796  2.53483 0.492407 255 255 255
0.850355  2.36093 0.599702 255 255 255
 1.18274  2.52755 0.472058 255 255 255
 1.57778  2.33119 0.266914 255 255 255
0.755233   2.2869 0.608191 255 255 255
0.682253  2.16508 0.661948 255 255 255
 0.79702  2.30015 0.629438 255 255 255
  2.0008  1.78268 0.431711 255 255 255
 2.07285  1.75151 0.435452 255 255 255
1.77628 1.40192 0.82988 255 255 255
 1.28684  2.45558 0.464167 255 255 255
0.946791   2.4905 0.515566 255 255 255
0.833721  2.33238 0.608363 255 255 255
 1.10458  2.59031 0.431195 255 255 255
0.459924  2.45554 0.581165 255 255 255
 1.15643  2.38888 0.527966 255 255 255
 1.01536   2.5947 0.473799 255 255 255
 0.99079  2.55623 0.491056 255 255 255
 1.03596  2.55751 0.494621 255 255 255
 2.01447  1.79332 0.426008 255 255 255
 1.85643  1.89857 0.522128 255 255 255
 1.63528  1.61789 0.603188 255 255 255
0.481086  2.30961 0.720489 255 255 255
 1.47899  1.93047 0.540073 255 255 255
1.94658 1.39419 0.72128 255 255 255
 1.87093  1.90119 0.518756 255 255 255
 1.24802  1.68236 0.878342 255 255 255
0.533531  2.36971  0.68168 255 255 255
  1.7194  1.32415 0.863463 255 255 255
0.868682  2.39151 0.581372 255 255 255
0.300843  2.73397 0.440609 255 255 255
0.916333  2.45177 0.548035 255 255 255
  0.5193  2.36946 0.673458 255 255 255
 1.06058  2.37022 0.563064 255 255 255
0.485349   2.2301  0.75399 255 255 255
0.811414   2.3124  0.61636 255 255 255
0.453538  2.30081 0.729131 255 255 255
2.04213 1.78763  0.4255 255 255 255
 1.83844  1.71984 0.623257 255 255 255
1.11165 2.44217 0.50941 255 255 255
 1.54868  2.30958 0.424279 255 255 255
0.627891  2.18396 0.682785 255 255 255
1.09941 2.41485 0.48868 255 255 255
  1.4507  1.90317 0.543783 255 255 255
 1.88704     1.97 0.589359 255 255 255
0.923511  2.51454 0.479909 255 255 255
0.398132  2.35911 0.705568 255 255 255
 1.02539  2.52493 0.504352 255 255 255
0.883762  2.39781 0.583741 255 255 255
 1.24079  2.36695 0.478936 255 255 255
 1.47358  2.72871 0.332553 255 255 255
 1.07865    2.467 0.513558 255 255 255
0.745025  2.51357  0.55731 255 255 255
 1.78783  1.05302 0.977351 255 255 255
0.997379  2.52662 0.504282 255 255 255
 1.60115  2.39882 0.414803 255 255 255
0.517908  2.35219 0.645224 255 255 255
 1.76133  1.50646 0.763062 255 255 255
 1.27133  2.66336 0.402524 255 255 255
 1.31005  2.02241 0.524474 255 255 255
   2.015  1.82388 0.415444 255 255 255
 1.11204  2.42748 0.510928 255 255 255
0.948665  2.55065 0.432626 255 255 255
  1.3142  2.56574 0.430467 255 255 255
 1.13505  2.37756 0.539614 255 255 255
 1.13388  2.37675 0.540546 255 255 255
0.392565  2.26479  0.75729 255 255 255
1.38675 2.48788 0.43155 255 255 255
 1.35476  2.04728 0.508131 255 255 255
1.64833 1.55105 0.63253 255 255 255
 1.54812  2.31061 0.343617 255 255 255
 1.80719  1.45269 0.779025 255 255 255
 1.01325  2.58572 0.486249 255 255 255
1.13846 2.63521 0.43069 255 255 255
 1.20279  2.57788 0.434774 255 255 255
 1.34273  2.63774 0.396468 255 255 255
 1.35184  2.63479 0.398168 255 255 255
 1.41581  2.55468 0.358532 255 255 255
 1.29055  1.78055 0.711961 255 255 255
 1.5311 1.16026 1.19138 255 255 255
0.926215  2.41628 0.569913 255 255 255
 1.08856  2.34895 0.550158 255 255 255
  1.6974  1.59853 0.605192 255 255 255
 1.7827 1.80076 0.49357 255 255 255
 1.00093  2.58228 0.431112 255 255 255
  1.3045  1.63526 0.924061 255 255 255
 2.04397  1.80577 0.409244 255 255 255
0.979193  2.58166 0.392584 255 255 255
 2.01519  1.78866 0.426971 255 255 255
0.853337  2.29105 0.651766 255 255 255
 1.19595  2.54207 0.468967 255 255 255
 2.00398  1.78191 0.533038 255 255 255
0.625108  2.16858 0.738576 255 255 255
 2.09326  1.74761 0.433169 255 255 255
1.04225 2.49742 0.51611 255 255 255
0.390397  2.25431 0.714658 255 255 255
 1.68391  1.53934 0.630679 255 255 255
0.524494  2.35297 0.677495 255 255 255
 1.34573   2.7199 0.372254 255 255 255
1.16959 2.65672 0.41219 255 255 255
 1.22374  2.69559 0.401836 255 255 255
 1.23333   2.5259 0.456712 255 255 255
0.433507  2.46185 0.529838 255 255 255
0.951123  2.35664  0.58268 255 255 255
 1.06896  2.65048 0.438263 255 255 255
0.926467  2.48154 0.493987 255 255 255
 1.89059   1.9733 0.581467 255 255 255
 1.76044  1.06568 0.971735 255 255 255
 1.51277  2.19109 0.482391 255 255 255
 2.16041  1.37769 0.707109 255 255 255
 1.09814  2.42377 0.529595 255 255 255
 1.84017  1.20594 0.890335 255 255 255
1.01343 2.30101 0.59454 255 255 255
1.05251 2.35611 0.55677 255 255 255
 1.11025    2.474 0.506891 255 255 255
 1.75616  1.54392 0.723132 255 255 255
 1.77401   1.2699 0.873116 255 255 255
 1.39763  2.71092 0.357408 255 255 255
0.540739  2.39395 0.655541 255 255 255
  1.7508  1.27288 0.868334 255 255 255
 1.66522  2.22123 0.498176 255 255 255
2.01268 1.81077 0.41955 255 255 255
2.01161 1.77856  0.4318 255 255 255
 1.02112  2.51712 0.518824 255 255 255
 1.30214  2.44368 0.460701 255 255 255
 1.37328  1.96941 0.519111 255 255 255
 1.85158  1.91376 0.517151 255 255 255
 0.92819  2.46265 0.552015 255 255 255
0.416415   2.3997 0.581815 255 255 255
1.4715 2.1358 0.5209 255 255 255
 1.68187  1.59887 0.606682 255 255 255
 1.68185  2.51981 0.183871 255 255 255
0.948577  1.62333 0.922977 255 255 255
0.809266  2.31245 0.637887 255 255 255
 1.42711  1.91895 0.539942 255 255 255
 1.27496  2.45545 0.486488 255 255 255
 1.65193  1.51362 0.644386 255 255 255
 1.03916  2.36882 0.551159 255 255 255
1.17142 2.56222 0.43916 255 255 255
0.659176  2.36933  0.61549 255 255 255
 1.47634  2.67787 0.356002 255 255 255
 1.5976  2.4089 0.37229 255 255 255
0.917251  2.49888 0.534985 255 255 255
1.69607 2.46049 0.16995 255 255 255
 1.76162  1.28548 0.868276 255 255 255
 2.02805  1.80164 0.419875 255 255 255
 2.00622   1.7734 0.435408 255 255 255
 1.85125  1.88831 0.527167 255 255 255
 1.03513  2.61282 0.470098 255 255 255
 1.10451  2.58653 0.449496 255 255 255
 1.66446  2.38391 0.417369 255 255 255
 1.18183  2.44197 0.504917 255 255 255
 1.71126  1.34064 0.855112 255 255 255
 2.04501  1.81546 0.411504 255 255 255
  2.0709  1.81866 0.405266 255 255 255
1.65017 1.57004 0.61812 255 255 255
0.533441   2.3731 0.632924 255 255 255
0.784009   2.5062   0.5317 255 255 255
 1.86288  1.77239 0.575884 255 255 255
0.579853  2.46842 0.614139 255 255 255
0.991536   2.2483 0.621202 255 255 255
 1.59821  2.40665 0.427724 255 255 255
 1.38418  2.70687 0.359265 255 255 255
 1.39074   2.0227 0.500084 255 255 255
 2.10738  1.74437 0.420999 255 255 255
 1.62483  1.42072 0.839175 255 255 255
0.447298  2.27538 0.745504 255 255 255
 1.08459   2.4121 0.521197 255 255 255
1.63462 1.42135 0.83776 255 255 255
 1.62243  1.42816 0.835367 255 255 255
0.445815  2.43091 0.570363 255 255 255
  1.2381  2.59912 0.431094 255 255 255
 1.26964  2.04514 0.536008 255 255 255
 1.43205  1.99036 0.513913 255 255 255
 1.25282  2.57258 0.414733 255 255 255
 1.11226  2.44731 0.505317 255 255 255
 1.74862  1.30163 0.863945 255 255 255
 1.21659  2.69285 0.424885 255 255 255
0.550432  2.38009 0.639667 255 255 255
 1.11408  2.58884 0.449569 255 255 255
 1.74501  1.29518 0.862998 255 255 255
 1.20945  2.48964 0.484338 255 255 255
 1.89561   1.9383 0.600852 255 255 255
 1.34083  2.58149 0.418386 255 255 255
 1.32109  2.58305 0.421853 255 255 255
 1.65772  2.21862 0.499513 255 255 255
 1.15569  2.60262 0.431594 255 255 255
 1.07924  2.53422 0.493567 255 255 255
0.924236  2.31834 0.599127 255 255 255
0.922248  2.42952 0.565394 255 255 255
0.503731  2.51018 0.543352 255 255 255
 1.23759  1.97716 0.613917 255 255 255
 1.60412  1.48689 0.869346 255 255 255
0.731856  2.22353   0.6962 255 255 255
 1.76197  1.26168 0.873284 255 255 255
 1.51097  2.60413 0.301543 255 255 255
  1.4208  2.76119 0.371726 255 255 255
 1.27025  2.48184 0.460136 255 255 255
 1.18019  2.25687 0.522792 255 255 255
 1.12604  2.51148 0.477217 255 255 255
  1.5635  2.59878 0.279019 255 255 255
 1.70768  1.33478 0.852213 255 255 255
 1.06073  2.47902 0.513218 255 255 255
 1.19971  2.52408 0.468668 255 255 255
 1.58319  2.35825 0.349245 255 255 255
0.872196  2.36043 0.596653 255 255 255
 1.42254  1.93463 0.530517 255 255 255
 1.48199  2.24435 0.360357 255 255 255
0.839994  2.33104 0.620398 255 255 255
0.921112  2.38602 0.584157 255 255 255
0.943469  1.47883  1.03809 255 255 255
0.525739  2.37883  0.66697 255 255 255
 1.19876  2.63828 0.413383 255 255 255
0.870887  2.34304 0.593834 255 255 255
0.827387  2.32945 0.588948 255 255 255
0.418472  2.37859  0.70182 255 255 255
  1.0988  2.56913 0.468883 255 255 255
 1.38096  1.97009 0.528465 255 255 255
0.938418  2.51789 0.516532 255 255 255
0.940719  2.53761 0.483528 255 255 255
0.906375  2.47024 0.581426 255 255 255
 1.05603  2.14609 0.665252 255 255 255
0.790044  2.52264 0.519614 255 255 255
 1.15069  2.46705 0.502148 255 255 255
 1.00717  2.50825 0.519511 255 255 255
 1.15489  2.51032 0.470111 255 255 255
 1.59837  1.54083 0.835906 255 255 255
0.388555  2.37409 0.708317 255 255 255
0.783686   2.2976 0.624441 255 255 255
 1.26945  2.46347 0.483718 255 255 255
 1.03973  2.52353 0.512178 255 255 255
0.566011  2.33859 0.676282 255 255 255
 1.33675  2.45543 0.442629 255 255 255
1.23772 2.55408 0.44989 255 255 255
 1.61938  2.50906 0.302476 255 255 255
 1.08993  2.51343 0.493234 255 255 255
 1.09717  2.53937 0.480925 255 255 255
 1.17569   2.6499 0.412352 255 255 255
 1.12299  2.51496 0.473233 255 255 255
0.500227  2.38937 0.667836 255 255 255
  1.2278  2.56704 0.423947 255 255 255
 1.09901  2.54454 0.477794 255 255 255
0.531142  2.33633 0.692782 255 255 255
 1.68794  1.36599 0.845591 255 255 255
 1.15061   2.4568 0.506932 255 255 255
0.667775  2.57642 0.539464 255 255 255
  1.2776   2.4355 0.471823 255 255 255
0.608796  2.33181 0.665806 255 255 255
0.770617  2.27584 0.626641 255 255 255
 1.13787  2.43523 0.522639 255 255 255
 1.25091   2.3697 0.476396 255 255 255
1.52477 1.15267 1.19078 255 255 255
 3.69593  3.76565 0.259042 255 255 255
 3.43802  3.71388 0.144402 255 255 255
 3.58683  3.67931 0.190093 255 255 255
 3.40945  3.58327 0.103621 255 255 255
 3.59795  3.78286 0.229045 255 255 255
 3.45927   3.6516 0.141235 255 255 255
3.46595 3.81463 0.14785 255 255 255
 3.45773  3.68737 0.145095 255 255 255
 3.43712  3.62127 0.115934 255 255 255
 3.43339  3.65143 0.073584 255 255 255
 3.42761  3.67685 0.121773 255 255 255
 3.52103  3.81799 0.172387 255 255 255
 3.61057  3.81075 0.237387 255 255 255
 3.42599  3.61339 0.118255 255 255 255
  3.39982   3.59161 0.0986331 255 255 255
 3.42324  3.66906 0.118542 255 255 255
 3.46683  3.84472 0.157695 255 255 255
   3.419  3.70036 0.129664 255 255 255
 3.60824  3.78232 0.222605 255 255 255
 3.65799  3.74713 0.258523 255 255 255
 3.49547   3.8469 0.177369 255 255 255
  3.41035   3.70529 0.0913888 255 255 255
 3.41249  3.69901 0.125024 255 255 255
 3.65966  3.75341 0.264772 255 255 255
 3.58749  3.82509 0.212727 255 255 255
 3.49623  3.85947 0.177505 255 255 255
  3.4621  3.14155 0.127535 255 255 255
 3.48597  3.83306 0.163859 255 255 255
 3.47284  3.79748 0.149548 255 255 255
 3.43253  3.12896 0.115085 255 255 255
   3.6031   3.09281 -0.267623 255 255 255
 3.44918  3.79104 0.129082 255 255 255
 3.62538  3.71625 0.238398 255 255 255
3.45388 3.79382  0.1377 255 255 255
 3.49652  3.83263 0.166034 255 255 255
  3.41159   3.71297 0.0987611 255 255 255
 3.45981  3.81101 0.145986 255 255 255
 3.49411  3.79438 0.159838 255 255 255
 3.44008  3.79193 0.122441 255 255 255
 3.44799  3.69012 0.147705 255 255 255
 3.45542  3.78996 0.136359 255 255 255
 3.69808  3.81274 0.306109 255 255 255
   1.612  2.87883 0.171318 255 255 255
1.56022  3.0421 0.12024 255 255 255
0.622475  2.73446 0.373658 255 255 255
  1.4149  3.04042 0.153146 255 255 255
 1.09196  2.23483 0.564077 255 255 255
 1.45256  3.06435 0.119053 255 255 255
 1.50287  3.01748 0.141591 255 255 255
0.752915  2.76985 0.370084 255 255 255
 1.10243  2.29816 0.569721 255 255 255
 1.15626  2.35725 0.542984 255 255 255
0.790839  2.22348 0.725602 255 255 255
 1.25056  3.17986 0.169869 255 255 255
 1.09973  2.46422 0.486868 255 255 255
 1.35214  3.07092 0.158162 255 255 255
 1.42395  1.93083 0.589876 255 255 255
 1.04104  2.97206 0.259281 255 255 255
 1.21975  2.11352 0.553762 255 255 255
1.61578 3.05557   0.104 255 255 255
1.29046 3.15081 0.13527 255 255 255
 1.34565  1.95407 0.580573 255 255 255
0.409361  2.65402 0.436504 255 255 255
 0.40482  2.58932 0.500607 255 255 255
0.646737  2.66187 0.439354 255 255 255
 1.35758  2.99167 0.174529 255 255 255
 1.70578  2.72312 0.211968 255 255 255
 0.29518  2.64446 0.455439 255 255 255
 1.51983  3.04226 0.128261 255 255 255
1.58786 2.91046 0.16884 255 255 255
 1.49569  2.69528 0.335341 255 255 255
 1.43871  2.58544 0.382448 255 255 255
0.322525  2.73582 0.446087 255 255 255
 1.63505   3.0555 0.100167 255 255 255
 1.65978  2.70629 0.198963 255 255 255
 1.50381  3.03809 0.132483 255 255 255
1.33482 2.45382 0.45495 255 255 255
 1.24014  2.40581 0.502019 255 255 255
 1.39279  3.15854 0.100838 255 255 255
0.990866  2.12716 0.715777 255 255 255
 1.39695  2.72174 0.346535 255 255 255
 1.04956  2.80884 0.329318 255 255 255
0.505863  2.46026 0.630117 255 255 255
 1.37301  3.11525 0.128345 255 255 255
 1.10318  2.37801 0.548024 255 255 255
 1.31772   3.1355 0.133894 255 255 255
 1.40207  3.09261 0.123744 255 255 255
 1.52702  2.67272 0.315928 255 255 255
 1.15435  2.43868 0.519045 255 255 255
 1.15332  2.43753 0.518766 255 255 255
  1.0661  2.93713 0.266855 255 255 255
  1.2669  3.05175 0.174029 255 255 255
   1.208  3.04217 0.186243 255 255 255
  1.4587  2.61099 0.365302 255 255 255
 1.46914  2.66578 0.364948 255 255 255
 1.47188  2.66793 0.352555 255 255 255
 1.11127  2.35557 0.551299 255 255 255
 1.74644  2.93629 0.122367 255 255 255
 1.23504  2.35373 0.503806 255 255 255
  1.83255   2.79263 0.0744441 255 255 255
0.701852  2.50724 0.552606 255 255 255
 1.47527  2.10566 0.587706 255 255 255
 1.70684  2.88524 0.153532 255 255 255
 1.22068   3.0789 0.179066 255 255 255
  1.49011   3.12567 0.0987782 255 255 255
0.359326  2.54068 0.504817 255 255 255
 1.34948  3.08616 0.145383 255 255 255
0.578872  2.67854   0.4553 255 255 255
 0.54614  2.71848 0.454224 255 255 255
0.563818  2.58846 0.460394 255 255 255
 1.24286  3.09001 0.168368 255 255 255
  1.7157  2.87805 0.153829 255 255 255
1.01372 2.06591 0.71091 255 255 255
0.949551  3.14176 0.196846 255 255 255
 1.09773  2.89693 0.285043 255 255 255
 1.52551  3.06126 0.119869 255 255 255
 0.92172  2.70068 0.416939 255 255 255
0.310049  2.74053 0.434835 255 255 255
0.348213  2.70246 0.450806 255 255 255
   1.2786   3.27401 0.0735966 255 255 255
0.797904  2.80458 0.423263 255 255 255
0.296985  2.60786 0.500213 255 255 255
 1.23514  3.11744 0.152948 255 255 255
 1.22069  2.41478 0.511131 255 255 255
0.610679  2.34459 0.636555 255 255 255
0.806387  2.55756 0.502182 255 255 255
 1.70347  3.00159 0.105873 255 255 255
 1.25556  2.01088 0.581386 255 255 255
 1.36568  3.15712 0.110656 255 255 255
 1.06029  2.09338 0.697931 255 255 255
 1.68329  2.19222 0.470044 255 255 255
 1.01937   2.2616 0.610968 255 255 255
 1.18149  2.33355 0.528406 255 255 255
 0.62168  2.59847 0.426461 255 255 255
0.388114  2.75056 0.421557 255 255 255
 1.10797  3.12564 0.180421 255 255 255
0.985416  2.08164 0.707823 255 255 255
  1.2689  2.76493 0.353696 255 255 255
 1.28843  3.09459 0.173036 255 255 255
 1.03418   3.0478 0.229472 255 255 255
0.789952  2.57312 0.500034 255 255 255
0.384158  2.72912 0.430401 255 255 255
 1.49693  2.61598 0.336234 255 255 255
 1.11753  2.59423 0.446419 255 255 255
0.986161  2.08259 0.601778 255 255 255
  1.2029  2.45974 0.504562 255 255 255
 1.42682  2.57898 0.387993 255 255 255
0.515977  2.35949 0.659544 255 255 255
  1.62848   3.07092 0.0939789 255 255 255
 1.27954  3.03986 0.179812 255 255 255
0.986085  2.08239 0.711514 255 255 255
0.312104  2.63098 0.480274 255 255 255
0.827859  2.81993  0.40846 255 255 255
 1.02322  2.05341 0.714053 255 255 255
 1.11498  2.42655 0.528796 255 255 255
0.260921  2.69203 0.459499 255 255 255
0.991172  2.97073   0.2691 255 255 255
0.971517   2.8659 0.312651 255 255 255
0.454199   2.8061  0.35556 255 255 255
 1.34425  3.17594 0.108028 255 255 255
  1.2104  2.58614 0.437691 255 255 255
1.12919   3.132  0.1742 255 255 255
0.489256  2.59871 0.518762 255 255 255
 1.29311  2.79612 0.334954 255 255 255
 1.65018  2.99403 0.120117 255 255 255
0.522629  2.77682 0.368625 255 255 255
 1.24313  3.20665 0.168403 255 255 255
 1.26411  3.06119 0.175088 255 255 255
 1.21571  2.40115 0.513057 255 255 255
 1.33581   3.0845 0.136946 255 255 255
0.724242  2.45203 0.558091 255 255 255
  1.3692  3.11113 0.131348 255 255 255
 1.09838  2.45323 0.513605 255 255 255
 1.01933  2.46347 0.530681 255 255 255
 1.57198  2.98825 0.139844 255 255 255
 1.22992  3.08645 0.172644 255 255 255
 1.32228  3.10152 0.141884 255 255 255
0.461619  2.80914 0.360633 255 255 255
 1.35839  3.14684 0.117496 255 255 255
 1.11542  3.13188 0.174846 255 255 255
0.615495  2.31579 0.645679 255 255 255
 1.51327  2.63695 0.338069 255 255 255
 1.12836  2.94559 0.259303 255 255 255
 1.38376  2.73357 0.343911 255 255 255
 1.17503  2.70313 0.393653 255 255 255
1.60299 3.01968 0.11995 255 255 255
 1.28787  2.03466 0.575511 255 255 255
     1.7   3.0086 0.114736 255 255 255
0.579454  2.66416  0.45233 255 255 255
0.963515  2.97198 0.279937 255 255 255
 1.08737  2.21215 0.545483 255 255 255
 1.21063  2.76389 0.349402 255 255 255
 1.15271  2.35586 0.545095 255 255 255
0.905232  2.98778 0.282646 255 255 255
1.53781 2.68201 0.29531 255 255 255
0.453486  2.57226 0.531441 255 255 255
0.981477  2.16554 0.697529 255 255 255
0.470991  2.47726 0.477115 255 255 255
0.813361  2.23196  0.69252 255 255 255
0.526733  2.76875 0.374376 255 255 255
 1.33613  2.38721 0.474357 255 255 255
0.336989  2.62449 0.479001 255 255 255
 1.26323  3.02519 0.195381 255 255 255
 1.10355  3.10402 0.190277 255 255 255
0.315641  2.65982 0.453485 255 255 255
 1.01133  2.05734 0.714932 255 255 255
 1.30197  2.05838 0.548071 255 255 255
 1.62087  2.92569 0.153269 255 255 255
0.418884   2.6251 0.449408 255 255 255
0.795574  2.46438 0.479517 255 255 255
 1.41795  3.06343 0.138788 255 255 255
 1.20513  3.03704 0.201287 255 255 255
 1.49668  3.05537 0.126591 255 255 255
 1.23278  3.10816 0.157494 255 255 255
  1.19716   3.24914 0.0820948 255 255 255
 1.38597  3.16414 0.102174 255 255 255
  1.5462   2.2877 0.476426 255 255 255
 1.68966   2.9939 0.111584 255 255 255
 1.05449  2.33805 0.567849 255 255 255
 1.59533  3.04427 0.112148 255 255 255
0.971191  2.93368 0.283042 255 255 255
0.737433  2.80755 0.306406 255 255 255
 1.10959  3.08552 0.198424 255 255 255
 1.02703  2.30597 0.598828 255 255 255
0.404646  2.67136 0.436875 255 255 255
 1.58114  2.98501 0.138547 255 255 255
 1.32656  2.06932 0.539013 255 255 255
 1.67753  2.90577 0.149946 255 255 255
0.298387   2.7202 0.437747 255 255 255
0.573787  2.68581 0.448776 255 255 255
 1.70893  2.94914 0.127055 255 255 255
 1.70391  2.97268 0.116428 255 255 255
 1.65781  2.17727 0.503998 255 255 255
 1.01706  2.02439 0.742745 255 255 255
 1.00215  2.45453 0.535129 255 255 255
 1.5889  2.9823 0.13691 255 255 255
 1.58844  2.99257 0.132875 255 255 255
 1.57047  3.05416 0.115166 255 255 255
0.415002  2.60628 0.519835 255 255 255
0.532507  2.72295 0.453302 255 255 255
 1.60321   2.0916 0.461674 255 255 255
1.22789 2.44927 0.49823 255 255 255
 1.62891  3.00536 0.119727 255 255 255
  1.2142  3.07309 0.182733 255 255 255
1.72624 2.91881 0.13372 255 255 255
 1.09312  2.89655 0.275628 255 255 255
 1.06709  2.08362 0.694134 255 255 255
 1.31638   3.1664 0.118574 255 255 255
  1.3377  3.18413 0.104165 255 255 255
 1.66653  2.86348 0.171936 255 255 255
 1.11482  3.10976 0.208726 255 255 255
 1.38688  2.35866 0.370522 255 255 255
 1.21456  2.09529 0.602107 255 255 255
1.72526 2.93725 0.12634 255 255 255
  1.2547  2.72138 0.373025 255 255 255
0.303303  2.70521 0.452237 255 255 255
 0.83661  2.32779 0.607208 255 255 255
0.502587  2.73516 0.393493 255 255 255
0.393541  2.64448 0.439994 255 255 255
 1.70725  2.94405 0.127797 255 255 255
0.577226  2.27288 0.680126 255 255 255
 1.63992  2.97385 0.128983 255 255 255
0.965702  2.92441 0.299183 255 255 255
 1.72237   2.9925 0.122911 255 255 255
 1.50538  2.62888 0.341421 255 255 255
 0.47377   2.6512 0.483656 255 255 255
0.334366  2.65138 0.471572 255 255 255
 1.27185   3.0577 0.168479 255 255 255
0.556908  2.74516 0.443955 255 255 255
0.929747  2.69564 0.414339 255 255 255
0.995894  2.88462 0.299466 255 255 255
 1.11655  3.13866 0.173868 255 255 255
0.513044  2.71338 0.450089 255 255 255
 1.63193  2.97841 0.129934 255 255 255
 1.31635  2.05715 0.550774 255 255 255
  1.6101  3.06485 0.101311 255 255 255
 1.53621  2.99759 0.142851 255 255 255
 1.20897   2.6513 0.407737 255 255 255
 1.38807  2.49961 0.427733 255 255 255
 0.95703  2.92044 0.286702 255 255 255
  1.5646  2.98855 0.140031 255 255 255
 1.49859  1.82934 0.621089 255 255 255
0.544884  2.36948 0.647313 255 255 255
1.08365 2.60418 0.44877 255 255 255
 1.66129  2.18669 0.501254 255 255 255
 0.91207  2.88613 0.327769 255 255 255
 1.60526  2.90324 0.169839 255 255 255
 1.19349  3.04847 0.198354 255 255 255
0.761275  2.69879 0.453624 255 255 255
0.942615  2.91064 0.310548 255 255 255
0.949974  2.35378 0.585786 255 255 255
 1.71987  2.93329 0.129787 255 255 255
0.35399 2.69322 0.45042 255 255 255
  1.5367  2.94207 0.166774 255 255 255
0.991944  2.40027 0.557568 255 255 255
 1.40427  2.37764 0.367346 255 255 255
1.56279  2.9931 0.13038 255 255 255
 1.49314   2.6794 0.343442 255 255 255
 1.73138  2.95037 0.118629 255 255 255
0.549164  2.73461 0.448175 255 255 255
0.476454  2.86437 0.427639 255 255 255
0.427347  2.62995 0.449692 255 255 255
1.14899 2.62926 0.42748 255 255 255
0.369987  2.61807 0.465325 255 255 255
0.891298  2.29284 0.623476 255 255 255
 1.17592  2.03287 0.583903 255 255 255
 1.64567  2.88779 0.165564 255 255 255
0.326752  2.66461 0.467311 255 255 255
0.341804  2.68188 0.457295 255 255 255
0.316572  2.65176 0.474949 255 255 255
0.977738   2.9208   0.2953 255 255 255
 1.18186  2.06577 0.601501 255 255 255
0.307808  2.64007 0.480438 255 255 255
0.516707  2.55401 0.515458 255 255 255
0.995843   2.2553 0.617494 255 255 255
0.824938  2.94719 0.299047 255 255 255
 1.59679  2.24721 0.485818 255 255 255
 1.13691  2.53153 0.468568 255 255 255
  1.2805  2.33533 0.502796 255 255 255
0.756426  2.57852 0.500169 255 255 255
1.30515 2.79199 0.33149 255 255 255
0.478757   2.4978 0.479565 255 255 255
1.31994 2.07095 0.54199 255 255 255
0.75776 2.85218 0.40623 255 255 255
0.805827  2.86454 0.369903 255 255 255
0.957693   2.9328 0.297309 255 255 255
0.284567  2.59976 0.494681 255 255 255
 1.68781  2.96027 0.125586 255 255 255
0.974867  2.24999 0.623657 255 255 255
 1.28675  2.80119 0.335363 255 255 255
  1.2964  2.33509 0.510625 255 255 255
0.950106  2.30426 0.598012 255 255 255
0.936714  2.90504 0.314129 255 255 255
0.963186  2.93969 0.293069 255 255 255
 1.11681   2.4844 0.499369 255 255 255
0.779933  2.91581 0.351509 255 255 255
0.617839  2.67979 0.450215 255 255 255
0.935465  2.94387 0.296409 255 255 255
0.824139  2.18036  0.71717 255 255 255
0.844527  2.61832 0.467163 255 255 255
 1.06703  2.39376 0.491665 255 255 255
 1.66916  2.93966 0.137543 255 255 255
0.543653   2.5148 0.599805 255 255 255
 1.03789  2.57311 0.469955 255 255 255
 1.17961   2.5889 0.437501 255 255 255
 0.92502  2.31103 0.591142 255 255 255
0.420685  2.65823 0.441654 255 255 255
0.528144  2.57211 0.496665 255 255 255
 1.18789  3.04313 0.203409 255 255 255
0.756343   2.7704 0.442942 255 255 255
 1.30221  2.34716 0.506634 255 255 255
0.835591  2.26128 0.667094 255 255 255
0.950092  2.41103   0.5603 255 255 255
 1.67277  2.19295 0.497481 255 255 255
 2.78687  4.54105 0.199709 255 255 255
 2.85979  4.45325 0.217936 255 255 255
 3.02779   4.4293 0.204992 255 255 255
   3.2336   3.90102 0.0568679 255 255 255
 3.30859  4.10926 0.196053 255 255 255
   3.04437    3.73851 0.00646723 255 255 255
  2.8734  4.46846 0.229738 255 255 255
 3.34335  4.11437 0.148652 255 255 255
 2.84187  4.46907 0.226761 255 255 255
  3.16251   3.97763 0.0401199 255 255 255
 3.32223  4.00535 0.130209 255 255 255
   3.05456    3.68556 -0.0180223 255 255 255
   3.01053    3.76049 -0.0195073 255 255 255
  3.26079   3.84273 0.0420993 255 255 255
  3.20514   4.10281 0.0693404 255 255 255
  3.15791   4.03244 0.0462248 255 255 255
  3.08223   3.73977 0.0115087 255 255 255
  3.26041    3.9915 0.0805339 255 255 255
  3.18138   3.87008 0.0250753 255 255 255
   3.01128    3.68785 -0.0364041 255 255 255
  3.20714    3.9177 0.0440308 255 255 255
  3.15096   3.79564 0.0476576 255 255 255
 3.27096  4.00387 0.107978 255 255 255
  3.0107  4.49467 0.222467 255 255 255
 3.15883   3.9058 0.027051 255 255 255
    3.162    3.7593 0.0426686 255 255 255
 3.27753  3.97551 0.100398 255 255 255
3.36467  4.2039 0.18985 255 255 255
   2.99608    4.29693 -0.0323774 255 255 255
   2.98921    4.25426 -0.0417124 255 255 255
 2.80317  4.55934 0.211548 255 255 255
   2.97911    3.82722 -0.0146422 255 255 255
  2.8728  4.47366 0.231333 255 255 255
  3.25682   3.86028 0.0557323 255 255 255
 3.13865  4.25811 0.162395 255 255 255
   3.00143    3.67492 -0.0475212 255 255 255
 3.40003  4.17601 0.293168 255 255 255
   3.04585    3.70608 -0.0124485 255 255 255
