ply
format ascii 1.0
element vertex 1148
property float x
property float y
property float z
property uchar red
property uchar green
property uchar blue
end_header
0.159044 0.542028  1.74665 255 255 255
0.229157 0.397769  1.71237 255 255 255
-0.854347   1.06845   1.64245 255 255 255
-0.166528   1.05027   1.53372 255 255 255
-1.06448  1.08549  1.59671 255 255 255
-0.429087   1.43148   1.33491 255 255 255
-0.349226   1.48808   1.27626 255 255 255
-0.931705  0.865527   1.79106 255 255 255
-0.799481  0.726883   1.84639 255 255 255
-0.121144  0.663729   1.72454 255 255 255
-0.80195  1.18518  1.47299 255 255 255
-0.957705  0.933186   1.77376 255 255 255
-0.110494   0.69479   1.71043 255 255 255
-1.23834 0.987172  1.71707 255 255 255
-0.567397   1.10594   1.57068 255 255 255
-0.46083  0.27583  1.97531 255 255 255
-0.0868488    1.23023    1.43259 255 255 255
-0.979949  0.984996   1.71891 255 255 255
-0.531757   1.08701   1.56504 255 255 255
-0.946666  0.943295   1.76135 255 255 255
-0.82494 0.777874  1.80891 255 255 255
-0.555432   1.36349   1.37551 255 255 255
-0.316206   1.44982   1.30384 255 255 255
-1.11857 0.894774  1.81223 255 255 255
0.143353 0.394462  1.72256 255 255 255
-0.432993   0.73713    1.7695 255 255 255
0.233303 0.983483  1.50871 255 255 255
0.221132 0.454452  1.68302 255 255 255
-0.354922   1.51173   1.24957 255 255 255
-0.153125   1.10233   1.51579 255 255 255
-0.659921  0.974024   1.65511 255 255 255
-0.399816   1.49652   1.20921 255 255 255
-0.629583  0.838836   1.71751 255 255 255
-0.381412   1.38084    1.3701 255 255 255
-0.191063  0.269995   1.93285 255 255 255
-0.725378   1.22095   1.48188 255 255 255
-0.760045  0.568349   1.91864 255 255 255
-1.13732  1.01669  1.63451 255 255 255
-0.424815   1.40687   1.34569 255 255 255
-0.959012  0.923225   1.77558 255 255 255
-0.069031   0.41787   1.83915 255 255 255
-0.543631   0.91347   1.64881 255 255 255
-0.459989  0.404455   1.90683 255 255 255
-0.0369951    1.21914    1.42363 255 255 255
-0.832714  0.773945   1.80807 255 255 255
-0.456603   1.39658   1.35796 255 255 255
-0.300579  0.721287   1.69634 255 255 255
-1.09498 0.841118  1.85068 255 255 255
-0.741173  0.889941   1.71181 255 255 255
-0.740693   1.13912   1.57891 255 255 255
-0.031731   1.03624   1.52265 255 255 255
-0.7932 1.10496 1.59879 255 255 255
0.134666 0.528955  1.74408 255 255 255
-0.337527   1.08699   1.54322 255 255 255
-0.735119  0.527675   1.96163 255 255 255
0.139721  0.40569  1.71715 255 255 255
0.0591026  0.825438   1.60912 255 255 255
-1.02516 0.908999  1.77746 255 255 255
-0.30455 0.870844   1.6605 255 255 255
-0.298951  0.683352   1.70591 255 255 255
-0.710682   1.03421   1.63937 255 255 255
-0.506725   1.35866   1.39371 255 255 255
-0.372078   1.46606   1.29967 255 255 255
-0.694963   1.20434      1.53 255 255 255
-0.730876   1.04197   1.65614 255 255 255
-0.960458   1.08071   1.57727 255 255 255
-0.672638   1.01398   1.64235 255 255 255
-0.823025   1.21237   1.44379 255 255 255
0.00412321    1.01627    1.52642 255 255 255
-0.738173  0.863993   1.73229 255 255 255
0.326014 0.912027  1.52436 255 255 255
-0.718553  0.745975   1.78429 255 255 255
-0.597627   1.29453   1.43912 255 255 255
-1.00382  1.04001  1.59941 255 255 255
-0.741411   1.17047    1.5649 255 255 255
-0.520612  0.911043   1.67503 255 255 255
-1.10168 0.871696  1.83332 255 255 255
0.225041  0.93883  1.52432 255 255 255
-0.603829  0.877559   1.69188 255 255 255
-0.878279  0.618277   1.89972 255 255 255
0.022509 0.196548  1.81852 255 255 255
-0.511213    1.4013   1.31411 255 255 255
-0.798436  0.716615   1.85716 255 255 255
-0.398502    1.4995   1.23633 255 255 255
-0.703201  0.852149   1.71124 255 255 255
-0.663036  0.704508   1.75696 255 255 255
-0.105066  0.987417   1.54465 255 255 255
-0.90302  1.11444  1.53594 255 255 255
-0.395749   1.49497   1.26935 255 255 255
-0.460837   1.25584   1.47832 255 255 255
-0.216422  0.987994   1.57357 255 255 255
-0.614046    1.1569   1.57032 255 255 255
-0.0237332    1.01016    1.52517 255 255 255
-0.431014   0.38556   1.93277 255 255 255
-0.253016  0.554723   1.77924 255 255 255
-0.537638    1.2897   1.43928 255 255 255
-0.506886   1.36576    1.3886 255 255 255
-0.636195  0.973405   1.65353 255 255 255
-0.542838   1.31928   1.42486 255 255 255
-1.05632  1.02894  1.61367 255 255 255
0.0732345  0.219537   1.81585 255 255 255
-0.493355  0.963078   1.64627 255 255 255
-0.311185   1.49927   1.26087 255 255 255
0.30563 0.81775 1.59542 255 255 255
-0.499525    1.3069   1.43114 255 255 255
0.236244 0.429932  1.68448 255 255 255
-0.0403364   0.169302    1.88957 255 255 255
-0.687723   1.21073   1.52338 255 255 255
-0.304505   1.07039   1.55437 255 255 255
-0.262852   1.16144    1.4866 255 255 255
-0.089131  0.326522    1.8789 255 255 255
0.344241 0.775798  1.50973 255 255 255
0.0199481  0.628588    1.6392 255 255 255
-0.448983   1.26422   1.46873 255 255 255
0.0800011  0.474858   1.75821 255 255 255
-0.8863 1.15637 1.48167 255 255 255
-0.705744   1.24445   1.44519 255 255 255
-0.651418  0.951358   1.68973 255 255 255
-0.497457   1.41447   1.33872 255 255 255
-1.21037  1.01467   1.7017 255 255 255
-0.741833   1.15962   1.56072 255 255 255
-0.528088  0.885577     1.662 255 255 255
-0.389898   1.45728   1.31326 255 255 255
-0.615459    1.1746   1.54524 255 255 255
-0.145005  0.190033   1.93947 255 255 255
-1.0905 1.04708 1.60988 255 255 255
0.0710418   1.07719   1.47713 255 255 255
-0.403182   1.42562   1.32971 255 255 255
-0.422407  0.284438   1.98785 255 255 255
 -1.2257 0.988141  1.72093 255 255 255
-0.439772   1.31835   1.42979 255 255 255
0.0974494  0.901255   1.55958 255 255 255
0.250188  0.99219  1.49868 255 255 255
-0.320798     1.509   1.26676 255 255 255
-1.11108 0.944237  1.71574 255 255 255
-0.591027   1.22025   1.50427 255 255 255
-0.743988    0.8713   1.73544 255 255 255
-0.445123  0.414674   1.91099 255 255 255
-0.340988  0.253763   1.97822 255 255 255
-0.523191   1.34192   1.41559 255 255 255
-0.509875   1.01634   1.60623 255 255 255
-0.730149  0.871734   1.72381 255 255 255
-0.417776   0.25222   1.99711 255 255 255
-0.056103  0.319916   1.87931 255 255 255
-0.219707  0.939219   1.59378 255 255 255
-0.911069   1.10395   1.52327 255 255 255
-0.657823  0.588602   1.87143 255 255 255
-0.34066 0.975313  1.61205 255 255 255
-0.371994    1.2715   1.45091 255 255 255
-0.376598   1.51902   1.22752 255 255 255
-0.962053   0.99456   1.70576 255 255 255
-0.633751   0.87264   1.71034 255 255 255
 0.28462 0.316618  1.79942 255 255 255
-0.569509    1.3521   1.35682 255 255 255
-0.884806   1.10267   1.57735 255 255 255
-0.135276   1.31346   1.32055 255 255 255
-0.34395 0.254726  1.98647 255 255 255
-0.252474  0.213655   1.95796 255 255 255
0.113718 0.334085  1.76278 255 255 255
-1.05284  0.94294  1.76278 255 255 255
0.144406 0.520244  1.73984 255 255 255
-1.02701  1.06473  1.56708 255 255 255
-0.635532   1.13303   1.57859 255 255 255
0.0606149  0.793483   1.59989 255 255 255
-0.203001  0.993076   1.57396 255 255 255
-0.53645  1.33726  1.41401 255 255 255
-0.228759  0.263222    1.9159 255 255 255
-0.0497928     0.9212    1.56207 255 255 255
-0.723041  0.585003   1.90357 255 255 255
0.393524 0.823843  1.53057 255 255 255
-0.464729   1.31243   1.42358 255 255 255
-0.601036   1.28932   1.45158 255 255 255
-0.392172   1.50893   1.23172 255 255 255
-0.423155  0.281993   1.97221 255 255 255
-0.407687  0.718067   1.78248 255 255 255
-0.749489    1.1514   1.57234 255 255 255
-0.400505  0.959794   1.62651 255 255 255
-0.838398  0.885874   1.75899 255 255 255
-0.422524  0.240555    1.9862 255 255 255
-0.403655   1.00761   1.67001 255 255 255
-0.870649  0.608229   1.92341 255 255 255
 -0.2089 0.206238  1.95725 255 255 255
-0.286752  0.246189   1.95319 255 255 255
-0.448554  0.863052   1.69721 255 255 255
-0.925378   1.04819   1.66852 255 255 255
-0.430404  0.988253   1.63036 255 255 255
0.190315 0.493052  1.72797 255 255 255
-0.60607 0.865707  1.70393 255 255 255
0.0306495  0.988316   1.51723 255 255 255
-0.408362  0.973641    1.6374 255 255 255
-1.08256  1.09207  1.61333 255 255 255
-0.320001   1.45544   1.28912 255 255 255
0.0883324  0.430819   1.77966 255 255 255
-1.05571  0.88087  1.80797 255 255 255
-0.662169  0.883496   1.70011 255 255 255
-0.0455243    1.10308    1.48292 255 255 255
-0.674001   1.31201   1.38796 255 255 255
-0.0691134    0.94188    1.55376 255 255 255
-0.307861    1.0575   1.55685 255 255 255
-1.06032 0.951318  1.72797 255 255 255
-0.288949   1.41437   1.35489 255 255 255
-0.276218   1.41127    1.3539 255 255 255
-0.542152   1.33451   1.40904 255 255 255
0.0294226  0.334025   1.82439 255 255 255
-0.33345 0.834633  1.69307 255 255 255
-0.413757   1.46745   1.28675 255 255 255
-0.312707  0.995927   1.59364 255 255 255
-0.632381  0.938441   1.66111 255 255 255
-0.650006  0.589561    1.8765 255 255 255
-0.77198  1.02981  1.66621 255 255 255
-0.0702631    1.01464    1.52763 255 255 255
-0.936843   0.99788    1.7005 255 255 255
-0.427542  0.375288   1.93548 255 255 255
0.00256895   0.285936    1.86068 255 255 255
-0.292924   1.37892   1.37232 255 255 255
-0.551827     1.264   1.46347 255 255 255
-0.608355   1.31826   1.34031 255 255 255
-0.548113   1.29703   1.43797 255 255 255
0.160089 0.531448  1.75695 255 255 255
-0.0668232   0.741118    1.65283 255 255 255
-0.882687   1.22777   1.49416 255 255 255
-0.504731   1.04294   1.58802 255 255 255
-0.209322   1.09827   1.52334 255 255 255
-1.04862  1.02572  1.61002 255 255 255
-0.611371   1.29138   1.42197 255 255 255
-1.23543 0.984482  1.71772 255 255 255
-0.750541  0.875281   1.72767 255 255 255
-0.714638   0.58905   1.90049 255 255 255
-0.302471  0.887429   1.65001 255 255 255
-0.704068  0.899405   1.71103 255 255 255
-0.539249  0.382541   1.94512 255 255 255
-0.459216   1.00272   1.61727 255 255 255
-0.384854    1.4349   1.31799 255 255 255
-0.990421   1.03001   1.65653 255 255 255
0.016277 0.235566  1.86946 255 255 255
0.185748  0.40295  1.73292 255 255 255
0.126741 0.491457  1.75797 255 255 255
-0.982097   1.02837   1.65449 255 255 255
-0.256615  0.919161   1.61571 255 255 255
-0.755103  0.460064   2.00037 255 255 255
-1.05712 0.857541  1.82967 255 255 255
-0.750099   1.03874   1.65714 255 255 255
-0.944069  0.674162   1.90689 255 255 255
 -1.0082 0.973492  1.73904 255 255 255
-1.06223  0.96164  1.74233 255 255 255
0.148477 0.543012  1.74228 255 255 255
-0.685119  0.873353   1.71261 255 255 255
0.0221011  0.324457   1.83704 255 255 255
-0.689243  0.764481   1.78368 255 255 255
0.072351 0.314467  1.80129 255 255 255
-0.425939   0.29171   1.96693 255 255 255
-0.617718   1.16645   1.56913 255 255 255
-0.137367   1.15106   1.48757 255 255 255
-0.656344  0.792445   1.76007 255 255 255
-0.581047   1.20058   1.50576 255 255 255
-0.730578  0.803846   1.76589 255 255 255
-0.389154   1.49683   1.26716 255 255 255
0.355718 0.778037   1.5196 255 255 255
-0.748166   1.19906   1.50335 255 255 255
-0.105878  0.405337    1.8579 255 255 255
0.0921541   1.06339   1.48518 255 255 255
-1.12362 0.856933   1.8265 255 255 255
-0.434963  0.988144   1.61896 255 255 255
-0.812885   1.20878   1.43609 255 255 255
-0.490577  0.912591    1.6869 255 255 255
-0.519577   1.41411   1.26009 255 255 255
-0.392076   1.42996   1.32265 255 255 255
-0.7955 1.00957 1.68263 255 255 255
-0.698354   1.19428   1.53398 255 255 255
-0.716812  0.557349    1.9293 255 255 255
-0.645527   1.19297   1.52406 255 255 255
-0.35239  1.34978  1.39304 255 255 255
-0.385462   1.39827   1.34657 255 255 255
 0.055732 0.0898575   1.91867 255 255 255
-0.221247   0.55617   1.78379 255 255 255
-0.603068   1.31853    1.3979 255 255 255
-0.867443  0.600072   1.93234 255 255 255
-0.269047  0.153734   1.97746 255 255 255
-0.589488  0.463412   1.92175 255 255 255
-0.452498   1.08846   1.54935 255 255 255
-0.964643  0.847892   1.81435 255 255 255
-0.264778   1.43554   1.34045 255 255 255
-0.119594   0.36304   1.86457 255 255 255
-0.698632   1.15941   1.55438 255 255 255
-0.636474  0.960183    1.6642 255 255 255
0.0134356   0.47898   1.79737 255 255 255
-0.617906  0.666396   1.80923 255 255 255
-0.0445657   0.774592    1.63316 255 255 255
-0.209122  0.932362   1.61336 255 255 255
-0.506911  0.855639   1.67163 255 255 255
-0.179141 0.0532191   1.98929 255 255 255
-0.902853   1.08671   1.56648 255 255 255
-0.216609   1.11104   1.52416 255 255 255
-0.6191 1.25432 1.48153 255 255 255
-0.820352    1.1342   1.54561 255 255 255
-0.693017  0.483542   1.93584 255 255 255
-0.180384  0.741587   1.68159 255 255 255
0.0749531   1.09606   1.47116 255 255 255
-0.764209   1.11649   1.59991 255 255 255
-0.643098  0.827753   1.73971 255 255 255
-1.20895  1.00729  1.70954 255 255 255
-0.429162   1.21076   1.48741 255 255 255
-0.711106  0.748939   1.78988 255 255 255
-0.551161   1.28905   1.44342 255 255 255
-1.0251  0.8203 1.84351 255 255 255
0.0590327  0.480598   1.77143 255 255 255
0.157344  0.40859  1.71498 255 255 255
-0.0160532  0.0998873    1.92001 255 255 255
-0.740181  0.885699    1.7272 255 255 255
0.133871 0.357256  1.75329 255 255 255
-0.518154   1.32766   1.41148 255 255 255
-0.391263   1.36139   1.38852 255 255 255
-0.575755   1.29451   1.44553 255 255 255
-0.61132 0.776963  1.75916 255 255 255
-1.00028  1.04737  1.59844 255 255 255
0.0200744  0.315638    1.8388 255 255 255
-0.81515 0.856263  1.76262 255 255 255
-1.21022 0.938991   1.7676 255 255 255
0.0953996  0.919339    1.5646 255 255 255
-0.518513    1.1411    1.5495 255 255 255
-0.34121  1.39776  1.36166 255 255 255
0.227059 0.437045  1.67956 255 255 255
-0.55062 0.568826  1.85737 255 255 255
-0.39043  1.43606  1.31809 255 255 255
-0.790212   1.01605   1.67892 255 255 255
-0.467984  0.992241   1.62162 255 255 255
-0.361764   1.44726   1.30272 255 255 255
0.400884  0.78171  1.55367 255 255 255
-0.462035   1.37936   1.37273 255 255 255
-0.320228   1.31286   1.41163 255 255 255
-0.339667  0.872656   1.66728 255 255 255
-0.227087   1.06608   1.54492 255 255 255
-0.646273  0.984832   1.64435 255 255 255
-0.885353   1.03838   1.66773 255 255 255
-0.871945  0.803307    1.8008 255 255 255
-0.344168   1.52128   1.24294 255 255 255
-0.508018  0.897223   1.70152 255 255 255
-0.587775   1.27707   1.46301 255 255 255
-0.545932  0.551247    1.8474 255 255 255
-1.10956 0.879648  1.82893 255 255 255
-0.0760955    0.63706      1.712 255 255 255
0.201958 0.982123  1.51089 255 255 255
-0.866346  0.938018   1.74444 255 255 255
-0.848524  0.779328    1.7963 255 255 255
0.184388 0.875595  1.55082 255 255 255
0.0199303   1.14814   1.46194 255 255 255
-0.422862   1.37475   1.36313 255 255 255
-1.07782 0.912718  1.77583 255 255 255
-0.439324   1.42485   1.34336 255 255 255
-1.08941 0.858947  1.84414 255 255 255
-0.548464  0.550219   1.83137 255 255 255
-0.296481    1.4278   1.35516 255 255 255
-0.969453   1.02459   1.69754 255 255 255
0.0105575 0.0839848   1.90992 255 255 255
-0.148947  0.378904   1.87295 255 255 255
-1.18371 0.931018  1.76291 255 255 255
-0.671641   1.12706   1.60603 255 255 255
-1.20008  1.01435  1.69923 255 255 255
-0.340428   1.42688   1.32443 255 255 255
0.325308 0.705235  1.60654 255 255 255
-0.708809   1.26431   1.40907 255 255 255
-0.584422   1.30251   1.43993 255 255 255
-0.349451   1.28832   1.43112 255 255 255
-0.636272  0.949482   1.66868 255 255 255
-0.548384   1.18134   1.53561 255 255 255
-0.745989  0.580393   1.90883 255 255 255
0.252001  0.42631   1.6993 255 255 255
-0.781646   1.02394   1.67256 255 255 255
-0.321094   1.49565    1.2702 255 255 255
0.108303  1.02475  1.50125 255 255 255
-0.861557   1.06933   1.63862 255 255 255
-0.46324  1.04555  1.57571 255 255 255
0.0450659  0.942604    1.5433 255 255 255
-0.384317  0.992916   1.60053 255 255 255
-0.783584  0.976739   1.68688 255 255 255
-0.333204   1.38289   1.38461 255 255 255
-0.319529   1.50068   1.26243 255 255 255
-0.758724   1.11404   1.60166 255 255 255
-0.463309  0.800931   1.74056 255 255 255
-0.245534   1.45288   1.32487 255 255 255
-0.353135   1.02593   1.58642 255 255 255
-0.380967   1.46573    1.3041 255 255 255
-0.159424   1.05658   1.53185 255 255 255
-0.300186   1.41628    1.3568 255 255 255
-0.330666   1.45702   1.29182 255 255 255
-0.606931  0.444457   1.94284 255 255 255
-0.431231   1.39858   1.35578 255 255 255
0.0623641  0.923556   1.57176 255 255 255
-0.179747    1.1019    1.5215 255 255 255
-0.657144  0.702241   1.77421 255 255 255
-0.467164  0.781524   1.73838 255 255 255
-0.869528   1.15776   1.50046 255 255 255
-0.786238  0.698489   1.84547 255 255 255
0.161331 0.726388   1.6373 255 255 255
-0.506874   1.14814   1.53306 255 255 255
-0.370958  0.997437   1.60639 255 255 255
-0.284083   0.36785   1.91033 255 255 255
-0.560803  0.426881   1.93944 255 255 255
-0.481084    1.2837   1.47146 255 255 255
0.220514 0.417936  1.69342 255 255 255
-0.0747229   0.878088    1.58845 255 255 255
-0.148264  0.261202   1.91961 255 255 255
-0.964346  0.783563   1.84073 255 255 255
-0.652661   1.28719   1.43892 255 255 255
-0.342379   1.50311   1.26615 255 255 255
-0.43767 0.803378  1.73693 255 255 255
-0.591209   1.33592   1.36563 255 255 255
-0.657856   1.28912   1.43969 255 255 255
-0.133494   1.14182   1.49159 255 255 255
-0.964545   1.08667   1.57609 255 255 255
-0.376721  0.913902   1.66663 255 255 255
-0.0367038  0.0805192    1.96048 255 255 255
-0.731563  0.797071   1.75382 255 255 255
-0.791321   1.11277   1.59796 255 255 255
-0.626366   1.14067    1.5807 255 255 255
-0.108296  0.994476   1.54692 255 255 255
-0.181032   1.05477   1.53988 255 255 255
-0.251401   1.44881   1.33188 255 255 255
0.0224921   0.30694    1.8514 255 255 255
-0.663355   1.30835   1.39456 255 255 255
-0.89311  1.06257  1.65562 255 255 255
0.206497 0.985549  1.52268 255 255 255
-0.545531  0.971633    1.6321 255 255 255
-0.30848 0.851214  1.67623 255 255 255
-0.672808    1.2061   1.52192 255 255 255
-0.260362  0.281241   1.93721 255 255 255
-1.11439 0.915965  1.77553 255 255 255
0.0256767  0.385031   1.81852 255 255 255
-0.917676  0.709799   1.84957 255 255 255
-0.50873  1.40423  1.29434 255 255 255
 -1.0284 0.926561  1.76963 255 255 255
-0.771816  0.980704    1.6889 255 255 255
0.0014449   1.19019   1.44503 255 255 255
-0.0276394    0.94878    1.54034 255 255 255
-0.760699   1.15871   1.57407 255 255 255
-1.00247 0.919033  1.75703 255 255 255
-0.261635   1.02424   1.56359 255 255 255
0.0193331   0.61129   1.61988 255 255 255
-0.567624  0.888191   1.66113 255 255 255
-0.732171  0.923554   1.70238 255 255 255
-0.163338  0.738483   1.69024 255 255 255
-0.544384  0.837895   1.70207 255 255 255
-0.305563   1.43071   1.33064 255 255 255
-0.436538  0.869704   1.69849 255 255 255
-0.617033   1.29695   1.42203 255 255 255
-0.723987  0.947538   1.66724 255 255 255
-0.801283    1.0984   1.61746 255 255 255
0.293182 0.830734  1.58387 255 255 255
-0.777025  0.997674    1.6844 255 255 255
-0.661965  0.799776     1.755 255 255 255
-0.0582889    0.34134    1.83884 255 255 255
-0.0288994   0.942984    1.54367 255 255 255
-0.353573   1.44224   1.30675 255 255 255
-0.533288    1.3274   1.42281 255 255 255
-0.156068   1.13289   1.50099 255 255 255
-0.440531  0.999352   1.60333 255 255 255
-0.887821  0.894274   1.76752 255 255 255
-0.822262   1.10273   1.59453 255 255 255
-0.831767   1.11503   1.60631 255 255 255
-0.865172   1.05787   1.65003 255 255 255
-0.488512   1.35026    1.3987 255 255 255
0.130301 0.838299  1.58731 255 255 255
-0.81485 0.828668  1.77527 255 255 255
-0.503855   1.35481   1.39968 255 255 255
-0.161475  0.970749   1.55446 255 255 255
-0.737469   1.16328   1.56447 255 255 255
-0.500869   1.31186   1.41851 255 255 255
-0.570796   1.28277   1.45596 255 255 255
-0.483364   1.38796   1.37414 255 255 255
-0.595099  0.387943   1.98596 255 255 255
-0.558778   1.23666   1.48879 255 255 255
-0.519487  0.910148   1.69318 255 255 255
-0.351114   1.49279    1.2706 255 255 255
-0.657299   1.18625   1.53189 255 255 255
-0.0579037   0.922517     1.5584 255 255 255
-0.468804   1.06967   1.54957 255 255 255
-0.95045    1.082  1.58293 255 255 255
-0.438445  0.951449   1.60225 255 255 255
-0.0990053   0.754025    1.67238 255 255 255
-0.338121   1.29659   1.42105 255 255 255
-0.788555   1.01145   1.68285 255 255 255
-0.845857   1.18385   1.44996 255 255 255
-0.835127  0.762553   1.82182 255 255 255
-0.500114   1.22228   1.50374 255 255 255
-0.592261   1.21319   1.51025 255 255 255
-0.788457  0.948743   1.70737 255 255 255
-0.323914   1.48301   1.27231 255 255 255
0.288659 0.829496  1.56531 255 255 255
-0.728071  0.954947   1.66109 255 255 255
-1.00591  1.15856  1.56256 255 255 255
-0.269645   1.44879   1.32454 255 255 255
-0.396725   1.35851   1.39183 255 255 255
 -0.6989 0.944066    1.682 255 255 255
-0.622631  0.949466   1.66898 255 255 255
0.279047  0.85847  1.57617 255 255 255
0.0296525   1.12481   1.46866 255 255 255
-0.779742  0.704304   1.84473 255 255 255
0.0195788   1.15732   1.45611 255 255 255
-1.17626 0.903599  1.77804 255 255 255
-0.159163   1.06226   1.53175 255 255 255
-0.653894   1.00407   1.65009 255 255 255
-0.415209   1.43163   1.32932 255 255 255
-0.179872   1.04924   1.54011 255 255 255
-0.521365   1.02833    1.5996 255 255 255
-0.457079   1.40968   1.35398 255 255 255
-0.771405  0.960378   1.68689 255 255 255
-0.0809185   0.306477    1.88579 255 255 255
-0.378602   1.49119   1.26554 255 255 255
-0.779547   1.12261   1.59004 255 255 255
-0.659099  0.698845   1.76547 255 255 255
-0.0811381   0.714415     1.6803 255 255 255
-1.02028 0.916607  1.77441 255 255 255
-0.370427   1.26507   1.44335 255 255 255
-0.0844599   0.606611    1.67989 255 255 255
-0.329885   1.30309    1.4182 255 255 255
-0.457979  0.920029   1.65706 255 255 255
-0.616343   1.12357   1.57916 255 255 255
0.0642137  0.292257    1.8017 255 255 255
-0.730943  0.877177   1.73206 255 255 255
-0.659885   1.12232   1.59606 255 255 255
-0.0426125   0.864987    1.61295 255 255 255
-0.650504   1.29471   1.43799 255 255 255
-0.561087  0.882929   1.64808 255 255 255
-0.660824   1.09566   1.60818 255 255 255
0.0538663   1.12329   1.46469 255 255 255
0.308985 0.812371  1.58912 255 255 255
-0.692439   1.09108   1.61846 255 255 255
-0.808893   1.10223   1.60529 255 255 255
-0.406988   1.46066   1.27538 255 255 255
-0.418895   1.33832   1.40629 255 255 255
-0.784325   1.09828   1.63953 255 255 255
-0.494641   0.78777   1.73816 255 255 255
-0.672092   1.23123    1.5125 255 255 255
-0.402905   1.38866   1.35976 255 255 255
-0.615399  0.962735    1.6474 255 255 255
-0.366703  0.936756   1.64028 255 255 255
-0.94817 0.862709  1.79386 255 255 255
-0.535382   1.28116   1.45034 255 255 255
0.254783 0.686028  1.61693 255 255 255
-0.33753  1.05871  1.56706 255 255 255
-1.00109 0.996772  1.70626 255 255 255
-0.45122  0.66908  1.74759 255 255 255
-0.117257  0.339013   1.85439 255 255 255
-0.902994    1.0555    1.6607 255 255 255
0.0075513    1.0434   1.51732 255 255 255
-0.227677  0.952269   1.59416 255 255 255
0.0711256  0.134044   1.85948 255 255 255
0.113689 0.447282  1.76348 255 255 255
-0.329764   1.04306   1.57358 255 255 255
-0.865045   1.15301   1.50153 255 255 255
-0.100243   0.88847   1.58504 255 255 255
0.181631 0.298252  1.79704 255 255 255
0.174793 0.289728  1.79366 255 255 255
-0.691619   1.17903   1.53875 255 255 255
-0.00964246    0.260425     1.87424 255 255 255
0.259937 0.470342  1.67104 255 255 255
0.00940184   0.864996    1.60591 255 255 255
-0.488451   0.47326   1.88305 255 255 255
-0.920426  0.622187   1.91757 255 255 255
0.187029 0.976338  1.52817 255 255 255
-0.686695   1.05381   1.62716 255 255 255
0.0312105  0.937069   1.53474 255 255 255
-0.400668   1.40845   1.33904 255 255 255
-0.294986   1.38595    1.3722 255 255 255
-0.173472  0.517821   1.71277 255 255 255
-0.480801  0.857733   1.70443 255 255 255
-0.856029   1.10447   1.61772 255 255 255
-0.607633   1.17402   1.55929 255 255 255
-0.564303   1.19812   1.53408 255 255 255
-0.505428  0.913931   1.69044 255 255 255
-0.578102  0.844451   1.70987 255 255 255
0.357994  0.73246  1.46151 255 255 255
-0.397169   1.47364   1.27573 255 255 255
-0.426799   1.37681   1.35962 255 255 255
-0.878703  0.652121   1.89861 255 255 255
-0.163454  0.697856   1.71962 255 255 255
-0.811343  0.561984    1.9303 255 255 255
-1.11664 0.867782  1.83264 255 255 255
-0.345501  0.453204   1.79041 255 255 255
-0.855554  0.941204   1.73863 255 255 255
0.0115281   0.27322   1.86668 255 255 255
0.0274972    1.1196   1.46334 255 255 255
-0.15118 0.232005  1.91425 255 255 255
-0.718872  0.983098   1.67016 255 255 255
-0.249899   0.91735   1.61501 255 255 255
-0.632912   1.00899   1.63371 255 255 255
-0.917772   1.16419   1.51047 255 255 255
-0.606554   1.29918   1.41579 255 255 255
0.142403 0.196151  1.88357 255 255 255
-0.64632 0.809689  1.73642 255 255 255
-0.896958   1.11742   1.53065 255 255 255
-0.642005  0.929895   1.68289 255 255 255
-0.485594    1.0407    1.5713 255 255 255
-0.418482    1.3988    1.3516 255 255 255
-0.12857 0.176169    1.917 255 255 255
-0.282163   1.07234   1.54125 255 255 255
-0.39848  1.38777  1.36196 255 255 255
-0.471674  0.820186   1.72766 255 255 255
-1.12422 0.859525  1.81312 255 255 255
-0.339213  0.982347   1.60046 255 255 255
-0.304852  0.230959   1.95786 255 255 255
-0.382517   1.45622   1.31115 255 255 255
-0.286871    1.3236   1.40029 255 255 255
-0.744917  0.926802   1.70373 255 255 255
-0.881384  0.862532   1.78242 255 255 255
-0.416186   1.36576   1.38358 255 255 255
-0.582455   1.22256   1.50108 255 255 255
-0.554691  0.880743   1.64795 255 255 255
-0.483724   1.14126   1.54135 255 255 255
-0.58795  1.29757  1.45053 255 255 255
-0.52088 0.895034  1.69669 255 255 255
-0.818108   1.00086   1.69977 255 255 255
-0.373603  0.969599   1.61833 255 255 255
-0.779959   1.12733   1.58687 255 255 255
-0.344479   1.37318   1.39525 255 255 255
-0.419486  0.638097    1.7099 255 255 255
-0.318323  0.843784   1.67577 255 255 255
-0.428343  0.292989   1.94842 255 255 255
-0.374554   1.45773   1.30148 255 255 255
-0.412074  0.296237   1.96766 255 255 255
-0.668137  0.698185   1.75486 255 255 255
-0.707761  0.533373   1.93097 255 255 255
0.228979 0.606549  1.68508 255 255 255
0.267631 0.559734  1.69169 255 255 255
-0.08408 0.719555  1.67351 255 255 255
-0.69721 0.788992  1.75918 255 255 255
-0.242853  0.153336   1.97458 255 255 255
-1.03084 0.877129  1.81887 255 255 255
-0.347884   1.41168   1.34352 255 255 255
-0.630994  0.967851   1.64548 255 255 255
-0.801274   1.00013   1.68708 255 255 255
-0.394587  0.832934    1.7086 255 255 255
0.0054471  0.188898   1.81432 255 255 255
-0.857327   1.06245   1.64528 255 255 255
-0.29055  1.38595  1.37561 255 255 255
-0.751131  0.868386   1.73546 255 255 255
-0.490622   1.23092   1.49776 255 255 255
-0.624425   1.31038   1.42207 255 255 255
-0.607315   1.13153    1.5746 255 255 255
-0.558895   1.29759   1.44565 255 255 255
-0.962344  0.990375   1.71485 255 255 255
-0.921569  0.667919    1.9257 255 255 255
-1.06769  1.00345  1.61755 255 255 255
-0.397909   1.39296   1.35092 255 255 255
-0.627241   1.17901   1.53832 255 255 255
-0.748921  0.932008   1.69837 255 255 255
-0.563867  0.865027   1.67239 255 255 255
-0.432205  0.889988   1.68696 255 255 255
-0.431412  0.367292    1.9361 255 255 255
-0.507158   1.00249    1.6051 255 255 255
-0.130342  0.248981   1.90494 255 255 255
-0.367446  0.946426   1.64117 255 255 255
0.197271 0.554751  1.69844 255 255 255
-0.502747  0.853538    1.6935 255 255 255
-0.409705   1.42245   1.33541 255 255 255
-0.650006   1.24979    1.4959 255 255 255
0.0241624  0.618079   1.63209 255 255 255
-0.23304 0.367842  1.86161 255 255 255
-0.829497   0.85561   1.76996 255 255 255
-0.0394406   0.615859    1.71436 255 255 255
-0.638693  0.979105   1.63936 255 255 255
-0.526092   1.25344   1.47494 255 255 255
-0.509524  0.767121    1.7333 255 255 255
-0.743392  0.980914   1.67775 255 255 255
0.136297 0.390411  1.72809 255 255 255
0.011688 0.301306   1.8509 255 255 255
-0.703452  0.543344   1.91434 255 255 255
-0.748687   1.19611   1.48428 255 255 255
-0.604011    1.3461   1.31206 255 255 255
-0.642123   1.20079   1.51373 255 255 255
0.0342422  0.285383   1.83518 255 255 255
-0.516586   1.36201   1.39192 255 255 255
-0.366928  0.815597   1.71532 255 255 255
-0.495574   1.35171   1.40208 255 255 255
-0.972751   1.09091   1.55749 255 255 255
0.283346 0.854814  1.57356 255 255 255
-0.199652  0.079965   1.99519 255 255 255
0.168673  0.41139  1.71145 255 255 255
0.221523 0.958837  1.52946 255 255 255
-0.906209  0.941339   1.75126 255 255 255
-0.136747  0.656918   1.73107 255 255 255
-0.10757 0.353915  1.87074 255 255 255
-0.513314  0.761073    1.7349 255 255 255
-0.571495   1.31647   1.43752 255 255 255
-0.872274  0.966534   1.72912 255 255 255
-0.632921    1.2158   1.50385 255 255 255
-0.885505   1.09218   1.57082 255 255 255
-0.430333   1.39122   1.36138 255 255 255
-0.396093  0.954922   1.62349 255 255 255
-0.286728  0.695707    1.7184 255 255 255
0.218443 0.950326   1.5253 255 255 255
-0.237275    1.0655   1.54689 255 255 255
-0.742198   1.20525   1.50892 255 255 255
0.248143  0.85594  1.55299 255 255 255
-0.57636  1.31609  1.39722 255 255 255
-0.353515   1.46067    1.2981 255 255 255
-0.386509   1.46673   1.30412 255 255 255
-1.10035 0.856131  1.81398 255 255 255
-0.306464   1.37056   1.38631 255 255 255
-0.907359  0.659961   1.92455 255 255 255
-0.905995  0.934506    1.7524 255 255 255
-0.0793459    1.10465    1.49304 255 255 255
-0.10454   0.3072  1.88178 255 255 255
-0.601924    1.0474   1.60736 255 255 255
-1.06275  1.11285  1.60432 255 255 255
-0.505434   1.40433    1.3141 255 255 255
0.133132 0.411489  1.72148 255 255 255
-0.71195  1.17616  1.54853 255 255 255
0.129902 0.524589  1.72718 255 255 255
-0.938996  0.656534     1.931 255 255 255
-0.307015   1.48847   1.27023 255 255 255
-0.0420703   0.243447    1.88082 255 255 255
-0.037243  0.772606    1.6244 255 255 255
0.111408 0.362826   1.7636 255 255 255
0.112105 0.363439  1.76888 255 255 255
-0.692689    1.1937   1.53662 255 255 255
0.0181628  0.374823   1.84173 255 255 255
-0.302333   1.49391   1.26571 255 255 255
-0.469958       1.3   1.44299 255 255 255
-0.612516   1.07975   1.59578 255 255 255
-0.965999   1.08229   1.55829 255 255 255
0.128969 0.558405  1.73938 255 255 255
-1.05646 0.931691  1.76261 255 255 255
-0.730205   1.18881   1.54713 255 255 255
-1.05711 0.924384  1.77345 255 255 255
-0.899972   0.94254   1.75034 255 255 255
-0.724931  0.687412   1.77232 255 255 255
-0.449867   1.08082   1.54254 255 255 255
-0.970405  0.761523   1.78109 255 255 255
-0.30544  1.43499  1.32185 255 255 255
-0.696037   1.27133   1.36973 255 255 255
0.0225603   1.03038   1.52032 255 255 255
-0.317651  0.977097   1.60035 255 255 255
-0.492545   1.36491   1.39262 255 255 255
-0.723107  0.873108   1.72717 255 255 255
-0.447213   1.32505   1.42233 255 255 255
-0.0484995    0.63303    1.68592 255 255 255
-0.752118   1.03188   1.65395 255 255 255
-0.638273   1.24293   1.48645 255 255 255
-0.330662   0.43751   1.81266 255 255 255
-0.82306 0.937952  1.72727 255 255 255
-0.570299    1.2161   1.50673 255 255 255
0.130386 0.354199  1.75037 255 255 255
-0.513871   1.32882   1.41535 255 255 255
-0.824165   0.81346   1.77978 255 255 255
-0.526506   1.38275   1.35362 255 255 255
-0.631483   1.18554   1.53147 255 255 255
-0.560585  0.563537    1.8384 255 255 255
-0.680973   1.09336    1.6158 255 255 255
0.208565 0.512491  1.72261 255 255 255
-0.369918   1.45151   1.30334 255 255 255
0.118937 0.289622  1.80311 255 255 255
-0.160538  0.330622   1.89613 255 255 255
-0.327958   0.84184    1.6849 255 255 255
-0.889113  0.963425   1.73412 255 255 255
-0.271965  0.174938   1.99335 255 255 255
-0.433129   1.46238   1.29248 255 255 255
-0.668391  0.747491    1.7749 255 255 255
-0.563013   1.23135   1.48081 255 255 255
-0.255246    1.0101   1.56937 255 255 255
-0.317386  0.887263   1.64921 255 255 255
0.209559 0.839403  1.56362 255 255 255
-0.0192568   0.947892    1.55126 255 255 255
-0.047012   1.21219   1.42954 255 255 255
0.298713 0.919653  1.50327 255 255 255
0.0970418  0.364378    1.7548 255 255 255
0.0790853   1.10425   1.46754 255 255 255
-0.806792   0.55021   1.93624 255 255 255
-0.853989   1.14524   1.51561 255 255 255
-1.17255 0.898108  1.80998 255 255 255
-0.401885  0.844577   1.70616 255 255 255
-0.776768   1.13562   1.58371 255 255 255
-0.617695  0.939157    1.6562 255 255 255
-0.770988  0.842277   1.75688 255 255 255
-0.619965   1.18197   1.53269 255 255 255
-0.289131  0.996936   1.58187 255 255 255
-0.597095   1.34128   1.33283 255 255 255
-0.511625   1.34595   1.40077 255 255 255
-0.64918 0.998535  1.64698 255 255 255
-0.635264   1.07463   1.61155 255 255 255
-0.34521  1.47526  1.28235 255 255 255
-0.608436  0.619296   1.82854 255 255 255
-0.646664   1.15454    1.5286 255 255 255
0.0840304  0.171379   1.86833 255 255 255
-0.708729  0.867344   1.72119 255 255 255
-0.772167   1.15886   1.57034 255 255 255
0.156739 0.508783  1.75394 255 255 255
-0.897081    1.0268   1.67758 255 255 255
-0.184195  0.402694   1.85775 255 255 255
0.253519 0.787914  1.59554 255 255 255
-0.0664994    0.38044     1.8444 255 255 255
0.0215312  0.204511   1.81571 255 255 255
-1.07423  1.10426  1.60828 255 255 255
-0.823545   1.09568   1.61777 255 255 255
0.300192 0.928887  1.50121 255 255 255
-0.619091   1.17588    1.5385 255 255 255
-0.213065   1.06656   1.54323 255 255 255
-0.71731 0.795111  1.76473 255 255 255
-0.726798  0.985167   1.66948 255 255 255
-0.398533   1.37055   1.37539 255 255 255
-0.376729   1.37855   1.37454 255 255 255
-0.790524   1.02362   1.67591 255 255 255
-0.59813  1.06453  1.60301 255 255 255
-0.420259  0.836756   1.69331 255 255 255
-0.392261   1.44769   1.31553 255 255 255
-1.00879 0.882724  1.80823 255 255 255
-0.417946   1.40644   1.34504 255 255 255
-0.359599   1.26558   1.44286 255 255 255
-0.638329   1.11723   1.59493 255 255 255
-0.488141  0.837188   1.72593 255 255 255
-0.344465   1.41021   1.34563 255 255 255
-0.0525538    1.23284    1.44385 255 255 255
-0.338764   1.06821   1.56208 255 255 255
-0.873305  0.590341   1.94043 255 255 255
-0.972849  0.759925   1.77445 255 255 255
-0.0170518   0.925303    1.55465 255 255 255
-0.0522486   0.237703    1.88783 255 255 255
-0.35175  1.36295  1.40231 255 255 255
-0.301307   1.45327   1.30242 255 255 255
-0.383197   1.47415   1.29784 255 255 255
-0.842172  0.755047   1.81893 255 255 255
-0.517431   1.27288    1.4734 255 255 255
-0.48439 0.842768  1.71866 255 255 255
-0.255578   1.05332   1.54983 255 255 255
-0.569894   1.16314   1.54974 255 255 255
-0.039071  0.498699   1.75195 255 255 255
-0.165441  0.975625   1.56694 255 255 255
-0.00461997    0.311359     1.85341 255 255 255
0.245987 0.953351   1.5272 255 255 255
-0.420315   1.44508   1.28509 255 255 255
-0.634332  0.696981   1.78975 255 255 255
-0.53302  1.23645  1.50974 255 255 255
0.231185 0.445296  1.68128 255 255 255
-1.01114 0.930282  1.75065 255 255 255
-0.252522   1.04727   1.55537 255 255 255
0.0230694  0.209902   1.83313 255 255 255
-0.853107  0.857208   1.77544 255 255 255
-0.807854  0.555981   1.93215 255 255 255
-0.880954  0.825737   1.79853 255 255 255
-0.582788   0.68182   1.79426 255 255 255
-0.505923   1.40773   1.27685 255 255 255
-0.338273   1.42154   1.32753 255 255 255
-0.568486  0.567135   1.84996 255 255 255
-0.409577   1.44596   1.32529 255 255 255
-0.990985   1.09571   1.55308 255 255 255
-0.557452   1.28523   1.44889 255 255 255
-0.0337895   0.242611    1.89293 255 255 255
-0.494464   1.15538   1.52994 255 255 255
-0.56084  1.21358  1.52753 255 255 255
-0.301566  0.238702   1.95398 255 255 255
-0.102897  0.040949   1.99031 255 255 255
0.347451 0.785251  1.51847 255 255 255
0.233301 0.988987  1.51089 255 255 255
-0.204285   0.95513   1.58764 255 255 255
-0.343492   0.28195   1.96382 255 255 255
  0.2199 0.941544  1.53588 255 255 255
-0.544222   1.12743    1.5542 255 255 255
-1.04197  1.05031  1.57242 255 255 255
-1.00963 0.936034  1.75102 255 255 255
-0.521497  0.933022   1.68054 255 255 255
-0.340101   1.50053   1.26982 255 255 255
-0.381335  0.856668   1.69623 255 255 255
-0.460263   0.41808   1.90207 255 255 255
-0.60539  1.26156  1.47588 255 255 255
 0.24067 0.992367   1.5078 255 255 255
-0.761175  0.727713   1.81989 255 255 255
-0.398818   1.43139   1.32759 255 255 255
0.0130221  0.878162   1.55687 255 255 255
-0.364986  0.942088   1.64211 255 255 255
-1.13537 0.906138  1.77213 255 255 255
-0.248261   1.45755   1.32727 255 255 255
-0.193913  0.356834   1.88214 255 255 255
 0.35577 0.783307  1.52696 255 255 255
-1.01567 0.964483  1.73886 255 255 255
-0.889198   1.04713   1.66058 255 255 255
-0.00575113    0.971091     1.52142 255 255 255
0.0293892    1.0178   1.50136 255 255 255
-0.111631  0.190891   1.91562 255 255 255
-0.643723   1.11698   1.59468 255 255 255
-0.43511  1.42272  1.34303 255 255 255
-0.542912   1.30577   1.43667 255 255 255
-0.413029   1.49388   1.22091 255 255 255
-0.527252   1.32653   1.42074 255 255 255
-0.239934   0.25205   1.93983 255 255 255
-0.912611  0.668926   1.92879 255 255 255
0.203301 0.559376  1.70029 255 255 255
-0.668248   1.22588   1.51564 255 255 255
-0.411736   1.36328   1.38882 255 255 255
-0.109189   0.74309   1.67711 255 255 255
-0.384985  0.500063   1.81962 255 255 255
 1.65227  2.15252 0.399394 255 255 255
 0.112974 -0.597472   2.57463 255 255 255
-0.415763  -0.66195   2.55352 255 255 255
-0.385244 -0.617507   2.50266 255 255 255
-0.263281 -0.495031     2.336 255 255 255
-0.456861 -0.521561   2.39124 255 255 255
0.0967177 -0.427585   2.32704 255 255 255
-0.524184 -0.612441   2.47543 255 255 255
-0.405007 -0.709985   2.61769 255 255 255
 0.183119 -0.640641   2.71277 255 255 255
-0.407846 -0.594885   2.48742 255 255 255
 0.160475 -0.618949   2.63422 255 255 255
-0.164704 -0.537297   2.41181 255 255 255
-0.526753 -0.755394   2.65119 255 255 255
-0.407781 -0.621402   2.50785 255 255 255
-0.00672865   -0.556432     2.44079 255 255 255
-0.446384 -0.736945   2.64832 255 255 255
-0.00943818   -0.643034     2.59168 255 255 255
0.0298447 -0.967151   3.23024 255 255 255
 0.155182 -0.574793   2.56449 255 255 255
-0.0591958   -0.85989    2.96979 255 255 255
-0.136295  -0.58807   2.46825 255 255 255
-0.330943 -0.662991   2.56078 255 255 255
-0.251636 -0.731661   2.64668 255 255 255
-0.084892 -0.605897   2.54962 255 255 255
 0.293098 -0.912434    3.3217 255 255 255
-0.266697 -0.708576   2.62396 255 255 255
-0.135889 -0.533918   2.39583 255 255 255
0.0728221 -0.642189   2.61263 255 255 255
 -0.16421 -0.572675   2.44446 255 255 255
-0.388418 -0.572151   2.46776 255 255 255
0.0265191 -0.918839   3.12447 255 255 255
-0.114406 -0.690566   2.63358 255 255 255
-0.531429 -0.706955   2.58736 255 255 255
 -0.49767 -0.557041   2.42031 255 255 255
-0.100667 -0.932712   3.05486 255 255 255
 -0.36291 -0.526263   2.41534 255 255 255
-0.069103 -0.833485    2.8976 255 255 255
-0.483754 -0.714265   2.60453 255 255 255
-0.517275 -0.589537   2.45631 255 255 255
-0.188234 -0.896286    2.8098 255 255 255
-0.224136 -0.520623   2.37905 255 255 255
-0.503701  -0.66966   2.56455 255 255 255
0.0316462 -0.882679   3.05749 255 255 255
-0.269303 -0.447357   2.32127 255 255 255
0.0922577 -0.623166   2.59771 255 255 255
-0.377171 -0.602408   2.48574 255 255 255
-0.343208 -0.577902    2.4657 255 255 255
-0.287835 -0.714199   2.61576 255 255 255
-0.546218 -0.786018   2.68243 255 255 255
-0.494065 -0.649925   2.54068 255 255 255
-0.245007 -0.531184   2.41636 255 255 255
-0.170765 -0.873306   2.80654 255 255 255
 0.199244 -0.760167   2.95682 255 255 255
0.0918867 -0.639235   2.62574 255 255 255
-0.123483 -0.930237   3.04484 255 255 255
 0.181407 -0.546827   2.53424 255 255 255
-0.336709 -0.682986   2.58746 255 255 255
-0.507835 -0.767749   2.67398 255 255 255
-0.215314 -0.601705   2.49659 255 255 255
-0.318836 -0.861962   2.75642 255 255 255
-0.277287 -0.568716   2.45535 255 255 255
-0.506061 -0.721311   2.61067 255 255 255
-0.391582 -0.809662   2.70878 255 255 255
0.0372009 -0.697809   2.69633 255 255 255
-0.200926 -0.851906   2.78332 255 255 255
-0.294452  -0.44539    2.3228 255 255 255
-0.584351 -0.688789   2.57184 255 255 255
-0.470442 -0.465263   2.32265 255 255 255
-0.354683 -0.601017     2.476 255 255 255
-0.437565 -0.755963   2.66999 255 255 255
 0.165252 -0.595203   2.59145 255 255 255
-0.309133 -0.647828   2.56305 255 255 255
-0.331841 -0.880816   2.78417 255 255 255
 -0.38878 -0.853707   2.79356 255 255 255
-0.0354309  -0.589579    2.48317 255 255 255
-0.339161 -0.885241   2.80625 255 255 255
-0.581152 -0.915341   2.84592 255 255 255
-0.473101  -0.75451   2.66403 255 255 255
-0.0804763  -0.436874    2.30894 255 255 255
-0.0593943   -0.51579    2.39946 255 255 255
-0.236507 -0.771652   2.71407 255 255 255
 0.130381 -0.599149    2.5812 255 255 255
-0.561436 -0.885278    2.8117 255 255 255
-0.500817  -0.68659   2.57826 255 255 255
-0.518914 -0.658531   2.53158 255 255 255
 0.127884 -0.782855    2.9199 255 255 255
 -0.56602 -0.690715   2.57869 255 255 255
 0.177227 -0.584638   2.58021 255 255 255
-0.206915 -0.758648   2.68754 255 255 255
-0.045397 -0.448813   2.34589 255 255 255
-0.518918 -0.680827   2.56838 255 255 255
-0.234505 -0.868304   2.69155 255 255 255
-0.256748 -0.483522   2.35816 255 255 255
-0.245725  -0.55491   2.43189 255 255 255
-0.541359 -0.692582   2.58438 255 255 255
-0.603878 -0.684227   2.57479 255 255 255
0.0271285 -0.516205   2.38879 255 255 255
 0.210402 -0.602599   2.65434 255 255 255
0.00612093   -0.74058    2.78193 255 255 255
-0.499609 -0.537792   2.39965 255 255 255
-0.248585 -0.873694   2.67423 255 255 255
 0.195208 -0.434827   2.37916 255 255 255
 0.115475 -0.525571   2.48016 255 255 255
 0.281422 -0.691758   2.86342 255 255 255
 -0.52057 -0.577274   2.44093 255 255 255
-0.522224 -0.794796    2.6968 255 255 255
-0.288295  -0.68644   2.59434 255 255 255
-0.0402922  -0.454707    2.35865 255 255 255
-0.134862 -0.517932   2.40067 255 255 255
 0.212431 -0.661779   2.79205 255 255 255
0.0678575 -0.817109   2.95199 255 255 255
   0.1274 -0.630291   2.62912 255 255 255
 0.170547 -0.741407   2.88905 255 255 255
 0.114692 -0.803473    2.9516 255 255 255
-0.619775 -0.878211   2.78895 255 255 255
0.0317992 -0.532607   2.42292 255 255 255
-0.283594 -0.450617   2.33012 255 255 255
-0.281502 -0.441638   2.31904 255 255 255
-0.227079 -0.752877   2.66982 255 255 255
-0.474189 -0.853171   2.77725 255 255 255
0.183796 -0.80396  3.00765 255 255 255
-0.466501 -0.560483   2.42122 255 255 255
 0.140818 -0.892867   3.15765 255 255 255
 0.184668 -0.850134   3.11189 255 255 255
-0.0560349  -0.866858    2.96577 255 255 255
-0.515767 -0.695785   2.58706 255 255 255
 0.149554 -0.970431   3.37676 255 255 255
 0.243902 -0.549858   2.54412 255 255 255
0.0926688 -0.769015   2.86794 255 255 255
-0.0349782  -0.446737    2.34993 255 255 255
-0.115469 -0.825752   2.80027 255 255 255
0.0422877 -0.977813   3.24759 255 255 255
-0.274567 -0.456131   2.33057 255 255 255
-0.349008  -0.75504   2.65147 255 255 255
-0.609049 -0.932235   2.86822 255 255 255
-0.422864 -0.783961   2.69805 255 255 255
 0.104482 -0.600533    2.5673 255 255 255
-0.224654 -0.783409   2.69512 255 255 255
-0.471107 -0.729417   2.64138 255 255 255
-0.570444 -0.849246   2.75921 255 255 255
-0.604742 -0.916367   2.84553 255 255 255
-0.515249 -0.631468   2.51079 255 255 255
 0.184489 -0.762638    2.9467 255 255 255
-0.571683 -0.705803   2.58959 255 255 255
 0.117255 -0.535331   2.49364 255 255 255
-0.0839617   -0.44653     2.3203 255 255 255
 0.129934 -0.934501    3.2752 255 255 255
-0.598579 -0.873261   2.78431 255 255 255
 0.163532 -0.548791   2.52971 255 255 255
 0.160822 -0.710134    2.8254 255 255 255
 0.213428 -0.922955   3.29887 255 255 255
0.00636329  -0.673982    2.63787 255 255 255
-0.00660941   -0.566642     2.46504 255 255 255
-0.642836 -0.881528   2.78896 255 255 255
-0.188292 -0.624206   2.50219 255 255 255
-0.00771745   -0.774922     2.84379 255 255 255
 0.162368 -0.557021    2.5366 255 255 255
-0.230855 -0.849985   2.70068 255 255 255
-0.397159 -0.542293   2.42846 255 255 255
-0.591719 -0.734844   2.58898 255 255 255
-0.274696 -0.658748   2.57283 255 255 255
-0.162111 -0.687353   2.61606 255 255 255
-0.128286  -0.50091   2.36107 255 255 255
  0.15954 -0.901877   3.19476 255 255 255
-0.106284 -0.704113   2.65657 255 255 255
-0.144554 -0.686013   2.61532 255 255 255
-0.184211 -0.752801   2.69655 255 255 255
-0.259597 -0.824646   2.75961 255 255 255
-0.560138 -0.918088   2.84613 255 255 255
-0.202601  -0.70145   2.62331 255 255 255
0.0865853 -0.737417   2.80954 255 255 255
 0.143626 -0.712782   2.82015 255 255 255
-0.452891 -0.609828   2.49469 255 255 255
-0.495302 -0.708075   2.60177 255 255 255
-0.505202 -0.512581   2.38487 255 255 255
-0.354707 -0.808628   2.73978 255 255 255
0.0428786 -0.862645   3.03177 255 255 255
-0.249083 -0.844414   2.68871 255 255 255
-0.653401 -0.897514   2.81695 255 255 255
-0.546198  -0.59584   2.45331 255 255 255
 0.104633 -0.763913   2.86264 255 255 255
 0.149132 -0.799198   2.96874 255 255 255
-0.514726  -0.57748   2.44284 255 255 255
-0.263981 -0.542264   2.42861 255 255 255
-0.573674 -0.932244   2.86964 255 255 255
-0.377529 -0.641827   2.53768 255 255 255
-0.406118 -0.542306   2.42913 255 255 255
-0.576955 -0.679199   2.57289 255 255 255
-0.420314 -0.723354   2.63013 255 255 255
-0.288237 -0.430896   2.31436 255 255 255
-0.373828 -0.924175   2.77764 255 255 255
-0.0864536  -0.456295    2.32778 255 255 255
-0.116046 -0.535034   2.42256 255 255 255
0.0372112 -0.906105   3.08224 255 255 255
-0.168413 -0.650744   2.57612 255 255 255
-0.168395  -0.65077   2.57701 255 255 255
-0.371208 -0.934136   2.78144 255 255 255
-0.480326  -0.56436   2.43498 255 255 255
 -0.20244 -0.422512   2.30628 255 255 255
-0.226812 -0.878532    2.7163 255 255 255
-0.403439 -0.522052   2.41183 255 255 255
-0.0553766  -0.740411    2.69369 255 255 255
-0.233152 -0.908187   2.75177 255 255 255
 0.298098 -0.710282    2.9057 255 255 255
-0.0601341  -0.960455    3.16743 255 255 255
 0.156144 -0.776075   2.95216 255 255 255
-0.183194 -0.743737   2.68242 255 255 255
 -0.61303 -0.724164   2.59708 255 255 255
-0.292968 -0.802017   2.71509 255 255 255
-0.393973  -0.90898   2.78523 255 255 255
-0.328188 -0.705353   2.61254 255 255 255
-0.363124 -0.879063   2.79853 255 255 255
-0.447277 -0.557109   2.43764 255 255 255
0.0269486 -0.433549    2.3077 255 255 255
-0.614564 -0.864459   2.77546 255 255 255
0.0258015 -0.666812   2.65056 255 255 255
-0.0420443   -0.75404     2.7121 255 255 255
-0.177986  -0.65137   2.58009 255 255 255
-0.486114 -0.886274   2.81954 255 255 255
-0.276751 -0.836148   2.73917 255 255 255
-0.231432  -0.73346   2.65255 255 255 255
-0.0204478  -0.952899    3.18105 255 255 255
 0.231895 -0.561133   2.56429 255 255 255
-0.473276 -0.895432   2.82456 255 255 255
-0.0229911  -0.681162    2.62639 255 255 255
-0.557901  -0.68151   2.57496 255 255 255
 0.204263 -0.979651   3.40182 255 255 255
-0.177967  -0.47919   2.29785 255 255 255
-0.368615 -0.701061   2.60739 255 255 255
-0.437781 -0.582437   2.46282 255 255 255
0.0309913 -0.673232   2.66621 255 255 255
 0.223994 -0.602236   2.65351 255 255 255
 -0.23376 -0.712801   2.63992 255 255 255
 0.234579 -0.523583   2.51107 255 255 255
0.00228246  -0.561065    2.46504 255 255 255
0.0462936 -0.534626   2.42305 255 255 255
  0.13415 -0.648971   2.66121 255 255 255
-0.546647 -0.750826   2.64453 255 255 255
-0.364213 -0.921907    2.7915 255 255 255
-0.272442 -0.545461   2.43129 255 255 255
 0.219659 -0.828156   3.09523 255 255 255
-0.537964 -0.785055    2.6869 255 255 255
 0.178276 -0.752433   2.92408 255 255 255
-0.120033 -0.793103   2.75527 255 255 255
-0.279207 -0.543788   2.42676 255 255 255
 0.134833 -0.718517   2.81329 255 255 255
0.0236621 -0.834058    2.9628 255 255 255
0.0802196   -0.6831   2.69599 255 255 255
-0.0800667  -0.605609    2.52872 255 255 255
0.0943547 -0.731827   2.82009 255 255 255
-0.0585198  -0.770341    2.74228 255 255 255
-0.381184 -0.780165   2.65728 255 255 255
 0.193244 -0.602667   2.63984 255 255 255
-0.231786 -0.811956   2.76232 255 255 255
0.0106751 -0.891407   3.05836 255 255 255
-0.411401 -0.812635   2.68778 255 255 255
 0.203578 -0.637542   2.72002 255 255 255
