ply
format ascii 1.0
element vertex 1132
property float x
property float y
property float z
property uchar red
property uchar green
property uchar blue
end_header
 0.031005 0.0656334   1.90835 255 255 255
 0.24992 0.268604  1.87301 255 255 255
-0.129448  0.286129   1.87891 255 255 255
-0.265424  0.118109   1.96856 255 255 255
-0.0116751   0.295687    1.84167 255 255 255
 -0.18192 0.0969333   1.94767 255 255 255
-0.222201  0.225957   1.93043 255 255 255
0.168816 0.537327  1.72371 255 255 255
-0.342882  0.257102   2.00179 255 255 255
0.0063135  0.284777   1.84212 255 255 255
0.134916 0.484769  1.74307 255 255 255
-0.0158448  0.0985122     1.9086 255 255 255
0.0119531 0.0793782   1.91182 255 255 255
-0.145813  0.263467   1.89749 255 255 255
0.0266457  0.305516    1.8327 255 255 255
0.0302035  0.382691   1.79473 255 255 255
-0.428787  0.356636   1.91526 255 255 255
0.0756872  0.285713   1.82271 255 255 255
-0.148688  0.233118   1.89822 255 255 255
0.135723 0.197858  1.83219 255 255 255
-0.304205  0.230851   1.98344 255 255 255
-0.420211  0.308804   1.93455 255 255 255
-0.127673  0.249939   1.88825 255 255 255
-0.226917  0.370414   1.83971 255 255 255
0.119864 0.363335  1.75682 255 255 255
0.120994 0.367535  1.77704 255 255 255
-0.0495402    0.23755    1.86935 255 255 255
-0.000107116     0.310605      1.83618 255 255 255
-0.300878  0.239298    1.9751 255 255 255
-0.18911  0.35732  1.88356 255 255 255
-0.0225937   -0.69742    2.54219 255 255 255
 0.121779 -0.586362   2.48004 255 255 255
-0.422588 -0.657451   2.55812 255 255 255
-0.386039 -0.611337   2.48988 255 255 255
-0.248254 -0.489135   2.27165 255 255 255
-0.452987 -0.515257   2.35855 255 255 255
 0.108534 -0.425931   2.19704 255 255 255
-0.529234 -0.607107   2.46519 255 255 255
 -0.41587 -0.707637   2.63785 255 255 255
 0.188999 -0.628504   2.63703 255 255 255
-0.409817 -0.588421   2.47609 255 255 255
 0.167101 -0.607041   2.54525 255 255 255
-0.153485  -0.52902   2.35512 255 255 255
-0.547878 -0.757839   2.68787 255 255 255
-0.409938 -0.615485   2.49826 255 255 255
 0.017794 -0.644285   2.57997 255 255 255
0.00547167  -0.547374    2.35562 255 255 255
-0.460368 -0.736651   2.67784 255 255 255
-6.16514e-05    -0.632371      2.52948 255 255 255
0.0226858 -0.996826   3.43194 255 255 255
 0.161997 -0.564632   2.45704 255 255 255
-0.0614439  -0.866364     3.0505 255 255 255
-0.126376 -0.578861   2.41664 255 255 255
0.0366099 -0.673364   2.65669 255 255 255
-0.333667 -0.657233   2.55887 255 255 255
-0.254134 -0.727187   2.65211 255 255 255
-0.0678999   -0.59648    2.44964 255 255 255
 0.310694 -0.927973   3.47748 255 255 255
-0.269951  -0.70363    2.6309 255 255 255
-0.123349 -0.525706   2.33107 255 255 255
0.0755124   -0.6325   2.55677 255 255 255
0.0810998  -0.63078   2.53735 255 255 255
-0.153406 -0.564986   2.38412 255 255 255
-0.108808 -0.576401   2.43939 255 255 255
-0.388187 -0.565303   2.45004 255 255 255
0.0222975 -0.935461   3.26286 255 255 255
-0.109331  -0.68221   2.60781 255 255 255
-0.546272 -0.706088   2.60466 255 255 255
-0.496801 -0.550885   2.39465 255 255 255
-0.114948 -0.952089   3.19297 255 255 255
-0.357432 -0.519088   2.38246 255 255 255
-0.0728811  -0.835554    2.95315 255 255 255
-0.498825 -0.713155   2.62859 255 255 255
-0.519949 -0.583754   2.43984 255 255 255
-0.195106 -0.901325   2.85687 255 255 255
-0.208875 -0.514023    2.3071 255 255 255
-0.515356 -0.666875   2.57524 255 255 255
0.029646 -0.89207  3.16025 255 255 255
-0.256058 -0.441461   2.26199 255 255 255
 0.101287 -0.611509   2.51244 255 255 255
-0.377245 -0.595779   2.47046 255 255 255
-0.338517 -0.571048   2.43693 255 255 255
-0.290242  -0.70942   2.61734 255 255 255
-0.574414 -0.791285   2.73811 255 255 255
-0.503189 -0.646158    2.5448 255 255 255
-0.236093 -0.523288    2.3721 255 255 255
 0.206109 -0.516409   2.59645 255 255 255
-0.177034 -0.876966   2.85257 255 255 255
 0.206065 -0.752425   2.95581 255 255 255
0.100657 -0.62726   2.5461 255 255 255
-0.138992 -0.948988   3.17807 255 255 255
 0.187522 -0.537612   2.40674 255 255 255
-0.340052 -0.678054   2.58806 255 255 255
-0.530542 -0.771137   2.71825 255 255 255
-0.209248 -0.593266   2.46447 255 255 255
-0.171547 -0.655122   2.54467 255 255 255
-0.349233 -0.877979   2.86902 255 255 255
-0.269141  -0.56137   2.41506 255 255 255
 -0.52305 -0.720908   2.63778 255 255 255
 -0.43025 -0.823417    2.8209 255 255 255
 0.185977 -0.332873   2.41787 255 255 255
0.0444947 -0.687348   2.65339 255 255 255
-0.211752 -0.860629   2.86644 255 255 255
-0.277159 -0.441096    2.2499 255 255 255
-0.596611 -0.687581    2.5772 255 255 255
 -0.44981 -0.461952   2.24907 255 255 255
-0.352339 -0.594388   2.45386 255 255 255
-0.454927 -0.757199   2.70819 255 255 255
  0.17186 -0.583879   2.49297 255 255 255
-0.311249 -0.641541   2.55987 255 255 255
-0.379845 -0.909493   2.97335 255 255 255
-0.412636  -0.86302   2.86723 255 255 255
-0.0241725  -0.579674    2.41191 255 255 255
-0.358841 -0.895183   2.87669 255 255 255
-0.625227  -0.93557   2.94623 255 255 255
-0.491249 -0.755982   2.70224 255 255 255
-0.0653622  -0.432628    2.22195 255 255 255
-0.553449  -0.82613   2.73173 255 255 255
-0.0458634  -0.509048    2.31425 255 255 255
-0.243099 -0.770016   2.74225 255 255 255
0.138056 -0.58797  2.48813 255 255 255
-0.600945 -0.901509   2.90107 255 255 255
-0.513978 -0.684296   2.59447 255 255 255
-0.526947 -0.655123    2.5311 255 255 255
 0.133476 -0.776717   2.92823 255 255 255
-0.582295 -0.689312   2.59614 255 255 255
 0.183975 -0.573517   2.47989 255 255 255
-0.596491 -0.923149   2.95109 255 255 255
-0.208246 -0.755656   2.70573 255 255 255
-0.030866 -0.444808   2.25271 255 255 255
-0.531162 -0.678607   2.57953 255 255 255
 -0.23765 -0.868451   2.70955 255 255 255
-0.245311 -0.476546   2.30481 255 255 255
-0.237558 -0.546757   2.39102 255 255 255
-0.555857 -0.691321   2.59957 255 255 255
0.0490356 -0.733469   2.75696 255 255 255
-0.615521 -0.683109   2.57692 255 255 255
0.0398473 -0.509049   2.28765 255 255 255
 0.215005 -0.591112   2.54849 255 255 255
0.010147 -0.73311  2.77555 255 255 255
-0.49233 -0.53197   2.3593 255 255 255
-0.261895 -0.885591   2.75944 255 255 255
 0.202917 -0.431524   2.21684 255 255 255
 0.124144 -0.517551   2.37484 255 255 255
    0.286 -0.678749   2.78878 255 255 255
-0.518905 -0.571661   2.41411 255 255 255
-0.548366 -0.800326   2.75176 255 255 255
-0.290899 -0.680892     2.596 255 255 255
-0.0264509  -0.450517    2.26613 255 255 255
-0.122688 -0.510111   2.33649 255 255 255
 0.217779 -0.649718   2.72425 255 255 255
0.0706626 -0.815699   2.99316 255 255 255
 0.135615 -0.618083   2.54179 255 255 255
0.176837 -0.73203  2.86884 255 255 255
 0.119597 -0.799689   2.97761 255 255 255
-0.658933 -0.893352   2.86562 255 255 255
0.0441148 -0.525022   2.32089 255 255 255
-0.555645 -0.918668   3.09933 255 255 255
-0.268965 -0.445716   2.26709 255 255 255
-0.266305 -0.437058   2.25402 255 255 255
-0.229901 -0.750005   2.68982 255 255 255
-0.503916 -0.864027   2.85276 255 255 255
 0.190808 -0.799997   3.03603 255 255 255
-0.462296 -0.554422   2.39031 255 255 255
-0.486965 -0.787822   2.68322 255 255 255
-0.0254518  -0.972687    3.29616 255 255 255
 0.145617 -0.904049    3.2785 255 255 255
 0.192125 -0.853512   3.19178 255 255 255
-0.0576327  -0.873534    3.04522 255 255 255
-0.530936 -0.694178   2.60732 255 255 255
0.0832371  -0.50756   2.43865 255 255 255
0.153903 -1.00738  3.64123 255 255 255
 0.248172 -0.535123   2.36961 255 255 255
0.0978593 -0.761873   2.86616 255 255 255
-0.0207188  -0.442855    2.25545 255 255 255
-0.117832 -0.825062    2.8316 255 255 255
0.0360484  -1.00996    3.4596 255 255 255
-0.261983 -0.449916   2.27376 255 255 255
-0.366347 -0.758065   2.69744 255 255 255
-0.657722 -0.955432    2.9765 255 255 255
-0.443041  -0.78715   2.74846 255 255 255
 0.112932 -0.589498   2.47706 255 255 255
-0.228577 -0.780993   2.71353 255 255 255
-0.488438 -0.729607   2.67377 255 255 255
-0.604698 -0.860897   2.82976 255 255 255
-0.650393 -0.937028   2.94519 255 255 255
-0.521488 -0.627006   2.50583 255 255 255
 0.191058 -0.755033   2.94588 255 255 255
-0.590051 -0.705276   2.61182 255 255 255
0.125778 -0.52682  2.38981 255 255 255
-0.0680657  -0.442752     2.2294 255 255 255
 0.132664 -0.959243   3.47491 255 255 255
-0.636582 -0.887743   2.86141 255 255 255
 0.170013 -0.539939   2.41368 255 255 255
 0.166781 -0.699208   2.78622 255 255 255
 0.224472 -0.943644    3.4829 255 255 255
0.0142205 -0.663315   2.58937 255 255 255
0.0050333 -0.557256   2.38363 255 255 255
-0.682006 -0.896813   2.86184 255 255 255
-0.180075 -0.615896   2.45944 255 255 255
0.000215728   -0.766878     2.81406 255 255 255
 0.169876 -0.547254   2.42486 255 255 255
-0.234588 -0.849843   2.72093 255 255 255
-0.394152 -0.535718   2.40134 255 255 255
-0.605355 -0.735304   2.59804 255 255 255
-0.275437 -0.652193   2.56729 255 255 255
-0.158214 -0.679698   2.59583 255 255 255
-0.114533 -0.493715   2.28942 255 255 255
 0.165619 -0.915623   3.33257 255 255 255
-0.0960173  -0.694012    2.61861 255 255 255
-0.140871 -0.678038   2.59833 255 255 255
-0.185893 -0.748473    2.7056 255 255 255
-0.270506 -0.827341   2.80625 255 255 255
-0.602785 -0.938202    2.9469 255 255 255
 -0.20087 -0.694853   2.61251 255 255 255
0.0923916  -0.72826   2.78823 255 255 255
  0.17371 -0.546825   2.58825 255 255 255
 0.149804 -0.702304   2.78535 255 255 255
-0.457632 -0.603967   2.48881 255 255 255
-0.510728 -0.706863   2.62545 255 255 255
-0.501701 -0.506176   2.34874 255 255 255
-0.371296 -0.812393   2.79099 255 255 255
0.0424816 -0.868458     3.116 255 255 255
-0.261067 -0.852532   2.76214 255 255 255
-0.697018 -0.915497   2.90039 255 255 255
-0.545355 -0.590563   2.42748 255 255 255
  0.11023 -0.756061   2.85454 255 255 255
 0.155094 -0.794715   2.99122 255 255 255
-0.517143 -0.571443   2.42426 255 255 255
-0.254035  -0.53511   2.38128 255 255 255
 0.237691 -0.510933    2.6185 255 255 255
-0.619929 -0.954948   2.97913 255 255 255
-0.379597  -0.63623   2.53037 255 255 255
-0.403539 -0.535757   2.40296 255 255 255
-0.589946 -0.677726   2.58044 255 255 255
-0.433605 -0.722044    2.6566 255 255 255
-0.275023 -0.425354   2.25542 255 255 255
-0.393877 -0.936078   2.84274 255 255 255
-0.0717404  -0.451069    2.24411 255 255 255
-0.104348 -0.526724   2.35885 255 255 255
0.0404484 -0.913222   3.15815 255 255 255
 -0.15761 -0.642009    2.5321 255 255 255
-0.162843 -0.642544   2.54778 255 255 255
 -0.39128 -0.946739   2.84758 255 255 255
-0.480474   -0.5582   2.41341 255 255 255
-0.186064 -0.418946   2.23073 255 255 255
-0.231025 -0.879927    2.7409 255 255 255
-0.398503 -0.515254   2.37957 255 255 255
-0.0505824  -0.732315    2.67705 255 255 255
-0.239689 -0.912622   2.78802 255 255 255
0.303618 -0.69759  2.84932 255 255 255
-0.0752935  -0.988345    3.35257 255 255 255
 0.162146 -0.769968   2.96379 255 255 255
-0.183875 -0.738735   2.68615 255 255 255
-0.627319 -0.724706   2.60552 255 255 255
 -0.31392 -0.809278   2.80087 255 255 255
-0.416455 -0.920999    2.8547 255 255 255
0.0838411  -1.07103   3.66549 255 255 255
-0.334307 -0.701335   2.62423 255 255 255
-0.385636 -0.889668   2.87357 255 255 255
-0.447706 -0.550513   2.41788 255 255 255
0.0413922 -0.431033   2.19545 255 255 255
-0.652076 -0.878106   2.84803 255 255 255
0.0335541 -0.656003   2.59644 255 255 255
-0.0368952  -0.745947    2.69441 255 255 255
-0.166914 -0.641567   2.53016 255 255 255
-0.520884 -0.901441   2.91079 255 255 255
-0.298024 -0.847676   2.84048 255 255 255
-0.234315 -0.728961   2.66264 255 255 255
-0.0319021  -0.979695     3.3674 255 255 255
 0.237005 -0.550568   2.45026 255 255 255
-0.507159 -0.911121   2.91613 255 255 255
-0.0150079  -0.670731    2.57743 255 255 255
-0.594312 -0.957601   3.05336 255 255 255
-0.571464 -0.679942   2.58579 255 255 255
 0.213034 -0.997157   3.54241 255 255 255
-0.162094 -0.472892   2.22457 255 255 255
-0.376751 -0.697605   2.62184 255 255 255
 -0.43963 -0.576028    2.4486 255 255 255
0.0384602 -0.662531   2.61762 255 255 255
 0.228008 -0.590656   2.54243 255 255 255
-0.236116 -0.707599   2.64646 255 255 255
0.239477  -0.5148  2.38845 255 255 255
0.0142141 -0.552269   2.37654 255 255 255
0.0580563 -0.526561   2.32172 255 255 255
 0.141403 -0.636794   2.58106 255 255 255
-0.569942 -0.753105   2.68565 255 255 255
-0.384424 -0.933983   2.85955 255 255 255
-0.264463 -0.538406   2.38948 255 255 255
0.228491 -0.82779  3.15226 255 255 255
 -0.56326 -0.790108   2.73479 255 255 255
 0.184661 -0.744109   2.91614 255 255 255
-0.120741 -0.789824   2.77247 255 255 255
-0.271762 -0.535964   2.38854 255 255 255
 0.140815 -0.707921    2.7773 255 255 255
0.0237244 -0.835611   3.02121 255 255 255
0.0875899 -0.671743    2.6415 255 255 255
-0.062744 -0.593601   2.43679 255 255 255
 0.100046 -0.722707   2.79983 255 255 255
-0.0554358  -0.764075    2.74041 255 255 255
-0.408233 -0.787106   2.72976 255 255 255
-0.270515 -0.802229   2.78071 255 255 255
 0.19853 -0.59125  2.53623 255 255 255
-0.240609 -0.813242   2.80424 255 255 255
0.0120437 -0.898826   3.14057 255 255 255
 -0.45182 -0.827034   2.79649 255 255 255
 0.208803 -0.625319   2.63351 255 255 255
-0.0824603  -0.757017    2.72446 255 255 255
-0.454492 -0.545473   2.39123 255 255 255
-0.080897 -0.779697   2.75496 255 255 255
-0.538791 -0.689593   2.59407 255 255 255
-0.0412055  -0.723931    2.66788 255 255 255
-0.216862  -0.61722   2.49353 255 255 255
-0.368902 -0.948438   2.98423 255 255 255
-0.337757 -0.664693   2.56991 255 255 255
-0.238467 -0.840709   2.85136 255 255 255
-0.507977 -0.536068   2.36766 255 255 255
-0.426024 -0.930151    2.9465 255 255 255
 0.228521 -0.397931   2.51241 255 255 255
  0.16352 -0.504477   2.34513 255 255 255
-0.163476 -0.834884   2.82884 255 255 255
-0.512568 -0.679246   2.58968 255 255 255
 0.208624 -0.738694   2.92673 255 255 255
  0.24112 -0.899539   3.39692 255 255 255
-0.0966234  -0.766078    2.75571 255 255 255
  0.27819 -0.536894   2.37852 255 255 255
-0.438395 -0.491772   2.32095 255 255 255
-0.506037 -0.527305    2.3473 255 255 255
-0.513989 -0.541843   2.38563 255 255 255
 0.234055 -0.550957   2.43482 255 255 255
-0.359066  -0.72468    2.6538 255 255 255
-0.561822 -0.681261   2.58786 255 255 255
-0.450348 -0.534558   2.37393 255 255 255
-0.0358835  -0.914197    3.15634 255 255 255
-0.437344 -0.923106   2.98976 255 255 255
 0.172495 -0.788037   3.00209 255 255 255
0.0547337 -0.615571   2.51232 255 255 255
-0.467713  -0.60877   2.48869 255 255 255
-0.452091 -0.693756   2.61551 255 255 255
 0.175601 -0.762544   2.97357 255 255 255
-0.165284 -0.808061   2.78059 255 255 255
-0.0748772  -0.967119    3.30501 255 255 255
-0.0225617   -0.55723    2.38947 255 255 255
-0.455579 -0.554607   2.40479 255 255 255
-0.00549553   -0.711975     2.66099 255 255 255
-0.64597 -0.86546  2.82917 255 255 255
-0.153935 -0.634633   2.53571 255 255 255
-0.306756  -0.79003   2.76643 255 255 255
 -0.14417 -0.633671   2.52983 255 255 255
-0.433997 -0.825078   2.80413 255 255 255
 0.143435 -0.555263   2.42585 255 255 255
-0.502825 -0.472658    2.3096 255 255 255
-0.251919 -0.547612   2.40407 255 255 255
-0.0137794  -0.831803    2.97471 255 255 255
-0.128588 -0.919544   3.11664 255 255 255
-0.580214 -0.760978   2.68653 255 255 255
-0.402732 -0.756737   2.69673 255 255 255
-0.439809 -0.538461   2.39898 255 255 255
-0.112193 -0.776444   2.75807 255 255 255
-0.110867 -0.763649   2.73822 255 255 255
0.0189974 -0.882386   3.14338 255 255 255
-0.410574  -0.59689   2.47944 255 255 255
-0.662428 -0.858645   2.79418 255 255 255
-0.224778  -0.43228   2.24149 255 255 255
-0.491802 -0.874937   2.86408 255 255 255
0.0926522 -0.530528   2.34115 255 255 255
0.206254 -0.61702  2.60971 255 255 255
 0.050159 -0.662409   2.61392 255 255 255
-0.427811 -0.495194   2.33356 255 255 255
-0.630902  -0.68876   2.57908 255 255 255
-0.0122311  -0.925849    3.23299 255 255 255
-0.653808  -1.01432   3.17511 255 255 255
-0.0599293  -0.745499    2.69354 255 255 255
-0.196951 -0.564088   2.42963 255 255 255
-0.656456 -0.839838   2.75704 255 255 255
-0.0743238  -0.693894    2.62077 255 255 255
 0.158995 -0.620608   2.56751 255 255 255
-0.455665 -0.480537   2.30361 255 255 255
-0.479311  -0.61833   2.50258 255 255 255
-0.225039  -1.02763    3.3173 255 255 255
-0.124366 -0.716672   2.65328 255 255 255
-0.190936 -0.833594   2.82238 255 255 255
 0.141038 -0.571163   2.45903 255 255 255
 -0.27746 -0.747463   2.70912 255 255 255
-0.604343 -0.782387   2.70619 255 255 255
0.00272321  -0.835281    3.00493 255 255 255
-0.499191 -0.521192   2.34935 255 255 255
-0.0017205  -0.771692    2.85157 255 255 255
  0.21933 -0.786744   2.99335 255 255 255
 0.181306 -0.846958   3.14611 255 255 255
-0.214053 -0.907964   2.85284 255 255 255
  0.23212 -0.817814   3.13557 255 255 255
-0.0228096  -0.452234    2.27143 255 255 255
-0.227831 -0.868056   2.70304 255 255 255
0.276217 -1.02643  3.70285 255 255 255
-0.178792 -0.541634   2.39979 255 255 255
 -0.49196 -0.544563   2.38903 255 255 255
 0.114212 -0.739649     2.826 255 255 255
 0.110437 -0.478728   2.44771 255 255 255
 0.211202 -0.670257   2.75084 255 255 255
-0.538926 -0.585873   2.43712 255 255 255
-0.424252 -0.780423   2.70781 255 255 255
0.0346898 -0.479247   2.21224 255 255 255
 -0.59592 -0.849076   2.82492 255 255 255
-0.575907 -0.843132   2.71671 255 255 255
0.0544731 -0.657306   2.60518 255 255 255
 0.227073 -0.902982   3.38164 255 255 255
-0.560096 -0.887212   2.89101 255 255 255
-0.514208 -0.502631   2.36737 255 255 255
 0.128063 -0.867035   3.15734 255 255 255
-0.0312441  -0.659381    2.56213 255 255 255
-0.275064  -0.56609   2.42088 255 255 255
-0.156321 -0.847976   2.87168 255 255 255
 0.106363 -0.615492   2.53457 255 255 255
0.0456292 -0.877532   3.12557 255 255 255
 -0.44223 -0.823024   2.79467 255 255 255
-0.0684195  -0.935762    3.19625 255 255 255
0.288875 -1.10884  3.83326 255 255 255
-0.475815 -0.727581   2.66199 255 255 255
-0.535945 -0.685369   2.59951 255 255 255
-0.0660727  -0.588874    2.42051 255 255 255
0.0997827 -0.588057   2.47444 255 255 255
 0.254284 -0.577436   2.51549 255 255 255
-0.471836 -0.720263   2.65233 255 255 255
-0.356939 -0.587752   2.46969 255 255 255
-0.421345 -0.530731   2.39523 255 255 255
 0.251187 -0.585578   2.51367 255 255 255
 0.191229 -0.899386   3.34705 255 255 255
  0.3359 -0.85181  3.28119 255 255 255
0.130942 -0.85435  3.16346 255 255 255
-0.170771 -0.636203   2.54966 255 255 255
-0.419223 -0.598229   2.48057 255 255 255
-0.0728579  -0.596043    2.43371 255 255 255
-0.418922 -0.586203   2.46636 255 255 255
-0.134054 -0.586766   2.40551 255 255 255
-0.459009 -0.613591   2.49716 255 255 255
 0.289827 -0.810854    3.1725 255 255 255
-0.088723 -0.699753   2.62106 255 255 255
-0.489487 -0.718519   2.65108 255 255 255
0.0776193 -0.933352   3.31818 255 255 255
-0.416392 -0.663435   2.55362 255 255 255
0.0221238 -0.812294   2.95683 255 255 255
-0.466555 -0.735435   2.67475 255 255 255
-0.477937 -0.936715   2.95016 255 255 255
 0.324834 -0.836575   3.26796 255 255 255
-0.194981 -0.939893   3.11146 255 255 255
-0.153359 -0.573139   2.41182 255 255 255
 0.263009 -0.773454   3.07236 255 255 255
-0.504722  -0.58675    2.4346 255 255 255
-0.263626 -0.796227   2.76316 255 255 255
-0.662516 -0.934255   2.93413 255 255 255
-0.0543343  -0.872207    3.05253 255 255 255
 -0.57638 -0.786526   2.72383 255 255 255
 0.272018 -0.648429    2.7306 255 255 255
 0.117248 -0.605835   2.51923 255 255 255
-0.408093 -0.521468    2.3879 255 255 255
-0.483562 -0.519288   2.32519 255 255 255
 -0.15526 -0.907003   3.09531 255 255 255
-0.468902   -0.5011   2.32373 255 255 255
 0.148747 -0.706987    2.8051 255 255 255
-0.0050761  -0.572881    2.40582 255 255 255
 -0.51138 -0.666698   2.56654 255 255 255
 0.237456 -0.703091   2.84792 255 255 255
-0.202989 -0.502311   2.30106 255 255 255
-0.413457 -0.665444   2.56212 255 255 255
-0.391241 -0.555802    2.4234 255 255 255
-0.491083 -0.567536    2.3971 255 255 255
-0.516148 -0.814732   2.78602 255 255 255
 -0.49402 -0.525218   2.33033 255 255 255
-0.286845 -0.673502   2.59481 255 255 255
-0.507758 -0.698594   2.61828 255 255 255
-0.121158 -0.636709   2.54058 255 255 255
-0.364244 -0.682559   2.60523 255 255 255
-0.250997 -0.740735   2.68451 255 255 255
-0.217533 -0.696511   2.63339 255 255 255
-0.517134 -0.689891   2.60342 255 255 255
-0.544536 -0.684168   2.59624 255 255 255
-0.0991379  -0.794289    2.79387 255 255 255
 0.208008 -0.652435   2.72582 255 255 255
-0.173684 -0.659977   2.56738 255 255 255
   -0.627 -0.856117    2.8168 255 255 255
 0.197986 -0.919087   3.41335 255 255 255
-0.511405  -0.59646   2.44586 255 255 255
-0.462002 -0.522866   2.34625 255 255 255
0.0709852 -0.879103   3.16448 255 255 255
-0.495184 -0.492043   2.33801 255 255 255
 -0.47703 -0.594865   2.45154 255 255 255
-0.610233 -0.656034     2.539 255 255 255
-0.0887689  -0.676639    2.60184 255 255 255
-0.192534 -0.581641    2.4412 255 255 255
 0.278061 -0.906497   3.40619 255 255 255
-0.485125 -0.913255   2.92054 255 255 255
 0.240809 -0.543074   2.43081 255 255 255
-0.119158  -0.78468   2.75254 255 255 255
0.0456062  -1.00683   3.50745 255 255 255
-0.167769  -0.76062   2.70951 255 255 255
 0.225433 -0.773459   2.95442 255 255 255
0.0368792 -0.622831   2.51911 255 255 255
 0.170827 -0.775944   2.99152 255 255 255
-0.00086811   -0.627577     2.56036 255 255 255
-0.505367 -0.530466   2.33636 255 255 255
-0.381759 -0.887259   2.92236 255 255 255
-0.609379 -0.926462   2.95899 255 255 255
-0.159928 -0.747959   2.68691 255 255 255
-0.460831 -0.596829   2.46692 255 255 255
-0.629698 -0.910896   2.90577 255 255 255
-0.655777 -0.794884   2.69609 255 255 255
-0.364733 -0.941429   2.85024 255 255 255
-0.440669 -0.479071   2.30719 255 255 255
-0.0946473  -0.687841    2.59547 255 255 255
0.0677056 -0.595826   2.49933 255 255 255
-0.461228 -0.492373   2.31874 255 255 255
-0.256271 -0.420892   2.23092 255 255 255
  0.19797 -0.517058   2.59547 255 255 255
 0.182624 -0.792724   3.01522 255 255 255
 0.189148 -0.529998   2.40067 255 255 255
-0.352607 -0.875944   2.92027 255 255 255
-0.456512 -0.563974   2.41571 255 255 255
-0.297481 -0.602403   2.49372 255 255 255
-0.141529 -0.726953   2.66889 255 255 255
 0.226737 -0.548323   2.44071 255 255 255
  0.27637 -0.572217   2.49997 255 255 255
-0.00112371    -0.79061     2.91704 255 255 255
0.270117  -0.6307  2.68053 255 255 255
-0.531561 -0.575885   2.42805 255 255 255
0.0100508 -0.537896   2.38627 255 255 255
-0.208956 -0.738805     2.691 255 255 255
-0.632511 -0.951481   2.97128 255 255 255
 -0.30342 -0.609207    2.4979 255 255 255
-0.067171 -0.702691   2.63128 255 255 255
-0.0112208   -1.01291    3.45172 255 255 255
0.0938001 -0.604513    2.5064 255 255 255
0.0621793  -0.81323   2.97446 255 255 255
-0.0938192  -0.931229    3.16416 255 255 255
-0.134971  -1.06068    3.5082 255 255 255
-0.516911 -0.502348   2.34032 255 255 255
 0.181637 -0.618186     2.588 255 255 255
-0.133958 -0.720607   2.65286 255 255 255
-0.611572 -0.701248   2.59183 255 255 255
0.0445492 -0.670278   2.66652 255 255 255
-0.387642 -0.716847   2.64737 255 255 255
-0.523547 -0.542095    2.3616 255 255 255
-0.177102 -0.663235   2.55352 255 255 255
-0.390153 -0.754408   2.69337 255 255 255
 0.171048 -0.843149      3.15 255 255 255
 0.193205 -0.627863   2.63441 255 255 255
 0.110381 -0.480243   2.29294 255 255 255
-0.508907  -0.49359   2.34886 255 255 255
-0.448896 -0.490514    2.3186 255 255 255
-0.256481 -0.471386   2.27734 255 255 255
-0.647058 -0.799015   2.71752 255 255 255
-0.313739  -0.65855   2.50887 255 255 255
-0.332046 -0.662256   2.57854 255 255 255
 0.147935 -0.554478   2.42347 255 255 255
-0.390695 -0.648448   2.55648 255 255 255
 0.161694 -0.545604     2.421 255 255 255
-0.524219 -0.624882   2.50834 255 255 255
-0.206376 -0.711563   2.64188 255 255 255
 0.270435 -0.890455   3.36106 255 255 255
-0.114752 -0.585447    2.4102 255 255 255
-0.362887 -0.680876   2.56115 255 255 255
-0.400092 -0.865619   2.86051 255 255 255
0.0860449 -0.660142    2.6463 255 255 255
-0.518003 -0.512053   2.33241 255 255 255
 0.210502 -0.980641    3.6096 255 255 255
-0.624653 -0.917473   2.92153 255 255 255
-0.526075 -0.839254   2.78898 255 255 255
  0.18547 -0.514674   2.58495 255 255 255
-0.481677   -0.8592   2.86576 255 255 255
 -0.40399 -0.826901    2.8256 255 255 255
0.251685 -1.08567  3.76244 255 255 255
0.0693112 -0.661383   2.63909 255 255 255
-0.00649033   -0.504143     2.22346 255 255 255
 0.277429 -0.558456   2.48684 255 255 255
-0.202063  -0.60292   2.44904 255 255 255
-0.456215  -0.65874   2.55594 255 255 255
 -0.30606 -0.812195   2.79485 255 255 255
0.0848379 -0.583023   2.56399 255 255 255
-0.0576551  -0.539411      2.425 255 255 255
-0.00179909   -0.558495     2.39085 255 255 255
 0.155675 -0.951861   3.47833 255 255 255
 0.115302 -0.875354    3.1585 255 255 255
 0.342915 -0.880626   3.36768 255 255 255
-0.600362 -0.955518   2.98777 255 255 255
-0.561955 -0.699616   2.60997 255 255 255
  0.12265 -0.600319   2.50853 255 255 255
-0.225313 -0.722905   2.63207 255 255 255
-0.379775  -0.64131   2.52334 255 255 255
-0.233849 -0.776794   2.73971 255 255 255
-0.238186   -0.7772    2.7445 255 255 255
-0.601394 -0.946794   2.96545 255 255 255
-0.279766 -0.795631   2.78004 255 255 255
-0.384994 -0.670092    2.5752 255 255 255
0.0880571 -0.629726   2.55595 255 255 255
 0.210104 -0.648132   2.71743 255 255 255
-0.477199 -0.444154   2.26913 255 255 255
-0.491509 -0.858533   2.84947 255 255 255
-0.170464 -0.942108   3.12437 255 255 255
 0.255221 -0.730402   2.92439 255 255 255
 0.105927 -0.672162   2.63334 255 255 255
  0.12018 -0.498474   2.30614 255 255 255
-0.200481 -0.558055   2.41667 255 255 255
-0.102447 -0.654156   2.58415 255 255 255
-0.0512106  -0.583314    2.43226 255 255 255
-0.206731  -1.07077   3.48093 255 255 255
-0.191457 -0.823066   2.79641 255 255 255
-0.0649627  -0.687991    2.61333 255 255 255
-0.0478719   -0.55785    2.40782 255 255 255
0.0755976 -0.592843   2.47925 255 255 255
-0.0977033  -0.720622    2.66821 255 255 255
-0.518077 -0.666011   2.56879 255 255 255
-0.215293 -0.509602   2.30921 255 255 255
-0.588881 -0.881449   2.83467 255 255 255
-0.0436371  -0.652298    2.57199 255 255 255
-0.481318 -0.567119   2.42433 255 255 255
0.0498671 -0.523007    2.3163 255 255 255
-0.545162 -0.853711   2.80725 255 255 255
-0.670396 -0.812493   2.79528 255 255 255
 0.219128 -0.681536   2.75611 255 255 255
-0.209966 -0.424286   2.23091 255 255 255
0.0829074 -0.679564   2.63754 255 255 255
-0.584907 -0.806252   2.75625 255 255 255
-0.355082 -0.725567     2.664 255 255 255
-0.00058731   -0.762026     2.80831 255 255 255
-0.861289  -1.05757    3.6091 255 255 255
-0.241647 -0.724285    2.6631 255 255 255
 0.303408 -0.756809   3.08013 255 255 255
0.0145715 -0.766417   2.82305 255 255 255
0.0396978 -0.515378   2.40663 255 255 255
-0.432122 -0.707182   2.63588 255 255 255
-0.352969 -0.704224     2.628 255 255 255
0.0582937 -0.629686   2.55144 255 255 255
-0.490943  -0.87677   2.90627 255 255 255
 0.177262 -0.638314   2.65008 255 255 255
-0.510691  -0.48028   2.32955 255 255 255
 0.194506 -0.595134    2.5418 255 255 255
-0.606167 -0.690946   2.58488 255 255 255
0.0428273 -0.827177   3.00167 255 255 255
-0.544051 -0.578205   2.40997 255 255 255
 -0.23428 -0.896417    2.7677 255 255 255
-0.541059 -0.699799   2.59954 255 255 255
0.00783982  -0.641681    2.54802 255 255 255
-0.254349 -0.838129   2.75423 255 255 255
-0.574727 -0.753008   2.67224 255 255 255
-0.425836 -0.504505   2.33793 255 255 255
-0.486752 -0.566027   2.39784 255 255 255
 -0.20681 -0.610661   2.46463 255 255 255
-0.417978 -0.655507   2.55448 255 255 255
 0.258893 -0.788553   3.08876 255 255 255
-0.182535  -0.54628   2.40529 255 255 255
 -0.41841 -0.748538   2.63107 255 255 255
-0.615896 -0.833652   2.78647 255 255 255
-0.117986 -0.717876   2.66373 255 255 255
-0.243841 -0.893654   2.75366 255 255 255
-0.610422 -0.906138   2.90742 255 255 255
-0.112903 -0.927869   3.15911 255 255 255
-0.512768 -0.628122   2.51022 255 255 255
-0.0480751   -1.10834    3.74681 255 255 255
-0.670573 -0.927868   2.93428 255 255 255
-0.584772 -0.946466   3.04156 255 255 255
 0.152348 -0.583298   2.46685 255 255 255
 0.146396 -0.582256   2.58009 255 255 255
-0.257305  -0.67175   2.59749 255 255 255
  0.28002 -0.661806   2.78448 255 255 255
-0.459817 -0.495752   2.32365 255 255 255
-0.640965 -0.859413   2.82338 255 255 255
-0.134951 -0.582589   2.41112 255 255 255
-0.066233 -0.991025   3.34731 255 255 255
-0.135248 -0.956378   3.20716 255 255 255
 0.319918 -0.932058   3.47717 255 255 255
-0.0838328  -0.696469    2.61591 255 255 255
 0.304839 -0.834681   3.23562 255 255 255
-0.406736 -0.814298    2.7855 255 255 255
 0.193329 -0.857391   3.20339 255 255 255
-0.660433 -0.905135   2.88263 255 255 255
0.0800846 -0.736974   2.77776 255 255 255
-0.179614 -0.555041   2.41563 255 255 255
-0.102771 -0.909177   3.11409 255 255 255
-0.37244 -0.75046  2.65405 255 255 255
-0.134633 -0.954971   3.24043 255 255 255
-0.503984 -0.576678   2.41454 255 255 255
-0.502914 -0.479772   2.32638 255 255 255
-0.583488 -0.891826   2.87787 255 255 255
-0.0662409  -0.849674    2.98104 255 255 255
  -0.3801 -0.661002   2.56126 255 255 255
 0.295509 -0.825013   3.21942 255 255 255
0.259574 -0.73089  2.92115 255 255 255
 0.222867 -0.523702   2.39359 255 255 255
-0.207401 -0.731823   2.68661 255 255 255
-0.477687 -0.861737   2.85965 255 255 255
-0.10334   -0.719  2.65339 255 255 255
 0.209503 -0.603839   2.57852 255 255 255
 0.149064 -0.835569   3.09519 255 255 255
-0.413883 -0.757557   2.70492 255 255 255
-0.432914 -0.491763   2.32583 255 255 255
-0.480276 -0.749821   2.68843 255 255 255
 -0.39747 -0.687622   2.60867 255 255 255
-0.0586749   -1.03505    3.48742 255 255 255
-0.424751 -0.876633   2.87356 255 255 255
 0.186244 -0.617306   2.59798 255 255 255
-0.0787432  -0.871407    3.03517 255 255 255
-0.00470806    -0.80577     2.91282 255 255 255
-0.0633829  -0.600781    2.44376 255 255 255
 0.303778 -0.664818   2.75705 255 255 255
 0.176741 -0.503805    2.3733 255 255 255
-0.113102 -0.435218   2.22011 255 255 255
0.108159 -1.02077  3.62796 255 255 255
0.341086 -0.78926   3.0922 255 255 255
-0.130741 -0.715776    2.6588 255 255 255
-0.0562113  -0.830928    2.93634 255 255 255
-0.566965 -0.750129   2.67122 255 255 255
 0.134566 -0.748673   2.85794 255 255 255
-0.520724 -0.841771   2.82341 255 255 255
-0.450343 -0.536478    2.3875 255 255 255
-0.166762 -0.920346   3.12155 255 255 255
-0.12574 -0.60981  2.44662 255 255 255
-0.501153 -0.531644   2.34723 255 255 255
 0.136663 -0.861633   3.17039 255 255 255
-0.104665 -0.876044   3.03071 255 255 255
-0.178227 -0.612246   2.45381 255 255 255
 0.106014 -0.610776   2.60642 255 255 255
-0.335381 -0.696066   2.61911 255 255 255
-0.103305 -0.708452   2.64869 255 255 255
-0.501842 -0.661976   2.56551 255 255 255
-0.549768 -0.812706   2.66647 255 255 255
-0.635962 -0.937812   2.95234 255 255 255
-0.210248 -0.903134   2.83094 255 255 255
-0.156012 -0.573446   2.39528 255 255 255
 0.283315 -0.933892    3.4635 255 255 255
 -0.50315 -0.678075   2.57799 255 255 255
-0.460975 -0.721377   2.65076 255 255 255
-0.270925 -0.794577    2.7694 255 255 255
-0.268691 -0.794772   2.77223 255 255 255
0.0498552  -1.05397    3.6877 255 255 255
 0.208215 -0.518922   2.38315 255 255 255
 0.154902 -0.618167   2.56926 255 255 255
-0.392767 -0.431849    2.2633 255 255 255
-0.0921721  -0.795874    2.78391 255 255 255
-0.0980345  -0.863284    3.00031 255 255 255
 -0.37519 -0.746218   2.68941 255 255 255
0.0490768 -0.892554   3.16359 255 255 255
 -0.38279 -0.647544   2.54767 255 255 255
-0.379077 -0.754954   2.66837 255 255 255
-0.458507 -0.537827   2.38405 255 255 255
-0.543369 -0.811765   2.67468 255 255 255
 0.170223 -0.721052   2.84597 255 255 255
 -0.50385 -0.470064   2.29686 255 255 255
0.0915381  -1.03623   3.64574 255 255 255
 -0.42071 -0.480779   2.31538 255 255 255
0.0747413 -0.944054   3.34842 255 255 255
-0.133332  -1.01679    3.4078 255 255 255
-0.494601 -0.703521   2.61907 255 255 255
-0.144327 -0.886266   3.03506 255 255 255
-0.578007 -0.949862   3.05429 255 255 255
0.0570181 -0.857807   3.11018 255 255 255
  0.18361 -0.531436   2.58386 255 255 255
-0.560298 -0.740422   2.66028 255 255 255
-0.408301 -0.487081   2.33174 255 255 255
-0.449711 -0.721816   2.65828 255 255 255
-0.0807909  -0.823085    2.93018 255 255 255
  0.17069 -0.712122   2.82678 255 255 255
-0.622277 -0.693562   2.57395 255 255 255
 0.160247 -0.705808   2.81428 255 255 255
-0.0592707   -1.02601    3.46201 255 255 255
-0.0937145  -0.981658    3.31556 255 255 255
 0.319547 -0.919057   3.45801 255 255 255
-0.266226 -0.694406   2.58038 255 255 255
-0.411167 -0.451076   2.28117 255 255 255
-0.650268 -0.941551   2.94961 255 255 255
-0.0542541  -0.836497    2.94961 255 255 255
-0.301667  -1.02418   3.23689 255 255 255
-0.317379 -0.680662    2.5437 255 255 255
-0.410853 -0.494884   2.34279 255 255 255
-0.121034 -0.680693   2.59388 255 255 255
-0.340626 -0.716134   2.60046 255 255 255
-0.131288 -0.556657   2.41695 255 255 255
-0.0202976   -1.01552    3.44378 255 255 255
-0.0543308   -1.05357    3.55087 255 255 255
  0.24007 -0.911186   3.42431 255 255 255
-0.156419 -0.604058   2.44936 255 255 255
-0.613006  -0.91458   2.91604 255 255 255
0.0570137 -0.904382   3.21284 255 255 255
-0.120889 -0.938239   3.17026 255 255 255
 0.141804 -0.717109    2.8091 255 255 255
-0.130057  -1.02207   3.42193 255 255 255
-0.449004 -0.739902   2.59277 255 255 255
-0.111928 -0.440163   2.22608 255 255 255
 0.114071 -0.613004   2.52795 255 255 255
-0.427022 -0.510176   2.35163 255 255 255
0.0224759 -0.720924   2.75397 255 255 255
-0.452591 -0.590633   2.45681 255 255 255
-0.390423 -0.636594   2.52824 255 255 255
-0.652945 -0.859871   2.82049 255 255 255
 -0.12457 -0.886379   3.05321 255 255 255
 0.223083 -0.817042   3.10496 255 255 255
 0.149305 -0.950797   3.49207 255 255 255
-0.425329 -0.474395   2.30943 255 255 255
-0.123789  -0.90155   3.07284 255 255 255
-0.420906 -0.724069   2.66174 255 255 255
-0.448224 -0.646426   2.54314 255 255 255
-0.400505 -0.631858   2.51638 255 255 255
-0.270876 -0.698525   2.57474 255 255 255
 0.189485 -0.751247   2.94356 255 255 255
-0.0294491  -0.620286    2.52557 255 255 255
-0.400146 -0.934182   2.91003 255 255 255
-0.215743 -0.679057   2.56716 255 255 255
-0.384205 -0.496237   2.35215 255 255 255
0.175413 0.575662  1.70633 255 255 255
0.140327 0.564023  1.71294 255 255 255
0.254651 0.592092  1.67842 255 255 255
 0.155143 -0.503187   2.34945 255 255 255
-0.489875 -0.588981   2.48402 255 255 255
-0.446858 -0.438136   2.28326 255 255 255
0.0664236 -0.465931   2.22889 255 255 255
-0.551287 -0.323368   2.22999 255 255 255
-0.589905 -0.409204   2.30294 255 255 255
-0.125605 -0.421372   2.23932 255 255 255
0.0649114 -0.513673   2.30659 255 255 255
-0.768907  -0.29495   2.21501 255 255 255
 -0.26427 -0.398628   2.21583 255 255 255
-0.398614 -0.347463   2.19856 255 255 255
-0.439264 -0.535615   2.39738 255 255 255
-0.0791085  -0.386686    2.19487 255 255 255
-0.430106 -0.490401   2.35593 255 255 255
-0.149995 -0.609994   2.46095 255 255 255
 0.104263 -0.489082   2.27773 255 255 255
-0.522387 -0.377289   2.24513 255 255 255
-0.765884 -0.392202   2.30685 255 255 255
-0.235335 -0.501758   2.32541 255 255 255
-0.393727  -0.28311    2.1596 255 255 255
-0.0417133  -0.464715    2.28089 255 255 255
-0.0383154  -0.482891    2.27992 255 255 255
-0.751803 -0.619264     2.533 255 255 255
-0.125324 -0.579102   2.40566 255 255 255
 0.135868 -0.430472    2.1957 255 255 255
-0.564791 -0.427644    2.3104 255 255 255
-0.758303 -0.462934   2.37443 255 255 255
-0.543428 -0.538639   2.38064 255 255 255
-0.672666 -0.427991   2.29742 255 255 255
0.0796191 -0.372422   2.09208 255 255 255
0.0636783 -0.618896   2.50861 255 255 255
 0.190442 -0.439225   2.21695 255 255 255
0.0809897 -0.607721   2.49668 255 255 255
0.181797 -0.55591    2.438 255 255 255
 0.121495 -0.367157   2.12024 255 255 255
-0.595899 -0.432931   2.26577 255 255 255
 0.200229 -0.544191   2.41754 255 255 255
 0.210814 -0.558995   2.45912 255 255 255
-0.513377 -0.597338   2.49337 255 255 255
 0.108661 -0.396236   2.18369 255 255 255
-0.0216852  -0.465116    2.28055 255 255 255
 -0.74889 -0.498259   2.41078 255 255 255
 0.138863 -0.541286   2.37103 255 255 255
-0.579758 -0.390234   2.29361 255 255 255
 0.112015 -0.373704    2.1512 255 255 255
-0.552038 -0.442887   2.32395 255 255 255
-0.135449 -0.410627   2.22506 255 255 255
-0.572288 -0.596116   2.43708 255 255 255
 0.188609 -0.535427    2.4042 255 255 255
 0.208257 -0.362639   2.10896 255 255 255
-0.459198 -0.508474   2.33522 255 255 255
0.0734153 -0.451599   2.18581 255 255 255
-0.774046 -0.314021   2.22598 255 255 255
-0.502602 -0.532493   2.38405 255 255 255
-0.549988 -0.525363   2.38431 255 255 255
-0.567962 -0.549852    2.4091 255 255 255
-0.125565 -0.400243    2.2096 255 255 255
-0.757462 -0.477059   2.40489 255 255 255
0.0185616 -0.362531   2.08912 255 255 255
-0.801106 -0.317197   2.23355 255 255 255
-0.537383 -0.467139   2.34632 255 255 255
-0.538502 -0.487421   2.37871 255 255 255
0.0981371 -0.471724   2.21833 255 255 255
-0.496462 -0.297602   2.19108 255 255 255
-0.666054 -0.491881    2.3723 255 255 255
 -0.55933 -0.514804   2.38988 255 255 255
-0.737838  -0.24755    2.1735 255 255 255
-0.532184 -0.498647   2.38325 255 255 255
-0.106553 -0.436364    2.2067 255 255 255
-0.716716  -0.25182   2.17235 255 255 255
-0.485787 -0.497227   2.35449 255 255 255
-0.785103 -0.358283   2.27036 255 255 255
 0.202169 -0.634382   2.57908 255 255 255
  0.21254 -0.514623   2.39027 255 255 255
 0.200441 -0.410771   2.17875 255 255 255
-0.0484881  -0.661601    2.57439 255 255 255
 0.315486 -0.486225   2.28515 255 255 255
 -0.71126 -0.240001   2.15537 255 255 255
 -0.39568 -0.571647     2.458 255 255 255
-0.486765 -0.432332   2.28323 255 255 255
-0.192425 -0.413777   2.26293 255 255 255
-0.681519 -0.452102   2.35999 255 255 255
-0.302394 -0.654605   2.55683 255 255 255
-0.113398 -0.600121   2.43904 255 255 255
-0.710733 -0.247477   2.17578 255 255 255
-0.708524 -0.466343   2.37429 255 255 255
-0.751557 -0.242164   2.15324 255 255 255
 0.169829 -0.546348   2.41519 255 255 255
0.0887532 -0.494201   2.27681 255 255 255
-0.510449 -0.435618   2.31783 255 255 255
-0.767444 -0.318819   2.23609 255 255 255
-0.559069 -0.494044   2.38356 255 255 255
-0.570577 -0.520158   2.38679 255 255 255
-0.750702 -0.251709   2.16936 255 255 255
-0.542365 -0.589352   2.46715 255 255 255
0.0435067 -0.525341   2.32352 255 255 255
-0.567853 -0.601184   2.46626 255 255 255
-0.564551 -0.531451   2.39043 255 255 255
 -0.77069 -0.425751   2.32387 255 255 255
-0.465926   -0.2859   2.18416 255 255 255
-0.616817 -0.559746   2.43749 255 255 255
-0.499841 -0.555957   2.39791 255 255 255
 0.214805 -0.590327   2.53432 255 255 255
-0.367255 -0.549822   2.41879 255 255 255
-0.776403 -0.405328   2.31904 255 255 255
-0.801378 -0.418036   2.38312 255 255 255
-0.415662 -0.590633   2.47845 255 255 255
-0.599487 -0.384754   2.30139 255 255 255
 0.199699 -0.378691   1.90868 255 255 255
-0.0114467  -0.654879    2.55413 255 255 255
-0.0281617  -0.627439    2.52746 255 255 255
-0.807075 -0.379662   2.25218 255 255 255
-0.151203 -0.640366   2.53761 255 255 255
-0.0135987  -0.450204    2.24763 255 255 255
0.0523109 -0.543013   2.36407 255 255 255
-0.784614  -0.27044   2.18822 255 255 255
-0.768916 -0.426858   2.30658 255 255 255
-0.788041 -0.290099   2.20568 255 255 255
-0.172565 -0.642781   2.54731 255 255 255
-0.681614 -0.518693   2.41541 255 255 255
-0.480929  -0.32162   2.21214 255 255 255
-0.590031 -0.524168   2.39356 255 255 255
 -0.79876 -0.421553   2.40054 255 255 255
-0.522348 -0.495144   2.34581 255 255 255
 -0.71675 -0.624945   2.54753 255 255 255
-0.521173 -0.518043   2.36067 255 255 255
 -0.73732 -0.507695   2.40853 255 255 255
0.0537867 -0.608653    2.4934 255 255 255
-0.711107 -0.459573   2.37732 255 255 255
-0.712409 -0.231433   2.14861 255 255 255
-0.669455 -0.499277   2.36769 255 255 255
-0.0547477  -0.481467    2.28179 255 255 255
-0.455133 -0.568956   2.42869 255 255 255
-0.701071 -0.630743   2.55802 255 255 255
-0.299197 -0.661147   2.56671 255 255 255
-0.151977 -0.658381   2.57011 255 255 255
-0.725005  -0.45812   2.37112 255 255 255
-0.601219 -0.559175   2.41799 255 255 255
-0.415439  -0.28817   2.09317 255 255 255
  -0.1435 -0.640544   2.54403 255 255 255
-0.572875 -0.527183    2.3932 255 255 255
-0.267723 -0.579014   2.43994 255 255 255
-0.467288 -0.448639   2.28219 255 255 255
-0.743266  -0.25695   2.18434 255 255 255
-0.448918 -0.283535   2.11366 255 255 255
-0.512579  -0.55634   2.41121 255 255 255
-0.573585 -0.490724    2.3656 255 255 255
-0.778537 -0.303984    2.2237 255 255 255
-0.517583 -0.374943   2.23856 255 255 255
-0.555577 -0.584688    2.4463 255 255 255
-0.132504 -0.563242   2.39424 255 255 255
-0.800314 -0.376751   2.25514 255 255 255
-0.482297  -0.51392   2.35614 255 255 255
-0.758491 -0.388801   2.29235 255 255 255
-0.778225 -0.268429    2.1922 255 255 255
-0.557639 -0.441192   2.31811 255 255 255
-0.0473671  -0.477587    2.30011 255 255 255
-0.615853 -0.580175   2.46714 255 255 255
-0.812219 -0.351353   2.23239 255 255 255
 0.305748 -0.466732   2.25104 255 255 255
 0.154316 -0.551852   2.41302 255 255 255
-0.517443 -0.527202    2.3738 255 255 255
-0.593691 -0.579605   2.43311 255 255 255
-0.725543 -0.256161   2.17578 255 255 255
-0.461676  -0.48596   2.33801 255 255 255
 -0.55948 -0.461272   2.31396 255 255 255
-0.699511 -0.615936   2.53444 255 255 255
-0.583277  -0.54689   2.40351 255 255 255
-0.672399 -0.660738   2.59047 255 255 255
-0.724488 -0.511769   2.40115 255 255 255
-0.429885 -0.666032   2.57452 255 255 255
-0.792821  -0.30393   2.21794 255 255 255
-0.478642 -0.599012   2.47213 255 255 255
-0.379097 -0.291371   2.10918 255 255 255
0.256468 -0.57477  2.42749 255 255 255
-0.428118  -0.65939   2.55264 255 255 255
 0.303529 -0.471534   2.25013 255 255 255
-0.585353 -0.562478   2.41498 255 255 255
-0.791216 -0.272582   2.18593 255 255 255
0.0371688 -0.646322   2.56971 255 255 255
-0.751945 -0.476306   2.40213 255 255 255
-0.747896 -0.484006   2.40396 255 255 255
-0.483309 -0.595438   2.46811 255 255 255
0.0494327 -0.617248   2.49238 255 255 255
 -0.48742 -0.266145   2.14808 255 255 255
-0.588192 -0.555003    2.4046 255 255 255
0.0758544 -0.597886   2.48474 255 255 255
-0.760369 -0.383816   2.29253 255 255 255
-0.530612 -0.532758   2.38642 255 255 255
-0.853738  -0.38143   2.39007 255 255 255
-0.423726 -0.397181   2.27305 255 255 255
-0.526856 -0.504521   2.35779 255 255 255
 0.144904 -0.483131   2.30139 255 255 255
-0.579683 -0.322696   2.23775 255 255 255
-0.742929 -0.491328   2.40201 255 255 255
-0.510611 -0.634627   2.52473 255 255 255
 0.190305 -0.427003   2.21911 255 255 255
-0.477385 -0.290667   2.17566 255 255 255
-0.538803 -0.510703   2.38136 255 255 255
-0.469947 -0.267628   2.09712 255 255 255
  0.27508 -0.564613   2.40913 255 255 255
 -0.30832 -0.662949   2.57126 255 255 255
0.0983942 -0.669656   2.61359 255 255 255
-0.418627  -0.36052   2.30887 255 255 255
-0.679394 -0.564065   2.47134 255 255 255
-0.710478   -0.2285    2.1254 255 255 255
-0.443067 -0.255795   2.15511 255 255 255
0.0210074 -0.618694   2.51208 255 255 255
-0.755929 -0.235903   2.15147 255 255 255
-0.798749 -0.295788   2.21539 255 255 255
-0.667455 -0.589759   2.49606 255 255 255
-0.499056  -0.49499   2.35627 255 255 255
 0.04532 -0.61937  2.49468 255 255 255
-0.591931 -0.579214   2.43815 255 255 255
-0.525877 -0.549706   2.41383 255 255 255
 0.241571 -0.510586   2.38568 255 255 255
 0.260521 -0.491035   2.32543 255 255 255
 -0.75576 -0.645051   2.55209 255 255 255
-0.719495 -0.488866   2.35129 255 255 255
-0.391126 -0.593482   2.47187 255 255 255
-0.0923796  -0.652207    2.56874 255 255 255
-0.461006 -0.292043   2.17815 255 255 255
-0.511956 -0.539713   2.40289 255 255 255
-0.588844 -0.558931   2.41094 255 255 255
-0.483474 -0.281559   2.16422 255 255 255
-0.765591 -0.268127   2.18733 255 255 255
-0.487326 -0.492808   2.34745 255 255 255
-0.793942 -0.286346   2.20403 255 255 255
-0.739062 -0.499273   2.40346 255 255 255
-0.656936 -0.605221   2.51466 255 255 255
-0.555289 -0.514532   2.38823 255 255 255
-0.544679 -0.486879   2.37923 255 255 255
-0.777856 -0.265778   2.18167 255 255 255
-0.539043 -0.559629   2.42017 255 255 255
-0.525565 -0.367178    2.2699 255 255 255
-0.551118 -0.498799   2.39203 255 255 255
-0.520121 -0.418211   2.30507 255 255 255
 0.204716 -0.329535   2.07498 255 255 255
-0.430676 -0.270737   2.09902 255 255 255
 -0.518427 -0.0954042    2.15385 255 255 255
-0.579886 -0.250111   2.24793 255 255 255
-0.469024 0.0455734   2.13593 255 255 255
-0.740746   -0.3348   2.30556 255 255 255
0.012925 0.190312  1.86177 255 255 255
-0.593391  0.203615   2.03794 255 255 255
-0.494136 -0.354311    2.2381 255 255 255
-0.0748893 -0.0850582    1.95654 255 255 255
 0.222466 0.0642321    1.8306 255 255 255
 0.316891 0.0564166   1.79095 255 255 255
-0.107185 -0.127761   1.96962 255 255 255
-0.107337 -0.127606   1.96007 255 255 255
-0.608863  0.250721   2.00775 255 255 255
   -0.221 -0.125477   2.04648 255 255 255
-0.318067 0.0139517   2.02029 255 255 255
-0.504573 -0.199453   2.14474 255 255 255
 -0.216511 -0.0609064    1.97755 255 255 255
-0.0473922   0.204054    1.85791 255 255 255
-0.374695 -0.200261   2.10079 255 255 255
-0.325718 0.0788316   2.00715 255 255 255
 -0.258803 0.00721016    2.00338 255 255 255
-0.0750809   0.200202    1.87999 255 255 255
-0.422475 -0.248149   2.14772 255 255 255
-0.708837 -0.299391   2.28038 255 255 255
-0.757067 -0.357261   2.30937 255 255 255
   -0.1772 -0.0420318    1.98145 255 255 255
-0.442975 -0.224688   2.16499 255 255 255
 -0.461934 -0.0453321    2.08836 255 255 255
0.185291 0.074377  1.83473 255 255 255
0.205589 0.116814  1.81783 255 255 255
 0.0671931 -0.0382151    1.90254 255 255 255
-0.169637 -0.113912   2.00264 255 255 255
-0.0944984 -0.0556681     1.9546 255 255 255
-0.617678 -0.105434   2.27679 255 255 255
-0.548676 0.0613691   2.19294 255 255 255
 -0.414822 -0.0149936    2.08288 255 255 255
 -0.178908 0.00942884    1.96765 255 255 255
0.645214 0.101728  1.74486 255 255 255
 -0.219116 -0.0318851    1.99055 255 255 255
 -0.322257 -0.0223008    2.03684 255 255 255
 -0.72213 -0.160753   2.21521 255 255 255
-0.408833 -0.072332   2.08748 255 255 255
-0.501327   0.21106   2.12601 255 255 255
-0.260184 0.0522815   1.98025 255 255 255
 0.041808 0.0789964   1.88077 255 255 255
-0.637633 0.0732414   2.12119 255 255 255
-0.398517 -0.143096   2.08613 255 255 255
0.00631156   0.121453    1.88149 255 255 255
  0.27274 0.0669726   1.80825 255 255 255
-0.118104  0.121451    1.9144 255 255 255
-0.419376  0.116937   2.07655 255 255 255
 -0.426179 -0.0456919    2.07466 255 255 255
  -0.293965 -0.00631284     2.02103 255 255 255
  -0.296691 -0.00883472     2.02361 255 255 255
-0.0295697 -0.0808957    1.94026 255 255 255
0.653405 0.129639  1.74084 255 255 255
-0.466098 -0.321719   2.20584 255 255 255
-0.858007 -0.419586    2.4095 255 255 255
  -0.214996 -0.00811372     1.98344 255 255 255
-0.559671  0.216253   2.02777 255 255 255
-0.521458 -0.016672   2.10711 255 255 255
   0.18311 -0.0176319    1.85585 255 255 255
  0.10881 0.0556339   1.86438 255 255 255
-0.528945 -0.171653   2.15205 255 255 255
-0.626978   0.23354   2.02238 255 255 255
   -0.1536 -0.0570069    1.98172 255 255 255
-0.0831305   0.166353    1.89708 255 255 255
 0.155321 0.0446409   1.85584 255 255 255
-0.514362 -0.303079   2.19958 255 255 255
-0.769961 -0.462603   2.40607 255 255 255
-0.513545  -0.23384   2.18207 255 255 255
0.0411918  0.291112   1.82771 255 255 255
-0.250901  0.216092   1.94183 255 255 255
 -0.627499 -0.0605296    2.17192 255 255 255
 -0.488151 -0.0588841    2.11373 255 255 255
0.257501 0.283776  1.75513 255 255 255
-0.492584  -0.27247   2.20895 255 255 255
-0.0495238   0.137134    1.89274 255 255 255
-0.153395 -0.148246   1.97545 255 255 255
-0.300948 0.0126213    2.0145 255 255 255
  -0.64384 -0.0351675    2.28652 255 255 255
-0.484017 -0.218814   2.18476 255 255 255
-0.0437231 -0.0259885    1.93769 255 255 255
