ply
format ascii 1.0
element vertex 1163
property float x
property float y
property float z
property uchar red
property uchar green
property uchar blue
end_header
 1.21103  2.45567 0.488096 255 255 255
 1.08029  2.46906 0.518262 255 255 255
 1.09848   2.3935 0.549831 255 255 255
1.68465 2.96478 0.14759 255 255 255
  1.72711   2.98486 0.0984495 255 255 255
 1.71704  2.92437 0.128461 255 255 255
0.976376  2.44045  0.55116 255 255 255
0.699476  2.73964 0.268254 255 255 255
 1.09949   2.4323 0.518085 255 255 255
 1.02323  2.46316 0.532713 255 255 255
 1.1224 2.49788 0.49769 255 255 255
 1.18447  2.59347 0.435065 255 255 255
 1.20932   2.5447 0.459302 255 255 255
1.31985 2.50423 0.45253 255 255 255
 1.65007  2.57755 0.178165 255 255 255
 1.71272  2.93403 0.124414 255 255 255
   1.76562    3.05313 -0.0046655 255 255 255
 1.08967   2.4362 0.521775 255 255 255
 1.24096  2.82572 0.307046 255 255 255
 1.17564  2.65621 0.441397 255 255 255
 1.68906  2.89922 0.148013 255 255 255
 1.11895  2.40437 0.529736 255 255 255
 1.11362  2.40469 0.538764 255 255 255
  1.1858  2.48242 0.497305 255 255 255
 1.59604  2.91394 0.161363 255 255 255
 1.31173  2.51877 0.447056 255 255 255
  1.91995   3.09017 -0.109446 255 255 255
  1.2204  2.73211 0.375322 255 255 255
 1.20005  2.55656 0.454496 255 255 255
 1.31041  2.50785 0.455919 255 255 255
  1.71811   3.15002 0.0407159 255 255 255
 1.12121  2.40317 0.539224 255 255 255
 1.37674  2.72516 0.360141 255 255 255
 1.11902  2.43102 0.526276 255 255 255
 1.08385  2.60925 0.449507 255 255 255
 1.25306  2.44357 0.494335 255 255 255
1.12318 2.56549 0.45943 255 255 255
 1.07475  2.44433 0.517667 255 255 255
 1.05647  2.58251 0.466507 255 255 255
 1.33192  2.81784 0.319371 255 255 255
 1.62568  2.93054 0.143228 255 255 255
 1.09897  2.49906 0.514978 255 255 255
 1.72086  2.89962 0.136453 255 255 255
 1.17226  2.40072 0.533087 255 255 255
 1.17187  2.49612 0.515564 255 255 255
 0.84942  2.94117 0.584308 255 255 255
  1.68643   3.02331 0.0943333 255 255 255
 1.22973  2.77022 0.349357 255 255 255
 1.72402  2.94515 0.116712 255 255 255
 1.07754  2.37686 0.561036 255 255 255
 1.04006  2.51041 0.513272 255 255 255
1.22252 2.76616 0.34819 255 255 255
 1.52692  2.86396 0.194134 255 255 255
 1.24906  2.79935 0.328505 255 255 255
 1.23923  2.70973 0.380915 255 255 255
 1.76178  2.75622 0.161596 255 255 255
1.04194 2.62288 0.47538 255 255 255
 1.72182  2.92876 0.124153 255 255 255
 1.30256  2.52596 0.444387 255 255 255
  1.2297  2.78555 0.362929 255 255 255
  1.68324   3.01953 0.0988234 255 255 255
 1.12894  2.65983 0.420739 255 255 255
 1.11712  2.63639 0.404498 255 255 255
 1.18131  2.46428 0.500104 255 255 255
 1.47707  2.69678 0.341519 255 255 255
 1.02098  2.43659 0.538965 255 255 255
 1.25213  2.63735 0.405213 255 255 255
0.765301  2.68297 0.471521 255 255 255
 1.30626  2.52774 0.443363 255 255 255
 1.27306  2.68253 0.406027 255 255 255
0.792978  2.90923 0.357064 255 255 255
 1.64897  2.80665 0.177291 255 255 255
1.61947 2.92495 0.14596 255 255 255
 1.20384  2.71704 0.385975 255 255 255
  1.3597  2.73066 0.333541 255 255 255
 1.15646  2.53028 0.468467 255 255 255
0.775771  2.70715 0.315397 255 255 255
 1.64379  2.81126 0.178298 255 255 255
0.910791  2.70436 0.315707 255 255 255
 1.21796  2.75223 0.361433 255 255 255
 1.03461  2.49665 0.510315 255 255 255
0.943107  2.44108 0.562136 255 255 255
 1.10965  2.58806 0.453131 255 255 255
 1.21506  2.61661 0.419181 255 255 255
 1.25617  2.85604 0.381084 255 255 255
 1.53466  2.74255 0.302934 255 255 255
 1.16313  2.46801 0.502039 255 255 255
 1.56155  2.92022 0.165896 255 255 255
 1.12232  2.67643 0.339899 255 255 255
 1.69196  2.90556 0.138749 255 255 255
 1.66633  2.91476 0.143994 255 255 255
 1.21969  2.59792 0.425307 255 255 255
 1.17257  2.43864 0.511579 255 255 255
 1.25421  2.71671 0.373484 255 255 255
 1.18347  2.80657 0.338947 255 255 255
 1.14744  2.66445 0.418929 255 255 255
 1.69393   2.9892 0.105577 255 255 255
 1.51395  2.86697 0.194087 255 255 255
 1.14115  2.61708 0.398798 255 255 255
 1.30492  2.51094 0.452674 255 255 255
1.13971 2.60481 0.44451 255 255 255
 1.11672  2.46503 0.511557 255 255 255
 1.17462  2.62901 0.426466 255 255 255
 1.18438  2.54226 0.467241 255 255 255
 1.08773  2.65379 0.400684 255 255 255
 1.22374  2.51349 0.465637 255 255 255
  1.1148  2.69389 0.391343 255 255 255
 1.14337  2.46737 0.504828 255 255 255
 1.11649   2.4567 0.538425 255 255 255
1.13605 2.62957 0.42842 255 255 255
  1.1897  2.54704 0.459833 255 255 255
 1.23523  2.35953 0.520749 255 255 255
 1.20082  2.46453 0.549334 255 255 255
 1.10293  2.45166 0.557568 255 255 255
1.20204 2.57601 0.43438 255 255 255
 1.71342  2.36535 0.305824 255 255 255
 1.67288  2.74898 0.178843 255 255 255
 1.95223  2.71661 0.043092 255 255 255
 2.16773  2.50395 0.227476 255 255 255
 1.76154  2.81737 0.141547 255 255 255
  1.9071  2.28732 0.290627 255 255 255
 2.05552  2.56748 0.222846 255 255 255
 1.84906  2.71982 0.152815 255 255 255
2.02099  2.5913 0.20284 255 255 255
  1.57242   3.08939 0.0932524 255 255 255
  1.74042   3.03885 -0.030536 255 255 255
 2.22414  2.39105 0.277031 255 255 255
 1.40414  2.81153 0.310926 255 255 255
 1.82159  2.69959 0.181002 255 255 255
 1.17653   2.7643 0.349275 255 255 255
 1.24351  2.78236 0.344778 255 255 255
 1.77973  2.21589 0.299125 255 255 255
   1.75414    2.88117 0.00108251 255 255 255
 2.08901  2.35826 0.256294 255 255 255
1.10122 2.58055 0.45457 255 255 255
   1.41998    3.50175 -0.0504788 255 255 255
 1.40547   2.4923 0.420979 255 255 255
   1.75787    3.09275 -0.0490317 255 255 255
 1.44047  2.78872 0.311643 255 255 255
   1.50104     3.4042 -0.0570565 255 255 255
  1.2736  2.37431 0.485821 255 255 255
 1.33319  3.19492 0.110131 255 255 255
 1.87336  2.17578 0.382351 255 255 255
 2.54099  2.41877 0.227445 255 255 255
  1.45673   3.26749 0.0353604 255 255 255
0.968849  2.93152 0.297254 255 255 255
 1.68643  2.35088 0.425579 255 255 255
  1.66872   3.05933 0.0587322 255 255 255
 1.19845  2.75907 0.349519 255 255 255
 1.38296  2.49742 0.428186 255 255 255
   1.82376    2.83002 -0.0242228 255 255 255
  1.3222  2.46021 0.466145 255 255 255
 1.35522  2.42424 0.464326 255 255 255
 1.87236  2.21351 0.368619 255 255 255
  2.20641   2.50635 0.0715916 255 255 255
 2.15118  2.21831 0.393607 255 255 255
 1.33667  2.67037 0.376857 255 255 255
 1.36164  2.48681 0.435015 255 255 255
 1.73236  2.81351 0.161207 255 255 255
 1.02867  2.56655 0.479703 255 255 255
 1.79541  2.21004 0.290348 255 255 255
 1.58838  2.25295 0.491214 255 255 255
 1.57562  2.30158 0.504696 255 255 255
0.916749  3.07685 0.246204 255 255 255
 1.36605  2.73722 0.349079 255 255 255
 1.21441  2.75755 0.353645 255 255 255
 1.57576  2.99892 0.114182 255 255 255
 1.09314  2.53973 0.481755 255 255 255
 1.45017  3.06331 0.114347 255 255 255
  1.3708  2.43295 0.461223 255 255 255
1.27665 2.48002 0.47168 255 255 255
 1.24417  2.70514 0.380798 255 255 255
 1.54525  3.00388 0.133416 255 255 255
0.948866  2.90241 0.297297 255 255 255
 1.24592  3.02774 0.190646 255 255 255
 1.48433  2.67108 0.341733 255 255 255
 1.40323  2.60604 0.389135 255 255 255
  1.9484   2.2648 0.318083 255 255 255
  1.1346  2.46727 0.506413 255 255 255
 1.74717  2.29096 0.342268 255 255 255
 0.89852  3.00863 0.288888 255 255 255
 1.16154  2.96524 0.247549 255 255 255
 1.16116  2.56734 0.452731 255 255 255
 1.34746  2.86846 0.291601 255 255 255
1.46531 2.79336 0.31034 255 255 255
 1.73318  2.89754 0.142756 255 255 255
 1.29056  2.62682 0.403459 255 255 255
 1.19529  2.46622 0.496377 255 255 255
 1.18046  2.43283 0.512486 255 255 255
 1.42818  2.80332 0.304104 255 255 255
0.938041  3.07713 0.242393 255 255 255
 1.65542  2.97454 0.118838 255 255 255
 1.60736  2.99182 0.124602 255 255 255
   1.74117    3.10306 -0.0577241 255 255 255
1.60208 2.93167 0.14768 255 255 255
    1.85507     2.78178 -0.00559113 255 255 255
 2.11235  2.48707 0.100052 255 255 255
 1.00443  2.93201 0.300289 255 255 255
  2.1199  2.47889 0.102569 255 255 255
 1.47305  2.72505 0.366656 255 255 255
 1.77101  2.37038 0.433447 255 255 255
 1.24357   2.8061 0.330565 255 255 255
  1.57309   3.26763 0.0167932 255 255 255
 1.50307  2.70555 0.323613 255 255 255
 1.35064  2.40593 0.471771 255 255 255
0.822155  3.01872 0.591189 255 255 255
 1.18018  2.47494 0.493695 255 255 255
 1.18688  2.76195 0.351214 255 255 255
 1.58654  2.14506 0.509375 255 255 255
 1.45179  2.59887 0.379352 255 255 255
0.931015  2.93433 0.293761 255 255 255
 1.3936 2.82059 0.30518 255 255 255
   1.5647    3.2647 0.0280322 255 255 255
  1.1256  2.52607 0.478344 255 255 255
 1.57099  3.00456 0.128548 255 255 255
 1.28782  2.32755 0.519587 255 255 255
 1.15707  2.53752 0.466076 255 255 255
 1.59282  2.27565 0.453998 255 255 255
  2.13332   2.56341 0.0424568 255 255 255
 1.33301  2.41903 0.470359 255 255 255
1.33198 2.85855 0.29882 255 255 255
0.949852  2.89129 0.317396 255 255 255
1.62588 2.17818 0.48771 255 255 255
  1.4672  3.04503 0.135381 255 255 255
 1.55427  3.01812 0.125637 255 255 255
     1.8223     2.80862 -0.00390321 255 255 255
 1.68513  2.93524 0.130673 255 255 255
 1.32077  2.59309 0.372556 255 255 255
 1.20052  2.37549 0.529363 255 255 255
 1.26517  2.71445 0.379389 255 255 255
 1.31587  2.67145 0.387234 255 255 255
 1.60456  2.91109 0.159374 255 255 255
 1.88279  2.71455 0.183226 255 255 255
0.894735    2.913 0.320194 255 255 255
 1.75858  2.34814 0.449273 255 255 255
0.972717  2.84531 0.346004 255 255 255
 1.55305   2.8551 0.339357 255 255 255
 1.20326  2.73096 0.381978 255 255 255
 1.39857  3.12911 0.115718 255 255 255
 1.23284  3.03356 0.190838 255 255 255
 1.02657  2.58105 0.474651 255 255 255
 1.06057  2.54271 0.490312 255 255 255
0.843561  2.89998 0.342409 255 255 255
 1.29055  2.52689 0.451596 255 255 255
  1.8803  2.27299 0.299356 255 255 255
0.958041  2.89421 0.315376 255 255 255
 1.21539  2.43751 0.505698 255 255 255
 1.82177  2.25516 0.327104 255 255 255
1.15738 2.73771 0.32391 255 255 255
 2.52841  2.33465 0.270297 255 255 255
 1.11035  2.48169 0.505856 255 255 255
 1.52643  2.72884 0.325668 255 255 255
 1.19257  2.74413 0.372514 255 255 255
 1.28944  2.54174 0.443313 255 255 255
 1.17602  2.62916 0.422241 255 255 255
   1.34181    3.41529 0.00762309 255 255 255
0.926685  3.08254 0.241822 255 255 255
 1.85358  2.21568 0.367581 255 255 255
   1.74709    3.12143 -0.0991655 255 255 255
 1.28421  2.29411 0.534847 255 255 255
0.801654  2.90403 0.345005 255 255 255
 1.19437  2.55083 0.457425 255 255 255
 1.39113  3.06451 0.123874 255 255 255
0.789041  2.82481 0.400149 255 255 255
 1.22456  2.61813 0.417248 255 255 255
 1.23529   2.6911 0.394476 255 255 255
 1.78273  2.25227 0.321686 255 255 255
 1.09344  3.02513 0.236343 255 255 255
 1.22138  2.57511 0.440101 255 255 255
 1.05342  2.57204 0.473312 255 255 255
1.12171 2.47758 0.50526 255 255 255
 1.09518  3.04264 0.224739 255 255 255
 1.18354  2.40745 0.523085 255 255 255
0.890971  2.76531 0.404505 255 255 255
 1.37871  3.25358 0.067876 255 255 255
0.954468  2.89986  0.32032 255 255 255
   1.72095    3.09691 -0.0297336 255 255 255
 1.37515  2.45866 0.443662 255 255 255
 1.17024  2.52337 0.473444 255 255 255
 1.07229  2.66702 0.394192 255 255 255
 1.12792  2.56564 0.448961 255 255 255
 1.63042  2.14558 0.483851 255 255 255
 1.54124  2.25255 0.509958 255 255 255
 1.20394  3.02636 0.210731 255 255 255
 1.40995  3.07423 0.134804 255 255 255
 1.56864  2.25618 0.461422 255 255 255
 1.29091   2.3328 0.520456 255 255 255
 1.70903  2.91842 0.132723 255 255 255
0.873305    2.938 0.304455 255 255 255
1.95678 2.65138 0.18668 255 255 255
 1.38206  2.64935 0.383118 255 255 255
 2.56616  2.40084 0.240032 255 255 255
  1.71602   3.12578 0.0481118 255 255 255
 1.66488  2.39208 0.407018 255 255 255
 2.54032  2.31658 0.288112 255 255 255
 1.82833  2.71111 0.203727 255 255 255
 1.01156  2.94399 0.288203 255 255 255
 1.53077  3.01196 0.134298 255 255 255
0.969452  2.93203 0.287292 255 255 255
 1.32187  2.42709 0.501067 255 255 255
  2.23498    2.5803 0.0206934 255 255 255
 1.26777  2.80957 0.332295 255 255 255
  1.1519  2.55897 0.458052 255 255 255
 1.25202  2.63786 0.405356 255 255 255
  1.68898   3.03125 0.0895082 255 255 255
  1.227 3.03042  0.1938 255 255 255
   1.92109     2.8239 -0.0259892 255 255 255
 1.29657  2.85407 0.298054 255 255 255
  1.28485   3.34693 0.0494002 255 255 255
   1.57232    3.34515 -0.0292271 255 255 255
 1.18262  2.54725 0.459912 255 255 255
0.814195  2.87449 0.369154 255 255 255
 1.71622  2.97401 0.107265 255 255 255
 1.64005  2.92974 0.140013 255 255 255
 1.16019  2.69621 0.356985 255 255 255
 1.16331  2.42022 0.519601 255 255 255
0.880893  2.75057 0.407654 255 255 255
 1.05531  2.59257 0.463585 255 255 255
 1.54522  2.99591 0.137757 255 255 255
0.899221  2.77379 0.392461 255 255 255
0.925564  2.68166  0.43646 255 255 255
 1.26013  2.57137 0.431039 255 255 255
   1.436  2.79678 0.306592 255 255 255
 2.66552  2.37825 0.244718 255 255 255
 1.55997  2.84752 0.199194 255 255 255
 1.34758  2.65101 0.365381 255 255 255
0.948798  2.70284 0.421612 255 255 255
 1.22247  3.03834 0.196381 255 255 255
 1.12212  2.45929 0.512397 255 255 255
  1.0614  2.55604 0.484059 255 255 255
 2.26447  2.43669 0.245082 255 255 255
 2.18421  2.41349 0.152681 255 255 255
 1.17236  2.63845 0.395592 255 255 255
  1.47733   3.20817 0.0692149 255 255 255
 1.17458  2.50036 0.484642 255 255 255
 1.71021  2.89418 0.140732 255 255 255
 1.25317  2.47603 0.476317 255 255 255
 1.70712  2.90867 0.135983 255 255 255
 1.34193  2.38961 0.480229 255 255 255
 1.27825  2.34412 0.516094 255 255 255
1.40301 3.04589 0.13493 255 255 255
1.69508 2.88227 0.15032 255 255 255
 1.07373  2.60189 0.455758 255 255 255
 1.26115  2.43132 0.493232 255 255 255
1.51314 2.82118 0.31525 255 255 255
  1.73162   3.00799 0.0863178 255 255 255
0.823092  2.91349 0.332865 255 255 255
 2.50074  2.31301 0.304573 255 255 255
 1.45053  3.02423 0.147929 255 255 255
  2.13541   2.55863 0.0420545 255 255 255
 1.27391  2.30539 0.533486 255 255 255
 1.28605  2.28824 0.538286 255 255 255
 2.31974  2.39185 0.283544 255 255 255
 1.10922  2.68648 0.396181 255 255 255
1.14021 2.67224  0.4083 255 255 255
 1.15432  2.57916 0.448804 255 255 255
 1.38315  2.47563 0.437271 255 255 255
 1.18217  2.50641 0.480325 255 255 255
 2.30464  2.35001 0.327871 255 255 255
  1.64407     3.048 0.0966048 255 255 255
 1.59678  3.01543 0.117754 255 255 255
 1.47591  2.75245 0.356033 255 255 255
 1.86342  2.69937 0.181467 255 255 255
  1.51727   3.28952 0.0059151 255 255 255
 1.32639   2.8443 0.293655 255 255 255
 1.30506  2.82817 0.318262 255 255 255
 1.04458  2.58093 0.470741 255 255 255
 1.64798  2.26375 0.516159 255 255 255
 1.56273  2.84418 0.188303 255 255 255
1.24465 2.63118 0.40569 255 255 255
 1.30226  2.42362 0.505304 255 255 255
 1.52677  3.03772 0.125401 255 255 255
     1.9027     2.76896 -0.00638261 255 255 255
   1.90703    2.83801 -0.0477055 255 255 255
  1.5951  3.00842 0.120949 255 255 255
 1.21636  2.56362 0.446254 255 255 255
 1.13306  2.54586 0.467034 255 255 255
 2.17046  2.48523 0.256173 255 255 255
 1.41133  2.81494 0.303192 255 255 255
 1.10572  2.63455 0.434524 255 255 255
  1.1979  2.38185 0.527431 255 255 255
 1.21983  2.59804 0.425478 255 255 255
 1.19895  2.64838 0.409796 255 255 255
 1.28466  2.41516 0.484634 255 255 255
  2.12523   2.72871 0.0631005 255 255 255
 1.19399  2.60568 0.413158 255 255 255
 1.70859  2.84643 0.159222 255 255 255
2.15044 2.43078 0.11905 255 255 255
2.55846 2.40822 0.22328 255 255 255
 1.25465  2.76452 0.359322 255 255 255
 1.28201  2.83175 0.316871 255 255 255
 1.06723  2.59818 0.459283 255 255 255
  1.7411  2.92703 0.119291 255 255 255
   1.69461    3.46092 -0.0901125 255 255 255
  1.4904  2.69389 0.372448 255 255 255
 1.32662  2.85225 0.303126 255 255 255
0.955312  2.71008 0.413777 255 255 255
 1.13547  2.59317 0.445251 255 255 255
   1.85036    2.79218 -0.0189523 255 255 255
  2.31606   2.46265 0.0774163 255 255 255
   1.59383    3.39628 -0.0675376 255 255 255
0.938615  2.69033 0.429635 255 255 255
0.810777  2.90478 0.339599 255 255 255
 1.25467  3.03444 0.193035 255 255 255
 1.25424  2.61884 0.418739 255 255 255
  1.71553   3.16012 0.0222977 255 255 255
 1.06877  2.57635 0.468345 255 255 255
 1.19359  2.58736 0.435563 255 255 255
 1.58857  3.04709 0.107394 255 255 255
 1.79527  2.71821 0.193633 255 255 255
 1.20854  2.62346 0.417498 255 255 255
 2.10535  2.56515 0.196654 255 255 255
-0.00731219   -0.605339     2.52605 255 255 255
0.0471096 -0.673224   2.66972 255 255 255
-0.0136249  -0.794928    2.81112 255 255 255
0.288626 -0.81733  3.17227 255 255 255
 0.406556 -0.456125   2.88186 255 255 255
 0.188811 -0.644203   2.83872 255 255 255
  0.13182 -0.437777   2.31274 255 255 255
 0.283658 -0.526755   2.78913 255 255 255
-0.0134025   -0.86648    2.91088 255 255 255
-0.081045 -0.676568    2.5873 255 255 255
-0.0340732  -0.847134     2.8664 255 255 255
 0.197148 -0.462854   2.36232 255 255 255
0.0199403 -0.661882    2.5683 255 255 255
-0.122644 -0.685175   2.57735 255 255 255
-0.181235 -0.708242   2.57378 255 255 255
0.0570219 -0.834519   2.96782 255 255 255
 0.301708 -0.479582   2.77432 255 255 255
 0.209439 -0.562158   2.75305 255 255 255
 0.518991 -0.590876   2.78445 255 255 255
0.00761933  -0.749357    2.76262 255 255 255
-0.0841733  -0.879492    2.86686 255 255 255
-0.0815336   -0.90776    2.94239 255 255 255
-0.10959 -0.90895  2.86842 255 255 255
-0.0527477  -0.767222    2.69693 255 255 255
-0.457871 -0.877125   2.74169 255 255 255
 0.334204 -0.455829   2.80615 255 255 255
0.0788843 -0.627389   2.54818 255 255 255
 0.309127 -0.532567   2.82785 255 255 255
-0.104065 -0.994976   3.11206 255 255 255
-0.222849 -0.906944   2.67138 255 255 255
-0.403628 -0.880685   2.71899 255 255 255
0.209155 -0.40918  2.28435 255 255 255
 -0.19866 -0.946736   2.88492 255 255 255
 0.246154 -0.517388   2.48829 255 255 255
 0.116464 -0.882417   3.05051 255 255 255
-0.439812 -0.911629   2.77639 255 255 255
 0.218241 -0.597259   2.57513 255 255 255
-0.140228 -0.780356   2.67512 255 255 255
0.0705682 -0.882116   2.99048 255 255 255
-0.297013 -0.682507   2.54424 255 255 255
0.145269 -0.40619  2.28836 255 255 255
 0.342184 -0.488227   2.83728 255 255 255
-0.0535582  -0.794059    2.74347 255 255 255
-0.458035 -0.906103   2.76888 255 255 255
 0.432025 -0.387372   2.86351 255 255 255
0.0441293 -0.889448   2.97564 255 255 255
-0.498489 -0.903997   2.75152 255 255 255
-0.255388  -0.69311   2.54547 255 255 255
-0.404328 -0.842941   2.68422 255 255 255
0.250777 -0.53256  2.49208 255 255 255
-0.0337725  -0.769057    2.75383 255 255 255
 0.499282 -0.640575    2.8452 255 255 255
 0.249515 -0.627696    2.8838 255 255 255
-0.0608904  -0.704841    2.60551 255 255 255
-0.204051 -0.782921   2.64557 255 255 255
-0.0162029  -0.986688    3.13795 255 255 255
-0.0063487   -1.00922    3.18105 255 255 255
-0.505743  -0.86825   2.72702 255 255 255
 0.518491 -0.570715   2.75513 255 255 255
0.0175962 -0.832096   2.88266 255 255 255
-0.0396153  -0.815836    2.81746 255 255 255
 0.436491 -0.473305   2.96186 255 255 255
 0.305116 -0.498072   2.79107 255 255 255
-0.233202 -0.637301   2.47757 255 255 255
-0.350413 -0.857639   2.70256 255 255 255
0.194154 -1.06428  3.39652 255 255 255
 -0.14916 -0.705315   2.59298 255 255 255
-0.259146 -0.810453    2.6566 255 255 255
-0.316121 -0.842173   2.68979 255 255 255
 0.118285 -0.907639   3.06623 255 255 255
0.0374019 -0.829648   2.88331 255 255 255
-0.147896  -0.68419   2.57491 255 255 255
 0.215356 -0.793526   2.92813 255 255 255
-0.148246 -0.876105   2.76603 255 255 255
  0.46762 -0.437176   2.97162 255 255 255
 0.283386 -0.771079   2.93853 255 255 255
-0.249759 -0.795284    2.6491 255 255 255
 -0.19225 -0.860789   2.73118 255 255 255
-0.207862 -0.741263   2.60052 255 255 255
-0.0263048   -0.97521    3.04153 255 255 255
 0.417107 -0.520495   2.61443 255 255 255
 -0.22273 -0.778473   2.64367 255 255 255
 0.373913 -0.490454   2.89029 255 255 255
-0.189198 -0.688697    2.5554 255 255 255
 0.584882 -0.651376   2.92129 255 255 255
 0.473877 -0.386049   2.91704 255 255 255
0.175427 -0.83475  3.03826 255 255 255
-0.174154 -0.980814   3.02087 255 255 255
-0.409951 -0.899861    2.7336 255 255 255
 0.310241 -0.709015   2.84021 255 255 255
 0.136597 -0.745051   2.89117 255 255 255
-0.537156 -0.827336   2.66991 255 255 255
0.0614598 -0.761644   2.81816 255 255 255
 0.158724 -0.884993   3.07836 255 255 255
-0.337412 -0.864707   2.72168 255 255 255
-0.237341 -0.811039    2.6688 255 255 255
-0.194296 -0.731307   2.60936 255 255 255
0.0326044 -0.874396   2.95283 255 255 255
0.100516 -0.61406  2.54197 255 255 255
 0.194517 -0.862225   3.10144 255 255 255
-0.376308  -1.01928    2.8111 255 255 255
  0.38815 -0.661463   2.79492 255 255 255
-0.233567 -0.791478   2.65068 255 255 255
 0.269412 -0.521715   2.77589 255 255 255
-0.0202936  -0.729595    2.64163 255 255 255
-0.466324 -0.860798    2.7223 255 255 255
0.0687705 -0.949726   3.09764 255 255 255
 0.178579 -0.621458   2.59124 255 255 255
  0.39429 -0.556027   2.64807 255 255 255
0.201615 -0.83313  3.10278 255 255 255
  0.15231 -0.641029    2.6315 255 255 255
0.227649 -0.77225  2.89921 255 255 255
-0.028314 -0.943066   3.00596 255 255 255
-0.288169 -0.667817   2.53029 255 255 255
-0.187072 -0.873855   2.74058 255 255 255
 0.424013 -0.551143   2.67202 255 255 255
 0.240766 -0.562035   2.53276 255 255 255
-0.260993 -0.666734   2.50882 255 255 255
 0.355908 -0.538193   2.58685 255 255 255
-0.186874 -0.698907   2.57272 255 255 255
-0.270328 -0.667296   2.50634 255 255 255
-0.363498 -0.737634   2.59237 255 255 255
-0.299555 -0.799057   2.65335 255 255 255
-0.231041 -0.702777   2.57326 255 255 255
0.531747  -0.5549  2.74458 255 255 255
-0.139512  -0.69496    2.5842 255 255 255
 0.011625 -0.805029   2.82717 255 255 255
 0.379609 -0.569814   2.66056 255 255 255
 0.394368 -0.682014   2.84715 255 255 255
 0.077565 -0.861244   2.98058 255 255 255
 0.516692 -0.526763   2.69993 255 255 255
  0.18729 -0.720513   2.78511 255 255 255
-0.208885 -0.713284    2.5843 255 255 255
0.00980227  -0.930563    3.04196 255 255 255
 0.203297 -0.590871   2.78217 255 255 255
0.0244881  -0.91094   2.99362 255 255 255
 0.341355 -0.493626     2.454 255 255 255
-0.156161 -0.695937   2.57879 255 255 255
 0.367498 -0.505713   2.89465 255 255 255
 -0.12582 -0.788464   2.69266 255 255 255
 0.235645 -0.572892   2.54794 255 255 255
-0.356279 -0.846155   2.70452 255 255 255
-0.244039 -0.776962   2.64025 255 255 255
-0.0861344   -0.83723    2.81706 255 255 255
0.297036 -1.04694  3.46251 255 255 255
 0.172357 -0.633589   2.78792 255 255 255
 0.209624 -0.674505   2.74472 255 255 255
-0.151708 -0.739558   2.62796 255 255 255
-0.0101946  -0.722242    2.68306 255 255 255
-0.159488 -0.959081    2.9295 255 255 255
-0.436214 -0.820723   2.67908 255 255 255
 0.524863 -0.546663   2.73185 255 255 255
-0.209971 -0.890574   2.66832 255 255 255
-0.0613507  -0.789411    2.71101 255 255 255
 0.150481 -0.711465   2.85181 255 255 255
-0.175795 -0.752098   2.63632 255 255 255
 0.432917 -0.539811   2.66156 255 255 255
 0.122657 -0.649518   2.74001 255 255 255
-0.333884 -0.966097   2.74552 255 255 255
 0.530439 -0.646134   2.87475 255 255 255
-0.309603 -0.856427   2.70271 255 255 255
-0.344707 -0.956917   2.74449 255 255 255
-0.219898  -0.88764   2.66948 255 255 255
-0.392118 -0.976216   2.73797 255 255 255
-0.0239385  -0.926954    2.96906 255 255 255
-0.221456 -0.720212   2.57738 255 255 255
0.0482615 -0.836021   2.91767 255 255 255
 0.218511 -0.986286   3.31061 255 255 255
 0.199883 -0.792574   3.02864 255 255 255
-0.358794 -0.869608   2.70509 255 255 255
-0.230334 -0.892839   2.67296 255 255 255
 0.182424 -0.710488   2.76667 255 255 255
 0.147316 -0.735088   2.88572 255 255 255
 -0.24394 -0.830002   2.68153 255 255 255
-0.147968 -0.930606   2.88787 255 255 255
-0.271596 -0.836506   2.69558 255 255 255
-0.438135 -0.761275   2.61392 255 255 255
-0.174231 -0.973084    2.9482 255 255 255
 0.491064 -0.564038   2.73466 255 255 255
-0.0957436  -0.935991    2.93625 255 255 255
-0.415788 -0.741485   2.59686 255 255 255
-0.209948 -0.919061   2.71491 255 255 255
 0.444452 -0.443688   2.95094 255 255 255
-0.0381136  -0.865388    2.88894 255 255 255
-0.0703662  -0.955666    3.04524 255 255 255
-0.152281 -0.717967   2.60636 255 255 255
 -0.27127 -0.782801    2.6375 255 255 255
0.340951 -1.08066  3.53348 255 255 255
0.0766022  -1.02644   3.24655 255 255 255
0.00686154  -0.792014    2.82321 255 255 255
-0.0862672  -0.707858    2.60685 255 255 255
0.154265 -1.08694  3.39782 255 255 255
 0.208344 -0.956323   3.27132 255 255 255
  0.12127 -0.771614   2.88435 255 255 255
  0.14109 -0.941197   3.18019 255 255 255
 0.540087 -0.531786   2.72027 255 255 255
0.137111 -1.00617  3.27249 255 255 255
-0.230972 -0.730239   2.60478 255 255 255
-0.265298 -0.786464   2.64421 255 255 255
0.263247 -0.90716  3.17773 255 255 255
  0.11486 -0.598241   2.53106 255 255 255
-0.0544279  -0.978045    3.09765 255 255 255
0.146802 -1.02777  3.28935 255 255 255
-0.237998 -0.762649   2.63176 255 255 255
-0.0933745  -0.698205    2.60334 255 255 255
 -0.32153 -0.691102   2.53285 255 255 255
-0.149226 -0.699107   2.58594 255 255 255
-0.0688421  -0.610263    2.47024 255 255 255
0.0643196 -0.672429   2.61861 255 255 255
0.00177209  -0.809096    2.83554 255 255 255
-0.0941105  -0.850183    2.82703 255 255 255
-0.253631 -0.766251   2.63238 255 255 255
0.251114 -1.03298  3.38798 255 255 255
-0.185119 -0.734506   2.61361 255 255 255
-0.0321702  -0.611037    2.57529 255 255 255
-0.0413183  -0.976767    3.10101 255 255 255
 -0.40359 -0.768954   2.62761 255 255 255
0.129352 -0.76268  2.90003 255 255 255
-0.186211 -0.766121   2.64676 255 255 255
-0.101068 -0.997136   3.12112 255 255 255
 0.298741 -0.542693   2.83455 255 255 255
-0.354294 -0.696786   2.51018 255 255 255
 0.420375 -0.408277   2.86411 255 255 255
 0.178353 -0.620883   2.78221 255 255 255
 0.15316 -0.74257   2.7905 255 255 255
-0.175722 -0.955106   2.89878 255 255 255
-0.386102 -0.731474   2.58832 255 255 255
-0.112204 -0.728047   2.62807 255 255 255
 0.268145 -0.945727   3.31995 255 255 255
-0.116657 -0.903181   2.90282 255 255 255
-0.192756 -0.840107   2.71253 255 255 255
-0.430019 -0.807015   2.66858 255 255 255
 0.163531 -0.582707   2.69954 255 255 255
 0.145593 -0.556237   2.66309 255 255 255
 0.292484 -0.529831   2.79958 255 255 255
-0.493688 -0.867177   2.72961 255 255 255
0.211004 -0.75878  3.00457 255 255 255
-0.0840046  -0.787582    2.70602 255 255 255
-0.00766509    -0.82745     2.85372 255 255 255
 0.524055 -0.540587   2.72432 255 255 255
0.154925  -0.8708   3.0381 255 255 255
0.272192 -1.05125  3.44492 255 255 255
-0.306188 -0.836468   2.68921 255 255 255
-0.143993 -0.754898   2.65718 255 255 255
 0.315888 -0.855305   3.11124 255 255 255
 0.214149 -0.893185   3.17854 255 255 255
 0.305397 -0.969403   3.38533 255 255 255
-0.430778 -0.779945   2.64089 255 255 255
-0.101686 -0.853302   2.82915 255 255 255
 0.575106 -0.656953   2.92825 255 255 255
 0.291141 -0.684648   2.80527 255 255 255
 0.195835 -0.610585   2.59128 255 255 255
 0.443655 -0.548658    2.6746 255 255 255
-0.274078 -0.877964   2.66442 255 255 255
-0.233255 -0.841381   2.64969 255 255 255
-0.203461 -0.668781   2.53342 255 255 255
 0.371952 -0.457955   2.84767 255 255 255
-0.556375 -0.917008   2.78392 255 255 255
  0.14229 -0.550731   2.66294 255 255 255
-0.398938 -0.737459     2.591 255 255 255
-0.455537 -0.765111   2.61894 255 255 255
 0.252889 -0.543218   2.76901 255 255 255
-0.547829 -0.856095   2.71214 255 255 255
0.0332617 -0.963933   3.07895 255 255 255
-0.0994618   -0.78512    2.69825 255 255 255
0.234913 -0.96337  3.29656 255 255 255
 0.399035 -0.488113   2.92261 255 255 255
-0.477162 -0.808364   2.66649 255 255 255
-0.0639528   -1.01505    3.17628 255 255 255
 0.224109 -0.511739   2.71424 255 255 255
 0.185114 -0.566355   2.71502 255 255 255
-0.121928  -0.73334   2.63186 255 255 255
 0.256698 -0.528445   2.48166 255 255 255
-0.0945528  -0.771949    2.68574 255 255 255
-0.482326 -0.852737   2.71693 255 255 255
-0.0565925   -0.89067    2.89357 255 255 255
 0.318843 -0.988092   3.38491 255 255 255
-0.224309 -0.714345   2.57387 255 255 255
-0.271093  -0.79046   2.64423 255 255 255
-0.0745036   -1.02266    3.18524 255 255 255
 -0.17618 -0.654383   2.53937 255 255 255
 0.468598 -0.457256   2.98822 255 255 255
 0.220844 -0.969018   3.29288 255 255 255
 0.188573 -0.980779   3.27652 255 255 255
 0.438971 -0.545312   2.67247 255 255 255
 0.443448 -0.453206   2.95257 255 255 255
-0.187739 -0.719554   2.59359 255 255 255
 0.209516 -0.572233   2.74541 255 255 255
-0.188614 -0.692292   2.56642 255 255 255
-0.387109  -0.78606   2.64815 255 255 255
   0.2488 -0.826082   3.01268 255 255 255
-0.0314228  -0.985586    3.12349 255 255 255
 0.138073 -0.911729   3.13442 255 255 255
-0.0311224  -0.899674    2.93888 255 255 255
0.261778 -0.99822  3.37013 255 255 255
-0.434663 -0.871674   2.74018 255 255 255
-0.201862 -0.758337     2.631 255 255 255
0.0773648 -0.894625   3.01614 255 255 255
-0.298026 -0.791199   2.64282 255 255 255
-0.0986427  -0.826415    2.74126 255 255 255
-0.382273 -0.979824   2.74171 255 255 255
 0.293856 -0.580883   2.59108 255 255 255
 0.583222 -0.654431   2.92071 255 255 255
-0.340167 -0.694268   2.55083 255 255 255
-0.324092 -0.955196   2.78993 255 255 255
-0.236242  -0.86016   2.64752 255 255 255
-0.201308 -0.742299   2.61528 255 255 255
-0.0822055  -0.711414    2.61946 255 255 255
-0.491614 -0.835132   2.69502 255 255 255
0.519003 -0.60898  2.81707 255 255 255
0.360553 -1.05377  3.53242 255 255 255
0.0825278 -0.658558   2.71775 255 255 255
 0.223215 -0.529999    2.4693 255 255 255
-0.380287  -0.73316   2.54234 255 255 255
 0.164855 -0.708866   2.74899 255 255 255
 -0.12704 -0.896216   2.86557 255 255 255
-0.0126462  -0.839443    2.86274 255 255 255
 0.241996 -0.547638   2.76168 255 255 255
-0.258523 -0.854192   2.66684 255 255 255
 0.525507 -0.559753   2.75043 255 255 255
0.449989 -0.53222  2.65781 255 255 255
0.0683817 -0.906774   3.01464 255 255 255
-0.293968  -0.80671   2.66435 255 255 255
-0.419881 -0.759805   2.61654 255 255 255
0.0624991 -0.954461   3.08644 255 255 255
-0.118789 -0.860018   2.82755 255 255 255
 0.152876 -0.983083   3.26048 255 255 255
-0.214745  -0.72568   2.58922 255 255 255
-0.233496 -0.684594   2.53713 255 255 255
-0.123772  -0.65491   2.55158 255 255 255
0.0408096 -0.687352   2.71665 255 255 255
0.307952 -0.52052  2.81439 255 255 255
 0.150923 -0.489241    2.4063 255 255 255
-0.180773 -0.823032   2.70316 255 255 255
 0.227235 -0.566942   2.52867 255 255 255
 0.265265 -0.490899   2.75049 255 255 255
0.291327 -0.55931  2.84318 255 255 255
-0.158421 -0.722752   2.60819 255 255 255
 0.225619 -0.540074   2.50423 255 255 255
 0.508962 -0.520621   2.69243 255 255 255
-0.0597915  -0.836993    2.82912 255 255 255
-0.283312 -0.802446   2.65724 255 255 255
 0.388757 -0.524567   2.59626 255 255 255
-0.210966 -0.731338   2.59797 255 255 255
-0.169966 -0.710554    2.5913 255 255 255
 0.301168 -0.522415   2.80799 255 255 255
 0.305934 -0.770843   2.94574 255 255 255
-0.267186 -0.708161   2.55659 255 255 255
0.0284654 -0.886259   2.97117 255 255 255
 0.192012 -0.855325   3.08855 255 255 255
-0.104862  -0.94797   2.99494 255 255 255
-0.343581 -0.705565   2.56292 255 255 255
-0.220092 -0.742862   2.60877 255 255 255
 -0.20809 -0.706118   2.57414 255 255 255
-0.184367 -0.656167   2.53251 255 255 255
 0.206229 -0.759041   2.88295 255 255 255
-0.351356  -0.80755    2.6469 255 255 255
0.0227251  -0.75243   2.73224 255 255 255
-0.129832 -0.716314   2.61023 255 255 255
0.0726318 -0.601493   2.63535 255 255 255
 0.115046 -0.844058   2.98788 255 255 255
-0.146121  -0.65932   2.55198 255 255 255
-0.32231 -0.94825  2.76769 255 255 255
-0.0327177  -0.801098    2.80122 255 255 255
-0.114473 -0.868196   2.86397 255 255 255
 0.493101 -0.612132   2.80706 255 255 255
 0.482377 -0.614085   2.80085 255 255 255
0.0685222 -0.530625   2.38694 255 255 255
-0.306093 -0.996581   2.97266 255 255 255
-0.149105 -0.704391   2.59205 255 255 255
-0.215571 -0.755222   2.62906 255 255 255
 0.275681 -0.755264     2.894 255 255 255
-0.432273 -0.857109   2.72244 255 255 255
-0.0738436  -0.876217    2.89616 255 255 255
-0.372042 -0.845144   2.69225 255 255 255
-0.0987144  -0.721591    2.62556 255 255 255
-0.136643 -0.742214   2.63547 255 255 255
-0.0606747  -0.897474    2.90011 255 255 255
 -0.48709 -0.912015   2.78299 255 255 255
-0.184309 -0.914548   2.73173 255 255 255
0.301569 -1.07783  3.51744 255 255 255
-0.145001 -0.980119   3.02073 255 255 255
-0.169509 -0.701482   2.58305 255 255 255
0.210937 -0.61999  2.83001 255 255 255
-0.178506  -0.74384   2.62368 255 255 255
 0.413727 -0.434151   2.87939 255 255 255
 0.256659 -0.815905   2.99671 255 255 255
0.0161213 -0.897393   2.97442 255 255 255
-0.209059 -0.726895    2.5913 255 255 255
 0.226274 -0.962137   3.29977 255 255 255
-0.315954 -0.945889   2.76899 255 255 255
 0.320556 -0.848229   3.11769 255 255 255
-0.0673842  -0.826426    2.81712 255 255 255
 0.228865 -0.573375   2.75891 255 255 255
-0.159132 -0.927416   2.92975 255 255 255
-0.553725 -0.852997   2.70066 255 255 255
-0.266002 -0.647865   2.48466 255 255 255
-0.138175 -0.737884   2.63269 255 255 255
-0.564348 -0.848496   2.70361 255 255 255
0.145889 -0.59273  2.68744 255 255 255
0.0889761 -0.996999   3.21334 255 255 255
-0.199961 -0.719828   2.58713 255 255 255
0.0227799 -0.797812   2.85222 255 255 255
-0.455032 -0.855992   2.72072 255 255 255
 0.143822 -0.562227   2.67138 255 255 255
 0.319317 -0.513128   2.80676 255 255 255
-0.215466 -0.720364   2.58658 255 255 255
 -0.20099 -0.696479     2.565 255 255 255
0.300465 -1.06601  3.49747 255 255 255
0.0152086 -0.961177   3.10097 255 255 255
-0.441991  -0.86592   2.73332 255 255 255
0.243801 -1.00175  3.36489 255 255 255
0.0442222 -0.868565   2.95274 255 255 255
-0.192682  -0.71609   2.58785 255 255 255
 0.530058 -0.604235   2.80882 255 255 255
 0.433222 -0.681478     2.876 255 255 255
-0.194003 -0.744217   2.61667 255 255 255
 0.140229 -0.559184   2.66178 255 255 255
0.0628903 -0.636284   2.67779 255 255 255
 -0.48444 -0.840287   2.70141 255 255 255
-0.107913 -0.899324   2.90139 255 255 255
-0.28502 -0.69834  2.53558 255 255 255
0.0623637 -0.876628   2.97917 255 255 255
-0.496855 -0.855614   2.71685 255 255 255
 0.374515 -0.452231   2.84917 255 255 255
-0.184064 -0.760859   2.64255 255 255 255
  0.24998 -0.524209   2.74556 255 255 255
 0.176171 -0.745264   2.81372 255 255 255
-0.425472 -0.772315   2.63163 255 255 255
 -0.23648 -0.749413   2.59336 255 255 255
 0.181946 -0.610499   2.77115 255 255 255
-0.101808 -0.792289   2.70676 255 255 255
 0.387079 -0.534268   2.60578 255 255 255
0.306148  -0.5142  2.80458 255 255 255
-0.117598 -0.809593   2.72276 255 255 255
-0.425335  -0.82163   2.68535 255 255 255
0.284142 -1.01218   3.4043 255 255 255
-0.094456 -0.687339     2.589 255 255 255
  0.22695 -0.675529    2.7552 255 255 255
-0.314517 -0.859809   2.70295 255 255 255
 0.135178 -0.950236   3.19397 255 255 255
-0.0292314  -0.995802    3.14924 255 255 255
-0.113947 -0.861093    2.8348 255 255 255
-0.384974  -1.01504   2.80727 255 255 255
 0.271792 -0.776159   2.94497 255 255 255
0.0367542 -0.985414   3.10761 255 255 255
-0.343861 -0.869052   2.71533 255 255 255
0.00882683  -0.947085    3.07544 255 255 255
 0.202486 -0.630837   2.83471 255 255 255
-0.0997852  -0.862179    2.85778 255 255 255
  0.30795 -0.946055   3.29514 255 255 255
-0.109322 -0.794579    2.7056 255 255 255
0.0182692 -0.936796    3.0273 255 255 255
 0.175045 -0.658886   2.67676 255 255 255
0.0965193 -0.849755    2.9764 255 255 255
 -0.53903 -0.969531    2.8449 255 255 255
-0.161557 -0.718867   2.60449 255 255 255
-0.234923 -0.727977   2.58317 255 255 255
-0.458442 -0.862373   2.72887 255 255 255
-0.168228 -0.931236   2.87866 255 255 255
-0.299561 -0.837743   2.69996 255 255 255
-0.369809 -0.705523    2.5669 255 255 255
-0.100337 -0.882232   2.88661 255 255 255
-0.0954853  -0.689106    2.60784 255 255 255
-0.0188505  -0.668105    2.63406 255 255 255
   0.3516 -0.845357   3.12067 255 255 255
-0.238629 -0.768665   2.63488 255 255 255
 0.161812 -0.994492   3.26913 255 255 255
0.0891717 -0.856019   2.97504 255 255 255
-0.244469 -0.723717    2.5755 255 255 255
-0.237537 -0.893645   2.65759 255 255 255
  0.36622 -0.458644   2.84215 255 255 255
-0.0259099  -0.785443    2.78095 255 255 255
   0.0134 -0.737123   2.76071 255 255 255
-0.160999 -0.749043   2.63933 255 255 255
  0.30185 -0.553402   2.84751 255 255 255
-0.213549 -0.709747   2.57639 255 255 255
-0.118068 -0.782327   2.68751 255 255 255
 0.141323 -0.583929   2.67807 255 255 255
 0.178517 -0.947756   3.23042 255 255 255
0.0883453  -1.02312   3.25606 255 255 255
0.0139037 -0.970461   3.06413 255 255 255
0.281382 -1.04908  3.45261 255 255 255
 0.268926 -0.802907   2.97849 255 255 255
 0.041574 -0.920246   3.01571 255 255 255
0.0525915 -0.961238   3.07749 255 255 255
-0.0596602  -0.969962     3.0864 255 255 255
 0.243855 -0.557773   2.76425 255 255 255
-0.148918 -0.835946   2.71983 255 255 255
-0.375945 -0.718654   2.57382 255 255 255
-0.0746718  -0.683134    2.60576 255 255 255
-0.00538697   -0.714647     2.68127 255 255 255
 0.294165 -0.520944   2.80296 255 255 255
-0.115832 -0.786568   2.68252 255 255 255
 0.189558 -0.605299   2.77314 255 255 255
 0.268922 -0.797478   2.96463 255 255 255
 -0.31511 -0.855274   2.69177 255 255 255
 0.342679 -0.481873   2.81782 255 255 255
0.0187618  -0.72266   2.74452 255 255 255
-0.175489 -0.739494   2.62018 255 255 255
-0.152316 -0.945657   2.90544 255 255 255
-0.129971 -0.923995   2.92589 255 255 255
-0.0325856  -0.788846    2.77407 255 255 255
-0.110055 -0.710759   2.61456 255 255 255
-0.252155 -0.781847   2.64501 255 255 255
-0.109626 -0.939655   2.92805 255 255 255
-0.0904003  -0.868883    2.85127 255 255 255
 0.285086 -0.517168   2.79352 255 255 255
-0.0918372  -0.864534    2.84609 255 255 255
  0.20786 -0.512645   2.70555 255 255 255
-0.204701 -0.740441   2.60695 255 255 255
0.0254213 -0.639981   2.63064 255 255 255
-0.233237 -0.738445   2.59803 255 255 255
-0.191724 -0.751607   2.63159 255 255 255
 0.216523 -0.612719   2.82506 255 255 255
-0.212595 -0.735723   2.59502 255 255 255
0.0654565 -0.676199   2.73416 255 255 255
-0.0660572  -0.683426    2.61663 255 255 255
 0.312481 -0.851021   3.11518 255 255 255
-0.188288 -0.768455   2.64259 255 255 255
-0.209189 -0.721086   2.58445 255 255 255
-0.0827184  -0.683947    2.60244 255 255 255
-0.232013 -0.891475   2.67472 255 255 255
-0.268672 -0.784017   2.63998 255 255 255
-0.0322918  -0.954784    3.01747 255 255 255
-0.166002 -0.703753   2.58611 255 255 255
-0.236359 -0.889062   2.65764 255 255 255
0.0414618 -0.864109   2.95007 255 255 255
-0.0889356   -0.67637    2.59682 255 255 255
0.204015 -0.60611  2.60212 255 255 255
0.0255606    -0.746   2.78199 255 255 255
-0.442691 -0.748712   2.59689 255 255 255
-0.146759 -0.907423   2.86295 255 255 255
-0.261836 -0.780486   2.63847 255 255 255
0.0671853 -0.862314   2.96984 255 255 255
-0.152863 -0.737248   2.62607 255 255 255
-0.0277564  -0.807175    2.81747 255 255 255
 0.456858 -0.455406   2.96963 255 255 255
-0.108777 -0.856321   2.82768 255 255 255
-0.281651 -0.814567   2.66897 255 255 255
 0.406928 -0.451625   2.88349 255 255 255
 0.103233 -0.849669   2.98245 255 255 255
-0.275331 -0.798163   2.65759 255 255 255
-0.0474485  -0.901394    2.92683 255 255 255
-0.0736922  -0.823388     2.8073 255 255 255
-0.252938 -0.850392   2.67744 255 255 255
-0.254123 -0.873191   2.64819 255 255 255
-0.137302 -0.890994   2.84975 255 255 255
0.272071 -1.09088  3.49995 255 255 255
0.0026572 -0.845157   2.88282 255 255 255
-0.391566 -0.973494   2.73606 255 255 255
0.336758 -0.96014   3.3742 255 255 255
-0.0979843  -0.901795      2.878 255 255 255
-0.0889113  -0.688927    2.60843 255 255 255
0.0122655  -0.76217   2.78179 255 255 255
 0.172964 -0.735579   2.91825 255 255 255
0.165729 -0.69906  2.86697 255 255 255
0.0782991 -0.875621   2.99837 255 255 255
-0.0158233  -0.826286    2.84937 255 255 255
-0.262062 -0.776785   2.63026 255 255 255
   -0.393 -0.881884   2.72799 255 255 255
0.321294 -1.05217  3.48461 255 255 255
-0.222243 -0.761088   2.62863 255 255 255
-0.068307 -0.680775   2.60894 255 255 255
-0.179242 -0.704128   2.58265 255 255 255
 0.361217 -0.495295   2.87477 255 255 255
-0.205338 -0.747713   2.61722 255 255 255
 -0.14545 -0.832469   2.71649 255 255 255
0.0208014 -0.993112   3.11497 255 255 255
-0.285292 -0.819056   2.67714 255 255 255
-0.190047 -0.732309   2.60403 255 255 255
0.00426132  -0.939619    3.02087 255 255 255
0.0123687 -0.778769   2.80543 255 255 255
-0.128628 -0.854359   2.75355 255 255 255
 -0.10439 -0.731526   2.64288 255 255 255
-0.375348 -0.935284   2.71884 255 255 255
-0.182562 -0.735722   2.61231 255 255 255
-0.122679 -0.957429   3.00486 255 255 255
 0.141289 -0.594663   2.68594 255 255 255
-0.0796723  -0.881586    2.86339 255 255 255
0.0634929 -0.910794   3.01733 255 255 255
0.291195 -0.98749  3.38808 255 255 255
-0.164044 -0.743757   2.62692 255 255 255
  0.35392 -0.458073   2.82778 255 255 255
-0.464457 -0.889276   2.75994 255 255 255
-0.106736 -0.879132   2.85309 255 255 255
-0.138644 -0.722668   2.61477 255 255 255
-0.272854  -0.71597   2.55614 255 255 255
 -0.17574 -0.705626   2.58284 255 255 255
-0.136627 -0.657341   2.55853 255 255 255
 0.312437 -0.975648   3.37501 255 255 255
0.334627 -1.09754  3.56504 255 255 255
0.0691854 -0.752022    2.8076 255 255 255
0.0522341  0.561022   1.67745 255 255 255
 -0.12957 0.0894619   1.92477 255 255 255
-0.0720587   0.464528    1.74758 255 255 255
-0.213234   0.32523   1.86857 255 255 255
0.0581934  0.491596   1.74477 255 255 255
-0.0310505   0.303068    1.84835 255 255 255
-0.313443  0.154174   1.94996 255 255 255
-0.0107295   0.239644    1.84845 255 255 255
-0.29267 0.659646  1.71402 255 255 255
-0.546258  0.504643   1.86277 255 255 255
-0.0207271   0.481618    1.77209 255 255 255
-0.252133  0.430796   1.81496 255 255 255
-0.0791124  0.0852661    1.91249 255 255 255
-0.229442 0.0820986   1.96501 255 255 255
-0.32187  0.22744   1.9259 255 255 255
-0.102169  0.265027   1.87369 255 255 255
0.0403592  0.456524   1.73837 255 255 255
0.0105947  0.463247    1.7843 255 255 255
  -0.183638 -0.00456442     1.97899 255 255 255
-0.227669 0.0382557   1.97106 255 255 255
-0.238487   0.16238    1.9431 255 255 255
-0.0384377   0.259523    1.86079 255 255 255
-0.273638  0.528116   1.79948 255 255 255
-0.000508748     0.280308      1.84243 255 255 255
 -0.2269 0.197797  1.94871 255 255 255
0.0432291  0.711896    1.6181 255 255 255
-0.521573  0.482778   1.88367 255 255 255
0.0971403  0.491687   1.73187 255 255 255
-0.0284647    0.68147    1.65242 255 255 255
-0.0265954   0.230692    1.86346 255 255 255
-0.0738458   0.204521    1.86759 255 255 255
-0.200005  0.188898   1.93253 255 255 255
-0.0836188  0.0466947    1.93604 255 255 255
-0.0664792   0.767839    1.61658 255 255 255
0.0667618  0.520122   1.74881 255 255 255
-0.221077  0.256603   1.90342 255 255 255
0.122516 0.552852  1.71785 255 255 255
0.161716 0.393726  1.71691 255 255 255
-0.0838222   0.295898    1.86291 255 255 255
0.0156423  0.692394   1.63065 255 255 255
-0.270644  0.173435   1.96299 255 255 255
  -0.153066 -0.00584161     1.95703 255 255 255
-0.162681  0.279099   1.89201 255 255 255
-0.0642247   0.277639    1.85522 255 255 255
0.15708 0.48665 1.71673 255 255 255
0.157413 0.563469  1.71228 255 255 255
-0.625926  0.661298   1.80675 255 255 255
0.206507 0.502318  1.69966 255 255 255
-0.526451   0.33505   1.97758 255 255 255
-0.156296  0.113503   1.93686 255 255 255
-0.28121 0.309391  1.89722 255 255 255
-0.480558  0.202731    2.0311 255 255 255
0.178069 0.552163  1.70441 255 255 255
0.131159 0.402194  1.71533 255 255 255
-0.177051 0.0678993   1.94725 255 255 255
-0.594738  0.376995   1.96909 255 255 255
0.0829331  0.414022   1.77198 255 255 255
0.216319 0.410227  1.70135 255 255 255
-0.095843  0.282637   1.85748 255 255 255
-0.171422  0.360674   1.85181 255 255 255
-0.519531  0.364199   1.95359 255 255 255
-0.553012  0.492652   1.86381 255 255 255
-0.270173  0.289038   1.92106 255 255 255
-0.235045  0.645361   1.75445 255 255 255
-0.150561   0.37457   1.84469 255 255 255
-0.132489  0.385184   1.83967 255 255 255
-0.466614  0.718659   1.72898 255 255 255
-0.265215  0.198489   1.95022 255 255 255
0.153398 0.535557  1.72056 255 255 255
-0.131325  0.688923   1.70466 255 255 255
-0.301619  0.301376   1.91428 255 255 255
-0.130451  0.113349     1.927 255 255 255
-0.0186186   0.777102    1.57964 255 255 255
-0.25471 0.638674  1.75793 255 255 255
-0.63324 0.445335  1.93973 255 255 255
-0.277529   0.55342   1.77591 255 255 255
-0.586738  0.202809   2.15258 255 255 255
-0.533015  0.466857   1.88044 255 255 255
0.068115 0.427858  1.77982 255 255 255
-0.442329  0.379131    1.9235 255 255 255
0.0672077  0.411761   1.77149 255 255 255
0.144556 0.487869  1.73284 255 255 255
-0.0292201   0.646981    1.66144 255 255 255
-0.183208  0.126261   1.94266 255 255 255
-0.546609  0.186301   2.13602 255 255 255
0.159538 0.355395   1.7878 255 255 255
-0.613612  0.638235   1.81446 255 255 255
-0.356993  0.524377   1.82618 255 255 255
-0.65402 0.594058  1.85524 255 255 255
-0.0494294   0.252706    1.86672 255 255 255
-0.314692  0.314548   1.90643 255 255 255
-0.0664466   0.288943    1.85491 255 255 255
-0.151037  0.298098   1.86943 255 255 255
-0.623509  0.296399   1.98189 255 255 255
-0.302349  0.109433   1.98726 255 255 255
-0.128168  0.236954   1.88646 255 255 255
0.294658  0.55297  1.68008 255 255 255
0.050677 0.419342  1.77745 255 255 255
-0.452517   0.43114   1.88651 255 255 255
-0.142735  0.225904   1.89776 255 255 255
-0.35135 0.536658  1.82616 255 255 255
-0.181233  0.370671   1.84925 255 255 255
-0.0857469   0.262418    1.86637 255 255 255
-0.111127   0.11957    1.9176 255 255 255
0.0478177  0.504649   1.75127 255 255 255
0.088365 0.520497  1.73997 255 255 255
-0.22254 0.170072  1.93423 255 255 255
-0.0048432    0.31085    1.82298 255 255 255
-0.233952  0.110243   1.96899 255 255 255
 -0.30291 0.0884998   1.99282 255 255 255
-0.0768912   0.286248    1.85495 255 255 255
-0.10775 0.308799  1.85865 255 255 255
0.188439 0.512274  1.72364 255 255 255
-0.0342269   0.286293     1.8475 255 255 255
0.224908 0.731474  1.58476 255 255 255
0.190925 0.537182  1.72793 255 255 255
0.00840707   0.223493    1.85812 255 255 255
-0.120825  0.228143   1.89382 255 255 255
-0.0400891  0.0830034     1.9128 255 255 255
0.131946 0.534716  1.70379 255 255 255
-0.0603146   0.814823    1.62595 255 255 255
-0.248024  0.643671   1.75162 255 255 255
-0.0559741   0.277382    1.85513 255 255 255
-0.187446  0.105758   1.93867 255 255 255
-0.539277  0.348389   1.96253 255 255 255
-0.118551  0.687597   1.70705 255 255 255
0.026123  0.48779  1.77093 255 255 255
-0.638178  0.565086   1.86258 255 255 255
-0.0310179   0.277979    1.85229 255 255 255
-0.461826  0.453049   1.88117 255 255 255
-0.356489  0.584035   1.81135 255 255 255
-0.0187611   0.271293    1.85329 255 255 255
0.111247 0.451959  1.74071 255 255 255
  -0.2527 0.0447575   1.97766 255 255 255
0.0156558 0.0878687   1.88218 255 255 255
-0.0983464   0.289879    1.86654 255 255 255
-0.427844  0.130416   2.04141 255 255 255
0.093189 0.435861  1.75775 255 255 255
-0.172967  0.261087   1.90366 255 255 255
-0.170563  0.204932   1.91062 255 255 255
-0.141925  0.213899    1.9018 255 255 255
-0.0725965   0.128719    1.89664 255 255 255
-0.107541  0.239579   1.88481 255 255 255
0.102637 0.443006  1.76322 255 255 255
-0.0549825 -0.0400746    1.94468 255 255 255
-0.00366754    0.195041     1.86452 255 255 255
-0.0769921 -0.0443919    1.95261 255 255 255
-0.12489 0.297171  1.87698 255 255 255
0.170958 0.523807  1.72066 255 255 255
-0.106331  0.211536   1.89442 255 255 255
0.0173449  0.448895   1.72814 255 255 255
0.00751187   0.306315    1.83289 255 255 255
-0.161725   0.20147   1.91561 255 255 255
 -0.173456 -0.0639712    1.98253 255 255 255
-0.278504 0.0180256   1.98692 255 255 255
-0.563012  0.586507   1.82667 255 255 255
0.116491 0.522726  1.71151 255 255 255
-0.122588  0.113874   1.92131 255 255 255
