ply
format ascii 1.0
element vertex 1141
property float x
property float y
property float z
property uchar red
property uchar green
property uchar blue
end_header
   2.80166    4.14558 -0.0166528 255 255 255
  3.35007   3.73971 0.0301991 255 255 255
 2.62785   4.5607 0.224763 255 255 255
  2.61232   4.30482 0.0684281 255 255 255
  2.93465   3.77611 -0.055705 255 255 255
   2.6701   3.79245 -0.248092 255 255 255
 2.77093  4.64233 0.269892 255 255 255
  2.57602   3.77856 -0.295005 255 255 255
   2.5542   3.96378 -0.131068 255 255 255
   2.82785    4.21446 -0.0739326 255 255 255
 3.27009  4.05021 0.161071 255 255 255
    2.75729     4.37281 -0.00347564 255 255 255
  2.72573   4.44124 0.0105877 255 255 255
  2.5876  4.69608 0.267973 255 255 255
  3.24236   3.69344 0.0253749 255 255 255
  2.80348   3.86982 -0.179266 255 255 255
   2.78691    4.09439 -0.0172168 255 255 255
 3.55299  3.81306 0.189126 255 255 255
  2.38591   4.38048 0.0290408 255 255 255
 3.49561  3.83942 0.187055 255 255 255
   2.79747    4.11527 -0.0370533 255 255 255
   2.74243    3.81244 -0.0946211 255 255 255
  3.26705   3.89119 0.0897834 255 255 255
   2.84694    4.35498 -0.0139103 255 255 255
2.53556 4.60466 0.18252 255 255 255
   2.78063    4.15452 -0.0284947 255 255 255
  2.72494   3.82519 -0.144737 255 255 255
  2.86923     4.176 -0.118142 255 255 255
   2.89517    4.06141 -0.0261309 255 255 255
   2.89619    4.27262 -0.0477015 255 255 255
  2.77844    3.6767 -0.159291 255 255 255
 2.75981   4.1653 0.039464 255 255 255
  3.11106   3.92249 0.0398853 255 255 255
  3.11116   3.92221 0.0416825 255 255 255
 2.64609  4.45651 0.179915 255 255 255
   2.79762    3.96963 -0.0282525 255 255 255
  2.56567   3.98015 -0.154609 255 255 255
   2.44801    4.31597 -0.0454412 255 255 255
  3.0756  4.13849 0.102567 255 255 255
2.59913 4.51344 0.18787 255 255 255
  2.68314   4.47778 0.0714675 255 255 255
    2.5276    4.26867 -0.0334237 255 255 255
 2.62313  4.48808 0.178792 255 255 255
  2.38449   4.07206 -0.105856 255 255 255
  3.4028   3.8084 0.114368 255 255 255
  3.17922    3.9322 0.0463204 255 255 255
  2.86454    4.3985 0.0287169 255 255 255
  2.35663   3.95793 -0.270657 255 255 255
  2.58604   4.00131 -0.147208 255 255 255
 2.55125  4.62513 0.205584 255 255 255
2.65978 4.66914 0.24826 255 255 255
  2.97521   4.05745 0.0265734 255 255 255
  2.57785   4.09579 -0.140107 255 255 255
  3.30831    3.5527 0.0618394 255 255 255
  3.32919   3.79835 0.0773876 255 255 255
    3.16732     3.69756 0.000236621 255 255 255
  2.85887   4.02762 -0.063452 255 255 255
  2.70531   4.45622 0.0191466 255 255 255
  3.26704   3.76963 0.0498709 255 255 255
  2.53802   3.96032 -0.155189 255 255 255
 3.45057  3.92502 0.200343 255 255 255
  2.59876   4.36349 0.0923015 255 255 255
 3.24275  3.85661 0.068808 255 255 255
  3.29974   3.59536 0.0568786 255 255 255
    3.00479     3.75921 2.66908e-05 255 255 255
3.36595 3.98135 0.17547 255 255 255
  3.21387   3.82412 0.0488785 255 255 255
3.21275 4.01276 0.11952 255 255 255
   2.94773    3.81176 -0.0127327 255 255 255
 3.31272  4.03076 0.167205 255 255 255
 3.22151  4.16904 0.184502 255 255 255
  2.91496   4.40424 0.0303511 255 255 255
  3.20301   3.79648 0.0438642 255 255 255
  3.31188   3.64441 0.0232938 255 255 255
  3.07487   3.79979 0.0366351 255 255 255
  3.34626   3.58641 0.0775382 255 255 255
  2.58727    3.9531 -0.148714 255 255 255
   2.83374    4.02379 -0.0485261 255 255 255
  2.76667   3.79758 -0.096989 255 255 255
   2.97491    3.69487 -0.0231335 255 255 255
  2.55147    3.8751 -0.244586 255 255 255
  2.97966   3.34632 -0.393479 255 255 255
  3.06271   3.75899 0.0009267 255 255 255
   3.1013   4.07466 0.0589273 255 255 255
   2.90921    4.25687 -0.0601954 255 255 255
   3.07942    3.60897 -0.0596149 255 255 255
  3.26628   3.69628 0.0387336 255 255 255
  3.18464   3.80564 0.0290752 255 255 255
  3.18916   3.80692 0.0443429 255 255 255
  2.88387   4.40358 0.0317435 255 255 255
    2.56356     4.25887 -0.00487538 255 255 255
   2.45973    4.34323 -0.0578455 255 255 255
   3.02304    3.64509 -0.0495198 255 255 255
  2.94886   3.57593 -0.133777 255 255 255
  3.20877   3.72214 0.0368839 255 255 255
  3.33734   3.57506 0.0747783 255 255 255
 3.17652  4.15765 0.181705 255 255 255
  2.73791   3.61517 -0.221092 255 255 255
   2.81783    4.14876 -0.0427375 255 255 255
   2.43807    4.32798 -0.0992274 255 255 255
  3.12846   4.02901 0.0779577 255 255 255
  2.90461   4.38394 0.0123478 255 255 255
  3.28987   3.56434 0.0587919 255 255 255
 3.09748  3.72329 0.014161 255 255 255
  2.54178   3.91456 -0.208021 255 255 255
   2.84827    4.01733 -0.0416067 255 255 255
   2.5836    3.9369 -0.165588 255 255 255
   2.82011     4.1721 -0.0517877 255 255 255
3.29976  3.9568 0.11305 255 255 255
  2.59665   4.03591 -0.153473 255 255 255
 3.41982  3.97364 0.212928 255 255 255
  2.82532   3.61214 -0.087004 255 255 255
  2.52045   3.93806 -0.185301 255 255 255
 3.47385  3.77873 0.144433 255 255 255
   2.6121   4.37997 0.0959622 255 255 255
  3.22451   3.99376 0.0981486 255 255 255
   2.83185    4.14017 -0.0792987 255 255 255
   2.90328    4.23167 -0.0701927 255 255 255
 3.39724  3.94063 0.161511 255 255 255
    2.89485     4.09935 -0.00205289 255 255 255
   2.96948     4.1571 -0.0733061 255 255 255
   2.91543    3.79644 -0.0491818 255 255 255
    2.75958     4.30476 -0.00893763 255 255 255
 2.60751  4.54752 0.201855 255 255 255
  3.12196   4.05595 0.0974892 255 255 255
   2.84847    3.94816 -0.0703318 255 255 255
   2.77448    4.13389 0.00503755 255 255 255
   2.76995    4.28273 -0.0151771 255 255 255
  2.45454   3.86854 -0.237644 255 255 255
 3.52889  3.84388 0.196805 255 255 255
   2.82149    4.10146 -0.0413098 255 255 255
  2.74174   4.30272 0.0933733 255 255 255
   2.81729    4.02794 -0.0368941 255 255 255
  2.57217   3.81103 -0.310833 255 255 255
   2.98307    3.66489 -0.0642994 255 255 255
  3.03148     4.123 0.0371506 255 255 255
 3.26626  3.58554 0.044088 255 255 255
   2.80061    4.06679 -0.0243801 255 255 255
 3.05426  3.46917 -0.11133 255 255 255
  3.06866   4.06747 0.0780149 255 255 255
   2.85914     4.1681 -0.0687504 255 255 255
    2.73467     4.35536 -0.00218368 255 255 255
 3.05862  3.88986 0.071795 255 255 255
   2.89126    4.21502 -0.0826797 255 255 255
 2.65638  4.73419 0.294696 255 255 255
  3.21201   3.90129 0.0600173 255 255 255
  2.57235   3.99498 -0.135475 255 255 255
  2.71809   4.39366 0.0163225 255 255 255
    2.76828     4.08011 -0.00314146 255 255 255
   2.84935    4.13714 -0.0947365 255 255 255
   2.84961    4.14208 -0.0747138 255 255 255
   3.2322   3.92163 0.0714133 255 255 255
   2.88557    3.87378 -0.0519827 255 255 255
  2.55508   4.36436 0.0901128 255 255 255
  3.34978   3.72271 0.0814548 255 255 255
  2.42801   3.84119 -0.279689 255 255 255
 3.41732  3.80457 0.132647 255 255 255
 2.86527   3.5043 -0.20584 255 255 255
    2.89606     4.08676 -0.00615698 255 255 255
    2.66951     4.32975 -0.00472791 255 255 255
 2.69114  4.34737 0.128302 255 255 255
  3.25629   3.58374 0.0553517 255 255 255
 2.56521  4.43125 0.125403 255 255 255
  3.20819   3.91264 0.0747645 255 255 255
  2.46268   4.01567 -0.210978 255 255 255
  3.14138   4.19463 0.0943854 255 255 255
    2.98481     4.02597 -0.00543806 255 255 255
 3.47527  3.80944 0.154838 255 255 255
 2.53017  4.66904 0.226848 255 255 255
  3.33732   3.57213 -0.416536 255 255 255
   2.78388    4.03815 -0.0169009 255 255 255
  2.89767   3.53906 -0.251772 255 255 255
  3.1038   4.1641 0.124184 255 255 255
  3.08477   3.62175 -0.103148 255 255 255
 2.53153  4.62567 0.166488 255 255 255
  2.61904   3.88357 -0.222257 255 255 255
  3.08139   3.93277 0.0783539 255 255 255
  2.65187   3.88664 -0.206908 255 255 255
   2.81449     4.1133 -0.0471468 255 255 255
 2.52073  4.70277 0.241025 255 255 255
  2.92728   3.58404 -0.194227 255 255 255
   2.74105    4.10905 -0.0367194 255 255 255
  2.34721   4.10316 -0.247635 255 255 255
   2.91228    4.16007 -0.0508822 255 255 255
   2.91236    4.30815 -0.0406991 255 255 255
  3.02569   4.26541 0.0103511 255 255 255
   2.79919    4.15799 -0.0168673 255 255 255
   2.83331    4.10056 -0.0423462 255 255 255
  2.68717   4.29205 0.0138875 255 255 255
 2.39583  4.02802 -0.25497 255 255 255
 2.57934  4.52271 0.160497 255 255 255
 3.46911  3.88429 0.179307 255 255 255
 2.49268  4.50903 0.103466 255 255 255
 2.64689  4.71294 0.277352 255 255 255
  2.72548     4.218 0.0202771 255 255 255
  3.05525   3.96136 0.0531736 255 255 255
  2.36501   4.17469 -0.199759 255 255 255
  3.28455   3.83499 0.0690716 255 255 255
   2.71555    3.86554 -0.0998534 255 255 255
  2.91344   3.52569 -0.227412 255 255 255
  3.06808   3.86575 0.0464166 255 255 255
   2.99543    3.69921 -0.0494586 255 255 255
  2.7278  4.31496 0.113885 255 255 255
 2.88162  3.85568 -0.11092 255 255 255
 2.50509   4.6741 0.212618 255 255 255
    2.577   3.79455 -0.306034 255 255 255
 2.61219   4.4285 0.150124 255 255 255
  3.19333   3.52479 0.0222842 255 255 255
   2.93098    4.23807 -0.0533794 255 255 255
  2.52913   3.86411 -0.258483 255 255 255
  3.31107    3.7535 0.0549502 255 255 255
    2.99745     3.73309 -0.00880513 255 255 255
   2.89999    4.31265 -0.0273648 255 255 255
  2.71433   3.78777 -0.204381 255 255 255
 3.41708  3.99815 0.190871 255 255 255
  2.84293   4.22468 -0.093569 255 255 255
3.42688 3.68203 0.11086 255 255 255
  3.09611   3.88869 0.0795019 255 255 255
    2.8839    4.07231 -0.0360816 255 255 255
   2.94677    3.69854 -0.0748984 255 255 255
  3.01251   3.91003 0.0622183 255 255 255
 3.31347  3.76586 0.071795 255 255 255
 2.54281  4.55602 0.152954 255 255 255
  3.16652   3.86761 0.0359321 255 255 255
  2.55631   3.86021 -0.256843 255 255 255
   2.72214    4.36036 0.00266321 255 255 255
  3.04834   3.42039 -0.143126 255 255 255
 3.34837  3.85822 0.115725 255 255 255
   2.55631    4.26477 -0.0386907 255 255 255
    2.97371     3.81629 -0.00325536 255 255 255
 3.43651  3.82111 0.147856 255 255 255
2.59656 4.41122 0.10422 255 255 255
 2.65566  4.43788 0.167255 255 255 255
  3.37255   3.64324 0.0736609 255 255 255
   3.20102    3.70756 0.00810257 255 255 255
  2.55811   3.83755 -0.273636 255 255 255
  2.69823   3.86502 -0.182455 255 255 255
  3.09278   3.98197 0.0409134 255 255 255
   3.24587    3.65461 0.00736843 255 255 255
   3.2572   3.65187 0.0443459 255 255 255
  2.34459   4.11145 -0.247572 255 255 255
 2.73459  3.95395 -0.19489 255 255 255
 2.45916  4.49817 0.110497 255 255 255
2.58522 4.80433 0.29841 255 255 255
  3.10669   3.82618 0.0633271 255 255 255
  2.90344   3.60116 -0.132871 255 255 255
   2.84706    4.27424 -0.0672658 255 255 255
 2.48434   3.8163 -0.29949 255 255 255
 2.57703  4.77007 0.308097 255 255 255
   2.56012    4.22445 -0.0367405 255 255 255
2.68183  4.4007 0.11123 255 255 255
  2.35295   4.04038 -0.235292 255 255 255
   3.2799   3.55355 0.0581343 255 255 255
 3.12714  4.09709 0.124685 255 255 255
  2.72225    3.9767 -0.170262 255 255 255
   2.5051    4.3872 0.0774047 255 255 255
 3.38136   3.9185 0.148204 255 255 255
 3.10084  4.26036 0.197753 255 255 255
 2.53274  4.44196 0.114878 255 255 255
     2.7848     4.01679 -0.00789904 255 255 255
3.45124 3.62737 0.10047 255 255 255
    2.9391    3.73241 -0.0574364 255 255 255
  3.09927   3.63105 -0.106354 255 255 255
   2.77286    4.04208 -0.0154398 255 255 255
  3.03318   3.73721 0.0130684 255 255 255
   2.54596    4.25583 -0.0459108 255 255 255
   3.17036    3.53767 -0.0210505 255 255 255
   2.79278    4.08791 -0.0126435 255 255 255
 3.24313  4.03582 0.139025 255 255 255
   2.75025    4.30391 0.00704549 255 255 255
   2.41779    4.30474 -0.0729512 255 255 255
  3.17541   3.89216 0.0476901 255 255 255
   2.92278    4.26352 -0.0655509 255 255 255
   2.96592    3.80279 -0.0138162 255 255 255
   2.97764    3.66943 -0.0206238 255 255 255
  2.76105   3.97556 -0.165148 255 255 255
   3.05018    3.72673 0.00222601 255 255 255
 2.52747  4.61499 0.172621 255 255 255
   2.94793    3.79591 -0.0374986 255 255 255
  2.61233   4.28282 0.0693255 255 255 255
    2.37484     4.33701 -0.00570747 255 255 255
  2.35846   4.00179 -0.218917 255 255 255
 2.79377  3.88536 -0.18479 255 255 255
  2.32871   4.08671 -0.254611 255 255 255
  2.48043   4.43758 0.0928976 255 255 255
  2.67967   3.80124 -0.216698 255 255 255
   3.01838    3.69797 -0.0255244 255 255 255
    2.9971    4.12853 -0.0753764 255 255 255
  2.93139   3.48833 -0.235619 255 255 255
  2.95364   3.55925 -0.205861 255 255 255
 2.51636  4.68015 0.239131 255 255 255
   2.94176     4.1715 -0.0274749 255 255 255
   2.92276    4.02822 -0.0387631 255 255 255
 3.23104  4.17442 0.179339 255 255 255
    2.6065    4.23179 -0.0199564 255 255 255
 2.66149  4.67911 0.246441 255 255 255
   2.98117    3.68815 -0.0587135 255 255 255
  3.23321   3.97286 0.0985169 255 255 255
 2.60528  4.78546 0.312971 255 255 255
  2.36749   4.01979 -0.263955 255 255 255
  3.10796   3.93807 0.0360017 255 255 255
  3.04987   3.73729 0.0213906 255 255 255
 2.40602  4.16082 -0.16805 255 255 255
 2.57297  4.80522 0.292398 255 255 255
  2.59634   3.93614 -0.174672 255 255 255
  3.11078   3.85781 0.0699624 255 255 255
  2.76738   4.47173 0.0154527 255 255 255
  3.04042   3.41079 -0.153314 255 255 255
  3.07186   3.63122 -0.106215 255 255 255
 3.43861  3.92999 0.182774 255 255 255
  2.30742   4.01031 -0.298558 255 255 255
   2.90685    4.29143 -0.0366499 255 255 255
 3.39236  4.01796 0.189715 255 255 255
  2.53181   4.38972 0.0864037 255 255 255
  2.65945   4.05318 -0.197965 255 255 255
   2.92989    4.17399 -0.0278549 255 255 255
 2.48574   4.5606 0.163161 255 255 255
  3.20805   3.87202 0.0574447 255 255 255
  2.33571   4.01679 -0.287024 255 255 255
  2.59942   3.88778 -0.224561 255 255 255
   3.00109    3.65456 -0.0553683 255 255 255
  2.97053   3.38934 -0.138753 255 255 255
   2.87144    4.08481 -0.0385964 255 255 255
 2.61204  4.64378 0.254592 255 255 255
  3.31368   3.81787 0.0795751 255 255 255
 2.60037  4.51862 0.184874 255 255 255
 2.69194  4.39676 0.116783 255 255 255
  2.99717   4.14192 -0.051424 255 255 255
  3.19739   3.80315 0.0269076 255 255 255
  3.09592   3.83882 0.0650844 255 255 255
  3.36756   3.76245 0.0757184 255 255 255
    3.0284    3.67137 -0.0424027 255 255 255
  2.54257   4.06131 -0.181783 255 255 255
  2.35342   3.95275 -0.254904 255 255 255
  3.0819  4.10026 0.117486 255 255 255
  2.35862   4.02978 -0.274494 255 255 255
 2.57285  3.96075 -0.13652 255 255 255
 2.52397  4.57984 0.187507 255 255 255
 2.58012   4.4245 0.131068 255 255 255
  2.96497   3.64485 -0.216655 255 255 255
  3.03466   4.03822 0.0323021 255 255 255
  3.24855   3.76141 0.0560987 255 255 255
  2.88479   4.38667 0.0148184 255 255 255
  3.35753   3.74881 0.0770421 255 255 255
   2.79071    3.99692 0.00335188 255 255 255
   2.74411    3.84338 -0.0925956 255 255 255
 2.51595  4.54156 0.155834 255 255 255
  2.92937   3.48027 -0.239344 255 255 255
   2.53726    4.22807 -0.0354971 255 255 255
 2.38953  3.89939 -0.26789 255 255 255
2.63289 4.60042 0.23377 255 255 255
   2.80191    4.00182 -0.0282332 255 255 255
   3.00647    4.15289 -0.0579916 255 255 255
 2.62219  4.61516 0.238377 255 255 255
 2.84063  4.52445 0.262065 255 255 255
  3.35669   3.78028 0.0782844 255 255 255
  2.52153   3.80214 -0.325488 255 255 255
   2.75859    3.86474 -0.0590912 255 255 255
 2.5052 4.55102 0.15635 255 255 255
   2.84513    4.01942 -0.0634064 255 255 255
   2.93609     3.8654 0.00557472 255 255 255
   2.93537    3.86439 0.00247082 255 255 255
   3.2784   3.48619 0.0693813 255 255 255
 3.60808  3.67689 0.093092 255 255 255
    2.7551    4.01945 -0.0254391 255 255 255
  2.52236   3.97679 -0.172649 255 255 255
  2.77932   3.59985 -0.188454 255 255 255
  2.56682   4.19637 -0.035029 255 255 255
   2.90572    4.33227 -0.0213285 255 255 255
  2.89621   4.32638 -0.029698 255 255 255
2.60814 4.77945 0.32207 255 255 255
  2.89352   3.58938 -0.156514 255 255 255
  3.37441   3.69526 0.0936792 255 255 255
  2.39579   4.17912 -0.171963 255 255 255
  2.49218   3.83624 -0.298262 255 255 255
  2.51981   4.40985 0.0899031 255 255 255
 2.49141   4.5378 0.136414 255 255 255
    3.20587     3.56713 -0.00822181 255 255 255
 2.82971  4.57666 0.270483 255 255 255
  3.27844   3.49704 0.0695109 255 255 255
   2.88108    3.92888 -0.0793422 255 255 255
 2.60406   4.6171 0.237204 255 255 255
  3.10317    3.8248 0.0625197 255 255 255
  2.4331  4.51241 0.108792 255 255 255
 2.50527  4.52986 0.144253 255 255 255
   2.9093   4.38187 0.0193472 255 255 255
  3.06822    3.9607 0.0693399 255 255 255
  2.67126   4.04929 -0.189496 255 255 255
  2.32972   4.09309 -0.231747 255 255 255
  3.32891   3.68592 0.0546059 255 255 255
  3.37503   3.78512 0.0921114 255 255 255
  2.39453   4.16815 -0.182576 255 255 255
  3.22066   3.88272 0.0653301 255 255 255
     3.0769     3.69609 5.23321e-05 255 255 255
   2.74137    4.05472 -0.0216597 255 255 255
  3.13055   3.77241 0.0395361 255 255 255
 2.84226  4.51397 0.262758 255 255 255
  3.18963   3.82243 0.0304957 255 255 255
  3.12518   3.73471 0.0244815 255 255 255
  3.25804   3.90357 0.0900961 255 255 255
   2.91342    4.27688 -0.0600381 255 255 255
 2.62118   4.4397 0.168169 255 255 255
  2.48106   4.10517 -0.169064 255 255 255
 2.70343  4.37623 0.149644 255 255 255
 2.91571  3.60989 -0.13179 255 255 255
  3.5431  3.79569 0.186804 255 255 255
 3.31122    3.904 0.110837 255 255 255
  2.35455   4.05539 -0.248686 255 255 255
 2.55213  4.42261 0.104091 255 255 255
   2.77881    4.08701 0.00567222 255 255 255
   2.95145    3.78531 -0.0244228 255 255 255
 3.55297  3.77413 0.198092 255 255 255
 3.41937  3.78955 0.121347 255 255 255
  2.75563   3.80645 -0.103412 255 255 255
  3.11602   3.79496 0.0574433 255 255 255
 3.65298  3.79727 0.274108 255 255 255
  2.95402   3.51188 -0.114228 255 255 255
 3.10023   4.2307 0.188097 255 255 255
   2.97065    3.68429 -0.0692492 255 255 255
 3.32928  3.87751 0.112632 255 255 255
 3.30257  3.98774 0.128035 255 255 255
 2.58635  4.79672 0.309833 255 255 255
   2.88183    4.19573 -0.0989957 255 255 255
 3.35814  3.89074 0.129478 255 255 255
    2.96271     3.81385 -0.00973832 255 255 255
  2.45128    4.0453 -0.200608 255 255 255
 2.51167  4.69631 0.243573 255 255 255
  2.65154   3.89631 -0.192733 255 255 255
  3.07794    4.0639 0.0658692 255 255 255
   3.1353   3.84841 0.0582644 255 255 255
 3.34414  3.94193 0.136281 255 255 255
 3.22099  3.72806 0.048578 255 255 255
 2.53647  4.49618 0.154942 255 255 255
  2.45049   4.04592 -0.197576 255 255 255
  2.52493   4.41476 0.0842345 255 255 255
 3.34427  3.87494 0.114454 255 255 255
  2.57978   4.35667 0.0925085 255 255 255
   2.90246    4.06751 -0.0143834 255 255 255
  2.57863   4.35901 0.0971683 255 255 255
  3.18575   3.85208 0.0355736 255 255 255
 3.16189  4.16183 0.174204 255 255 255
 3.46499  3.69044 0.109161 255 255 255
    2.76731     4.10828 -0.00957566 255 255 255
  2.75546   4.25904 0.0991884 255 255 255
 3.17894  4.02741 0.108122 255 255 255
  2.91755   3.51883 -0.229166 255 255 255
 3.25728  4.07281 0.167053 255 255 255
 3.32981  4.03405 0.169289 255 255 255
  3.3858   3.8916 0.146691 255 255 255
  2.70785   3.62281 -0.236812 255 255 255
  3.14425   3.88747 0.0409223 255 255 255
  3.11407   3.77598 0.0526693 255 255 255
  3.11494   3.77634 0.0566167 255 255 255
  3.1819  3.77959 0.055338 255 255 255
 3.24137  4.04767 0.138727 255 255 255
 3.45239   3.7315 0.140706 255 255 255
   2.4049   4.02794 -0.122564 255 255 255
   2.75976    4.11191 -0.0140594 255 255 255
  2.91335   4.12343 0.0172511 255 255 255
 3.09132  4.03372 0.080414 255 255 255
 3.22985  4.05213 0.149013 255 255 255
  2.56568   4.09727 -0.123387 255 255 255
   2.78174    4.44387 0.00233652 255 255 255
  3.12112   3.80397 0.0560789 255 255 255
  2.40382   3.95755 -0.185616 255 255 255
 2.53345  4.53897 0.157923 255 255 255
    2.5209    4.29981 -0.0189012 255 255 255
  2.98827   3.44221 -0.227933 255 255 255
  2.51436   3.84978 -0.285846 255 255 255
    2.75211     4.04514 -0.00766634 255 255 255
  2.52131   4.04848 -0.194005 255 255 255
  2.51181    3.9269 -0.203189 255 255 255
  2.98205   3.90127 0.0264204 255 255 255
    2.7495    4.03434 0.00314629 255 255 255
   2.77525    3.79007 -0.0978788 255 255 255
3.05976 3.87462 0.04792 255 255 255
 3.01898  4.27922 0.014227 255 255 255
  2.41813   3.88161 -0.255647 255 255 255
    2.605   4.33674 0.0943594 255 255 255
  3.21904   3.96699 0.0909559 255 255 255
  3.1907  3.76847 0.057525 255 255 255
  2.49854   3.80588 -0.314805 255 255 255
  3.08083   3.81916 0.0479087 255 255 255
  3.08917   3.94153 0.0451828 255 255 255
  3.06938   3.96898 0.0686604 255 255 255
   2.61876    4.00289 -0.0856725 255 255 255
 2.48694  4.67319 0.222923 255 255 255
    2.9458    3.86508 0.00338477 255 255 255
   2.98449     3.7727 -0.0340914 255 255 255
   2.829  4.60911 0.268905 255 255 255
   2.92707    3.79297 -0.0525147 255 255 255
   3.0029   3.81702 0.0131247 255 255 255
 2.42972  4.50711 0.120395 255 255 255
   2.38486    4.07926 -0.0701776 255 255 255
  2.31847   4.08145 -0.276077 255 255 255
  2.66591    3.8255 -0.225196 255 255 255
  2.75611   3.74288 -0.142323 255 255 255
  2.97402   4.04954 0.0164945 255 255 255
  3.18866   3.81268 0.0284192 255 255 255
  3.14775   3.85583 0.0552163 255 255 255
  3.17164   4.02207 0.0696523 255 255 255
3.18781  4.2069 0.19639 255 255 255
  2.71347   4.44839 0.0218434 255 255 255
  3.32112   3.56711 0.0711985 255 255 255
 2.66795  4.15212 -0.15485 255 255 255
    2.87538     4.36258 -0.00698665 255 255 255
  2.95578   4.24693 -0.040924 255 255 255
  2.36583   4.03904 -0.231975 255 255 255
  3.07648   3.98216 0.0525135 255 255 255
 2.52103  4.05494 -0.15107 255 255 255
  2.88512   3.55863 -0.229702 255 255 255
 2.58036  4.43821 0.131907 255 255 255
  2.5913  4.64216 0.252719 255 255 255
  3.28689   3.72251 0.0593708 255 255 255
 2.99476  3.54811 -0.10977 255 255 255
  2.75646   4.23327 0.0889877 255 255 255
 3.23671  4.01431 0.112896 255 255 255
  3.03698   3.39353 -0.159845 255 255 255
   3.01346    3.67459 -0.0456849 255 255 255
   2.6227    4.3299 0.0899592 255 255 255
   2.94102    4.08441 -0.0116237 255 255 255
   3.04654    3.65955 -0.0933012 255 255 255
 3.30387  4.04784 0.171172 255 255 255
  3.37395    3.6162 0.0641683 255 255 255
 3.08274  4.12699 0.106111 255 255 255
  3.07645   3.94978 0.0773562 255 255 255
 3.42202  3.79025 0.128027 255 255 255
 3.22612  3.74071 0.047565 255 255 255
  3.12478   4.01597 0.0751894 255 255 255
  2.95689   3.91964 0.0400918 255 255 255
   3.0218   3.66239 -0.055663 255 255 255
  3.05709   3.42285 -0.134431 255 255 255
   3.02394    4.26811 0.00935606 255 255 255
 3.16373  4.14831 0.170338 255 255 255
 2.79678  3.59311 -0.20854 255 255 255
  3.14528   4.22513 0.0988509 255 255 255
 3.31372  4.12838 0.211263 255 255 255
  3.14455   3.88699 0.0428182 255 255 255
  2.78625   4.30334 -0.041823 255 255 255
   3.04782    3.69066 -0.0173845 255 255 255
  3.11545   3.88276 0.0535056 255 255 255
  3.26199   3.59776 0.0482518 255 255 255
   2.76411     3.8406 -0.0719852 255 255 255
 3.21467  4.06726 0.138005 255 255 255
 3.07571  3.66632 -0.13836 255 255 255
  2.82516   3.61079 -0.153192 255 255 255
3.31623 3.95092 0.12423 255 255 255
 2.90805  4.22713 -0.05825 255 255 255
  3.15258   3.88634 0.0409671 255 255 255
    2.74273     4.15796 0.000178419 255 255 255
  3.08978   4.14072 0.0947766 255 255 255
   2.67032    4.04322 -0.0438048 255 255 255
   3.00395    3.78409 0.00167361 255 255 255
  3.17543   3.72969 0.0558434 255 255 255
   2.36487    4.14254 -0.0841989 255 255 255
  2.77218   4.22102 0.0811628 255 255 255
  2.79508   3.60809 -0.172849 255 255 255
   3.22741     3.6266 -0.0259791 255 255 255
  3.25997   3.58365 0.0558886 255 255 255
  3.10954   4.01662 0.0577914 255 255 255
  2.88248   3.84824 -0.113259 255 255 255
 2.71478  4.32589 0.132726 255 255 255
  2.59666   3.87815 -0.183111 255 255 255
  3.12518   3.90416 0.0355083 255 255 255
  2.37132   4.14573 -0.205698 255 255 255
  2.79267     4.448 0.0110086 255 255 255
   2.90804    4.30506 -0.0450923 255 255 255
  3.29839   3.67162 0.0309598 255 255 255
3.26121 3.66896 0.04898 255 255 255
 3.0755 4.14555 0.10372 255 255 255
 3.25179  4.03775 0.132164 255 255 255
 2.98627  4.01545 0.004867 255 255 255
  3.03994   3.40284 -0.151718 255 255 255
  3.21739   3.86856 0.0629455 255 255 255
  3.18964    3.9038 0.0617248 255 255 255
  3.11763   3.99919 0.0710911 255 255 255
  3.17818   3.91519 0.0521061 255 255 255
  2.99148   3.44881 -0.234233 255 255 255
  2.70593   4.45053 0.0264883 255 255 255
    2.57568     4.21969 -0.00399065 255 255 255
  2.96678   4.02702 0.0029037 255 255 255
  2.6966  4.36133 0.138142 255 255 255
  2.57773   3.88226 -0.232322 255 255 255
 3.40271  3.47051 -0.37205 255 255 255
  3.29797   3.48941 0.0760689 255 255 255
 3.39875  3.87949 0.148936 255 255 255
2.55287 4.63639 0.21127 255 255 255
 3.27022   3.6991 0.028658 255 255 255
  3.41004   3.47325 -0.367835 255 255 255
 2.52358  3.98398 -0.17366 255 255 255
   3.02922    3.65128 -0.0711588 255 255 255
  2.34259   4.09261 -0.239504 255 255 255
  3.2285  4.06698 0.151387 255 255 255
   2.76911    4.34314 -0.0203413 255 255 255
  2.6078  3.71812 -0.29592 255 255 255
    2.80378     3.96563 -0.00987646 255 255 255
  3.03713   3.89851 0.0623879 255 255 255
 2.47292  4.42796 0.082664 255 255 255
  3.06368   3.94802 0.0526399 255 255 255
    2.5678    4.21402 -0.0199525 255 255 255
  2.73613   4.31758 0.0370564 255 255 255
  3.22977   3.84758 0.0598856 255 255 255
  2.43938   4.08131 -0.198216 255 255 255
  3.17843   3.82736 0.0430527 255 255 255
  3.06826   3.89441 0.0776945 255 255 255
  3.31948   3.59557 0.0340152 255 255 255
     2.935     4.2703 -0.0682782 255 255 255
 2.65566   4.6567 0.240855 255 255 255
  3.1994  3.71242 0.055077 255 255 255
    2.67798     4.31153 -0.00179281 255 255 255
  2.76887   4.21344 0.0835727 255 255 255
  2.88042   3.56401 -0.227435 255 255 255
      3.3    3.8235 0.0762653 255 255 255
  3.12468    3.7207 0.0480984 255 255 255
  2.91479   4.35213 0.0140966 255 255 255
  2.35228   4.14629 -0.237778 255 255 255
  2.38512   4.23989 -0.153258 255 255 255
   2.99104    3.65075 -0.0642145 255 255 255
  2.76433   4.23152 0.0698597 255 255 255
   3.09322    3.70075 0.00934092 255 255 255
  2.35178   4.13749 -0.202158 255 255 255
 3.31556   3.9153 0.107387 255 255 255
 2.62946  4.68061 0.247702 255 255 255
  2.36477   3.99956 -0.282886 255 255 255
   3.17272    3.54554 -0.0366195 255 255 255
 2.7686 3.78588 -0.1086 255 255 255
  3.10367   3.99454 0.0459348 255 255 255
  2.57318   4.36735 0.0976107 255 255 255
  3.16254   3.95328 0.0636972 255 255 255
 2.54798  4.44777 0.123412 255 255 255
  2.31181   4.07137 -0.272146 255 255 255
   2.79341    3.94175 -0.0374408 255 255 255
 2.85882  3.52666 -0.25605 255 255 255
 2.48161  4.44583 0.091109 255 255 255
    3.077    3.9719 0.0616846 255 255 255
  3.35805   3.68476 0.0819556 255 255 255
  2.6548  4.07174 -0.18761 255 255 255
   2.44381    4.36497 -0.0885231 255 255 255
   3.04034    3.62623 -0.0655206 255 255 255
  2.99005   3.45359 -0.229357 255 255 255
  2.91336   4.36985 0.0146955 255 255 255
  2.47883   3.99734 -0.214818 255 255 255
   2.76774    3.80429 -0.0974049 255 255 255
   2.90642    4.39541 0.00839513 255 255 255
  2.52497    3.9488 -0.183658 255 255 255
  2.33267   4.09212 -0.267683 255 255 255
3.13962 4.18399 0.18662 255 255 255
  2.46463     4.444 0.0833575 255 255 255
  3.23785   3.86803 0.0689087 255 255 255
   2.95567    3.77311 -0.0343961 255 255 255
3.39692 3.72588 0.10892 255 255 255
  3.39309   3.72627 0.0986596 255 255 255
   2.7477   4.27015 0.0801524 255 255 255
 3.47411  3.75466 0.146495 255 255 255
  3.24902   3.68727 0.0121205 255 255 255
  2.75272   4.24865 0.0927258 255 255 255
 3.40901   4.0052 0.187362 255 255 255
  2.74013   4.27126 0.0976227 255 255 255
 3.39923   3.9723 0.195706 255 255 255
  3.13134   3.93953 0.0421081 255 255 255
   2.88736    4.06618 -0.0255018 255 255 255
 2.58832  4.56184 0.204104 255 255 255
  2.52478   3.91945 -0.206628 255 255 255
  3.22808    3.7914 0.0484251 255 255 255
  2.54327    3.9707 -0.115527 255 255 255
    2.90518     4.10043 -0.00101074 255 255 255
  2.37235   3.98982 -0.287122 255 255 255
 2.43372  4.52722 0.122963 255 255 255
  2.46744   4.00016 -0.218324 255 255 255
 2.95818  3.87806 0.013899 255 255 255
  2.73487   3.82762 -0.124102 255 255 255
 3.42876  3.79361 0.125249 255 255 255
   2.75738    3.85354 -0.0724218 255 255 255
  3.17838   3.64688 0.0429137 255 255 255
  2.99398   3.89008 0.0257072 255 255 255
 3.37475  4.01155 0.189537 255 255 255
   2.79222    4.14588 -0.0227303 255 255 255
 2.53532  4.50409 0.146141 255 255 255
  2.6715  4.68707 0.257251 255 255 255
 3.34882  3.69243 0.078423 255 255 255
   2.94507    4.25332 -0.0893869 255 255 255
  2.37059   4.14943 -0.226817 255 255 255
  3.21055   3.93373 0.0778141 255 255 255
  3.03287   3.68608 -0.030632 255 255 255
  2.93734   3.51255 -0.117948 255 255 255
  2.36224   4.01794 -0.275669 255 255 255
  3.08815   3.74687 0.0264211 255 255 255
   2.69277    4.04035 -0.0281889 255 255 255
  2.42206    4.1239 -0.172203 255 255 255
  3.02898   3.77989 0.0172637 255 255 255
 2.51661  3.96404 -0.18154 255 255 255
   2.3347   4.01066 -0.290622 255 255 255
  3.00684    3.9655 0.0216119 255 255 255
  3.01881   3.95624 0.0534776 255 255 255
  2.34168   4.01242 -0.287482 255 255 255
 3.43146  3.81767 0.134667 255 255 255
  2.89169   3.85303 -0.113839 255 255 255
   3.22769    3.64314 -0.0116167 255 255 255
 3.26578  3.97353 0.107686 255 255 255
  2.32717    4.0908 -0.268132 255 255 255
 3.54289  3.90048 0.244077 255 255 255
 3.18057   4.2423 0.207225 255 255 255
  2.44006   4.22248 -0.130566 255 255 255
 3.34205  3.91075 0.115237 255 255 255
 2.58384  4.39929 0.110734 255 255 255
3.18401 4.18769 0.20113 255 255 255
 2.49025  4.50825 0.126811 255 255 255
  3.23442   3.96236 0.0910038 255 255 255
  2.79829   4.32701 -0.055643 255 255 255
  2.53812   3.76465 -0.346899 255 255 255
    2.90365      4.0938 0.000709925 255 255 255
 3.26722  3.74037 0.055872 255 255 255
   2.78992    3.83154 -0.0763153 255 255 255
  2.33929   3.99029 -0.298331 255 255 255
  2.61819   4.31992 0.0723963 255 255 255
   2.82993    4.07349 -0.0484024 255 255 255
  3.31599   3.54548 0.0553037 255 255 255
   3.2402    3.6916 0.0249438 255 255 255
  2.51941    3.9695 -0.181488 255 255 255
 2.52055  4.58721 0.185801 255 255 255
 2.48949   4.4938 0.124232 255 255 255
 3.19132  4.23941 0.208141 255 255 255
  2.54516   3.77597 -0.337828 255 255 255
 3.37169  4.06336 0.217033 255 255 255
  3.11192   3.76707 0.0470995 255 255 255
  2.26474   3.95454 -0.279681 255 255 255
   2.58592    4.11185 -0.0581992 255 255 255
   2.98411    3.83805 0.00877651 255 255 255
  2.67983   4.16879 -0.165031 255 255 255
 2.48772  4.50176 0.126198 255 255 255
   3.04328    3.67958 -0.0320031 255 255 255
 2.64219  4.64248 0.212921 255 255 255
   2.84918    4.01183 -0.0525556 255 255 255
   3.06499    3.62863 -0.0940678 255 255 255
  2.82919   3.97331 -0.050508 255 255 255
  2.99329    4.0436 0.0305616 255 255 255
    3.0555    3.52489 -0.0930584 255 255 255
 2.52204  4.73959 0.260685 255 255 255
  3.22816   3.71856 0.0350309 255 255 255
  2.53935   3.78551 -0.329526 255 255 255
 2.55017  4.58977 0.195732 255 255 255
   3.2359   3.67308 0.0438918 255 255 255
   2.92512    4.24526 -0.0615008 255 255 255
  2.35837    4.1336 -0.246823 255 255 255
    3.01022     4.25264 -0.00623031 255 255 255
  2.7391  4.29528 0.106957 255 255 255
   3.03522    3.63424 -0.0679019 255 255 255
  3.02306   4.04862 0.0415131 255 255 255
 2.91234  3.57616 -0.20255 255 255 255
  3.30195   3.47539 0.0750926 255 255 255
    2.92572     3.86709 -0.00436517 255 255 255
  2.32158   4.08657 -0.262372 255 255 255
 3.44988  3.83735 0.151297 255 255 255
 2.95823  3.86205 0.010938 255 255 255
  2.42919   3.88915 -0.266157 255 255 255
  2.60306   4.34429 0.0892415 255 255 255
    3.0646    3.60578 -0.0529581 255 255 255
   3.00547    4.13967 -0.0557226 255 255 255
  3.11134   4.01085 0.0708378 255 255 255
  3.04815   3.64947 -0.106647 255 255 255
 3.22555  3.97823 0.086209 255 255 255
 3.11458   3.7615 0.042802 255 255 255
  3.04887   3.97478 0.0474971 255 255 255
  2.64965   4.06885 -0.185139 255 255 255
 2.53034   4.5939 0.193838 255 255 255
 2.71163  4.34315 0.116577 255 255 255
   2.75221    4.10982 -0.0137197 255 255 255
 3.23326  4.16116 0.196201 255 255 255
  3.00554   4.05624 0.0514231 255 255 255
 2.51315  4.44548 0.106655 255 255 255
  3.05881   4.12026 0.0557986 255 255 255
   2.74894    3.85075 -0.0714032 255 255 255
  3.37473   3.64323 0.0849136 255 255 255
  2.43506   3.89825 -0.267176 255 255 255
    2.9162    4.25913 -0.0578012 255 255 255
  3.03049   3.81199 0.0194317 255 255 255
  2.38851    4.2293 -0.153751 255 255 255
  2.33212   3.98855 -0.301641 255 255 255
 2.52226  3.93792 -0.18702 255 255 255
   3.0373   3.87195 0.0385891 255 255 255
   2.86179    4.34652 -0.0224394 255 255 255
   2.4941   3.91411 -0.278973 255 255 255
  3.12226   3.93706 0.0399179 255 255 255
  2.53854   3.99161 -0.146462 255 255 255
   2.75818    4.08457 -0.0181237 255 255 255
  3.16641    3.8857 0.0381698 255 255 255
  3.10472   3.78051 0.0415077 255 255 255
   2.92227     4.2394 -0.0599874 255 255 255
   2.82574    4.08285 -0.0441891 255 255 255
 3.12664  4.08971 0.134267 255 255 255
 2.57917  4.38686 0.108068 255 255 255
  2.5383  4.42684 0.101994 255 255 255
   3.02083    3.80884 0.00666772 255 255 255
  2.93017   3.60181 -0.117723 255 255 255
  2.71552   3.85975 -0.105043 255 255 255
    2.75619     4.10653 -0.00683423 255 255 255
   3.0503   3.64254 -0.100659 255 255 255
  3.20761   3.98471 0.0920616 255 255 255
  3.35623   3.62198 0.0600673 255 255 255
 3.27711  4.08789 0.181132 255 255 255
  3.17386   3.87468 0.0357249 255 255 255
  2.95813   3.55312 -0.108601 255 255 255
  3.23106   3.85642 0.0617489 255 255 255
  2.44739   4.50916 0.0995581 255 255 255
   2.78101     4.2452 -0.0496853 255 255 255
  3.09068   3.62037 -0.106584 255 255 255
   2.79843    4.18409 -0.0190057 255 255 255
 2.50761  4.50615 0.131713 255 255 255
   2.81833    4.33225 -0.0676198 255 255 255
   2.82011    4.12376 -0.0372379 255 255 255
  3.14448   3.98519 0.0721903 255 255 255
  3.20365   3.77802 0.0474921 255 255 255
  2.54699   3.98984 -0.159028 255 255 255
  3.138 3.79288 0.06777 255 255 255
   2.3943   3.95908 -0.200379 255 255 255
  2.74984   3.81858 -0.103516 255 255 255
 3.23956  4.08629 0.156419 255 255 255
  3.17147   3.73753 0.0594982 255 255 255
  2.30119   3.99405 -0.262265 255 255 255
  3.33247   3.66158 0.0516917 255 255 255
3.42324 3.97956 0.19768 255 255 255
  3.30123   3.71078 0.0636461 255 255 255
 3.37478  3.63932 0.073233 255 255 255
 3.11552  4.11397 0.088052 255 255 255
   2.98251    4.14482 -0.0749362 255 255 255
  2.36253   3.99544 -0.289576 255 255 255
   2.77951    3.79594 -0.0954796 255 255 255
  3.31636   3.48516 0.0838632 255 255 255
   2.68693    4.05138 -0.0256861 255 255 255
    2.9161    4.24351 -0.0482772 255 255 255
 3.51772  3.83409 0.192105 255 255 255
   2.88419    4.25711 -0.0506194 255 255 255
  2.78767    3.8452 -0.072678 255 255 255
   2.3516   4.16968 -0.246506 255 255 255
  2.67335   4.07178 -0.174287 255 255 255
  2.96972   3.48909 -0.215335 255 255 255
     3.16   3.84505 0.0353528 255 255 255
  2.92782   4.35602 0.0169092 255 255 255
   2.95853    3.70094 -0.0270515 255 255 255
  3.12265   3.86408 0.0790483 255 255 255
   2.5644   4.36383 0.0874415 255 255 255
 3.21349  4.05949 0.137969 255 255 255
  2.96217   3.91665 0.0252793 255 255 255
   3.14236    3.69641 -0.0270242 255 255 255
   3.00539     3.6961 -0.0419371 255 255 255
  2.5412  4.66482 0.229659 255 255 255
    3.01687     4.25171 0.000269226 255 255 255
 2.46043  4.53127 0.136926 255 255 255
 2.44543  4.53094 0.132596 255 255 255
  3.13439   3.99214 0.0789289 255 255 255
   2.87669    4.02738 -0.0339331 255 255 255
   3.07418    3.45928 -0.0999263 255 255 255
  2.7029  4.36345 0.134398 255 255 255
   2.98507    4.30402 0.00272201 255 255 255
   2.63364    3.99438 -0.0812398 255 255 255
 2.50963  3.99503 -0.15605 255 255 255
   3.00393    4.25693 -0.0188324 255 255 255
 2.58854  4.39613 0.109475 255 255 255
 3.43382  3.69716 0.122651 255 255 255
  3.24437    3.7976 0.0577118 255 255 255
   2.66645    3.96015 -0.0898975 255 255 255
   2.90602    4.31972 -0.0365987 255 255 255
  2.71894   3.98657 -0.162795 255 255 255
 3.41705  3.75983 0.108876 255 255 255
  3.20881   3.64318 0.0513155 255 255 255
   2.99887    4.26914 -0.0139543 255 255 255
   2.78285    4.35322 -0.0462869 255 255 255
  3.17719    3.8063 0.0495853 255 255 255
  3.30809   3.90963 0.0986015 255 255 255
  2.33787   4.10163 -0.259768 255 255 255
 2.50322  4.61192 0.189678 255 255 255
   2.80058    3.99542 -0.0216625 255 255 255
 3.42475  3.72856 0.132411 255 255 255
   2.87835    4.23587 -0.0663122 255 255 255
 2.64696  4.54773 0.217076 255 255 255
   2.73363     4.4209 0.00720923 255 255 255
   3.08338    3.58675 -0.0524026 255 255 255
     2.99549      4.28301 -0.000584045 255 255 255
  2.48712   3.92614 -0.206986 255 255 255
 3.44403  3.98235 0.236353 255 255 255
  3.4391  3.97887 0.218204 255 255 255
  3.23018   3.75297 0.0511907 255 255 255
   2.77358    3.83725 -0.0771632 255 255 255
 2.67003  4.71152 0.280086 255 255 255
  3.21261   3.81398 0.0330998 255 255 255
 3.40211  4.00023 0.185456 255 255 255
 3.27855  4.08096 0.183987 255 255 255
   2.81074    4.01023 -0.0213551 255 255 255
   2.89087    4.37991 0.00821127 255 255 255
  3.38051   3.62691 0.0722036 255 255 255
  3.06619   3.46069 -0.104171 255 255 255
  2.48999   3.88548 -0.198148 255 255 255
 3.20017  3.85025 0.046255 255 255 255
   2.78228    4.11464 0.00226769 255 255 255
  2.62377   3.89138 -0.223242 255 255 255
  3.09138   3.70572 0.0162025 255 255 255
   3.00402    3.63798 -0.0628156 255 255 255
2.54337 4.39693 0.07783 255 255 255
3.22506  4.0029 0.10353 255 255 255
  3.3019  3.96323 0.124987 255 255 255
 2.76215  3.77329 -0.11986 255 255 255
   2.97917    4.16475 -0.0534158 255 255 255
  2.51739   3.93696 -0.200315 255 255 255
  3.22602   3.88902 0.0674216 255 255 255
  2.5467  4.64661 0.217995 255 255 255
 3.39536  3.97786 0.176304 255 255 255
 2.33146  3.96607 -0.31053 255 255 255
 2.50452  4.30668 -0.05361 255 255 255
 2.58987  4.56422 0.194058 255 255 255
    2.75592     4.37843 -0.00894343 255 255 255
   2.80722    4.04213 -0.0269195 255 255 255
 3.28909  3.96046 0.106228 255 255 255
  3.24114    3.8044 0.0554258 255 255 255
  3.03364   3.92599 0.0636431 255 255 255
  2.93753    4.3924 0.0423516 255 255 255
  2.74071   3.82893 -0.110018 255 255 255
  2.51014   3.98176 -0.173974 255 255 255
 2.50702  4.51089 0.127549 255 255 255
 3.24502  4.15601 0.185005 255 255 255
 2.6959 4.61475 0.22901 255 255 255
  2.71293   3.68208 -0.268355 255 255 255
   2.92852    4.27665 -0.0784516 255 255 255
   2.3389    4.1082 -0.198888 255 255 255
 3.40161  3.69248 0.108315 255 255 255
  3.23867   3.70349 0.0486136 255 255 255
  3.25677   3.91051 0.0959922 255 255 255
   2.52164    4.26221 -0.0721929 255 255 255
  3.18175   4.05503 0.0811992 255 255 255
 3.42723  3.77694 0.119215 255 255 255
  3.31804   3.73812 0.0637015 255 255 255
 2.33947   3.9677 -0.30931 255 255 255
 2.60577  4.70801 0.272597 255 255 255
  2.78321   3.69004 -0.149198 255 255 255
  2.34448   4.14277 -0.244915 255 255 255
   2.83554    4.19162 -0.0815085 255 255 255
  3.06117   3.92063 0.0827816 255 255 255
   2.45518    4.33695 -0.0654495 255 255 255
  2.72405   3.60572 -0.199365 255 255 255
 2.56473  4.53097 0.178641 255 255 255
  3.15775   3.72408 0.0509659 255 255 255
   2.83163    4.20512 -0.0839942 255 255 255
  2.50705   3.89792 -0.172517 255 255 255
   2.78153    3.80143 -0.0738031 255 255 255
    2.91661     4.33444 -0.00882192 255 255 255
3.51358 3.90704 0.22414 255 255 255
 2.60127   4.6506 0.248636 255 255 255
   2.7815   4.22979 -0.013092 255 255 255
  3.30648   3.54112 0.0601155 255 255 255
  3.10407   3.80952 0.0549912 255 255 255
  2.52653   4.42269 0.0844351 255 255 255
   2.73219    4.17817 -0.0180351 255 255 255
 2.70625  4.65076 0.255936 255 255 255
    3.22804     3.63007 0.000603605 255 255 255
  2.59054    4.3657 0.0950802 255 255 255
 3.38654  4.00393 0.193071 255 255 255
3.12927 4.20394 0.18933 255 255 255
   2.7386   4.41577 0.0044999 255 255 255
 2.54833  4.60036 0.203217 255 255 255
   2.73927    4.17772 -0.0144727 255 255 255
   3.23957    3.62852 -0.0329778 255 255 255
  2.50875   4.40199 0.0851072 255 255 255
    2.8699    3.91936 -0.0824102 255 255 255
   3.03776    3.72022 -0.0121437 255 255 255
  2.90606   3.54511 -0.122407 255 255 255
   2.73397    4.45704 -0.0202007 255 255 255
 3.39498  3.98544 0.190869 255 255 255
 3.44973  3.77839 0.133918 255 255 255
   2.74333    4.33179 -0.0112846 255 255 255
  3.5247  3.85442 0.198836 255 255 255
  3.4138  3.92797 0.169574 255 255 255
  3.22663   3.91966 0.0768529 255 255 255
   2.59305    4.26279 0.00664536 255 255 255
  2.49022   3.97716 -0.181126 255 255 255
   2.88097    4.24554 -0.0592831 255 255 255
    2.7867    4.23321 -0.0363178 255 255 255
  2.94336   3.56045 -0.205218 255 255 255
  2.34818   4.14796 -0.245188 255 255 255
  3.20576   3.96187 0.0687718 255 255 255
2.70825 4.62158 0.23685 255 255 255
     3.01045      4.27301 -0.000947243 255 255 255
  3.02771   3.96556 0.0536308 255 255 255
 3.26276  4.00716 0.132151 255 255 255
  2.50521   4.40087 0.0717922 255 255 255
   3.02235     3.6769 -0.0403292 255 255 255
  2.52261   3.95864 -0.187233 255 255 255
   2.96594    3.67847 -0.0692285 255 255 255
    2.9578    3.78076 -0.0334819 255 255 255
  2.96848   4.04479 0.0211656 255 255 255
 2.29498  3.95692 -0.26803 255 255 255
  2.52822   3.78936 -0.324447 255 255 255
  2.5866  4.76037 0.301548 255 255 255
 3.12891  3.96163 0.055686 255 255 255
 2.39836  4.19687 -0.15879 255 255 255
     2.774    4.26563 -0.0284054 255 255 255
  2.34259   3.98072 -0.252488 255 255 255
   2.9911   4.31896 0.0154485 255 255 255
  2.49583   3.89627 -0.184578 255 255 255
  2.65564    4.1672 -0.156382 255 255 255
2.68992 4.38291   0.135 255 255 255
  2.50155   4.05216 -0.193156 255 255 255
 2.54468  4.51685 0.156621 255 255 255
   2.6051   4.21787 0.0173637 255 255 255
   2.5297   3.97491 -0.179839 255 255 255
 2.54437  4.50103 0.161749 255 255 255
  3.15093   3.72837 0.0450016 255 255 255
  3.18097    3.9755 0.0635825 255 255 255
2.53205 4.69529 0.23432 255 255 255
  2.79719   3.55707 -0.204162 255 255 255
 2.36091  4.13392 -0.24097 255 255 255
    2.96459     3.82905 -0.00144371 255 255 255
 3.47392  3.83441 0.171884 255 255 255
  2.60765   3.92058 -0.205635 255 255 255
   2.77049    4.27302 -0.0296278 255 255 255
    3.01966     3.76241 -0.00190033 255 255 255
   2.91503    4.27308 -0.0452921 255 255 255
  2.3111  4.08734 -0.27731 255 255 255
  3.23376   3.94545 0.0777878 255 255 255
  3.29309   3.81626 0.0661833 255 255 255
 3.44817  3.75768 0.127973 255 255 255
  3.46285   3.32518 -0.332174 255 255 255
   2.74601    4.10794 -0.0205895 255 255 255
 3.11229  3.94871 0.031983 255 255 255
  3.34842    3.6599 0.0691726 255 255 255
  3.30312   3.64007 0.0195538 255 255 255
  3.28333   3.91053 0.0992568 255 255 255
 2.54091  4.50857 0.142446 255 255 255
  2.94717   3.55618 -0.203903 255 255 255
  2.35754   4.11705 -0.225566 255 255 255
 3.14287  3.99557 0.055908 255 255 255
  3.17465   3.79404 0.0558733 255 255 255
  2.53876   4.06144 -0.137768 255 255 255
   2.76924    4.12167 -0.0195686 255 255 255
 3.27801  3.97674 0.112785 255 255 255
  3.36009   3.78766 0.0864654 255 255 255
 2.53133   4.6164 0.157026 255 255 255
  3.19964   3.97817 0.0847881 255 255 255
 2.53306  4.70555 0.243784 255 255 255
 3.08714  4.11959 0.104827 255 255 255
 3.15662  4.17537 0.188311 255 255 255
  3.28987   3.65445 0.0255948 255 255 255
  2.33414   4.08181 -0.248738 255 255 255
   2.91159    4.38541 0.00685412 255 255 255
  3.4099  3.92276 0.173415 255 255 255
 3.54673  3.82505 0.197895 255 255 255
   2.97563    3.73743 -0.0525787 255 255 255
  2.69837   3.88064 -0.186907 255 255 255
   2.74989     4.3889 -0.0101853 255 255 255
   3.16906    3.54805 -0.0327965 255 255 255
   2.91364    4.20767 -0.0597743 255 255 255
   2.82438    4.22438 -0.0673088 255 255 255
    2.75051     4.38227 -0.00627541 255 255 255
  2.71067   4.24286 0.0144821 255 255 255
  3.24099   3.79146 0.0537459 255 255 255
  2.36271   4.13899 -0.237626 255 255 255
  3.37257   3.62524 0.0670164 255 255 255
  3.20785   3.73034 0.0586151 255 255 255
 3.14847  4.19401 0.194236 255 255 255
   2.87001    4.25365 -0.0742218 255 255 255
  2.96043   3.52054 -0.215061 255 255 255
  3.0761  4.11804 0.100924 255 255 255
   2.82941    4.22223 -0.0768019 255 255 255
  3.07068   3.93504 0.0748416 255 255 255
 3.20691  4.05648 0.139929 255 255 255
  2.83318   3.55077 -0.260739 255 255 255
 3.30043  4.11851 0.205531 255 255 255
   2.81983    4.22715 -0.0668374 255 255 255
2.58498 4.38767 0.12066 255 255 255
  3.28171   3.64854 0.0210053 255 255 255
   3.05976    3.73813 0.00808034 255 255 255
 3.49418  3.73272 0.162706 255 255 255
  2.98464   3.86932 0.0305904 255 255 255
  2.99687   4.30874 0.0166182 255 255 255
  3.06315   3.43188 -0.119449 255 255 255
   2.5535   3.84328 -0.282902 255 255 255
  2.78473   3.66163 -0.162821 255 255 255
  3.2889   4.0693 0.175195 255 255 255
  3.17096   3.75869 0.0563718 255 255 255
  2.92965   4.39434 0.0412164 255 255 255
    2.93516     3.85732 -0.00104378 255 255 255
  2.60823   3.87247 -0.238203 255 255 255
   3.02598    3.66128 -0.0739611 255 255 255
   2.99005    3.67012 -0.0702831 255 255 255
  2.33532   4.08019 -0.241818 255 255 255
    2.74488     4.41168 -0.00123795 255 255 255
   3.00827    4.14568 -0.0578087 255 255 255
  3.19117    3.8711 0.0505926 255 255 255
  3.13365   3.89184 0.0470836 255 255 255
   2.94114    4.27484 -0.0994857 255 255 255
 3.25562  4.08071 0.169072 255 255 255
3.56143  3.7815 0.20815 255 255 255
  3.03045   3.74295 0.0143163 255 255 255
  3.28058   3.74963 -0.433643 255 255 255
  3.16158   3.73456 0.0545787 255 255 255
  3.15917   3.73529 0.0480487 255 255 255
  2.41578   4.14501 -0.173372 255 255 255
 2.63224  4.70341 0.262478 255 255 255
   2.94439    3.83031 -0.0115219 255 255 255
   3.01658    4.19824 -0.0427679 255 255 255
 3.50072  3.74048 0.171811 255 255 255
   2.90088    4.26336 -0.0532377 255 255 255
    2.78495      4.4482 0.000477106 255 255 255
 3.26164  3.69446 0.053174 255 255 255
  2.99309   3.61842 -0.198004 255 255 255
   3.00571    4.28523 0.00416467 255 255 255
  2.39568   4.37809 0.0369369 255 255 255
  2.81203    3.8598 -0.161789 255 255 255
   2.93811    4.26486 -0.0656352 255 255 255
   2.89295    4.05986 -0.0169575 255 255 255
  2.37645   4.27142 -0.128114 255 255 255
  2.93155   4.35378 0.0251885 255 255 255
 2.68927  4.74045 0.317759 255 255 255
  3.18756   3.94772 0.0706723 255 255 255
 2.51045  4.61755 0.155081 255 255 255
  2.72641   4.36568 0.0162582 255 255 255
   2.91895    4.18496 -0.0454119 255 255 255
   3.1103   3.80162 0.0515937 255 255 255
   2.88142    4.23141 -0.0640705 255 255 255
  3.15633   3.97744 0.0730311 255 255 255
    2.77221     4.05171 0.000959661 255 255 255
 2.49505  4.59032 0.175848 255 255 255
   2.96246    3.77614 -0.0368747 255 255 255
  3.07811   3.86073 0.0613778 255 255 255
  2.76202   4.29697 -0.040937 255 255 255
 2.57232  4.54033 0.161639 255 255 255
 3.43983  3.77924 0.126331 255 255 255
  2.71382   3.62118 -0.238958 255 255 255
   2.8928   4.39476 0.0218116 255 255 255
    2.8447      4.186 -0.0920946 255 255 255
  3.16163   3.97744 0.0632235 255 255 255
 3.27885  3.91937 0.101528 255 255 255
 2.76866  4.67512 0.292185 255 255 255
  3.1992  4.03741 0.114537 255 255 255
  2.50804   3.78878 -0.319043 255 255 255
 3.10966  4.09962 0.124443 255 255 255
    3.00174     3.79264 -0.00707597 255 255 255
  2.86425   3.77899 -0.267654 255 255 255
  2.51217   3.94001 -0.196658 255 255 255
3.28837 3.93502 0.10002 255 255 255
  3.18895    3.8644 0.0452529 255 255 255
    2.8995    4.21819 -0.0832576 255 255 255
  2.50619   3.95673 -0.190649 255 255 255
