ply
format ascii 1.0
element vertex 1269
property float x
property float y
property float z
property uchar red
property uchar green
property uchar blue
end_header
 2.24871  3.54654 0.495156 175 151 115
 1.99778  3.35977 0.269972 55 55 57
   2.724  3.77789 0.568262 81 82 87
 1.56973  3.95866 0.226678 39 51 27
  1.9504  3.96568 0.318056 159 155 156
 2.42354  3.17367 0.628495 224 217 209
 1.90238  3.45167 0.211447 227 227 227
  1.9306  3.60256 0.356302 248 251 244
 2.02377  3.33555 0.277393 227 226 224
 1.85776  3.48514 0.181429 252 255 255
 2.27958  3.89547 0.354137 83 93 58
 2.06072  3.65613 0.411673 233 230 223
 1.90901  3.44896 0.208619 59 62 67
2.89618 3.87892 0.62579 209 190 176
 2.00223  3.35139 0.274581 93 94 99
 1.94138  3.40049 0.231508 63 64 68
 2.07089  3.70427 0.404485 90 98 61
 1.92628  3.40356 0.222463 45 45 53
 1.98558  3.38888 0.265698 76 77 72
 2.60792  3.21936 0.664612 17 24 6
 3.00275  3.70114 0.690858 112 112 84
 2.97923   3.9009 0.645785 57 47 35
 1.54779  3.73122 0.275796 41 39 14
  1.9161  3.42902 0.232721 216 217 221
 2.96023  3.88803 0.645472 74 64 54
1.94687 3.42336 0.23611 212 210 211
2.01818 3.38386 0.27804 61 61 63
 1.94773  3.40819 0.232509 72 73 77
 1.64807  3.94147 0.262049 24 27 0
 1.88022  3.47584 0.201303 60 61 63
 2.31796  3.68919 0.367891 80 85 91
 2.40106  3.46206 0.546603 68 57 51
 2.01948  3.38729 0.275887 245 244 250
 2.17826   3.5868 0.461903 36 33 18
 1.94945  3.41049 0.229418 245 245 245
 2.96513  3.90455 0.638352 197 187 175
2.03046 3.37512 0.27232 242 246 247
 2.08821  3.30624 0.302175 234 237 244
 1.91655  3.43493 0.225576 241 240 245
 2.75712  3.64544 0.555244 47 47 47
   1.973  3.38923 0.262432 62 62 62
  2.061 3.71103 0.40078 77 76 71
 1.92606  3.39398 0.225575 254 252 255
 1.91527  3.42672 0.225423 67 67 69
 2.31073  3.32397 0.560434 138 146 86
 2.21355   3.5927 0.474451 172 159 114
 2.88543  3.87524 0.625623 197 183 170
 2.43137   4.1301 0.377743 241 245 246
 1.94054  3.43741 0.228777 75 76 80
 2.22843  3.47905 0.502875 71 87 40
 2.28561   3.6784 0.370618 87 92 96
 1.89458  3.47403 0.209837 71 71 69
 2.27456  3.52229 0.507344 127 135 88
 2.96999  3.90009 0.642533 212 198 187
 2.39667  3.45817 0.547071 203 191 179
 2.17056  4.06851 0.248735 58 65 73
 2.98253  3.67894 0.692662 181 181 171
2.17415 3.58425 0.46291 136 131 109
 1.92252   3.4315 0.227877 248 253 249
 1.56828   3.7694 0.271977 50 47 16
2.37895  4.0889 0.36263 235 236 231
 2.16319  4.06726 0.247243 56 61 67
 2.62738  3.66275 0.501274 200 210 211
 1.93911  3.42057 0.226631 252 255 255
 2.08936  3.29255 0.321549 85 84 79
 2.09504  3.32432 0.297845 254 254 255
 1.97594  3.38625 0.260828 83 83 83
 2.17192  3.60003 0.457976 10 18 5
 2.88179  3.97718 0.601215 211 202 193
 2.24553   3.3952 0.526151 134 135 91
 2.47287  3.13418 0.656835 227 220 210
2.93806 3.94491 0.62898 194 182 168
 2.55314  3.77092 0.476615 74 74 76
 3.02474  3.76997 0.655156 43 45 23
 2.51339  4.15256 0.431116 38 38 38
 2.39914  3.45457 0.548495 175 158 148
1.86229 3.44835 0.20725 71 71 71
 2.87455  3.88333 0.621074 200 183 167
 2.29564  3.67686 0.373891 238 243 247
 2.41117  3.45998 0.551665 140 127 118
 2.92288  3.93607 0.624359 59 48 42
 2.04221  3.35676 0.284216 215 217 216
 1.88223  3.47386 0.192399 244 246 245
2.88412 3.92733 0.60965 201 188 172
 3.01723  3.71453 0.694099 23 24 10
 2.02368  3.39391 0.269333 103 111 124
 2.87014  3.87447 0.619104 78 51 30
 3.01443  3.76455 0.660954 162 138 114
 2.95569  3.90257 0.633335 68 54 43
 1.87958  3.47358 0.207125 62 62 62
 2.42898  3.40369 0.500891 222 222 230
 1.93116  3.72834 0.352574 211 197 184
3.44934 1.04145 1.76283 59 80 49
3.34515 1.02318 1.73134 43 57 34
3.51044 1.08709 1.77289 15 34 15
 3.42944 0.828689  1.84798 16 22 18
  3.2623 0.798383  1.77678 219 204 181
 3.37392 0.798612  1.84733 193 177 151
3.56024  1.2488 1.70393 71 79 64
3.47277 1.26081 1.65092 227 215 199
3.55486  1.2923 1.68931 222 215 197
3.49158 1.13246 1.74665 149 153 152
 3.59193 0.929159  1.88435 65 81 70
3.56335 1.39986 1.62903 35 50 29
 3.23634 0.924265  1.71063 214 207 189
3.52109 1.15356 1.74257 198 202 201
 3.5891 1.17824 1.75133 43 57 34
 3.25225 0.967311  1.69409 47 62 43
 3.33623 0.740123  1.84251 59 62 51
3.39219 1.12918 1.68078 23 32 27
3.44432 1.08729 1.73733 108 127 105
 3.52856 0.903807  1.86748 201 187 158
 3.56656 0.996053  1.83481 9 15 5
 3.13262 0.722063  1.75603 16 27 13
3.49104 1.09011 1.75758 15 27 15
3.52026 1.06918 1.77852 2 15 0
3.56108 1.19567 1.74495 136 136 128
3.52835 1.05659 1.80401 196 190 178
 3.15941 0.767387  1.72862 13 26 17
3.22699 0.84128 1.74198 216 201 180
 3.44361 0.966022  1.79527 119 130 116
3.37171 0.82466 1.83102 30 34 17
 3.50261 0.872191  1.87065 35 35 25
3.43828 1.13948 1.70911 195 200 194
  3.4315 0.739411  1.89022 127 113 87
 3.25111 0.839597  1.74962 20 26 14
3.49476 1.00693 1.79769 109 103 87
3.28236 0.97914 1.70288 126 134 121
 3.3966 1.00521 1.74975 5 16 10
 3.30457 0.954285  1.72534 172 174 169
3.40832 1.04621 1.72359 43 58 35
3.27614 1.07741 1.63541 27 39 25
 3.35805 0.946128  1.75853 139 144 140
 3.27715 0.712494   1.8155 224 215 198
 3.29444 0.801095  1.79059 13 15 10
 3.31945 0.772581  1.82335 230 221 204
3.55489 1.23694 1.70248 10 21 13
 3.58473 0.998124  1.84991 106 99 80
3.54476 1.16465 1.74982 43 51 28
3.35549 1.18459 1.62954 68 70 49
  3.3754 0.997352  1.75052 123 126 109
 3.30703 0.754316  1.81935 154 145 114
3.37733 1.19312 1.63142 121 114 96
3.56315 1.16863 1.76047 197 203 199
 3.09928 0.560718  1.81623 19 25 23
3.26983 1.03582 1.67211 123 130 112
3.22573 0.88713 1.71572 163 152 124
3.42794 0.78085 1.87533 214 203 181
3.31046 1.02441 1.69387 136 138 124
 3.3249 0.93985 1.73024 77 92 59
 3.45784 0.819569  1.87235 203 190 171
3.42795 1.09933 1.72307 188 191 184
3.44968 1.05706 1.74017 83 101 59
 3.57237 0.851711  1.90458 194 188 164
3.41806 1.08259 1.73178 179 186 179
3.50042 1.23798 1.66936 39 42 31
3.47062 1.22136 1.65185 65 69 46
 3.47285 0.893222  1.83155 8 19 15
 3.35458 0.826542  1.81334 97 103 89
3.53908 1.24904 1.68203 43 43 33
3.35915 1.23316 1.61283 47 55 34
3.53516 1.12184 1.78077 87 105 63
 3.56069 0.923954  1.87845 95 82 63
3.44041 1.21543 1.64628 29 28 23
 3.27344 0.680611  1.83159 99 92 64
3.37745 1.09588  1.6999 61 70 49
3.56798 1.14645 1.77764 184 190 178
3.54934 1.04956 1.81365 5 19 4
3.57443 1.21429 1.73916 17 29 15
3.25906 1.01152 1.65536 13 26 9
 3.35653 0.810051  1.83424 231 213 191
3.53411 1.03216 1.82359 143 134 119
3.34378 1.11338 1.65369 3 14 8
3.38165 0.71033 1.87572 82 81 53
 3.26009 0.900675  1.72034 87 92 69
 3.4808 1.06335 1.74853 72 93 52
3.38313 1.11292 1.69323 183 185 180
3.48412 1.17841  1.6666 12 26 3
3.35714 1.09292 1.68697 177 180 169
3.56223 1.07115 1.80317 76 98 60
 3.28245 0.960496  1.71152 74 76 65
3.52487 1.01367 1.82505 75 81 69
3.43644 1.26346 1.63549 52 54 40
 3.39779 0.840662  1.83258 165 175 164
 3.23023 0.735627  1.78501 108 93 52
3.56304 1.37247 1.64319 159 151 132
3.51948 1.18235 1.71232 85 104 58
 3.44708 0.817397  1.85806 48 50 37
3.41618 1.21264  1.6424 91 84 66
 3.32764 0.881387  1.74426 46 63 27
 3.24401 0.648665  1.82371 28 35 17
3.33434  1.1803   1.624 118 107 85
 3.45113 0.741597   1.9006 39 44 22
 3.17008 0.711057  1.76258 82 99 47
3.46701 1.14724  1.7113 183 191 178
 3.40158 0.713157  1.88984 90 78 62
 3.34522 0.667578  1.87682 218 204 178
 3.26085 0.717133  1.80933 78 82 55
3.45224 0.82792 1.84571 34 54 19
3.37142 0.66565 1.87843 43 51 30
3.52688 1.03733 1.81122 55 57 46
 3.23961 0.672253  1.81813 96 117 74
 3.28977 0.679823  1.84246 211 197 168
 3.37541 0.766695   1.8575 184 173 143
3.41962 1.14778 1.69483 176 183 175
3.58463 1.13571 1.77426 51 65 50
3.45715 1.00407 1.77169 11 24 4
3.38815 1.04492 1.72308 77 95 69
 3.30682 0.833453  1.76469 64 80 53
 3.49881 0.791065   1.8907 67 81 46
 3.58898 0.889543  1.90021 223 213 188
 3.28358 0.667056  1.84422 115 104 76
3.47143 1.36911 1.60543 57 68 70
 3.45583 0.947673  1.81715 117 120 109
3.24517 0.76557 1.78022 59 65 37
 3.39583 0.720351  1.87922 190 180 153
 3.40855 0.847698  1.82392 11 24 7
3.49531 1.07719 1.75667 10 20 12
3.51661 1.12745 1.75933 64 73 54
3.47277 1.43791 1.57984 207 191 178
 3.25342 0.825624   1.7637 217 201 185
 3.55018 0.841532  1.89891 206 195 167
3.50527 1.16768   1.725 26 36 25
3.50027 1.50527 1.57871 86 81 59
3.34485 0.83875 1.80166 12 18 4
 3.21353 0.691686   1.7827 34 48 33
 3.4507 1.45262 1.57322 97 85 63
 3.36786 0.696282  1.87457 90 80 53
3.54909 1.20417 1.73232 22 23 15
3.55745 1.50139 1.59876 88 90 79
 3.52589 0.800479  1.91822 36 50 25
3.25541 0.76695 1.78835 204 189 166
 3.50818 0.992639  1.82213 141 140 119
3.41078 1.13281 1.68526 21 30 11
3.53857 1.24553 1.69704 132 130 115
3.38295 1.24581 1.62244 84 86 64
 3.4233 1.20191 1.65195 163 156 130
3.42344 1.15718 1.68718 15 25 24
 3.15715 0.722654  1.75358 104 121 67
 3.53541 0.813183  1.91263 185 169 144
3.32595 1.12101 1.64311 29 37 26
3.49454 1.06592 1.76384 95 110 77
 3.32984 0.964647  1.73147 113 119 107
3.40145  0.9877 1.76932 145 149 134
 3.41805 0.996813  1.75803 48 63 32
 3.55019 0.885563  1.88971 214 195 163
  3.2087 0.835393  1.73042 65 69 44
3.38246 1.27601  1.5881 53 55 42
 3.22593 0.810975  1.74754 68 74 36
 3.31209 0.714476  1.84072 219 207 183
 3.32979 0.722148  1.84515 143 128 97
3.49251 1.15474 1.73312 17 26 9
3.40303 0.81596 1.84437 23 24 8
 3.24001 0.783036  1.77116 70 74 41
 3.4243 1.11214 1.71463 194 196 191
 3.16712 0.696691  1.79518 172 162 137
 3.42232 0.811868  1.85574 26 24 9
 3.53465 0.830481  1.89586 217 206 188
3.36806 1.06827 1.70687 65 68 49
 3.47056 0.966096  1.81229 180 189 172
 3.21822 0.822945   1.7412 68 67 46
 3.40089 0.733784  1.87563 66 60 28
3.55169 1.41218 1.61839 65 86 87
3.56735 1.33591 1.68599 41 35 23
3.25351  1.1023 1.62728 171 178 160
3.67929 1.03021 1.89926 72 80 43
 3.41656 0.830256  1.83431 11 20 17
 3.18651 0.651651  1.84023 81 83 78
3.52439  1.1866 1.73576 71 80 53
 3.5331 1.14314 1.76052 85 88 77
 3.22886 0.941249  1.69074 22 28 16
 3.50548 0.813862  1.89213 217 207 180
  3.2408 0.871049  1.72432 219 204 181
3.53424 1.45817 1.59816 204 189 160
 3.19255 0.853015   1.7128 67 67 43
3.41408 1.29413 1.59454 16 18 15
3.45648 1.30792 1.62029 51 53 40
  3.5348 0.852486  1.88802 205 192 157
3.54641 1.06815 1.80089 13 21 8
 3.20099 0.842127  1.72426 52 57 27
  3.4048 0.930004  1.79253 133 132 102
 3.36814 0.709526  1.87023 231 217 190
  3.2003 0.859258  1.71753 197 186 156
 3.37164 0.955128  1.76849 77 75 60
 3.37146 0.817573  1.82967 29 25 13
3.40186  0.6941  1.9096 198 189 182
3.28672 1.08683 1.62682 85 100 69
 3.32775 0.821061  1.80669 32 31 26
 3.49992 0.856898  1.87602 186 169 153
 3.37455 0.718134  1.87111 215 206 175
3.51486 1.35266 1.61414 9 22 12
  3.2778 0.734651  1.81362 190 169 138
 3.22531 0.661772  1.80404 22 25 16
 3.36521 0.945054  1.76701 168 170 159
3.53015 1.44914 1.60552 110 98 76
3.34332 1.00457   1.701 10 24 7
3.48275 0.90118 1.82291 86 108 69
 3.5085 1.23824 1.68063 153 145 124
 3.33413 0.825233  1.79132 57 74 40
3.24788 1.01588 1.64487 74 89 66
3.42811 1.31176 1.60001 50 61 44
3.43393 1.29748 1.60368 80 94 59
 3.22003 0.835767  1.73589 215 204 184
  3.2889 0.987828  1.70239 117 126 109
 3.29036 0.812373  1.77971 17 28 11
  3.3638 0.754895  1.85662 193 179 152
  3.5218 0.990203  1.82647 64 68 54
 3.23535 0.793964  1.76328 83 89 53
 3.37886 0.814079  1.83904 182 162 137
 3.18603 0.872225  1.70642 216 205 187
 3.23889 0.746383  1.78475 44 50 22
3.37192 1.08068 1.70625 179 180 172
3.65914  0.9311 1.91834 192 183 154
 3.57526 0.941922  1.87588 155 153 140
3.28221 1.07047 1.64724 14 27 17
3.48983 1.14879 1.74073 212 217 213
3.51642 1.24581 1.67932 60 54 38
 3.42043 0.753202  1.87567 203 184 154
 3.32242 0.715775  1.83783 121 100 73
3.52703 1.46965  1.5878 209 203 187
3.57045 1.19293 1.75439 161 171 162
 3.48546 0.842852  1.87493 192 175 157
 3.17805 0.868866  1.70098 79 84 61
3.46026  1.3207 1.61863 98 101 84
 3.57551 0.985965  1.85751 99 87 65
3.43002 1.17053 1.66179 87 103 74
 3.58029 0.915628  1.89549 202 188 162
3.23941 1.07238  1.6386 124 132 117
 3.41125 0.987254  1.77087 18 26 15
 3.40683 0.951028  1.78222 70 67 50
3.40419  1.0001 1.76691 20 25 19
 3.50961 0.837362  1.88684 215 196 166
 3.32067 0.756125  1.82288 214 202 178
  3.4045 0.700126  1.89621 80 68 52
 3.32816 0.863637  1.75888 6 21 2
 3.55436 0.848064  1.90232 210 199 171
3.32592 1.08499 1.67851 128 136 113
 3.35936 0.690615  1.86909 221 207 178
 3.40211 0.793109  1.85945 157 141 116
 3.30342 0.982439  1.70715 46 53 35
 3.30798 0.741867  1.82738 100 84 58
3.43607 1.04184 1.74697 3 15 3
 3.25163 0.875542  1.73664 102 92 67
 3.40849 0.731707  1.87994 213 197 164
3.44679 1.01532 1.77086 12 20 5
3.50491 1.07141 1.76151 73 88 65
3.50577 1.06102 1.77849 74 89 60
3.50243 1.04184 1.79963 167 161 137
 3.39712 0.740862  1.87257 206 197 166
 3.43335 0.944186   1.7952 56 67 51
   3.396 0.694158  1.90095 95 84 66
3.31273 1.03337 1.69607 138 141 130
 3.22411 0.746171  1.77566 47 50 31
 3.22127 0.696757    1.771 89 111 62
  3.2613 0.757056  1.79416 227 210 192
 3.23595 0.723669  1.79091 48 63 24
 3.49125 0.897491  1.82984 2 17 0
3.27271 1.06067 1.65998 23 32 29
 3.37373 0.651671  1.88745 38 41 24
3.55325 1.18393 1.74751 187 188 174
 3.35204 0.765612  1.84777 200 183 153
 3.43234 0.875771  1.80883 104 127 81
 3.17715 0.947306  1.67078 208 211 194
3.54861 1.02612 1.82402 42 50 29
3.50601 1.12417 1.75067 195 201 197
 3.41993 0.930724  1.79584 61 55 43
 3.23044 0.666823  1.79547 83 95 57
 3.41642 0.740197  1.88301 211 194 166
 3.18646 0.961391  1.66872 200 204 187
 3.46033 0.750153  1.89587 233 235 211
3.47317 1.35164 1.61065 48 61 41
 3.24791 0.931647  1.71038 204 193 171
3.51187 1.33394  1.6369 161 154 138
 3.20835 0.915451   1.7039 174 160 134
3.52837   1.073 1.80103 79 85 73
3.45402 1.07869 1.74369 9 28 6
3.58758 1.39964 1.64113 166 153 136
3.51693 1.07432 1.77123 7 21 6
3.50777 1.03066 1.80409 89 88 68
 3.5564 0.93926 1.86637 125 112 93
3.48406  1.4692 1.57648 161 144 116
3.47777 1.16276 1.69145 6 17 3
3.28552 0.90441 1.73408 58 62 45
3.43865 1.20801 1.65591 141 152 120
 3.41211 0.755898   1.8743 231 212 182
3.49101 1.46172 1.58252 102 88 62
  3.4217 0.805192   1.8609 213 207 193
 3.30063 0.639162   1.8589 126 114 92
 3.35194 0.730187  1.86004 225 213 197
3.30217 0.90035  1.7369 8 15 7
 3.41422 0.806625  1.85777 195 189 165
 3.51938 0.911669  1.86591 207 192 173
 3.46252 0.758159   1.8953 29 33 16
 3.22798 0.880267  1.72359 140 128 104
3.42279 1.25795 1.61997 19 32 14
3.49276 1.16937 1.71996 148 159 151
 3.35146 0.779915  1.84072 116 99 81
 3.40465 0.809624  1.85099 198 184 173
3.38506  1.0052 1.75977 92 94 81
3.58252 1.28027 1.70468 92 91 73
 3.23764 0.878429  1.71718 226 209 181
 3.28702 0.773147  1.80431 222 206 183
 3.26275 0.664519  1.83231 52 58 24
3.31175 1.22943 1.59892 128 131 102
 3.4765 1.30639 1.64331 116 110 94
3.25495 1.08371 1.63599 129 139 130
 3.33922 0.726261  1.85365 207 195 173
 3.35603 0.842478  1.80187 76 87 70
3.56545 1.21174 1.74492 187 182 163
 3.25024 0.964609  1.67648 77 92 69
3.37505 1.11314 1.68451 189 194 190
 3.19184 0.981157  1.65952 37 49 27
 3.26273 0.959495  1.70287 21 27 13
3.45381 1.40783 1.58766 234 246 246
 3.5471 1.33855 1.67065 131 128 111
 3.33167 0.973589  1.72603 2 15 0
 3.14599 0.706424  1.78357 168 166 141
 3.36661 0.670498  1.87656 80 79 58
 3.42418 0.792324  1.86774 85 78 62
 3.42487 0.746771  1.88208 213 194 164
 3.49972 0.892168  1.83376 73 89 63
3.36729 1.15187 1.66475 80 82 69
  3.3548 0.893351  1.76341 9 27 11
 3.43372 0.825089  1.82921 92 111 81
 3.36421 0.743862  1.85967 66 58 22
 3.37523 0.685036  1.88036 112 106 84
 3.25436 0.888359  1.72155 206 199 180
 3.52497 0.846946  1.88719 212 197 168
 3.42575 0.848481  1.81995 97 119 81
3.53206 1.19183 1.72716 34 45 31
 3.30977 0.797819  1.80789 77 67 55
 3.28187 0.829956  1.76751 20 21 15
3.54587 1.14252 1.76572 207 212 206
3.51467 1.49406 1.57815 72 65 39
 3.34375 0.880812  1.76609 87 101 68
3.37489 1.09065 1.70355 57 66 49
 3.54685 0.968042    1.851 138 131 121
3.49796  1.4867 1.57981 134 123 95
3.31532 1.03938 1.68987 51 62 46
 3.36639 0.806294  1.83744 132 112 85
 3.28553 0.970077  1.70595 170 173 162
 3.25525 0.931827   1.7127 68 67 47
 3.38417 0.677289  1.89878 127 127 103
 3.39414 0.879237  1.79179 70 87 55
3.26467 1.07755 1.64228 52 62 51
3.21995 0.91125 1.70687 227 215 193
 3.35556 0.759184  1.85159 99 90 57
 3.55199 0.926068  1.86947 118 96 75
 3.38813 0.785329    1.856 216 205 187
3.44082  1.1097 1.72734 60 66 56
 3.2925 1.07147 1.64035 86 102 73
 3.34293 0.789134  1.82692 122 122 112
3.44274 1.40945 1.57979 245 255 254
 3.26352 0.607169  1.87164 240 237 228
 3.11674 0.788379  1.71549 106 106 78
  3.3145 0.771582   1.8167 203 189 178
  3.1997 0.913859  1.70129 208 191 165
 3.31266 0.815509  1.77262 59 78 50
3.32973 1.11313 1.64916 73 87 62
3.31519 1.04817 1.67837 8 16 5
 3.20877 0.899084  1.71133 159 143 118
3.45932 1.15853 1.66737 11 25 2
 3.41653 0.851532  1.81019 110 125 94
 3.14737 0.710826  1.77423 26 29 20
  3.2723 0.889094  1.73729 151 145 129
 3.32958 0.979522  1.71066 82 98 59
 3.36834 0.678371  1.87534 221 219 194
 3.16303 0.684762  1.79561 90 108 58
 3.40335 0.870619  1.81257 18 32 7
 3.40171 0.834965  1.83613 65 66 60
 3.5205 1.32572  1.6725 100 94 82
3.27887 1.06529 1.65415 128 138 130
 3.3891 1.07408 1.71752 202 205 198
 3.33659 0.777496  1.83449 208 192 179
 3.30626 0.609653  1.87282 98 97 67
 3.31586 0.624348  1.87266 226 215 197
 3.36522 0.860035  1.77851 91 114 68
3.50128 1.49586 1.57824 91 85 61
 3.35794 0.991421  1.71049 65 81 54
3.46316 1.15392 1.67113 77 93 64
3.27996 0.93207 1.71844 63 66 45
 3.36447 0.933985  1.76932 84 86 75
3.55084 1.13725 1.78022 184 190 180
 3.30274 0.615891  1.86937 77 73 44
3.34852 1.16204 1.64049 37 40 23
3.34957 1.11353  1.6578 14 29 8
 3.33445 0.979425  1.72053 81 98 62
3.46913 1.32059 1.61719 63 67 53
3.22064 0.89389 1.71522 138 126 100
 3.25905 0.680376  1.82384 237 232 212
3.55325 1.15517 1.76584 172 177 171
3.45572 1.15105 1.68248 17 36 14
3.31504 0.74022 1.82891 201 183 161
 3.36744 0.641557  1.88937 232 226 200
 3.48796 0.971959  1.82005 62 64 53
 3.46525 0.827491  1.84019 14 33 14
3.43309 0.81708 1.85954 186 188 174
3.57361 1.34875 1.67512 96 94 82
3.44823 1.40826 1.58367 105 129 131
 3.19578 0.780615  1.74666 118 129 89
  3.2504 0.711985  1.80544 159 168 149
 3.27872 0.656671  1.84199 227 223 196
 3.37986 0.759529  1.86091 215 209 187
 3.27451 0.657916  1.83864 58 56 33
3.55251  1.3478 1.64998 158 152 136
3.53835 1.34159 1.64867 150 147 132
 3.21623 0.929102  1.70223 49 41 28
  3.3383 0.710391  1.85786 122 106 81
3.18072 0.97379 1.66782 114 112 97
 3.47338 0.836112  1.84217 10 31 0
 3.31692 0.835851  1.75828 15 29 16
 3.24662 0.654219  1.83299 53 61 37
3.48581 1.30875  1.6499 45 42 23
 3.23107 0.966091  1.67718 78 95 61
3.50881 1.47641 1.58728 157 142 113
 3.26642 0.885973  1.73475 89 82 63
  3.3462 0.886179  1.76193 13 30 11
   3.216 0.691174  1.77474 5 20 0
 3.14883 0.890972  1.67951 202 204 182
3.47689  1.3106 1.63654 44 42 30
 3.36802 0.973536  1.75804 69 74 67
3.45616 1.03707 1.75705 5 25 0
3.54479  1.4871 1.58927 249 253 255
3.28809 1.07468 1.63091 11 25 10
3.43887 1.31152 1.60467 85 96 79
 3.32929 0.896519  1.74003 17 32 9
3.24021 1.03031 1.63557 19 37 11
3.58058  1.3742 1.65145 35 36 38
 3.19716 0.912615  1.69839 222 202 178
 3.26456 0.826216  1.76596 70 61 44
 3.40052 0.725813  1.87854 219 203 178
 3.26877 0.668829  1.83339 242 230 216
3.27339 1.05881 1.66834 124 136 122
 3.20925 0.990209   1.6465 105 125 88
 3.44203 0.962387  1.79805 184 186 181
 3.17908 0.795879  1.73368 143 149 105
 3.57127 0.990095  1.83334 12 18 4
 3.39377 0.706718  1.88558 90 77 61
  3.3562 0.669151  1.87847 112 98 72
 3.36998 0.686365  1.87747 226 224 199
3.56969 1.35419 1.66697 106 99 91
  3.3317 0.986514  1.70958 4 22 0
 3.31255 0.753517  1.82203 126 109 81
 3.18883 0.694744  1.77457 17 31 6
3.48221 1.15457 1.73092 189 194 190
3.45217 1.14912 1.68687 89 105 79
 3.21243 0.993952  1.64275 46 62 35
 3.18513 0.797529  1.73545 42 49 16
3.37689 1.17385 1.64479 174 166 155
 3.18106 0.853755  1.70736 231 226 207
 3.25121 0.881905  1.72561 46 39 21
3.39692 1.01051 1.73932 9 24 5
 3.24853 0.752246  1.78735 39 41 20
 3.17763 0.704338  1.77359 87 104 68
 3.26205 0.819319  1.77075 209 192 176
3.48718 1.02236 1.79576 23 27 0
 3.35051 0.743937  1.85058 64 61 42
3.26847  1.0825 1.62978 24 42 20
 3.24659 0.937296   1.7055 88 81 62
 3.18752 0.846189  1.71176 219 219 207
3.48557 1.15252 1.73442 31 36 30
 3.26321 0.674805  1.83037 221 215 191
  3.3606 0.758444  1.85365 196 182 153
 3.39406 0.934548  1.78389 26 35 18
 3.18425 0.937846  1.67144 77 90 60
3.41455 1.01806 1.73122 1 20 0
 3.20406 0.826635  1.73138 230 235 212
 3.11829 0.653761  1.79773 41 42 34
 3.21983 0.806557  1.74843 215 222 188
3.27002 1.07178   1.644 8 19 2
 3.09209 0.741115  1.73617 245 244 239
 3.13037 0.842034  1.69496 124 118 94
 3.11858 0.710768  1.77047 44 32 18
 3.22779 0.963084  1.66552 6 26 1
 3.31072 0.822868  1.76918 0 15 0
 3.31068 0.811938  1.77771 10 28 4
 3.11738 0.613219  1.78227 207 217 216
 3.3006 1.04458 1.67021 6 17 1
3.51974 1.33715 1.63726 25 27 24
 3.14331 0.698877  1.78064 106 119 66
3.21553 0.88954 1.71855 202 185 159
 3.26677 0.940386  1.71227 209 211 190
3.24065 1.00409 1.65336 14 30 3
3.16955 0.82577 1.71816 172 178 150
  3.1542 0.619881  1.82509 180 181 175
 3.32948 0.727429  1.84191 155 143 127
 3.19475 0.740406  1.76073 53 68 29
3.28064  1.0742 1.63722 11 25 10
3.36894 1.14368 1.67044 182 185 174
 3.17711 0.748891  1.74884 39 50 20
 3.30502 0.974324  1.71596 7 15 2
 3.10799 0.664958  1.78909 115 106 97
  3.79875 -0.106824   2.59409 236 229 219
 3.16445 0.371027  1.89378 69 105 41
 3.17875 0.568407  1.87056 235 238 231
  3.12829 -0.120328   2.05269 42 65 19
 3.73167 0.175454  2.32287 228 226 211
 3.95378 0.427025  2.37066 216 185 154
 3.32435 0.476649   1.9481 220 208 186
 3.28108 0.208336  2.04385 41 49 36
 3.21771 0.871462  1.70852 166 152 125
 3.25755 0.379836  1.95893 216 200 177
 3.32874 0.660125  1.85892 216 204 188
3.46477 0.25219 2.14213 36 37 39
 3.62692 0.190565  2.29434 162 156 132
  4.10466 -0.151895   2.80913 162 147 128
  3.61745 0.0340517   2.34694 76 85 56
 3.34546 0.543523  1.91704 215 197 175
 4.24883 0.151565  2.69892 52 64 44
 3.45921 0.796016  1.87809 205 203 178
 3.73317 0.603937  2.13533 82 89 71
3.29744 0.53606 1.90845 11 16 10
 3.46604 0.684441   1.9458 183 166 138
  3.86675 -0.355766   2.75671 98 99 81
 3.84554 0.130102  2.42353 65 83 61
3.05143 0.12871 1.91099 219 221 208
 3.94702 0.172882  2.51381 52 69 33
  4.56458 0.0785156   2.98483 122 113 106
3.55551 0.15718 2.23175 212 190 166
   3.35655 -0.0780234    2.21975 193 183 156
 3.21697 0.199067  1.98144 12 18 14
  3.62905 -0.406497   2.59955 192 185 169
 4.13058 0.302456  2.59597 65 96 55
  4.14134 -0.259458   2.91381 128 123 104
 4.12263 0.653435  2.34816 71 78 60
  3.5932 0.454576  2.10797 35 36 40
  3.1463 0.285325  1.89725 54 70 31
 3.25682 0.282322    1.968 3 7 8
 3.31442 0.302583  2.01614 5 9 8
  4.04623 -0.465037   2.95963 144 121 103
  3.42831 -0.316065   2.44733 62 61 43
 3.23645 0.588005  1.88296 229 227 215
  3.21488 -0.141688    2.1679 190 177 143
    3.2539 -0.0831453    2.15265 44 59 36
 3.23432 0.529989  1.88898 82 111 53
 2.99915 0.355189  1.80582 163 163 153
 4.17923 0.110276  2.70335 101 102 86
   3.43536 0.00290447    2.22852 204 193 173
 3.64556 0.590232  2.07833 21 30 11
  3.9575 0.219925  2.48933 67 82 51
 3.26223 0.459409  1.92943 84 118 58
 3.26674 0.448653  1.91899 78 105 50
 3.43748 -0.52794  2.56191 224 201 167
     3.5638 0.000497131     2.32187 59 61 37
  4.39116 0.0390085   2.88958 142 139 130
   3.33012 -0.0478922    2.16749 214 200 163
    3.3016 -0.0590648    2.18784 170 157 125
 3.51803 0.221021  2.20817 238 236 224
  4.16134 -0.678259   3.13873 71 79 66
 3.26406 0.212193  2.03389 6 11 14
  3.76892 -0.504559   2.80339 201 192 177
   3.64769 -0.0689382     2.4625 132 133 119
  3.20612 -0.297062   2.27528 60 74 38
  4.34139 -0.612574   3.19782 67 75 64
  4.26239 -0.480875   3.09694 38 46 33
    4.484 -0.500482   3.21209 38 49 33
  3.22664 -0.120009   2.13491 59 71 47
3.75111   0.567 2.16482 123 129 125
 4.19236 0.676623  2.39096 210 189 158
4.15223 0.57568 2.40299 16 24 13
 3.30966 0.895625  1.73986 19 30 16
  3.1256 0.308206  1.88356 22 28 0
   3.9761 -0.657184   3.01997 138 134 122
   4.3465 -0.412584   3.10174 33 41 26
4.14855 0.62803 2.39332 216 191 160
  4.24423 -0.744788   3.21251 52 64 52
 3.66487 0.117437  2.32585 68 72 49
 2.94838 0.299273    1.811 18 25 9
 3.65656 0.188031  2.30679 128 125 106
 3.81926 0.791652  2.08606 9 23 10
  4.59579 -0.228495   3.14096 59 65 53
 3.35807 0.721332  1.87034 197 177 150
 4.20712 -0.13725   2.8818 40 51 34
  3.5075 0.351897  2.11264 16 17 21
 4.30582 0.141336  2.78942 160 148 122
  3.7222 0.717979  2.06858 37 49 35
  4.08224 -0.647877    3.0805 135 119 94
  4.60763 -0.153167   3.11014 47 54 46
  3.11953 -0.144201   2.05136 1 10 9
   3.44063 -0.0289724    2.23692 47 58 24
  3.75147 -0.805875   2.95482 185 145 120
  4.3903 0.164653   2.8084 95 90 71
  4.01001 -0.914651   3.16238 199 185 159
  4.21855 -0.501079   3.08836 172 150 127
  3.80012 -0.197359   2.59885 231 211 184
  3.89172 -0.110971   2.62818 218 197 170
  3.64308 0.0899873   2.33747 225 216 185
3.89566 0.36063 2.36069 213 199 172
 3.93716 0.332983  2.41738 184 171 154
  4.16452 -0.616432   3.10852 56 60 46
  4.42713 -0.575653   3.21933 67 78 64
   3.76647 -0.0204533    2.51919 141 134 118
 4.63239 0.442324  2.77524 70 69 65
  3.58491 0.0696969   2.32315 224 215 198
 4.18526 0.550753   2.4599 173 155 133
3.04032 0.48285 1.79996 5 16 10
  3.70883 -0.611182   2.82051 94 83 65
 4.40221 0.283028  2.71516 49 51 50
  4.24959 -0.681073   3.18313 77 81 67
 4.02803 0.442273  2.42134 151 134 106
 3.65657 0.505663  2.16367 36 37 32
  3.3998 0.263243  2.11421 16 19 24
  3.99425 -0.527652   2.95789 153 133 109
 4.10769 0.077442  2.65006 219 202 182
 3.17611 0.299035   1.9096 108 128 57
  3.73225 -0.258483   2.60341 228 211 183
 4.67846 0.311644  2.90333 60 68 57
  4.14225 -0.643839   3.11614 183 177 163
  3.25146 -0.102357   2.17409 163 151 113
  3.88234 -0.736175   2.99506 191 161 135
 3.92216 0.694629  2.21011 103 112 109
 3.40304 0.147731  2.12808 64 96 47
  4.29235 -0.570066   3.15263 67 75 60
 3.5749 0.97626 1.87165 149 142 116
 3.63658 0.639456  2.05393 55 57 43
 3.53514 0.716374  1.97992 96 80 64
 3.69239 0.686531  2.06831 57 59 48
 4.06708 0.466318  2.42833 51 61 50
 4.27944 0.218881  2.68592 210 194 169
  3.28771 -0.336986   2.35672 109 108 88
  4.46955 -0.319616   3.11562 162 141 114
  4.17803 -0.317842   2.96889 139 119 95
 3.82028 0.723278  2.12402 8 15 8
 4.22259 0.182106  2.69407 220 204 179
  3.6704 0.577626  2.10502 85 92 76
 4.76905 0.371871  2.92551 28 39 31
  3.88044 -0.537494    2.8958 95 98 89
 3.63534 0.302339  2.24389 11 21 22
3.04526 0.21657 1.88184 216 213 204
  4.38262 -0.322253   3.08887 141 129 107
 4.40261 0.103926  2.85731 159 156 141
  4.08419 -0.380122   2.94435 133 119 93
 3.18554 0.417695  1.89566 113 136 64
   3.7792 -0.848792    3.0024 84 93 76
   4.00698 -0.0083688    2.63362 221 203 179
    3.47195 -0.00578501     2.28306 144 131 114
  3.43594 -0.336613   2.47905 221 203 179
  4.71242 -0.493852   3.34417 75 80 60
  4.5255 0.198779  2.87174 43 46 39
 4.76577 0.338729   2.9511 173 162 140
 3.23117 0.183032  2.04823 24 27 20
  3.63612 -0.139719   2.50225 123 120 103
 3.63122 0.114969  2.32037 218 215 198
 3.56251 0.235806  2.23267 238 233 227
 4.41079 -0.44408  3.15782 61 64 55
  3.34927 -0.166044   2.31483 217 210 184
  3.96299 -0.694549    3.0263 45 53 40
  3.9876 0.417709  2.39531 116 106 94
3.88729 0.14184  2.4697 176 169 151
  4.64947 -0.474391   3.29089 96 102 90
  4.35591 -0.265177    3.0319 47 53 43
 3.68089 0.476617  2.18362 55 54 49
  4.68179 -0.444887   3.28035 161 137 113
  4.32473 -0.222885   2.99829 48 54 42
  4.07862 -0.573886    3.0419 50 53 42
 3.47067 0.721052  1.92499 9 13 12
  3.60162 -0.458245   2.61801 235 224 222
   3.2645 -0.224303   2.28346 150 147 128
  3.77563 -0.779818   2.96621 74 85 68
 3.80125 0.381308  2.30007 25 37 23
  4.65903 -0.297748   3.21391 34 40 28
  3.63238 -0.199586    2.5606 217 215 203
 3.37807 0.224976  2.10826 92 106 71
 3.05207 0.408049  1.80577 43 47 32
   4.4324 -0.360251   3.12199 80 82 71
 3.40124 0.654906  1.91354 105 87 63
  3.31708 -0.205767   2.30494 208 210 197
  3.59571 0.0968546   2.31164 40 43 26
  4.36999 -0.193012   3.00343 148 126 103
 4.04713 0.428073  2.46067 20 30 19
 4.22657 0.635361  2.41176 49 62 45
  3.67228 -0.397898   2.62184 143 135 122
  4.44627 -0.436524   3.14156 161 144 118
  3.7532 0.459068  2.22554 88 99 83
 4.00791 0.480132  2.39043 219 187 149
  3.86847 -0.657718   2.96542 185 157 133
  3.48635 0.0366069   2.26732 55 69 34
  4.38777 -0.591689   3.20387 129 111 87
 3.95095 0.680203  2.23184 48 53 47
  3.53782 0.0254106   2.31976 218 216 203
  4.20311 -0.219327   2.92032 110 95 76
 4.10741 0.587172  2.38266 206 180 147
  3.26639 -0.126179    2.1801 74 77 60
 3.53382 -0.43586  2.56204 220 197 166
 3.39699 0.176654  2.12737 238 237 232
 4.64512 0.328913  2.88273 183 185 174
  4.40513 -0.673102   3.26981 164 158 134
 4.27357 0.110465  2.78227 138 124 98
  3.67466 -0.547686   2.75436 96 99 82
 4.69174 0.400939  2.86994 56 60 46
 4.16112 0.508632  2.47164 13 24 16
  4.64711 -0.390517   3.24964 69 72 63
 4.23166 0.366395  2.62541 96 109 81
  3.73404 -0.418255   2.71997 124 128 114
 4.03689 0.475547     2.39 55 74 52
 4.06713 0.283738  2.58346 84 92 77
  4.23581 -0.308762   2.98129 30 35 29
  3.41049 -0.290438   2.41841 152 140 118
  4.45741 0.0546879   2.92331 55 61 47
 4.83627 0.257851  3.03492 150 137 120
   4.32849 -0.0320523    2.89143 67 73 59
   4.32934 -0.0301054    2.89474 67 73 59
  3.82084 0.0920958   2.44845 147 148 130
  4.24121 -0.552831   3.11478 61 61 51
  3.26023 -0.367131   2.36577 94 92 79
  4.0059 0.404925  2.43372 174 155 140
   4.5445 -0.266786    3.1218 164 144 119
  4.27145 -0.651563   3.18235 159 141 117
  4.44603 -0.194418   3.04181 48 48 38
 4.44053 0.341352  2.71636 214 198 175
   3.50886 -0.0306615    2.32328 82 87 57
  4.58421 -0.183825   3.11731 156 143 126
 4.15967 0.416386  2.52444 26 37 23
3.55971 0.15496 2.23888 212 188 162
  3.38479 -0.315809     2.418 157 150 132
   3.35018 0.00422832    2.14422 170 172 158
  3.89856 -0.818175   3.05894 77 81 64
 4.3299 0.25734 2.69355 214 199 180
  3.36483 -0.088748   2.24876 93 108 69
 3.72361 0.193109  2.32776 222 223 209
  4.14669 -0.306396   2.92998 78 81 70
  4.00868 -0.499059   2.96064 58 66 55
 3.78981 0.493391  2.24471 160 144 121
 4.07718 0.631877  2.34055 130 123 115
 3.92993 0.524406  2.31408 40 48 35
 4.47243 0.335189  2.73582 89 94 87
 3.87514 0.297461  2.38758 216 196 163
   3.56788 -0.0207048    2.34631 127 108 78
  3.9408 0.470293  2.33022 63 65 60
 3.75073 0.299415  2.29976 204 213 196
   3.44375 -0.0674397    2.31562 212 200 186
  3.91381 -0.840469    3.0664 186 173 154
 3.41673 0.248249  2.13131 93 83 73
  3.99241 -0.364109   2.85607 46 52 40
  4.66339 -0.239657    3.1807 24 30 20
3.17791 0.64091 1.80003 81 94 48
 3.49966 0.692128  1.96696 150 128 105
 3.42184 0.607133  1.95267 140 126 100
 4.66566 0.241456  2.94256 46 46 36
  4.15061 -0.587844   3.09381 139 124 103
  4.34563 0.0199078   2.87248 103 110 94
  4.36135 0.0678146   2.84846 68 76 63
   3.58478 -0.0735096    2.37409 59 58 38
  4.56612 -0.537459   3.28297 76 82 68
  4.71561 -0.424642   3.29125 69 74 68
 3.47331 0.840131  1.86767 35 38 29
 4.59527 0.446603  2.75508 217 198 181
  4.30256 -0.347085   3.05485 157 142 119
  3.43418 0.0684943   2.16198 113 127 101
 4.33424 0.510982  2.56513 12 22 21
 3.28225 0.980144  1.70398 126 134 121
 3.98158 0.529535  2.33909 193 192 188
   3.10759 -0.0975758    2.04602 42 51 32
 3.77207 0.421466  2.25338 17 31 18
  4.75298 -0.502439   3.35682 166 150 124
 3.82153 0.638935  2.18619 133 133 125
 3.30466 0.577669  1.88459 20 27 9
  4.16104 -0.121466   2.82581 140 133 117
  4.50669 -0.292718   3.13363 75 75 65
 4.56294 0.346797  2.82844 101 93 72
 4.31173 0.177727  2.71313 151 138 119
 3.63577 0.211015  2.27044 78 73 51
 3.98025 0.160678  2.57991 216 209 193
  4.79503 -0.290846   3.27468 165 152 136
  3.88958 -0.647274   2.95994 50 55 49
  3.5329 0.358834  2.13508 130 130 118
 3.89092 0.273928  2.40792 131 119 103
  4.70893 -0.183831   3.18545 195 177 153
  3.21415 -0.254471   2.24833 209 209 197
 4.28694 0.548916  2.51873 17 27 26
  3.34024 -0.382225   2.42199 71 65 53
  3.27588 -0.313386   2.33783 161 156 137
  4.79961 -0.439442   3.34711 109 116 108
 4.51155 0.102823  2.90916 57 60 53
   3.70072 0.00769167    2.42117 113 115 101
  3.61255 -0.753647   2.81866 117 113 86
 4.11583 0.279287  2.58976 105 120 89
  4.04979 -0.307603   2.88897 105 99 83
 4.21127 -0.29454  2.96816 138 127 107
  3.64571 -0.110671    2.4964 116 113 98
 3.42181 0.217733  2.14506 76 83 50
 4.86152 0.321847  3.00505 40 40 32
  4.83127 -0.378112   3.32878 174 166 147
 3.97396 0.319821  2.46824 97 96 78
 3.02163 0.128765   1.8981 196 198 184
  4.48632 -0.167797   3.03672 160 139 120
 4.73662 0.453105  2.86952 79 86 68
 4.86819 0.362404  2.98175 154 151 136
 4.23745 0.700674  2.39876 88 81 65
  3.36539 -0.146375     2.313 210 205 183
  4.25049 -0.259849   2.96042 157 136 115
  3.45604 0.0873187    2.1912 211 192 162
 3.53192 0.198033  2.22042 162 139 108
  4.69309 -0.400732    3.2804 144 149 142
 3.60028 0.618204  2.03427 23 33 25
 3.58426 0.133092  2.26782 48 60 38
  4.00163 -0.144041   2.73693 64 64 52
 3.88332 -0.39182  2.79798 195 186 169
    3.636 -0.155083   2.52803 199 187 165
  3.91436 -0.632101   2.96396 184 168 152
 4.46134 -0.37942  3.15782 152 136 111
 3.30032 0.299621  1.98727 5 10 4
 3.33472 0.198698  2.10905 130 124 92
   3.09884 -0.0418035    2.03446 161 159 147
   4.3115 -0.109426   2.92353 133 117 92
  3.65302 -0.688737   2.82525 187 178 163
4.94552 0.24532 3.09027 50 56 46
 3.60262 0.556272  2.07644 25 33 20
 3.56514 0.361401  2.19126 203 187 161
   4.34051 -0.0560425    2.91824 155 128 107
   4.33882 -0.0574671    2.91454 155 128 107
3.73713 -0.2858 2.61126 111 114 105
 3.59208 0.211184  2.24062 59 77 35
  3.99683 -0.330022   2.85408 142 145 136
   4.7925 -0.491808   3.36789 69 77 64
   2.98809 -0.0442392    1.99164 236 222 211
  3.95333 -0.175097   2.71166 52 52 42
  4.24952 -0.234927   2.95815 64 70 58
  4.24965 -0.235689   2.95703 64 70 58
   3.31775 -0.0713172    2.21111 54 55 41
  4.53229 -0.550123   3.27494 198 187 167
 3.02412 0.112148  1.90255 36 67 0
  3.78859 0.0707853   2.44523 160 159 138
 3.67128 0.286975  2.26221 221 222 214
 4.68432 0.278268   2.9228 156 136 109
  3.76335 -0.761733   2.95513 183 162 145
  3.60129 -0.111378   2.42898 64 75 58
  3.99818 -0.860694   3.14352 185 167 153
 3.28775 0.828496  1.76619 13 20 13
   3.29826 -0.0587075    2.17674 198 186 144
 4.18985 0.484577  2.49955 34 41 34
 3.84453 0.477795  2.26171 12 23 15
 3.86664 0.730058  2.14127 22 31 28
 4.34717 0.159832  2.78466 168 148 121
  4.23549 0.0728415   2.76754 43 52 33
3.86442 0.63416 2.18078 83 107 57
 3.18142 0.398636  1.90774 63 102 37
 3.28759 0.216232  2.06478 104 109 79
  4.25429 -0.111153   2.89105 164 143 114
  3.7808 -0.63554  2.88118 60 65 58
 3.34803 0.473427  1.95233 222 210 186
 4.46928 0.108083  2.89793 156 141 118
 3.60974 0.294994  2.23597 219 213 197
  3.93856 -0.529471   2.93633 111 109 96
  4.62602 -0.247175    3.1644 223 215 196
  3.33774 -0.324861   2.40413 90 82 69
 4.04554 0.607152  2.33408 40 45 38
  3.35866 -0.239477   2.33021 60 66 40
 4.72812 0.347858  2.91104 171 164 146
 3.25237 0.148245  2.06696 126 112 86
 3.79916 0.239988  2.34466 222 210 184
3.43417 0.09528 2.15781 195 197 184
   4.09629 -0.0377685    2.74102 79 83 68
  3.16791 -0.342329    2.2696 217 217 205
  3.12468 -0.219139   2.16176 205 186 156
    3.50326 -0.00605491     2.31838 215 216 198
  3.81724 0.0189552   2.52881 118 112 96
3.64457 0.13698 2.32323 222 217 197
 3.95443 0.461844  2.35838 191 189 176
 4.09171 0.517828  2.39616 59 62 53
  4.1416 0.525782  2.43168 31 37 27
 2.87697 0.225235  1.82009 197 188 159
  4.00529 -0.382754   2.88496 161 155 139
 3.64557 0.584836  2.08701 5 11 11
   4.54921 -0.0494656    3.03024 61 58 49
   4.36944 -0.0517179    2.92452 37 39 26
 3.69943 0.300375  2.28303 223 225 214
  3.1911 0.643775  1.81764 141 144 137
 3.93183 0.557208  2.30114 143 143 133
 2.92707 0.225655  1.83694 202 193 162
   4.6097 -0.597099    3.3375 124 126 113
  4.51956 -0.245909   3.12078 58 62 39
  4.32328 -0.635767   3.20856 155 156 140
  4.04366 -0.205134   2.80528 202 190 174
  4.04058 -0.185248    2.8017 94 91 76
  4.83915 -0.317766   3.31256 179 158 131
 3.76242 0.580989  2.17525 144 149 145
  3.22977 -0.247867   2.26597 34 30 19
   3.6849 -0.338348   2.59952 88 91 82
  4.15242 -0.725292   3.15905 98 95 76
 3.31506 0.314986  1.95464 5 14 9
  4.60424 -0.383799   3.21129 147 150 141
 3.84124 0.138241  2.40321 45 57 37
2.96496 0.42887 1.77987 179 164 161
 3.5938 0.18989 2.24776 199 194 172
 3.85374 0.621744  2.20197 10 20 11
   3.9224 -0.350032   2.80724 203 191 175
   4.8273 -0.401246   3.34695 56 63 47
 3.77502 0.125632  2.36677 93 120 77
 3.89073 0.391017  2.35641 80 88 47
 3.50913 0.714571  1.95744 30 41 24
3.98338 0.48808 2.36354 37 43 31
  3.92587 -0.197497   2.72057 84 86 72
  4.18633 -0.707616   3.16406 84 74 62
  3.83887 -0.189782   2.62247 68 71 60
  4.57728 0.0253203   3.00698 18 21 14
  3.76682 -0.298723   2.62678 86 87 73
 3.77441 0.658538  2.11628 108 111 100
   4.2183 -0.176919   2.91474 185 183 168
   3.7526 -0.244242   2.59869 80 82 61
  3.9848 0.610912  2.28194 16 29 22
 4.21099 0.324832  2.63677 218 210 187
 3.73555 0.669388  2.11047 66 72 58
   3.35471 -0.0888833    2.22639 189 187 174
 3.31418 -0.44051  2.43582 51 43 20
  3.52276 0.0087629   2.31475 219 216 199
 3.49571 0.109012  2.21645 204 195 186
4.50198 0.27761 2.81476 168 156 132
 3.29414 0.881131  1.75185 68 76 53
  3.94316 -0.554153   2.95161 151 135 120
  3.43712 -0.553928   2.55527 94 97 76
3.28187 0.47784 1.91857 240 245 238
  3.11252 -0.231658    2.1576 206 191 160
  3.17103 0.0989227   2.03473 232 219 200
  3.6471 0.269129  2.26461 18 18 16
  4.23031 -0.324885   3.00353 152 135 117
 4.71035 0.051976  3.06801 49 51 38
  3.83066 -0.609994   2.90698 97 100 89
 4.00128 0.613624  2.31132 112 116 101
  3.49777 -0.197166   2.42022 84 81 62
  3.6633 0.663668  2.05834 25 30 26
  4.09005 -0.356251   2.92976 62 64 51
 4.39935 0.532105    2.609 43 51 36
  3.90336 -0.395028   2.81154 87 80 61
 2.98207 -0.07234  1.99606 212 188 160
   4.5214 -0.228427   3.10326 168 152 127
 3.52215 0.279457  2.19762 165 148 120
3.73723  0.4858 2.20077 48 56 41
  3.58894 -0.600583   2.72169 93 84 75
  3.60876 0.0837326   2.31717 228 220 207
  4.56115 -0.494839   3.28931 189 174 153
  3.75981 -0.859059   3.00018 185 155 131
 3.71501 0.553382  2.15248 27 30 21
3.95496 0.56567 2.29768 28 31 22
   4.39503 0.00860504     2.9132 61 69 48
   2.96253 -0.0652073    1.98468 236 228 217
  4.43009 -0.491118   3.18947 64 65 47
   4.2675 -0.332701    3.0335 157 138 121
 4.90338 0.355726  3.00108 20 26 16
 4.48701 0.228492  2.83821 53 50 33
  4.8216 0.166804  3.06447 69 71 58
 4.87037 0.258941  3.03756 29 29 19
4.04211 0.58044 2.34959 158 160 147
  3.36911 -0.305397   2.40555 122 114 91
  4.40311 -0.414768   3.13905 169 153 128
 3.10683 0.395382   1.8737 64 97 40
  4.76331 -0.477242   3.35808 165 154 134
  3.74687 0.0475462   2.41533 71 81 56
 3.79261 0.509378  2.22972 18 25 17
3.07841 0.17281 1.90854 233 231 218
  4.56761 -0.436858   3.23786 53 49 38
 3.68986 0.326548  2.26054 155 176 167
 4.33594 -0.42742  3.10484 72 68 59
   4.28911 -0.0596074    2.87105 151 143 124
   4.29176 -0.0564561    2.87806 151 143 124
  4.06633 -0.179389    2.8056 188 173 152
   4.56305 0.00404975    3.01429 136 119 103
3.26677 0.69221 1.82337 87 86 58
 2.92591 0.410364  1.77038 220 214 200
 4.23045 0.111344  2.72867 160 157 140
  4.29141 -0.219131   2.97638 158 140 116
 3.36261 0.445769  1.96798 69 78 57
 4.35111 0.446024  2.66312 77 83 57
  3.79783 0.0184331   2.50133 186 183 174
    3.2644 -0.0195864    2.09515 107 105 92
  4.64505 -0.165047   3.13275 193 188 168
  4.77839 -0.511973   3.37069 159 161 147
 4.39224 0.636361  2.53702 29 34 30
  3.92326 -0.877141   3.09428 58 54 45
 4.19777 -0.24114  2.93586 68 70 56
  4.86506 -0.374056   3.34248 39 47 36
  4.89015 -0.405464   3.38086 56 64 43
  4.52896 -0.157686    3.0836 92 89 72
  3.53933 0.0460345   2.31048 80 84 67
  3.79988 -0.499284   2.80599 106 94 78
  4.16542 -0.225721   2.91016 31 35 21
  4.42675 -0.209745   3.05024 150 133 117
  3.5844 0.287001  2.21236 16 31 38
   4.04249 -0.0667382    2.72399 159 139 112
   3.8622 -0.206581   2.64649 94 85 68
3.66853 -0.1142 2.51043 86 82 71
 4.90972 0.231428   3.0841 149 144 124
 3.72911 0.470104  2.20611 160 158 146
  4.49412 -0.600799   3.26923 194 182 158
 3.46847 0.028291  2.24251 207 206 188
 3.76112 0.278545  2.30289 62 57 51
 4.49962 0.177559  2.88097 165 162 145
  4.51523 -0.528083   3.24921 128 114 88
  4.08858 -0.702607   3.11035 170 162 139
  3.11418 -0.261584   2.17001 192 186 172
   3.48826 -0.0554812    2.32419 130 116 89
  4.26854 -0.588888   3.15264 167 160 141
   3.71427 -0.0329462    2.48224 122 115 99
    3.3051 -0.0077354    2.12581 201 184 154
 4.76914 -0.27637   3.2543 37 41 27
  3.92496 -0.274066   2.76042 83 76 66
 3.92528 0.435711  2.36082 181 173 152
   4.42884 -0.0884215    2.98711 65 63 50
 4.74931 0.392839  2.91843 197 198 192
 4.78951 -0.39802  3.31318 159 153 141
    4.36453 -0.00781574     2.89813 165 152 133
 3.43159 0.561984  1.98149 103 95 72
 3.75593 0.441112   2.2434 180 182 169
 4.34879 0.248405  2.70081 71 67 58
  4.52894 -0.124219   3.05571 33 30 21
  4.28125 -0.176086   2.95392 148 136 112
 2.94991 0.178328  1.86155 208 200 179
4.17534 -0.2443 2.92724 128 113 90
 3.72099 0.505121  2.18096 11 18 11
  4.03192 -0.754531   3.09769 63 65 52
 4.10426 0.244352  2.60828 206 192 166
 3.10008 0.195105  1.90711 239 237 225
  4.77521 0.0956776   3.08011 104 107 90
  4.09579 -0.189326   2.81533 170 164 152
   4.46341 -0.0770766    2.99863 142 140 127
 4.18701 0.317976  2.63188 98 105 72
 4.29749 0.406206  2.65403 94 105 71
  3.75755 -0.219925   2.60092 219 205 178
  3.3634 0.472979  1.95297 65 74 47
  4.22939 -0.196379   2.92465 56 53 36
  4.78313 -0.423707   3.33568 63 66 59
  3.50323 -0.176269   2.41526 189 174 145
   3.29091 -0.0197006    2.12425 199 185 150
  3.87477 -0.256599   2.70702 86 86 76
 4.58801 0.268437  2.86463 184 178 166
  3.45869 0.0490749   2.23406 208 191 163
  3.75151 -0.465766   2.75651 89 85 73
 3.81387 0.414283  2.29146 166 158 137
  4.70011 -0.313142   3.23763 32 35 26
 4.49903 0.256961  2.82713 87 81 67
  3.47756 0.0940062   2.19927 74 86 48
  3.93112 -0.335256   2.80182 204 195 180
   3.338 0.860724  1.77925 74 90 53
 4.39892 0.550265  2.58787 122 125 116
 2.95155 0.137724  1.86288 70 97 28
  2.96298 -0.146164   2.01551 208 172 138
 3.11784 0.195791  1.91553 214 220 210
   4.3631 -0.137403   2.98105 151 134 114
 4.36984 0.234456  2.73744 78 72 58
   3.7055 -0.769525   2.90639 20 25 19
  4.44099 -0.100986   2.99119 136 127 112
 3.47078 0.689644   1.9527 161 140 113
  4.9343 0.270875  3.07851 147 147 137
  4.45052 -0.458555   3.19114 80 77 60
  4.31949 -0.191114   2.97925 175 171 159
 4.31906 -0.19307  2.97578 175 171 159
  4.2823 0.637613  2.46702 34 37 26
 3.72951 0.322408  2.28256 37 40 29
  3.06004 0.0510222   1.98621 221 195 168
  4.52446 -0.406225    3.1825 204 191 172
 3.51794 0.694169  1.97239 96 84 70
    3.55949 -0.00859068     2.33327 125 112 80
3.95841 0.67286 2.23329 24 34 26
  3.19163 -0.132382   2.12681 59 64 42
 3.22982 0.735704  1.78516 67 61 25
  3.46945 0.0664048   2.21183 74 82 59
4.27861 0.41988 2.59428 54 58 43
   4.0198 -0.476808   2.95509 124 111 92
  4.04107 -0.382523   2.91981 90 91 77
    4.2855 -0.0399329    2.87595 79 82 65
  4.55601 -0.338708    3.1654 212 203 186
  4.07537 -0.442003   2.96579 108 100 87
 4.09379 0.387887  2.50142 79 91 51
  4.8236 0.219282  3.03559 39 40 32
   4.5764 -0.344323     3.189 45 47 36
 4.42949 0.225876  2.80026 40 42 31
 3.92808 0.364611  2.37692 115 99 73
  4.53989 -0.235361    3.1053 91 85 71
    3.38504 -0.00596314     2.19841 194 191 176
  4.91223 -0.409322   3.38424 179 165 139
   4.22594 -0.0130986    2.80158 43 46 35
 4.38447 0.489808  2.66431 200 182 160
 3.58255 0.365994  2.19357 29 28 26
 3.85665 0.565684  2.23369 17 22 16
 4.3738 0.68342  2.4987 44 50 40
  3.0773 0.267063  1.88201 141 141 131
  3.36873 -0.421391   2.50322 211 199 177
 3.94686 0.108335   2.5881 171 166 146
 3.60571 0.153417   2.2594 37 56 24
 3.01395 0.167366   1.8863 130 126 101
   3.61626 -0.0213191    2.36887 122 115 86
 3.97911 0.729256  2.22536 47 55 44
  4.07066 -0.457349   2.97823 149 133 110
   3.26005 -0.0851518    2.16246 16 25 8
   3.68663 -0.0585706    2.47961 66 68 55
  3.26269 -0.243379   2.30899 83 87 64
 3.81607 0.712956  2.11845 10 16 12
 4.43244 -0.52563  3.21511 109 107 82
 3.47284 0.537298  2.01184 21 24 15
  3.68277 -0.655888   2.81856 173 163 153
3.78919 0.32262 2.32753 243 237 221
   3.53064 -0.0576693    2.33762 71 64 36
  3.38778 0.0428433   2.14388 167 165 150
 2.96092 0.226106  1.85134 203 196 170
  3.45535 -0.273106   2.43175 86 80 66
  3.83372 0.0371935    2.5174 179 180 172
 3.67805 0.105187  2.33425 75 78 51
 3.19231 0.487077  1.88863 107 136 69
  4.18634 -0.228415   2.92017 147 131 105
 4.10413 0.376272  2.51949 157 157 145
 3.36711 0.466124  1.96334 206 201 181
 3.36686 0.467248  1.96389 206 201 181
  4.14096 -0.213527   2.87356 86 89 72
 3.59813 0.263452   2.2452 66 78 56
 3.33761 0.233805  2.09608 119 120 104
 4.56144 0.305127  2.83528 180 164 139
 3.08773 0.137229  1.94057 6 12 0
  3.71232 -0.108672   2.54819 184 176 157
 4.10746 0.412636  2.50414 46 57 23
 3.56325 0.102699  2.27767 75 89 53
  3.97326 -0.358137   2.85023 165 159 147
 4.26048 0.397067  2.59578 56 65 46
 3.61196 -0.53023  2.69596 85 82 63
  4.54451 -0.434209   3.22655 204 195 178
 3.40283 0.059382  2.14714 214 210 199
  4.33176 0.0355377   2.84851 157 149 128
 3.89509 0.320726  2.37784 196 172 144
 4.22146 0.372215  2.59602 35 28 20
 3.20634 0.774994   1.7537 78 99 43
  3.79224 -0.967955   3.07976 43 44 36
  3.93461 -0.453602   2.87566 62 65 46
 3.12399 0.585156  1.83416 238 240 235
  3.95247 -0.307632    2.7998 186 174 160
    3.59797 -0.00239651     2.34954 129 117 95
 3.88579 0.401769  2.34286 174 175 157
 4.77154 0.217295  3.01098 44 42 29
 4.21938 0.557397  2.48405 24 32 17
3.50267 0.66851 1.97477 47 45 32
 3.62269 0.055455  2.33633 132 123 94
  3.6156 0.371248  2.14748 95 110 117
 4.45535 0.284718  2.76668 218 205 196
  4.33972 -0.246333   3.02246 156 137 120
 4.61319 0.401633  2.79961 162 150 134
  3.32401 -0.169869   2.30607 70 66 37
  4.13578 -0.104176   2.81764 98 90 77
 4.90362 0.307368   3.0504 157 142 123
3.44577 0.36727 2.07166 9 11 8
 3.81267 0.335919  2.34065 187 185 173
 3.59849 0.361977  2.18255 84 98 101
  3.57405 -0.201738   2.49481 99 90 73
 3.95856 0.139192  2.56971 186 173 157
   3.75237 -0.0833371    2.56954 220 214 200
3.06542 0.10547  1.9756 251 252 254
 4.12776 0.582018  2.39127 63 80 44
 4.22751 0.478315   2.5293 21 24 17
 4.02053 0.194747  2.59339 141 135 109
 3.21461 0.430527   1.9093 129 155 90
 4.15938 0.492853  2.47414 19 25 21
  3.75961 -0.671138   2.90331 102 100 87
  3.94799 -0.440507   2.87699 118 109 92
   3.60867 -0.0700783    2.39557 139 141 120
    4.28529 -0.00464288     2.84785 135 139 125
 4.23896 0.627054  2.44592 187 191 174
  4.57898 -0.141707   3.10368 169 153 137
 3.75045 -0.90586  3.02105 171 156 135
  3.83501 -0.284052   2.70371 84 77 58
  3.52031 -0.267528   2.52672 175 163 141
 3.65752 0.325426  2.17799 102 119 127
  3.01895 -0.119211   2.03075 237 230 220
 3.49015 -0.61597  2.65369 157 136 115
 4.97002 -0.36993  3.39439 149 137 113
 3.69584 0.317281  2.27657 15 21 17
  3.54063 -0.117983   2.37698 47 59 37
 3.38572 0.756408  1.86591 209 198 170
   3.23665 -0.0680946    2.11771 183 172 140
3.85702 0.11319 2.46096 171 174 163
  4.32775 -0.237409   3.01012 65 55 43
 4.05946 0.331235  2.49964 156 164 153
 3.34026 -0.33274  2.40963 110 100 88
