ply
format ascii 1.0
element vertex 1140
property float x
property float y
property float z
property uchar red
property uchar green
property uchar blue
end_header
-0.0756946 -0.0506887    1.91421 255 255 255
  0.217724 -0.0447064    1.78139 255 255 255
-0.0531651   0.232487    1.83175 255 255 255
-0.168864  -0.10569   1.96395 255 255 255
0.238287 0.222448  1.70673 255 255 255
0.185585  0.12747  1.75446 255 255 255
 0.02211 0.314753  1.78076 255 255 255
 0.0544002 -0.0444965    1.85709 255 255 255
-0.299068 0.0540136   1.97298 255 255 255
 0.225565 -0.064589   1.77986 255 255 255
-0.00163298    0.167074     1.82266 255 255 255
 0.0459753 -0.0978369     1.8625 255 255 255
  0.204867 -0.0796358    1.79356 255 255 255
-0.269342  0.105658   1.94981 255 255 255
0.235859 0.241783  1.70559 255 255 255
 0.197631 -0.328634   1.87525 255 255 255
-0.285313 0.0417256   1.97064 255 255 255
 0.0212262 -0.0672881     1.8685 255 255 255
 -0.103323 -0.0624845    1.92821 255 255 255
 0.157648 -0.329513   1.89325 255 255 255
 0.0369974 -0.0887519    1.86467 255 255 255
0.162533 -0.32183   1.8912 255 255 255
-0.130908  0.113369   1.89182 255 255 255
-0.00127412   -0.270259     1.93824 255 255 255
 -0.108165 -0.0702533    1.93297 255 255 255
  -0.11184 -0.0659549    1.93295 255 255 255
 -0.104901 -0.0524236    1.92854 255 255 255
 0.0369801 -0.0841804    1.86227 255 255 255
-0.315998 0.0223579    1.9861 255 255 255
0.0688527  0.215005   1.77909 255 255 255
-0.0928942   0.279095    1.83648 255 255 255
0.102013 0.191278  1.77183 255 255 255
-0.201065 0.0319083   1.94191 255 255 255
  -0.162995 -0.00670392     1.93441 255 255 255
-0.00612735    0.191712     1.82202 255 255 255
0.0477068 0.0945458   1.82297 255 255 255
0.0361209  0.320812     1.773 255 255 255
-0.0333553   0.156545    1.84023 255 255 255
 0.111605 0.0688128   1.79718 255 255 255
-0.0545552  -0.138314    1.91644 255 255 255
-0.0536759    0.31657    1.81292 255 255 255
 -0.169498 -0.0261408    1.94293 255 255 255
-0.193655 0.0841553   1.92488 255 255 255
0.219861  0.25611  1.71254 255 255 255
-0.0457029 -0.0953644    1.91109 255 255 255
-0.0701985   0.341973    1.81402 255 255 255
-0.214977 0.0885454   1.93401 255 255 255
-0.0668187 -0.0636413    1.91408 255 255 255
-0.0229981 -0.0764875    1.89749 255 255 255
-0.0929485   0.233703    1.84787 255 255 255
-0.044974  0.148531   1.84599 255 255 255
-0.0673088   0.349575    1.81031 255 255 255
-0.0197776  0.0976134    1.84636 255 255 255
0.038606 0.316155  1.77283 255 255 255
 0.24567 0.265595  1.69824 255 255 255
-0.202524 0.0934546   1.92923 255 255 255
0.0331921  0.333713   1.77253 255 255 255
-0.223653  0.158059   1.92194 255 255 255
-0.14165 0.255719  1.86381 255 255 255
-0.119168 -0.069176   1.93512 255 255 255
0.167279 0.179973  1.74798 255 255 255
0.0892681 0.0728514   1.81007 255 255 255
 0.0455653 -0.0704298    1.85943 255 255 255
-0.140227  0.130854   1.89716 255 255 255
0.0399674  0.337051   1.77113 255 255 255
0.0909376  0.201719   1.77248 255 255 255
-0.0064501   0.123943    1.83804 255 255 255
 0.0169219 -0.0596488    1.87143 255 255 255
 -0.170297 -0.0197243    1.94385 255 255 255
-0.00617463    0.295491     1.79998 255 255 255
 -0.20901 0.0750504   1.93351 255 255 255
0.00471426   0.312762    1.78949 255 255 255
0.184175 0.131948   1.7524 255 255 255
-0.175514  0.194633     1.891 255 255 255
 -0.103364 -0.0943404    1.93341 255 255 255
-0.251836 0.0602742    1.9515 255 255 255
-0.146613  0.197205   1.88091 255 255 255
-0.185827  0.197523   1.89419 255 255 255
-0.102235  0.244032   1.84903 255 255 255
0.0689147   0.39366   1.74399 255 255 255
-0.175551  0.167742   1.89947 255 255 255
 0.0267569 -0.0571107    1.86541 255 255 255
-0.154482  0.198671   1.88506 255 255 255
0.0683265  0.235741   1.77593 255 255 255
-0.0538275    0.29525    1.81728 255 255 255
-0.250851  0.128099   1.93798 255 255 255
-0.215449  0.157528   1.91779 255 255 255
-0.164305  0.180728   1.89286 255 255 255
-0.16714  0.20105  1.88926 255 255 255
-0.198936 0.0786414   1.92963 255 255 255
-0.161955  0.244351   1.87366 255 255 255
-0.110714  0.212076   1.85982 255 255 255
-0.217059 0.0705234   1.93893 255 255 255
0.0248502  0.319684   1.77889 255 255 255
  -0.11184 -0.0659549    1.93295 255 255 255
-0.113402 -0.109799   1.94505 255 255 255
-0.317087 0.0301159   1.98389 255 255 255
 0.180078 -0.390307   1.89827 255 255 255
0.146464 -0.20519   1.8617 255 255 255
 0.217775 -0.382892   1.88094 255 255 255
 0.354402 -0.309204   1.80479 255 255 255
-0.119002 -0.127875   1.94881 255 255 255
 0.347149 -0.260211   1.79526 255 255 255
 0.341881 -0.327169   1.81367 255 255 255
 0.201869 -0.321568   1.87075 255 255 255
0.145228 -0.38698  1.91352 255 255 255
0.197322  -0.3352  1.87757 255 255 255
 0.205683 -0.316857   1.86962 255 255 255
  0.40422 -0.296437   1.77933 255 255 255
 0.145793 -0.128637   1.83416 255 255 255
0.148525 -0.40727  1.91431 255 255 255
 0.184057 -0.215409   1.83739 255 255 255
 0.175018 -0.312624   1.87788 255 255 255
  0.095052 0.00504852    1.81814 255 255 255
0.447748 0.103365  1.65045 255 255 255
0.0260588  0.189959   1.80345 255 255 255
0.177135 0.174109  1.74472 255 255 255
0.231918 0.159983  1.72464 255 255 255
 0.44562 0.178383  1.63265 255 255 255
-0.057863 0.0501028   1.87114 255 255 255
0.540652 0.148045  1.60246 255 255 255
0.217721 0.271448  1.70421 255 255 255
0.153208 0.219868  1.74584 255 255 255
0.513408 0.116326  1.62395 255 255 255
0.149809 0.261627  1.73734 255 255 255
0.157094 0.126242  1.76688 255 255 255
0.0118133  0.150334   1.81559 255 255 255
-0.201065 0.0319083   1.94191 255 255 255
0.110686 0.233209   1.7578 255 255 255
0.279138 0.156067  1.70381 255 255 255
-0.0835268  0.0730076    1.87937 255 255 255
0.0832322  0.175914   1.78494 255 255 255
 0.435985 0.0209257   1.67677 255 255 255
 0.331764 -0.244554   1.78792 255 255 255
 0.403971 -0.229329   1.76098 255 255 255
0.203058 0.032539  1.77326 255 255 255
0.0872263   0.10459   1.79892 255 255 255
 0.298431 -0.237547   1.79674 255 255 255
0.0834305  0.251471   1.76672 255 255 255
 0.432513 0.0609312   1.66903 255 255 255
-0.141832 0.0296647   1.91872 255 255 255
0.588194 0.189108  1.57698 255 255 255
 0.0981852 -0.0710131    1.84354 255 255 255
  0.221025 -0.0301922    1.77332 255 255 255
 0.388185 0.0807687   1.68696 255 255 255
 0.381178 -0.308982   1.79193 255 255 255
0.362797 0.271548  1.64906 255 255 255
 -0.251834 -0.0124464    1.97367 255 255 255
 0.275867 -0.369227   1.84806 255 255 255
0.142152 0.015342  1.79888 255 255 255
0.354486 0.064721  1.70331 255 255 255
0.230293 0.125822  1.73545 255 255 255
0.421844  -0.2085  1.74756 255 255 255
-0.164529 0.0629144    1.9139 255 255 255
0.0673625 0.0883518   1.81523 255 255 255
0.256656 0.143028   1.7193 255 255 255
  0.544065 -0.0946928    1.65904 255 255 255
 0.499958 0.0324872   1.65066 255 255 255
0.195282 0.170757  1.74057 255 255 255
 0.0535674 -0.0694971    1.85847 255 255 255
 0.16261 0.356212  1.70843 255 255 255
0.0401979  0.117304   1.82098 255 255 255
  0.49112 -0.218765   1.72733 255 255 255
  0.513839 -0.0479145    1.65993 255 255 255
 0.330301 -0.315212   1.81665 255 255 255
0.197818  0.19628   1.7302 255 255 255
 0.352048 -0.273127   1.79533 255 255 255
0.0832934 -0.234282   1.89277 255 255 255
-0.0857691   0.126292    1.87158 255 255 255
0.283349  0.10359  1.72075 255 255 255
0.380669 0.106695   1.6798 255 255 255
0.0660069 -0.281191   1.90762 255 255 255
-0.0210788   0.180229    1.82971 255 255 255
  0.301051 -0.0476652     1.7468 255 255 255
 0.104031 -0.155451   1.85875 255 255 255
0.180706   0.3059  1.71372 255 255 255
  0.25651 0.0280215    1.7473 255 255 255
 0.497475 0.0557493   1.65024 255 255 255
  0.16452 -0.189957    1.8453 255 255 255
 0.463992 -0.192944    1.7346 255 255 255
-0.0254604  0.0862769    1.85213 255 255 255
-0.218436  0.135557   1.92498 255 255 255
  0.440519 0.00436246     1.6737 255 255 255
 0.522869 -0.175572   1.69716 255 255 255
 0.406354 0.0655065   1.67938 255 255 255
0.240622 0.203297  1.70941 255 255 255
 0.0708136 0.00655852    1.83608 255 255 255
0.278486 0.184792  1.70197 255 255 255
0.189466 0.120931  1.75316 255 255 255
0.472256 0.223665    1.613 255 255 255
 0.184809 -0.174379   1.83216 255 255 255
 0.283558 -0.019265   1.74448 255 255 255
0.156459 -0.17433  1.84586 255 255 255
 0.309175 0.0220035   1.72962 255 255 255
 0.221896 -0.207534   1.82201 255 255 255
 0.405013 -0.147816   1.73535 255 255 255
 0.574034 0.0267504   1.62198 255 255 255
  0.4471 0.331672  1.60343 255 255 255
 0.167103 -0.213047   1.85128 255 255 255
-0.0197831 -0.0325017    1.88372 255 255 255
0.434399 0.132757  1.64991 255 255 255
0.244575 0.345406  1.68248 255 255 255
 0.186906 -0.110523   1.80674 255 255 255
0.0250274 -0.177283   1.89036 255 255 255
 -0.140812 0.00698527    1.92104 255 255 255
0.110266 0.110982  1.78818 255 255 255
 0.139325 -0.124443    1.8404 255 255 255
  0.401577 -0.0369277    1.69855 255 255 255
0.0876586 -0.144892    1.8591 255 255 255
 0.26315 0.167099  1.71108 255 255 255
  0.407901 -0.0158796    1.69234 255 255 255
-0.0945682 -0.0987274    1.92973 255 255 255
0.410044 0.156193  1.65823 255 255 255
0.0120651  0.314591   1.78555 255 255 255
0.0187275 -0.129382   1.88102 255 255 255
-0.239983  0.123682   1.93546 255 255 255
  0.464002 -0.0507262    1.68034 255 255 255
 0.320715 -0.221829   1.78462 255 255 255
0.285908 -0.14259  1.78472 255 255 255
-0.0431797   0.226729    1.82733 255 255 255
0.194327 0.366839  1.69382 255 255 255
 0.52792 0.117874  1.61818 255 255 255
-0.0994922   0.136985    1.87274 255 255 255
0.242129 -0.33147  1.85862 255 255 255
0.510764 0.164089  1.61029 255 255 255
 0.559514 0.0128246   1.63178 255 255 255
   0.478778 -0.00618928      1.6652 255 255 255
0.483111 0.175642  1.62134 255 255 255
0.238163  0.24103  1.70514 255 255 255
0.315835 0.349778  1.65002 255 255 255
   0.198068 -0.00144587     1.77996 255 255 255
 0.112815 -0.117692   1.84755 255 255 255
0.121447 0.171745   1.7675 255 255 255
 0.366597 -0.255691   1.78627 255 255 255
  0.20377 -0.114235    1.8037 255 255 255
 0.248897 -0.316042   1.85147 255 255 255
0.414566 0.222344   1.6362 255 255 255
0.0227122  0.172656   1.80574 255 255 255
0.0775496 -0.247503   1.90201 255 255 255
0.0792391 -0.004497   1.82894 255 255 255
  0.29738 -0.335361   1.83771 255 255 255
 0.342042 -0.294859   1.80258 255 255 255
 0.272598 -0.146445   1.79249 255 255 255
0.605603 0.273578  1.55063 255 255 255
0.328092 0.222289  1.67318 255 255 255
0.0119744 -0.255086   1.92687 255 255 255
 0.101429 -0.131643   1.85564 255 255 255
0.551705 0.216425  1.58356 255 255 255
 0.220914 -0.323364   1.86526 255 255 255
  0.41647 0.0309255   1.68226 255 255 255
0.0875134  0.361988   1.74035 255 255 255
0.391581 0.201532  1.64757 255 255 255
-0.0297696  -0.121757    1.90603 255 255 255
0.0534273 0.0496048   1.82407 255 255 255
 0.0335594 -0.0310082    1.85687 255 255 255
 0.360958 -0.043475   1.71917 255 255 255
0.0974192  -0.11926   1.85681 255 255 255
0.400748 0.298618  1.63262 255 255 255
 0.501685 -0.199298   1.71489 255 255 255
 0.188879 -0.267457   1.85206 255 255 255
0.354402 0.197752  1.66594 255 255 255
0.364803 0.158877  1.67543 255 255 255
 0.562374 0.0380259   1.62735 255 255 255
 0.39957 0.017184  1.69188 255 255 255
0.115167 0.326075  1.73908 255 255 255
 0.312985 -0.283178   1.81448 255 255 255
0.382893 0.182917  1.66054 255 255 255
 0.125753 -0.151303   1.85103 255 255 255
  0.491276 -0.0460201    1.66823 255 255 255
 0.371977 -0.164503   1.74788 255 255 255
0.0450003  0.148401   1.80072 255 255 255
-0.131147 0.0338451   1.91556 255 255 255
0.455486 0.134055  1.64361 255 255 255
 0.0270231 -0.0429095    1.86393 255 255 255
0.384521  0.16827  1.66284 255 255 255
-0.0398329 -0.0504451    1.89633 255 255 255
0.426136 0.307807  1.61992 255 255 255
0.0985961  0.281321   1.75287 255 255 255
0.0304202  0.297554   1.78081 255 255 255
 0.213509 -0.107126   1.79418 255 255 255
0.0754671  0.321938   1.75928 255 255 255
 0.152938 -0.123914   1.83298 255 255 255
  0.572724 0.00450785    1.62692 255 255 255
0.119917 0.363772  1.72465 255 255 255
 0.236418 -0.166268   1.80489 255 255 255
 0.0202749 -0.0722045    1.86956 255 255 255
-0.159084  0.168775   1.89408 255 255 255
0.142916 0.338128  1.72185 255 255 255
0.420313 0.140366  1.65567 255 255 255
0.0765856  0.289664   1.75851 255 255 255
  0.513028 -0.0218385    1.66318 255 255 255
-0.0524984  -0.172021     1.9267 255 255 255
-0.00709136   -0.153593     1.89684 255 255 255
0.215069 0.249678  1.71346 255 255 255
0.0625286 -0.250674   1.90554 255 255 255
 -0.011896 -0.0606255     1.8821 255 255 255
 0.468397 0.0629413   1.65662 255 255 255
0.128681 0.277785  1.73872 255 255 255
-0.248962  0.052647   1.94977 255 255 255
  0.490347 -0.0681911    1.67309 255 255 255
 0.12158 0.207483  1.76079 255 255 255
0.173075  0.21003  1.73669 255 255 255
-0.25261 0.110083  1.94284 255 255 255
0.440873 0.285623  1.61645 255 255 255
0.0906298 0.0197199   1.81889 255 255 255
 0.331419 -0.103313   1.75454 255 255 255
 0.19367 0.218764  1.72545 255 255 255
 0.317295 -0.191681   1.78047 255 255 255
0.173174 0.135161  1.75741 255 255 255
 0.343233 -0.182649   1.76911 255 255 255
0.467179 0.124871  1.63971 255 255 255
 0.100656 0.0736683   1.80454 255 255 255
0.459969  0.28388  1.61435 255 255 255
-0.0743172  -0.108569    1.92234 255 255 255
-0.259244  0.105698   1.94549 255 255 255
0.0358434 -0.278363   1.91838 255 255 255
0.0928288 0.0836991    1.8068 255 255 255
 0.376429 -0.251308   1.77947 255 255 255
  0.463282 -0.0738895    1.68406 255 255 255
-0.110746  0.147729   1.87695 255 255 255
 0.124144 0.0562188   1.79622 255 255 255
0.536395 0.172459  1.59645 255 255 255
 -0.131921 -0.0475445    1.93462 255 255 255
  0.2881 0.250701   1.6859 255 255 255
0.363423 0.112309   1.6897 255 255 255
0.482749 -0.14218  1.70582 255 255 255
 0.277558 0.0350947   1.73859 255 255 255
-0.0637612 -0.0127672    1.89766 255 255 255
 0.362493 -0.173244   1.76107 255 255 255
 0.446203 -0.154908   1.71725 255 255 255
0.138038 0.142628  1.76846 255 255 255
 0.513535 0.0633062   1.63975 255 255 255
  0.44064 -0.230474   1.74792 255 255 255
0.115087 0.182711  1.76857 255 255 255
-0.0481864   0.177886    1.84113 255 255 255
 0.286579 -0.124104   1.77607 255 255 255
  0.198343 -0.0979327    1.80128 255 255 255
  0.196454 -0.0866853    1.79871 255 255 255
 0.0117598 -0.0223875    1.86458 255 255 255
 0.543118 0.0638861   1.62247 255 255 255
  0.168233 -0.0911175    1.81255 255 255 255
  0.334946 -0.0446065    1.73377 255 255 255
-0.115772  0.199311   1.86571 255 255 255
 0.255404 -0.335198   1.85132 255 255 255
 0.309037 -0.270246   1.81219 255 255 255
0.526446 0.257318  1.59292 255 255 255
 0.192734 -0.073425   1.79884 255 255 255
0.450782 0.309707  1.61002 255 255 255
0.322687 -0.37516  1.83459 255 255 255
 0.15439 0.302465  1.72913 255 255 255
0.0951312 0.0354007   1.81649 255 255 255
 0.293922 -0.153576   1.78245 255 255 255
 0.187439 0.0549064   1.77114 255 255 255
-0.155865 0.0900827   1.90359 255 255 255
 0.529584 -0.103015   1.66972 255 255 255
 0.158106 -0.293436   1.87859 255 255 255
0.324877 0.310019  1.65761 255 255 255
  0.314193 -0.0206624    1.73432 255 255 255
0.495782 0.154552  1.61633 255 255 255
  0.319403 -0.0893609    1.75335 255 255 255
0.529285 0.160621  1.60676 255 255 255
0.491286 0.143895  1.62459 255 255 255
0.0860063  0.151066   1.78747 255 255 255
  0.36447 0.0454286   1.70241 255 255 255
 0.399995 -0.296811   1.78322 255 255 255
   0.29168 -0.0728068    1.76022 255 255 255
  0.36948 -0.322536   1.80165 255 255 255
 0.0992596 -0.0759302     1.8414 255 255 255
0.258677 0.345835  1.67371 255 255 255
 0.378594 0.0376794   1.69843 255 255 255
0.409042 0.269852  1.63306 255 255 255
-0.101914  0.206436   1.85849 255 255 255
-0.187353 0.0598178    1.9295 255 255 255
  0.204058 -0.0593889    1.79182 255 255 255
-0.0425807   0.316266    1.80878 255 255 255
  0.139432 -0.0106478    1.79969 255 255 255
  0.10051 -0.294691   1.89618 255 255 255
 0.0431998 -0.0249941    1.85255 255 255 255
0.122241 0.350252  1.72907 255 255 255
  0.44284 0.0273212   1.67866 255 255 255
 0.309604 -0.173045   1.78115 255 255 255
 0.357727 0.0325183   1.70555 255 255 255
-0.081612  0.218546   1.84559 255 255 255
0.0928996 -0.169317   1.86711 255 255 255
 0.287386 -0.358761   1.84955 255 255 255
 0.396849 -0.307231   1.78321 255 255 255
 0.0204575 -0.0175006    1.86024 255 255 255
0.340358 0.317746  1.64901 255 255 255
-0.063592  0.165553      1.85 255 255 255
0.417744 0.329584  1.62007 255 255 255
0.478316 0.344129   1.5886 255 255 255
 0.227851 -0.391209   1.87946 255 255 255
0.150207 0.280508  1.72932 255 255 255
  0.135412 0.00683035    1.79867 255 255 255
 -0.175951 -0.0111104    1.94097 255 255 255
  0.337571 -0.0294189    1.72792 255 255 255
0.123695 0.194794  1.76121 255 255 255
  0.31707 -0.390611   1.84193 255 255 255
0.433407 -0.23861  1.75333 255 255 255
0.243675 0.256361  1.70264 255 255 255
-0.0919408    0.10982    1.87478 255 255 255
  -0.272785 -0.00983482     1.97934 255 255 255
 0.393334 -0.157083   1.74016 255 255 255
 0.419424 -0.164749   1.73156 255 255 255
0.293872 0.227754  1.69016 255 255 255
-0.100743  0.307145    1.8333 255 255 255
  0.38963 -0.257794   1.77301 255 255 255
  0.1121 0.235113  1.75412 255 255 255
-0.109733 -0.175812   1.95281 255 255 255
-0.0626354   0.322928    1.81389 255 255 255
  0.269542 -0.0405969    1.76374 255 255 255
  0.187702 -0.0905145    1.80295 255 255 255
0.0215282  0.134695   1.82267 255 255 255
0.204167 0.115063   1.7488 255 255 255
-0.0815916 0.00128084    1.90146 255 255 255
 0.577893 0.0828122   1.61148 255 255 255
  0.478445 -0.0741967    1.67865 255 255 255
 0.158608 -0.134863   1.83275 255 255 255
 0.530917 0.0418854   1.63783 255 255 255
  0.455296 -0.0308804      1.681 255 255 255
 0.358487 -0.266252   1.79222 255 255 255
0.278378  0.12528  1.71455 255 255 255
0.223749 0.225732  1.71204 255 255 255
  0.278312 -0.0432751    1.75687 255 255 255
 0.142992 -0.149279   1.84612 255 255 255
0.619566 0.107128  1.58591 255 255 255
0.548128 0.189725  1.59135 255 255 255
 0.305603 0.0381939   1.72787 255 255 255
 0.446927 0.0659145   1.66275 255 255 255
-0.137362   0.27948   1.85676 255 255 255
0.184977 0.163744  1.74362 255 255 255
0.255412 0.194832  1.70156 255 255 255
 0.10158 0.164125  1.77707 255 255 255
 0.301022 -0.131595   1.76869 255 255 255
 0.351353 -0.283013   1.79685 255 255 255
  0.143702 -0.0897866    1.81946 255 255 255
0.352849 0.330606  1.63988 255 255 255
0.20999 -0.3177  1.8684 255 255 255
 0.457321 -0.235284   1.74429 255 255 255
 0.0608036 -0.0535841    1.85177 255 255 255
0.117471  0.30036  1.73935 255 255 255
0.478241 0.285713  1.60254 255 255 255
 0.0274857 -0.0637602     1.8652 255 255 255
 0.0944945 -0.0973213    1.84809 255 255 255
 0.205597 -0.364871   1.88131 255 255 255
0.0852525  0.270795   1.75902 255 255 255
0.0871157  0.120562   1.79411 255 255 255
0.0247308  0.328297   1.77453 255 255 255
  0.24142 -0.306442   1.85236 255 255 255
 0.403424 -0.107311   1.72492 255 255 255
 -0.214297 -0.0318561    1.96063 255 255 255
  0.439265 -0.0550638    1.69188 255 255 255
 0.480413 0.0273395    1.6617 255 255 255
0.228678 -0.11362  1.78976 255 255 255
0.478315 0.332687  1.59181 255 255 255
0.0236243  0.103377   1.82971 255 255 255
 0.586691 -0.125408   1.66119 255 255 255
0.0828899 0.0265171   1.82068 255 255 255
0.390736 0.115891  1.67399 255 255 255
0.0987844 -0.263798   1.89099 255 255 255
 0.261593 -0.306375   1.84094 255 255 255
  0.338192 -0.0121701    1.72637 255 255 255
 0.322153 -0.144115   1.76201 255 255 255
 0.278751 -0.192456   1.79386 255 255 255
0.270301 0.207069  1.69715 255 255 255
0.126267   0.1814  1.76713 255 255 255
 0.181041 -0.124181    1.8148 255 255 255
-0.268097 0.0702077   1.95768 255 255 255
0.0616604  0.376171   1.75069 255 255 255
 0.332781 -0.147722   1.76175 255 255 255
 0.342029 -0.124601    1.7542 255 255 255
0.0351058 0.0915051     1.828 255 255 255
0.0344431  0.348896   1.77083 255 255 255
 0.2718 -0.1241 1.78613 255 255 255
 0.297192 0.0328733   1.73382 255 255 255
 0.123234 -0.111792   1.84303 255 255 255
 0.376876 -0.178014   1.74848 255 255 255
0.195897 0.309874  1.70627 255 255 255
 0.0099287 -0.0978864    1.88634 255 255 255
0.595656 0.339658  1.53632 255 255 255
0.0945436  0.241454   1.76044 255 255 255
0.0648152  0.253099    1.7777 255 255 255
 0.396268 -0.117848   1.72891 255 255 255
  0.335171 -0.0705482    1.73368 255 255 255
0.608225 0.156528  1.57926 255 255 255
 0.17026 0.294933  1.72173 255 255 255
0.0742244  0.143752   1.79579 255 255 255
0.329559 0.322196  1.65511 255 255 255
 0.312751 -0.405566   1.84768 255 255 255
0.0304397  0.223026   1.79657 255 255 255
 0.31334 0.300516  1.66448 255 255 255
 0.309639 0.0872252   1.71529 255 255 255
  0.451745 -0.0571114    1.68752 255 255 255
 0.282218 -0.403998   1.86178 255 255 255
 0.55055 0.256811   1.5782 255 255 255
 0.276055 -0.121235   1.77917 255 255 255
0.514949 0.268948  1.58939 255 255 255
 -0.059726 -0.0817657    1.91357 255 255 255
-0.088954 -0.179124   1.94698 255 255 255
0.177814 0.048874  1.77697 255 255 255
 0.299271 -0.307315   1.82563 255 255 255
0.317552   -0.366  1.83415 255 255 255
-0.0586094   0.154189    1.85242 255 255 255
  0.0985149 -0.00482031     1.81757 255 255 255
 0.223482 -0.358898   1.86971 255 255 255
 0.600064 0.0617339   1.60788 255 255 255
  0.554071 -0.0788656    1.65209 255 255 255
   0.356415 -0.00256855     1.71333 255 255 255
0.297368 0.255903  1.68004 255 255 255
-0.132917  0.194937   1.87273 255 255 255
 0.431816 -0.006031   1.68264 255 255 255
0.253233 0.214919  1.69942 255 255 255
 0.167004 -0.376661   1.90288 255 255 255
-0.182465  0.153069   1.90604 255 255 255
-0.0201865   -0.14516    1.90291 255 255 255
0.225367 0.202999  1.71778 255 255 255
 0.233909 -0.320828   1.85896 255 255 255
0.0344566 -0.304186   1.92117 255 255 255
-0.126699 -0.033581   1.93161 255 255 255
 0.542327 0.0523478   1.63054 255 255 255
 0.115865 0.0296969   1.80359 255 255 255
 0.544411 -0.197796   1.69496 255 255 255
0.464639 0.262332  1.61048 255 255 255
 0.260966 -0.174092   1.79769 255 255 255
0.488922 0.356768  1.58265 255 255 255
0.135549 0.351008  1.72216 255 255 255
  0.497319 -0.0965767    1.67942 255 255 255
0.0832549   0.26413   1.76514 255 255 255
-0.0492638  0.0372773    1.86643 255 255 255
0.0817622 0.0151873   1.82502 255 255 255
 0.280437 0.0185228   1.73854 255 255 255
  0.360938 -0.0239322    1.71463 255 255 255
0.0379797 0.0612964   1.82707 255 255 255
 0.347415 -0.386262   1.83242 255 255 255
 0.106029 0.0068064   1.81007 255 255 255
 0.227024 -0.341623    1.8648 255 255 255
0.0480688 -0.250164   1.91086 255 255 255
0.171729 -0.12569  1.81808 255 255 255
-0.0705965  -0.109014    1.91827 255 255 255
0.0904469  0.210314   1.77022 255 255 255
0.346186  0.30603   1.6451 255 255 255
 0.0326579 -0.0980756    1.86805 255 255 255
 -0.206912 -0.0564252    1.96657 255 255 255
 0.374165 -0.373955   1.81566 255 255 255
-0.189412  0.157634   1.90606 255 255 255
0.0296879 -0.257102   1.92063 255 255 255
0.219693 0.299545  1.70083 255 255 255
0.129335 0.342561  1.72497 255 255 255
0.07718 0.36757 1.73952 255 255 255
0.313283 0.181264  1.68615 255 255 255
0.430156 0.223113  1.62765 255 255 255
0.411559 0.145465  1.66043 255 255 255
0.117467 0.314928  1.73736 255 255 255
0.144637 0.310489  1.72819 255 255 255
0.313399 0.152147  1.69004 255 255 255
-0.0230241 -0.0860773    1.89878 255 255 255
0.0807133   0.18746   1.78134 255 255 255
 0.607375 0.0838942   1.59763 255 255 255
-0.219519 0.0323319   1.94286 255 255 255
0.363754 0.347078  1.63281 255 255 255
    0.18261 0.000586175     1.78617 255 255 255
 0.496771 0.0816019   1.64152 255 255 255
  0.58959 0.0578048   1.61223 255 255 255
   0.3824 -0.166571   1.74401 255 255 255
   0.132635 -0.00300529     1.80174 255 255 255
 0.246109 0.0370487   1.75273 255 255 255
 0.103934 -0.272059    1.8905 255 255 255
 0.139375 -0.161521   1.85402 255 255 255
0.0517016 -0.275536    1.9094 255 255 255
0.309545 0.227219  1.68206 255 255 255
 0.638249 0.0779535   1.58529 255 255 255
 0.372445 -0.263848   1.78487 255 255 255
 0.582305 0.0524597   1.61612 255 255 255
 0.603077 0.0127482   1.61561 255 255 255
 0.316695 -0.122757   1.76265 255 255 255
  0.432538 -0.0631904    1.69471 255 255 255
 0.381538 0.0254641   1.69818 255 255 255
0.611769 0.341283  1.52883 255 255 255
  0.35634 -0.186943   1.76411 255 255 255
 0.0544834 -0.0924857    1.85856 255 255 255
0.327005  0.29041  1.65641 255 255 255
0.397347 0.169742  1.65831 255 255 255
 -0.115378 -0.0943341    1.93967 255 255 255
  0.380561 -0.0138451    1.70498 255 255 255
0.285552 0.328483  1.66996 255 255 255
0.110057 -0.13968  1.85533 255 255 255
  0.35414 -0.112712   1.74037 255 255 255
 0.187091 -0.129625   1.81283 255 255 255
0.602652 0.101302  1.59512 255 255 255
-0.0455504  0.0226208    1.87289 255 255 255
 0.347515 0.0176867   1.71296 255 255 255
 0.105657 -0.289696   1.89296 255 255 255
0.434908 0.342122  1.60737 255 255 255
 0.45447 0.265911  1.61406 255 255 255
0.0762672 -0.321262     1.911 255 255 255
0.345218 0.327316  1.64516 255 255 255
  0.349258 -0.0997957    1.73844 255 255 255
-0.0739871 -0.0958169     1.9212 255 255 255
-0.016789   0.35495   1.78509 255 255 255
 0.560756 -0.131755   1.67404 255 255 255
-0.137668   0.21467   1.86832 255 255 255
 0.235665 0.0318068   1.75938 255 255 255
 0.111443 -0.273391     1.886 255 255 255
 0.531371 0.0511093   1.63642 255 255 255
0.0651518  0.186726   1.78573 255 255 255
 0.52745 0.201714  1.59607 255 255 255
0.210654 0.210249  1.72224 255 255 255
0.301197 0.221575  1.68552 255 255 255
 0.025745 0.0494676   1.83687 255 255 255
-0.0804294  -0.198019    1.94289 255 255 255
0.431918 0.251001  1.62189 255 255 255
 0.285783 -0.154961   1.78781 255 255 255
-0.0490127   0.208712    1.83031 255 255 255
  0.131535 -0.0352989    1.80772 255 255 255
  0.141569 -0.0462164    1.80608 255 255 255
0.0463627  0.269089   1.78111 255 255 255
  0.312241 -0.0378095    1.74295 255 255 255
    0.143248 -0.000494839      1.79761 255 255 255
-0.047038  0.221972   1.82947 255 255 255
 0.0125192 -0.0383524    1.87223 255 255 255
0.423565  0.20089  1.63403 255 255 255
 0.16236 0.136144   1.7614 255 255 255
0.261074 0.169695  1.71344 255 255 255
 0.289791 0.0257023   1.73257 255 255 255
0.254735 0.126534  1.72667 255 255 255
-0.0641123   0.292124    1.82095 255 255 255
0.0804303  0.187759    1.7813 255 255 255
 0.138428 -0.137751   1.84557 255 255 255
0.0346311 0.0995581   1.82629 255 255 255
   0.275499 -0.00255032     1.74293 255 255 255
-0.0480777  0.0676989    1.86608 255 255 255
0.171192  0.30344  1.72064 255 255 255
  0.40411 0.0163796   1.69168 255 255 255
0.233491 -0.21008  1.82168 255 255 255
0.222116  0.33253  1.69359 255 255 255
-0.0207939 -0.0267226    1.88011 255 255 255
-0.136492  0.207627   1.87235 255 255 255
 0.41907 0.104976  1.66087 255 255 255
-0.0837022 -0.0922108    1.92564 255 255 255
 0.396869 -0.246265   1.77094 255 255 255
 0.0198075 -0.0355712    1.86883 255 255 255
0.503928 0.234221  1.59881 255 255 255
 0.161158 -0.175126   1.84417 255 255 255
0.0523967  0.297775   1.77017 255 255 255
  0.21023 -0.167824   1.81142 255 255 255
0.0578558 -0.284287   1.90898 255 255 255
0.0888743  0.197405   1.77688 255 255 255
0.101918 0.180511  1.77773 255 255 255
0.325032 0.233239  1.67276 255 255 255
0.296161 0.280685  1.67406 255 255 255
0.0941241 -0.238103    1.8885 255 255 255
  0.242341 -0.0677927    1.77357 255 255 255
  0.17346 -0.169272   1.83621 255 255 255
 0.106822 0.0143255   1.80812 255 255 255
 0.194942 0.0126836   1.78072 255 255 255
0.0110902  0.103905   1.83362 255 255 255
0.0488414 -0.262787   1.90977 255 255 255
  0.415729 0.00113152    1.68746 255 255 255
0.461264 0.353465  1.59325 255 255 255
0.138098  0.32065  1.72963 255 255 255
0.224599 0.220416  1.71374 255 255 255
-0.0233366   0.153341     1.8355 255 255 255
-0.0589867    0.17677    1.84883 255 255 255
 0.312895 -0.235587   1.78984 255 255 255
0.263484 0.328717  1.67588 255 255 255
-0.0709572 -0.0884502    1.91897 255 255 255
0.337235 0.207442  1.67071 255 255 255
0.0676455 -0.151847   1.86724 255 255 255
0.00408684  -0.266919    1.93609 255 255 255
-0.0387816  0.0863151    1.85672 255 255 255
0.135299 0.374573  1.71533 255 255 255
0.431715 0.231649  1.62542 255 255 255
  0.516101 0.00549628    1.64866 255 255 255
0.615823 0.236318  1.55573 255 255 255
 0.372608 0.0401777   1.69944 255 255 255
 0.539971 0.0933313   1.62145 255 255 255
0.335905 0.239931  1.66699 255 255 255
0.0685117  0.135202   1.80224 255 255 255
 0.144637 -0.231896   1.86342 255 255 255
 0.53381 0.340168  1.56463 255 255 255
-0.138913  0.140607   1.89051 255 255 255
  0.205187 -0.0117952    1.77994 255 255 255
  0.58647 0.0920626   1.60517 255 255 255
 0.53012 0.274757  1.57889 255 255 255
  0.23888 -0.233169   1.82078 255 255 255
 0.31908 0.292492   1.6623 255 255 255
0.0519585  0.206577   1.78713 255 255 255
 0.335123 -0.396509    1.8359 255 255 255
 0.277413 -0.178974   1.79388 255 255 255
0.153035 -0.33647  1.89675 255 255 255
 0.319232 0.0490587   1.71719 255 255 255
0.208862 0.349851  1.69115 255 255 255
  0.210705 -0.0688586    1.79013 255 255 255
0.208914 0.168269  1.73217 255 255 255
0.416988 0.113115  1.66242 255 255 255
 0.0360883 -0.0183841    1.85539 255 255 255
 0.0024522 -0.0230899    1.86978 255 255 255
 0.404269 0.0400281   1.68713 255 255 255
-0.00839386   -0.116908     1.89187 255 255 255
0.557993 0.266035  1.56922 255 255 255
 0.387696 -0.249159   1.77337 255 255 255
 0.259284 -0.413658   1.87297 255 255 255
0.0735736  0.259882   1.77018 255 255 255
 0.464983 -0.288179   1.75468 255 255 255
0.121501 0.216971   1.7553 255 255 255
-0.128012 -0.165508   1.95743 255 255 255
  0.317687 -0.0660666    1.74068 255 255 255
 0.18113 -0.14598  1.81951 255 255 255
0.415248 0.249474  1.62999 255 255 255
0.0500741   0.27253   1.77718 255 255 255
0.000549075   -0.179945     1.89991 255 255 255
0.516394 0.205177  1.60097 255 255 255
0.220917 0.291507  1.69916 255 255 255
0.373914 0.253694  1.64988 255 255 255
 0.399248 0.0838859   1.67773 255 255 255
 0.127201 0.0141341   1.79932 255 255 255
0.0944962  0.295938    1.7448 255 255 255
0.0792881 -0.182646    1.8678 255 255 255
0.00831824   0.296878    1.78966 255 255 255
0.330809 0.211825  1.67325 255 255 255
0.00114624  -0.282504    1.94115 255 255 255
   0.31717 -0.0414325    1.73908 255 255 255
 0.241345 -0.319361   1.85507 255 255 255
-0.0295316   0.363164    1.78985 255 255 255
0.0950484  0.162004   1.78205 255 255 255
 0.184768 -0.233044    1.8406 255 255 255
-0.257223 0.0225423   1.95746 255 255 255
0.545487 0.107954  1.61122 255 255 255
 0.0879012 -0.0620855    1.84557 255 255 255
-0.165264 0.0113485   1.93344 255 255 255
0.0354855 -0.258672   1.91678 255 255 255
0.0310144  0.302735   1.77654 255 255 255
0.0166366  0.356405   1.77559 255 255 255
 0.216327 -0.281665   1.84234 255 255 255
0.449564 0.314995  1.60804 255 255 255
 0.239971 0.0782245   1.74619 255 255 255
-0.0734167   0.316662    1.82181 255 255 255
 0.120543 0.0224411   1.80256 255 255 255
 0.203112 -0.311273    1.8693 255 255 255
0.181875 0.111706  1.75839 255 255 255
 0.142725 0.0120614   1.79656 255 255 255
 0.497797 -0.211233   1.72029 255 255 255
0.074735 0.332455  1.75358 255 255 255
0.344674 0.246502  1.66199 255 255 255
-0.0978356 -0.0246915    1.91519 255 255 255
-0.0991286   0.150479    1.87176 255 255 255
 0.455098 -0.260032   1.74841 255 255 255
-0.0378876  -0.148486    1.91552 255 255 255
-0.0458554   0.235488    1.82765 255 255 255
    0.365021 -0.000861249      1.70912 255 255 255
0.164399 0.104592  1.76781 255 255 255
-0.024803  0.227082   1.81828 255 255 255
 0.633219 0.0364605   1.59501 255 255 255
0.084954 0.233493  1.76968 255 255 255
-0.117528 -0.173821   1.95571 255 255 255
0.0216905 0.0769418   1.83304 255 255 255
  0.345453 -0.0436656    1.73145 255 255 255
0.240715 0.366678  1.67475 255 255 255
 0.343784 0.0388226   1.71013 255 255 255
  0.345337 -0.0237358     1.7192 255 255 255
  0.346178 -0.0151552    1.72047 255 255 255
   0.520073 -0.00897838     1.64934 255 255 255
0.0338462  0.141316   1.81492 255 255 255
 0.523549 0.0409559   1.64068 255 255 255
 0.208394 -0.371807   1.88381 255 255 255
0.194694 0.284496  1.71369 255 255 255
-0.0579357  -0.119128    1.91524 255 255 255
0.483648 0.162316  1.62714 255 255 255
-0.128439  0.299986   1.84635 255 255 255
0.293125 0.137082  1.70407 255 255 255
 0.181835 -0.209728   1.84037 255 255 255
0.163852 0.149008  1.75326 255 255 255
0.495675 0.165134  1.61686 255 255 255
-0.0213481  -0.129511    1.90072 255 255 255
  0.313693 -0.0810649    1.75228 255 255 255
   0.331009 -0.00402869     1.72507 255 255 255
-0.0730853   0.167567    1.85396 255 255 255
  0.12446 0.0345365   1.80157 255 255 255
0.0786791  0.294515   1.75597 255 255 255
 0.103503 0.0194117   1.81121 255 255 255
0.218305 0.188568  1.72072 255 255 255
0.327848 0.165897  1.68409 255 255 255
  0.608152 -0.0376544     1.6238 255 255 255
0.178319 -0.23528  1.84734 255 255 255
-0.0726901  -0.071919    1.91846 255 255 255
-0.134716 -0.120744   1.95346 255 255 255
 0.32712 0.158087  1.68216 255 255 255
  0.411036 0.00510621    1.69042 255 255 255
 0.184208 0.0402704   1.77414 255 255 255
 0.557285 -0.154173   1.67868 255 255 255
-0.0427283   0.206663    1.82797 255 255 255
-0.0731005  -0.177709    1.93826 255 255 255
0.177978 0.333827  1.70647 255 255 255
 0.13159 0.187577  1.76066 255 255 255
0.151037 -0.20424  1.85607 255 255 255
0.149535 0.290801   1.7291 255 255 255
 0.613613 -0.143528   1.65209 255 255 255
 0.308697 -0.142705   1.76725 255 255 255
-0.00227545    0.398194     1.77348 255 255 255
 0.128646 0.0297968   1.79981 255 255 255
0.0856051  0.160318   1.79005 255 255 255
  0.41749 -0.180761   1.73394 255 255 255
0.545208  -0.1901  1.69146 255 255 255
 0.503821 0.0210174    1.6515 255 255 255
-0.0736894   0.333577    1.81516 255 255 255
-0.214324   0.16314   1.91567 255 255 255
0.539565 0.107466  1.61685 255 255 255
0.0956267 -0.287235    1.8944 255 255 255
 0.417741 -0.148875   1.72299 255 255 255
0.248092 0.235048  1.70025 255 255 255
-0.00186536   -0.190049     1.90663 255 255 255
0.529065  0.32739  1.57537 255 255 255
   0.14931 0.00708141    1.79435 255 255 255
 0.146474 -0.157422   1.84644 255 255 255
 0.0350384 -0.0613083    1.86214 255 255 255
 0.378258 0.0548965    1.6945 255 255 255
 0.258245 -0.361625   1.85902 255 255 255
 0.0417021 -0.0590738    1.85841 255 255 255
0.230994 0.127776  1.73476 255 255 255
 0.253068 0.0720894   1.74067 255 255 255
0.0817328  0.322034   1.75279 255 255 255
0.269829 0.129534  1.72102 255 255 255
  0.562734 -0.0437716    1.64393 255 255 255
  0.210798 -0.0807619    1.79094 255 255 255
  0.34306 -0.393875   1.83262 255 255 255
0.287281 -0.37026  1.85097 255 255 255
   0.526661 -0.00678658     1.64545 255 255 255
-0.266119 0.0882725   1.95237 255 255 255
0.440355 0.012334  1.67595 255 255 255
  0.144698 -0.0188769    1.79945 255 255 255
 0.412158 -0.118575   1.72068 255 255 255
0.0969813 0.0656548   1.80831 255 255 255
0.123137 0.130111  1.77488 255 255 255
0.289654 0.121847  1.71203 255 255 255
-0.221953 0.0555215   1.94197 255 255 255
-0.20794 0.138766  1.91876 255 255 255
0.0102082   0.09219   1.83585 255 255 255
 0.402909 0.0782619   1.67769 255 255 255
0.583609 0.294016  1.55279 255 255 255
  0.131758 -0.0166242    1.80352 255 255 255
  0.327372 0.00133003    1.72659 255 255 255
 0.204858 -0.333016   1.87243 255 255 255
0.620841 0.155267   1.5743 255 255 255
 0.227096 -0.311222    1.8607 255 255 255
 0.199418 -0.200294   1.83032 255 255 255
-0.0323435 -0.0497107    1.89444 255 255 255
-0.0789951  -0.135249    1.92576 255 255 255
0.103162 0.328838  1.74102 255 255 255
-0.265342 0.0943371   1.94842 255 255 255
  0.467137 -0.0622971    1.68124 255 255 255
0.110401 0.356768  1.73458 255 255 255
  0.126572 -0.0477485    1.81327 255 255 255
0.272086 0.138872  1.71408 255 255 255
 0.206467 -0.198492   1.82708 255 255 255
  0.460667 -0.0412148     1.6813 255 255 255
 0.478156 -0.104169    1.6886 255 255 255
 0.349764 0.0379108   1.70728 255 255 255
 0.458334 -0.201364   1.73367 255 255 255
-0.109505 0.0304719   1.90527 255 255 255
0.417571 0.214553  1.63445 255 255 255
 0.449213 0.0537065   1.66355 255 255 255
-0.0689349 -0.0785754    1.91758 255 255 255
-0.072889  0.254568   1.83493 255 255 255
0.0542813  0.319759   1.76579 255 255 255
0.049813 0.130636  1.81061 255 255 255
 0.441174 -0.244199   1.75171 255 255 255
 0.195146 0.0311782   1.77186 255 255 255
0.542352 0.236013   1.5879 255 255 255
 0.268951 0.0132661   1.74643 255 255 255
0.124487 0.313494  1.73546 255 255 255
  0.200376 -0.0474485    1.79326 255 255 255
-0.211238 0.0517906   1.94015 255 255 255
0.0153109  0.224039   1.80522 255 255 255
0.552455 0.285972  1.56741 255 255 255
 0.383006 0.0908139   1.68655 255 255 255
0.0365198  0.308035   1.77562 255 255 255
-0.00573971    0.131592     1.83709 255 255 255
  0.33835 -0.284805   1.80223 255 255 255
-0.278314 0.0442203    1.9673 255 255 255
0.0398455  0.139794   1.81369 255 255 255
0.00725825   0.388445    1.77024 255 255 255
-0.142766  0.283818   1.85739 255 255 255
0.122346 0.376985  1.72272 255 255 255
0.0961761 -0.129194   1.86012 255 255 255
   0.615992 -0.00689521     1.61118 255 255 255
0.142904 0.297192  1.73147 255 255 255
0.166166 0.190344  1.74581 255 255 255
0.112828 0.018759  1.80644 255 255 255
-0.0267975  -0.196954    1.91871 255 255 255
 0.0838093 -0.0297292    1.83814 255 255 255
0.289875 0.284958  1.67511 255 255 255
 0.514572 0.0576914   1.64076 255 255 255
 0.247107 -0.174085   1.80379 255 255 255
  0.52164 -0.075824    1.6659 255 255 255
0.0478603  0.211609   1.78641 255 255 255
 0.260157 -0.420849   1.87608 255 255 255
 0.578937 -0.128141   1.66533 255 255 255
 0.346127 -0.136197   1.75396 255 255 255
  0.100532 -0.0406472    1.82295 255 255 255
0.0865416  0.385388    1.7351 255 255 255
 0.445369 -0.218325   1.74471 255 255 255
  -0.0679875 -0.000922307       1.8981 255 255 255
   0.160075 -0.00422574     1.79271 255 255 255
  0.238987 -0.0788801    1.77663 255 255 255
 0.296975 -0.213402   1.79124 255 255 255
0.417281 0.307264  1.62062 255 255 255
 0.206726 -0.186424   1.82299 255 255 255
 0.369306 -0.127858    1.7369 255 255 255
 0.231063 -0.221762   1.82272 255 255 255
 0.391386 -0.312012   1.78864 255 255 255
0.144254 0.241891  1.74135 255 255 255
0.202649 0.165186  1.73582 255 255 255
0.301789 0.297864  1.66867 255 255 255
-0.0462791 -0.0837527    1.90927 255 255 255
  0.597541 -0.0229535    1.62366 255 255 255
 0.144836 -0.255743   1.86891 255 255 255
 0.519906 -0.108486   1.67365 255 255 255
 0.0450281 -0.0648623    1.86034 255 255 255
0.0407893 -0.274232   1.91492 255 255 255
0.0421876  0.310469    1.7756 255 255 255
 0.468285 -0.161354   1.71075 255 255 255
-0.00775361  -0.0903109     1.88998 255 255 255
0.340583 0.234501  1.66392 255 255 255
0.373105  0.33747  1.63034 255 255 255
0.474888 0.353004  1.58698 255 255 255
 0.607567 -0.144141   1.65738 255 255 255
0.126527  0.32933  1.73453 255 255 255
0.00902133   0.381798    1.76934 255 255 255
0.135238 -0.02996  1.80454 255 255 255
-0.0135523   0.290922    1.80161 255 255 255
-0.121635 0.0486948   1.90555 255 255 255
-0.00876954  -0.0356882      1.8796 255 255 255
 0.177598 -0.227169   1.84684 255 255 255
0.513584 0.348402  1.57414 255 255 255
0.0764419 0.0167828    1.8281 255 255 255
0.463614 -0.10471   1.6942 255 255 255
0.0731039  0.189088   1.78241 255 255 255
  -0.12765 -0.0892936    1.94447 255 255 255
0.539653 0.161952  1.60204 255 255 255
1.546e-05  -0.11595   1.88887 255 255 255
0.0764681 -0.133978   1.86236 255 255 255
 -0.237802 -0.0154876    1.96591 255 255 255
0.0585683  0.131016   1.80727 255 255 255
  0.014496 -0.0964152    1.87535 255 255 255
    0.3735 -0.0485918    1.71471 255 255 255
0.0918368 -0.258834   1.89318 255 255 255
-0.225728  0.036952   1.94299 255 255 255
0.479965 0.212175  1.60699 255 255 255
0.348343 0.266976  1.65636 255 255 255
 0.152102 -0.152181   1.84409 255 255 255
 0.447826 -0.259118   1.75064 255 255 255
-0.174084  0.231883    1.8827 255 255 255
 0.510878 0.0107618   1.65043 255 255 255
  -0.15094 0.00434958    1.92918 255 255 255
-0.234468 0.0452544    1.9438 255 255 255
  0.207579 -0.0373376    1.78392 255 255 255
 0.0714815 -0.0379176    1.84635 255 255 255
 0.104718 -0.330872   1.90065 255 255 255
-0.0435954  -0.121316    1.91291 255 255 255
 0.251142 0.0787162   1.73955 255 255 255
0.162412  0.30069  1.72405 255 255 255
 0.243723 0.0111932   1.75807 255 255 255
0.140642 0.291757   1.7335 255 255 255
-0.0362757 -0.0433484    1.89412 255 255 255
-0.124066  0.272651   1.85176 255 255 255
  0.10827 -0.295071   1.89174 255 255 255
0.0907324 -0.264927   1.89202 255 255 255
  0.275539 0.00481847    1.74231 255 255 255
0.390857 0.294121  1.63611 255 255 255
0.319126 0.262479  1.66824 255 255 255
-0.147258  0.191152   1.88112 255 255 255
 0.560649 -0.174838   1.68326 255 255 255
 0.245012 -0.325274    1.8536 255 255 255
 0.289375 -0.299141   1.83396 255 255 255
-0.0158998   0.325102    1.79605 255 255 255
-0.220801 0.0838096   1.93773 255 255 255
 0.551483 0.0490604   1.62791 255 255 255
0.425507 -0.06574  1.69837 255 255 255
    0.11094 -0.00616452     1.80838 255 255 255
  0.427303 -0.0133026     1.6844 255 255 255
   0.25017 -0.0609424    1.77261 255 255 255
0.244341 0.189634  1.71192 255 255 255
 -0.1773 0.108559   1.9109 255 255 255
 0.277404 -0.374226   1.85472 255 255 255
  0.40356 -0.286529   1.77691 255 255 255
-0.085974  0.311424   1.82839 255 255 255
0.0414486   0.19188   1.79151 255 255 255
 0.256998 -0.320245   1.84979 255 255 255
-0.0569438 -0.0406258    1.90316 255 255 255
 0.149854 0.0500704   1.78994 255 255 255
0.486418 0.132112  1.63176 255 255 255
 0.30874 0.103007  1.71021 255 255 255
-0.0758449  -0.139661    1.92542 255 255 255
0.418764 0.269204  1.62668 255 255 255
 0.412258 -0.252299   1.76118 255 255 255
 0.247765 0.0182914   1.75356 255 255 255
 0.286602 -0.210676   1.79359 255 255 255
  0.327451 -0.0624978    1.73589 255 255 255
0.060492 0.324485  1.76248 255 255 255
 0.328048 -0.039016   1.73437 255 255 255
-0.0418903 -0.0927072    1.90891 255 255 255
  0.40173 -0.243414   1.76119 255 255 255
  0.460192 -0.0961077    1.69226 255 255 255
0.394942 0.214296   1.6477 255 255 255
-0.0755334 -0.0784913    1.91899 255 255 255
 0.476231 -0.161819   1.70807 255 255 255
0.0107705  0.343286   1.78101 255 255 255
 0.249573 -0.325754   1.85143 255 255 255
0.131989 0.145257  1.77265 255 255 255
0.257541 0.156226  1.71778 255 255 255
-0.0649983 -0.0859832    1.91616 255 255 255
 0.033817 0.0537133   1.83056 255 255 255
0.0843409   0.20473   1.77373 255 255 255
 0.0567276 -0.0707931    1.85494 255 255 255
-0.247295  0.137619   1.93434 255 255 255
 0.116925 -0.161086   1.85507 255 255 255
 0.221051 -0.117278   1.79492 255 255 255
-0.254425 0.0684934     1.952 255 255 255
  0.36985 0.0908317   1.68822 255 255 255
 0.397628 -0.300702   1.78342 255 255 255
0.00407333 -0.0516716     1.8753 255 255 255
0.477634 0.178716  1.62032 255 255 255
0.0425674  0.211703   1.79038 255 255 255
0.17936 0.19805 1.73726 255 255 255
 0.449976 0.0182902   1.66914 255 255 255
 0.297168 0.0612735   1.72815 255 255 255
 0.580635 -0.165015   1.67543 255 255 255
0.562094 0.342946  1.55236 255 255 255
 0.0224165 -0.0830834    1.87071 255 255 255
0.383165 -0.36171  1.80637 255 255 255
-0.0470639  -0.116471     1.9109 255 255 255
-0.0782687  -0.120981     1.9258 255 255 255
-0.227478 0.0436506   1.94357 255 255 255
0.32289 0.27872 1.66358 255 255 255
0.165795 0.164581   1.7489 255 255 255
-0.0198574   0.270884    1.80899 255 255 255
 0.0369801 -0.0841804    1.86227 255 255 255
0.303957 0.273798  1.67263 255 255 255
 0.423758 0.0382416    1.6788 255 255 255
  -0.100946 -0.00904803     1.91288 255 255 255
0.203833 0.309937  1.70305 255 255 255
0.27615 -0.1057 1.77894 255 255 255
0.0290702 -0.268532   1.92122 255 255 255
0.544485 0.159188  1.59941 255 255 255
0.489155 0.204082  1.60693 255 255 255
-0.0589761   0.076456    1.87254 255 255 255
 0.06818 0.328907  1.75824 255 255 255
 0.333825 -0.198957   1.77521 255 255 255
-0.0109761  0.0970199     1.8445 255 255 255
 0.108855 0.0800913   1.80131 255 255 255
 0.466779 -0.237098    1.7367 255 255 255
 0.27577 -0.20592  1.79832 255 255 255
0.132137 0.370835   1.7187 255 255 255
-0.0240435   0.403126    1.78075 255 255 255
0.511077 0.132385  1.62251 255 255 255
 0.289444 -0.396429   1.85509 255 255 255
 0.101844 0.0884931   1.80052 255 255 255
0.0671948 -0.256667   1.90247 255 255 255
-0.225869 0.0512105   1.94206 255 255 255
  0.353209 -0.0257014     1.7179 255 255 255
0.496276 0.171813  1.61456 255 255 255
 0.428461 -0.301629    1.7699 255 255 255
0.0394656  0.203774   1.78997 255 255 255
0.558823 0.236602     1.58 255 255 255
  0.225823 -0.0367412    1.77775 255 255 255
 0.0843625 -0.0731746    1.84771 255 255 255
  0.322865 -0.0470715    1.73655 255 255 255
0.0864621  0.331122   1.75224 255 255 255
0.283533 -0.17541  1.79119 255 255 255
 0.45065 0.117648  1.64639 255 255 255
0.0731212  0.276971   1.76449 255 255 255
-0.241349  0.143099   1.93102 255 255 255
0.424125 0.231939  1.62736 255 255 255
0.248242  0.27433  1.69329 255 255 255
0.0925292  0.327587   1.74616 255 255 255
 0.500445 -0.203468   1.71767 255 255 255
0.411882 0.301073  1.62758 255 255 255
0.206245 0.357694  1.69043 255 255 255
0.501506 0.196767  1.60704 255 255 255
0.0508547 -0.127639   1.86567 255 255 255
 0.588165 -0.133425   1.66318 255 255 255
   0.138876 -0.00712163     1.80046 255 255 255
 0.237579 -0.424101   1.88774 255 255 255
 0.27629 0.160548  1.70648 255 255 255
  0.637592 -0.0606444    1.61649 255 255 255
0.122827 0.335766  1.73046 255 255 255
0.474977 0.342274  1.59246 255 255 255
-0.186042  0.179515   1.90062 255 255 255
   0.39307 -0.0306676    1.70394 255 255 255
0.310233  0.27808  1.66732 255 255 255
 0.129405 0.0241528   1.79962 255 255 255
-0.0885069   0.316387    1.82649 255 255 255
  0.211917 -0.0539552    1.78164 255 255 255
0.202458 0.171578  1.73242 255 255 255
 0.0647617 -0.0400636    1.84957 255 255 255
 0.131797 0.0357538   1.79875 255 255 255
-0.0961727   0.306966    1.83314 255 255 255
 0.221813 -0.333462   1.86711 255 255 255
0.524214 0.265766  1.58622 255 255 255
0.0332359 -0.129509   1.87325 255 255 255
 0.351525 -0.146669   1.75341 255 255 255
0.366925 0.331495  1.63475 255 255 255
-0.224529 0.0679635   1.94213 255 255 255
-0.120402 -0.120786   1.94667 255 255 255
-0.0267543   0.328643    1.80078 255 255 255
  0.38448 -0.317544    1.7934 255 255 255
0.445575 0.193778   1.6305 255 255 255
 0.143184 0.0715543   1.78208 255 255 255
0.0550746 -0.254215   1.90727 255 255 255
0.0961472 0.0770744   1.80442 255 255 255
 0.0550009 -0.0589656    1.85523 255 255 255
 0.255302 -0.367961   1.86121 255 255 255
-0.107307  0.113136   1.88028 255 255 255
 0.444486 -0.265955   1.75735 255 255 255
 0.317821 0.0874174   1.71292 255 255 255
-0.00421911  -0.0699508     1.88119 255 255 255
0.242707 0.343795   1.6816 255 255 255
0.565778 0.108515  1.60776 255 255 255
0.280424 0.143643  1.71374 255 255 255
 0.312721 -0.274003   1.81057 255 255 255
0.596173 0.331699  1.53879 255 255 255
 0.437837 0.0444982   1.67034 255 255 255
 0.136224 0.0444695   1.79585 255 255 255
-0.180402   0.17934   1.89976 255 255 255
0.0402453 -0.256322   1.91403 255 255 255
0.233337 -0.07832   1.7792 255 255 255
-0.178397  0.185481    1.8943 255 255 255
0.197114 0.135502  1.74622 255 255 255
 0.327566 -0.302895    1.8148 255 255 255
0.0386584  0.330087   1.77027 255 255 255
0.353734 0.126974  1.68238 255 255 255
 0.508216 0.0161861   1.65236 255 255 255
-0.0833276  -0.182984    1.94451 255 255 255
 0.517965 0.0269279   1.64579 255 255 255
0.181241 0.173435  1.74257 255 255 255
 0.627258 -0.127096   1.64328 255 255 255
 0.306691 -0.384068   1.84469 255 255 255
0.043628  0.24484  1.78911 255 255 255
0.0453904 -0.276123   1.91427 255 255 255
-0.0064501   0.123943    1.83804 255 255 255
