ply
format ascii 1.0
element vertex 1137
property float x
property float y
property float z
property uchar red
property uchar green
property uchar blue
end_header
 0.184122 -0.358799   1.88656 255 255 255
-0.0546928   0.315479    1.81104 255 255 255
-0.0142944 -0.0808268    1.89045 255 255 255
0.0714753 0.0458638   1.81652 255 255 255
-0.0577631 -0.0353123    1.89974 255 255 255
 0.390697 0.0359502   1.69192 255 255 255
 0.270181 0.0761264   1.72982 255 255 255
 0.192701 0.0439672   1.76964 255 255 255
0.0301684  0.233691   1.79425 255 255 255
-0.0387474   0.304853    1.80712 255 255 255
  -0.16193 -0.0980693    1.95599 255 255 255
-0.124822  0.258884   1.85432 255 255 255
 0.195044 -0.350963   1.88034 255 255 255
 0.40912 0.306667  1.62166 255 255 255
0.0459036 -0.046535   1.85524 255 255 255
-0.0517988  -0.078027    1.90803 255 255 255
-0.306365 0.0391425   1.97428 255 255 255
  -0.142246 -0.00981192       1.923 255 255 255
0.201849 0.242273  1.71921 255 255 255
0.0737894  0.034049   1.81992 255 255 255
0.321824 0.208178   1.6751 255 255 255
0.293037 0.347046  1.65552 255 255 255
-0.0819408 -0.0589065      1.916 255 255 255
 0.329648 -0.346022   1.81959 255 255 255
-0.0799281  0.0359399    1.88878 255 255 255
-0.0937855   0.232481    1.84571 255 255 255
 0.396848 0.0421665   1.68737 255 255 255
-0.0924441   0.108612    1.87232 255 255 255
  0.224139 -0.0467912      1.776 255 255 255
0.0301048  0.301968   1.77478 255 255 255
-0.279368 0.0349197   1.96737 255 255 255
-0.0869522   0.224926    1.84505 255 255 255
 0.0764771 -0.0844759    1.85157 255 255 255
   0.3629 0.0620282   1.69736 255 255 255
0.0311964  0.278053   1.78329 255 255 255
-0.070452 -0.110166    1.9153 255 255 255
0.0420896  0.259681   1.78254 255 255 255
-0.0629332 -0.0470088    1.90482 255 255 255
-0.071267  0.184626   1.84616 255 255 255
0.0561263  0.394591   1.74802 255 255 255
-0.113291 -0.103781   1.93857 255 255 255
 -0.186001 -0.0818121    1.96123 255 255 255
 0.409103 0.0118097   1.68697 255 255 255
-0.14932 0.268584  1.85949 255 255 255
-0.150587  0.253815   1.86484 255 255 255
0.198213 0.358061  1.69021 255 255 255
-0.0838466  -0.085324    1.92235 255 255 255
 -0.119219 -0.0703229    1.93213 255 255 255
-0.10621 0.232042  1.85104 255 255 255
  -0.14973 -0.0955087    1.95135 255 255 255
 0.104856 0.0581345   1.80439 255 255 255
 0.327288 0.0576596   1.71211 255 255 255
 0.180359 -0.338487   1.88319 255 255 255
-0.0945921 -0.0892945    1.92602 255 255 255
 0.343788 -0.393413   1.82896 255 255 255
-0.0287831 -0.0409659    1.88758 255 255 255
-0.0972037 -0.0510774    1.92012 255 255 255
-0.0021896   0.310267    1.78901 255 255 255
-0.142986  0.209176   1.87129 255 255 255
 0.296928 0.0611857   1.72555 255 255 255
0.373599 0.262859  1.64835 255 255 255
-0.113453    0.2214   1.85576 255 255 255
-0.145131   0.12236   1.89396 255 255 255
-0.162389  0.191607   1.88475 255 255 255
 -0.173895 -0.0873074    1.95902 255 255 255
   0.287362 -0.00280741     1.73653 255 255 255
  -0.2862 0.0199837   1.97191 255 255 255
 0.433704 0.0739383    1.6629 255 255 255
0.374046 0.360645  1.62475 255 255 255
 0.429192 0.0311378   1.67458 255 255 255
-0.0548743   0.302406    1.81325 255 255 255
-0.108373  0.216541   1.85699 255 255 255
  0.23283 -0.398177    1.8773 255 255 255
  0.218617 -0.0563884    1.77972 255 255 255
-0.0757826 -0.0517078    1.91136 255 255 255
-0.0757826 -0.0517078    1.91136 255 255 255
  0.217717 -0.0448776     1.7787 255 255 255
-0.0539734   0.231422    1.82968 255 255 255
-0.168851 -0.106886   1.96075 255 255 255
0.237631 0.222355  1.70463 255 255 255
0.185187 0.127131  1.75222 255 255 255
0.0211555  0.313955   1.77898 255 255 255
 0.0543678 -0.0451676    1.85443 255 255 255
-0.299458 0.0520782   1.96962 255 255 255
  0.225596 -0.0647088    1.77712 255 255 255
-0.00223022    0.166179     1.82052 255 255 255
 0.0461353 -0.0986541    1.85972 255 255 255
  0.204946 -0.0798301     1.7908 255 255 255
-0.269856  0.103715   1.94671 255 255 255
0.235195 0.241614  1.70355 255 255 255
0.198317 -0.32862  1.87202 255 255 255
-0.285672  0.039858   1.96732 255 255 255
 0.0212707 -0.0681144    1.86579 255 255 255
 -0.103393 -0.0635706    1.92527 255 255 255
 0.158336 -0.329569   1.89006 255 255 255
 0.0371228 -0.0895744    1.86191 255 255 255
 0.163201 -0.321913   1.88797 255 255 255
-0.13146 0.112072  1.88927 255 255 255
-0.000744328    -0.270857      1.93508 255 255 255
 -0.108221 -0.0713347       1.93 255 255 255
 -0.111907 -0.0670549    1.92998 255 255 255
 -0.104993 -0.0535481    1.92559 255 255 255
 0.0370911 -0.0849886    1.85955 255 255 255
-0.316268 0.0203329   1.98258 255 255 255
0.0681956  0.214336   1.77714 255 255 255
-0.0938282   0.277806    1.83442 255 255 255
 0.10143 0.190708  1.76981 255 255 255
-0.201437  0.030462   1.93891 255 255 255
  -0.163188 -0.00816203     1.93143 255 255 255
-0.00679147    0.190771     1.81989 255 255 255
0.0473201 0.0938261   1.82068 255 255 255
0.0351675  0.320064   1.77127 255 255 255
-0.0339512   0.155546    1.83801 255 255 255
 0.111326 0.0682818   1.79486 255 255 255
-0.0543164  -0.139414    1.91345 255 255 255
-0.0546928   0.315479    1.81104 255 255 255
 -0.169674 -0.0275054    1.93989 255 255 255
 -0.19414 0.0826145   1.92204 255 255 255
0.219159 0.255891  1.71055 255 255 255
-0.0456386 -0.0963132     1.9082 255 255 255
-0.0712908   0.340817    1.81217 255 255 255
-0.215493 0.0869584   1.93109 255 255 255
-0.0668773 -0.0645938    1.91123 255 255 255
-0.0229874 -0.0773412    1.89468 255 255 255
-0.0937855   0.232481    1.84571 255 255 255
-0.0455599   0.147511    1.84374 255 255 255
-0.0684206   0.348453     1.8085 255 255 255
-0.0202181  0.0967129    1.84405 255 255 255
0.0376567   0.31542   1.77107 255 255 255
0.244951 0.265454  1.69624 255 255 255
-0.203049 0.0919026   1.92636 255 255 255
0.0322016   0.33296   1.77082 255 255 255
-0.224341  0.156334   1.91916 255 255 255
-0.142565  0.254275   1.86157 255 255 255
 -0.119219 -0.0703229    1.93213 255 255 255
0.166754 0.179589   1.7459 255 255 255
0.0889631 0.0722569   1.80774 255 255 255
 0.0456236 -0.0711719    1.85673 255 255 255
-0.140832    0.1295   1.89457 255 255 255
0.038961 0.336326   1.7694 255 255 255
0.0903127  0.201128   1.77048 255 255 255
-0.00694969    0.123059     1.83577 255 255 255
 0.0169347 -0.0604736    1.86872 255 255 255
 -0.170514 -0.0210384    1.94083 255 255 255
-0.00710678    0.294572     1.79811 255 255 255
-0.209465 0.0734375   1.93058 255 255 255
0.00374948   0.311897    1.78769 255 255 255
0.183768 0.131609  1.75018 255 255 255
-0.176294  0.193103   1.88851 255 255 255
 -0.103367 -0.0953266    1.93044 255 255 255
-0.252243 0.0584931   1.94838 255 255 255
-0.14739 0.195787   1.8785 255 255 255
-0.186609  0.195926   1.89167 255 255 255
-0.103105  0.242772   1.84688 255 255 255
0.0677946  0.393088   1.74243 255 255 255
-0.17625 0.166195  1.89689 255 255 255
 0.0267634 -0.0578848    1.86273 255 255 255
-0.155267  0.197219   1.88262 255 255 255
0.0676088  0.235076   1.77401 255 255 255
-0.0547895   0.294156    1.81535 255 255 255
-0.251441  0.126244   1.93501 255 255 255
-0.216127  0.155816   1.91504 255 255 255
-0.165041  0.179232   1.89035 255 255 255
-0.167926  0.199519   1.88678 255 255 255
-0.199403 0.0770717   1.92674 255 255 255
-0.162848  0.242824   1.87134 255 255 255
-0.111507  0.210795   1.85757 255 255 255
-0.217509 0.0688985   1.93595 255 255 255
0.0238822  0.318899   1.77713 255 255 255
 -0.111907 -0.0670549    1.92998 255 255 255
-0.113359 -0.110837   1.94198 255 255 255
-0.317387 0.0280991   1.98038 255 255 255
 0.180923 -0.390262   1.89496 255 255 255
 0.146853 -0.205456   1.85872 255 255 255
 0.218592 -0.382794   1.87757 255 255 255
 0.354921 -0.308804   1.80126 255 255 255
-0.118874 -0.129015   1.94567 255 255 255
 0.347571 -0.259897   1.79184 255 255 255
 0.342444 -0.326773   1.81012 255 255 255
 0.202539 -0.321555   1.86753 255 255 255
 0.146065 -0.387022   1.91023 255 255 255
0.198024 -0.33518  1.87432 255 255 255
0.206337 -0.31685  1.86637 255 255 255
0.404613 -0.29587  1.77567 255 255 255
 0.146008 -0.128968   1.83138 255 255 255
0.149416 -0.40725  1.91104 255 255 255
 0.184493 -0.215633   1.83436 255 255 255
 0.175679 -0.312744   1.87465 255 255 255
 0.0949258 0.00449953    1.81569 255 255 255
 0.44718 0.103787  1.64749 255 255 255
0.0254296  0.189164   1.80142 255 255 255
0.176632 0.173747  1.74262 255 255 255
0.231465 0.159759  1.72244 255 255 255
0.444969 0.178648  1.62989 255 255 255
-0.0581765   0.049012    1.86863 255 255 255
0.539652 0.148921  1.59918 255 255 255
0.216987 0.271254  1.70229 255 255 255
0.152589 0.219436  1.74387 255 255 255
0.512647 0.116912  1.62073 255 255 255
0.149068  0.26123  1.73546 255 255 255
0.156703  0.12581  1.76468 255 255 255
0.011275 0.149498  1.81347 255 255 255
-0.201437  0.030462   1.93891 255 255 255
0.110007 0.232674  1.75589 255 255 255
0.278683 0.155983  1.70151 255 255 255
-0.0839571  0.0719445    1.87687 255 255 255
0.0826676  0.175284   1.78286 255 255 255
 0.435642 0.0212878   1.67366 255 255 255
 0.332146 -0.244242   1.78458 255 255 255
 0.404238 -0.228884   1.75744 255 255 255
 0.202891 0.0322542   1.77077 255 255 255
0.0868442  0.103977   1.79668 255 255 255
 0.298852 -0.237361   1.79352 255 255 255
0.0826847  0.250855   1.76484 255 255 255
 0.432138 0.0611602   1.66604 255 255 255
-0.142174 0.0284081   1.91592 255 255 255
 0.58707 0.189786  1.57357 255 255 255
 0.0982364 -0.0715194    1.84086 255 255 255
  0.220979 -0.0303431    1.77067 255 255 255
 0.387872 0.0807852   1.68416 255 255 255
0.381638 -0.30847  1.78831 255 255 255
0.362043 0.271654   1.6468 255 255 255
 -0.252039 -0.0141537    1.97033 255 255 255
 0.276622 -0.369002   1.84462 255 255 255
 0.141993 0.0149079   1.79636 255 255 255
 0.354217 0.0647309   1.70058 255 255 255
0.229909   0.1256  1.73315 255 255 255
 0.422002 -0.207962     1.744 255 255 255
-0.164885 0.0613308   1.91111 255 255 255
0.0670057 0.0876893   1.81294 255 255 255
0.256237  0.14287    1.717 255 255 255
  0.543595 -0.0936621    1.65526 255 255 255
 0.499496 0.0328712   1.64732 255 255 255
0.194786 0.170442  1.73842 255 255 255
 0.0536236 -0.0702269    1.85575 255 255 255
0.161601    0.356  1.70673 255 255 255
0.0397494  0.116542   1.81873 255 255 255
 0.491179 -0.218134   1.72346 255 255 255
  0.513349 -0.0469965    1.65637 255 255 255
 0.330857 -0.314871   1.81316 255 255 255
0.197252 0.196008  1.72812 255 255 255
 0.352497 -0.272784   1.79188 255 255 255
0.0837561 -0.234705   1.88975 255 255 255
-0.0863228   0.125118    1.86916 255 255 255
0.283042 0.103434  1.71831 255 255 255
0.380282 0.106766   1.6771 255 255 255
0.0666412 -0.281804   1.90443 255 255 255
-0.0217275   0.179273    1.82757 255 255 255
  0.301018 -0.0475909    1.74396 255 255 255
 0.104309 -0.155905   1.85591 255 255 255
0.179849 0.305659   1.7119 255 255 255
 0.256351 0.0278909   1.74474 255 255 255
0.496944 0.056149  1.64693 255 255 255
 0.164882 -0.190202   1.84236 255 255 255
 0.464066 -0.192444   1.73088 255 255 255
-0.0258666    0.08532    1.84975 255 255 255
-0.219067   0.13388   1.92216 255 255 255
 0.440165 0.0048688   1.67056 255 255 255
 0.522715 -0.174788   1.69327 255 255 255
 0.406019 0.0656505   1.67649 255 255 255
0.240024 0.203186  1.70727 255 255 255
 0.0706583 0.00592655    1.83357 255 255 255
0.277961 0.184694  1.69972 255 255 255
0.189095 0.120594  1.75091 255 255 255
0.471251   0.2244  1.61016 255 255 255
  0.18513 -0.174589   1.82922 255 255 255
   0.28348 -0.0192585    1.74176 255 255 255
  0.15678 -0.174569   1.84299 255 255 255
  0.30903 0.0219543   1.72693 255 255 255
 0.222285 -0.207631   1.81893 255 255 255
 0.405073 -0.147382   1.73198 255 255 255
 0.573381 0.0272481   1.61827 255 255 255
 0.44612 0.331964  1.60103 255 255 255
 0.167522 -0.213296   1.84825 255 255 255
-0.0198911 -0.0333528    1.88104 255 255 255
0.433882  0.13295  1.64708 255 255 255
0.243601 0.345419  1.68062 255 255 255
 0.187074 -0.110772   1.80394 255 255 255
0.0254229 -0.178205   1.88736 255 255 255
 -0.141065 0.00567892    1.91819 255 255 255
0.109879 0.110437  1.78595 255 255 255
  0.13952 -0.124822   1.83758 255 255 255
  0.401392 -0.0365186    1.69547 255 255 255
0.0879111 -0.145395   1.85631 255 255 255
0.262672 0.166961  1.70883 255 255 255
  0.407664 -0.0154861    1.68927 255 255 255
-0.0945204 -0.0997902    1.92676 255 255 255
0.409484 0.156366  1.65552 255 255 255
0.0111024  0.313755   1.78377 255 255 255
0.0189876 -0.130336   1.87814 255 255 255
-0.240568  0.121889   1.93253 255 255 255
 0.463681 -0.050043   1.67698 255 255 255
 0.321063 -0.221572   1.78137 255 255 255
 0.286116 -0.142541   1.78169 255 255 255
-0.0439583   0.225674    1.82526 255 255 255
0.193295 0.366746   1.6921 255 255 255
0.527176 0.118354   1.6149 255 255 255
-0.100082  0.135766   1.87033 255 255 255
 0.242803 -0.331351    1.8553 255 255 255
 0.50991 0.164682   1.6072 255 255 255
0.558894 0.013411  1.62811 255 255 255
  0.478383 -0.0056513    1.66186 255 255 255
0.482323 0.176106  1.61839 255 255 255
 0.23748 0.240901  1.70309 255 255 255
0.314921 0.349859  1.64809 255 255 255
   0.197974 -0.00171051      1.7774 255 255 255
0.112992 -0.11814  1.84478 255 255 255
0.120922 0.171233  1.76543 255 255 255
 0.366952 -0.255284   1.78278 255 255 255
 0.203932 -0.114426   1.80085 255 255 255
0.249529 -0.31593  1.84815 255 255 255
0.413781 0.222715  1.63362 255 255 255
0.0221262   0.17184   1.80367 255 255 255
0.0780578 -0.248013   1.89888 255 255 255
  0.0791266 -0.00509969     1.82644 255 255 255
 0.298008 -0.335104   1.83422 255 255 255
  0.34254 -0.294499   1.79911 255 255 255
  0.27282 -0.146428   1.78948 255 255 255
0.604406 0.273959  1.54738 255 255 255
0.327452 0.222335   1.6709 255 255 255
0.0124755 -0.255683   1.92376 255 255 255
 0.101639 -0.132111   1.85284 255 255 255
0.550696  0.21694  1.58041 255 255 255
 0.221578 -0.323323   1.86196 255 255 255
 0.416128 0.0312575   1.67924 255 255 255
0.0864587    0.3615   1.73869 255 255 255
0.390944 0.201724  1.64507 255 255 255
-0.0296207  -0.122639    1.90314 255 255 255
0.0531736 0.0488664   1.82168 255 255 255
 0.0334909 -0.0317386    1.85428 255 255 255
  0.360836 -0.0431768    1.71618 255 255 255
0.0975914 -0.119743   1.85402 255 255 255
0.399891 0.298797  1.63028 255 255 255
 0.501637 -0.198552   1.71103 255 255 255
  0.18944 -0.267617   1.84892 255 255 255
0.353763 0.197934  1.66352 255 255 255
0.364285 0.158964  1.67288 255 255 255
 0.561752 0.0384355   1.62371 255 255 255
0.399291 0.017469   1.6889 255 255 255
0.114235  0.32562  1.73734 255 255 255
 0.313493 -0.282923   1.81111 255 255 255
 0.38233 0.183009  1.65801 255 255 255
  0.12602 -0.151717   1.84816 255 255 255
  0.490885 -0.0452776    1.66477 255 255 255
 0.372129 -0.164129   1.74461 255 255 255
0.0444893  0.147639   1.79858 255 255 255
-0.131498 0.0326189   1.91278 255 255 255
0.454803 0.134537  1.64065 255 255 255
  0.026981 -0.0436569    1.86129 255 255 255
0.383958 0.168426  1.66025 255 255 255
-0.0398873  -0.051401    1.89356 255 255 255
 0.42526 0.307986  1.61753 255 255 255
0.0978111  0.280742    1.7511 255 255 255
0.0295127  0.296778     1.779 255 255 255
 0.213653 -0.107277   1.79136 255 255 255
0.074516 0.321339  1.75752 255 255 255
 0.153135 -0.124242   1.83017 255 255 255
  0.572027 0.00526876    1.62318 255 255 255
0.118892 0.363387  1.72303 255 255 255
 0.236706 -0.166327   1.80191 255 255 255
0.0203291 -0.073016   1.86685 255 255 255
-0.159781  0.167289   1.89154 255 255 255
0.141941 0.337831  1.72012 255 255 255
0.419755 0.140611  1.65289 255 255 255
0.0757401  0.289053   1.75674 255 255 255
  0.512562 -0.0212172    1.65963 255 255 255
-0.0521539  -0.173139     1.9236 255 255 255
-0.00678934   -0.154547     1.89391 255 255 255
0.214391 0.249441  1.71148 255 255 255
0.0630525 -0.251235   1.90242 255 255 255
-0.0119199 -0.0614262    1.87942 255 255 255
 0.467912 0.0633094   1.65347 255 255 255
 0.12792 0.277308  1.73694 255 255 255
-0.249317  0.050804   1.94666 255 255 255
  0.489955 -0.0672904     1.6696 255 255 255
 0.12096 0.206979   1.7588 255 255 255
 0.17249 0.209664   1.7347 255 255 255
-0.253136  0.108199   1.93982 255 255 255
0.440028 0.285822  1.61396 255 255 255
0.0904597 0.0191309   1.81644 255 255 255
  0.33148 -0.103134   1.75147 255 255 255
0.193069 0.218462  1.72345 255 255 255
 0.317565 -0.191452   1.77726 255 255 255
0.172758 0.134786   1.7552 255 255 255
  0.34344 -0.182328   1.76584 255 255 255
 0.46652 0.125333   1.6367 255 255 255
 0.100355 0.0731026   1.80222 255 255 255
0.459078 0.284111  1.61176 255 255 255
-0.0741894  -0.109699    1.91935 255 255 255
-0.259746   0.10376   1.94243 255 255 255
0.0364501 -0.278989   1.91523 255 255 255
0.0924978 0.0831083    1.8045 255 255 255
 0.376768 -0.250884   1.77596 255 255 255
  0.463009 -0.0731614    1.68067 255 255 255
-0.111382  0.146496   1.87453 255 255 255
 0.123897 0.0557249   1.79385 255 255 255
0.535379 0.173278  1.59325 255 255 255
  -0.13203 -0.0487669    1.93164 255 255 255
0.287384 0.250696  1.68375 255 255 255
0.363028 0.112343  1.68704 255 255 255
 0.482611 -0.141498   1.70216 255 255 255
 0.277378 0.0350033     1.736 255 255 255
-0.0639468 -0.0137613    1.89494 255 255 255
  0.36271 -0.172985   1.75779 255 255 255
 0.446148 -0.154202   1.71373 255 255 255
0.137594 0.142157  1.76631 255 255 255
 0.513007 0.0636136   1.63641 255 255 255
 0.440821 -0.229893   1.74424 255 255 255
0.114535 0.182175  1.76653 255 255 255
-0.0488461   0.176828    1.83893 255 255 255
 0.286738 -0.124047   1.77309 255 255 255
  0.198471 -0.0981462    1.79848 255 255 255
  0.196563 -0.0869085    1.79597 255 255 255
 0.0116584 -0.0231937    1.86198 255 255 255
 0.542462 0.0643882   1.61901 255 255 255
   0.16835 -0.0914428    1.80979 255 255 255
  0.334857 -0.0444063    1.73083 255 255 255
-0.116522  0.197968    1.8634 255 255 255
 0.256081 -0.335072   1.84793 255 255 255
 0.309519 -0.270016   1.80884 255 255 255
0.525456 0.257674  1.58997 255 255 255
  0.192795 -0.0736652    1.79609 255 255 255
0.449842 0.309969  1.60753 255 255 255
0.323402 -0.37478  1.83102 255 255 255
0.153551 0.302092  1.72733 255 255 255
0.0949192 0.0348289   1.81406 255 255 255
 0.294143 -0.153481   1.77938 255 255 255
 0.187208 0.0545929   1.76872 255 255 255
-0.156329 0.0886178   1.90092 255 255 255
 0.529176 -0.102036   1.66598 255 255 255
 0.158727 -0.293637    1.8754 255 255 255
0.324007 0.310146  1.65551 255 255 255
  0.314062 -0.0205141    1.73149 255 255 255
0.494939  0.15523  1.61328 255 255 255
   0.31947 -0.0892583    1.75037 255 255 255
0.528392 0.161223  1.60356 255 255 255
0.490591  0.14429  1.62155 255 255 255
0.0855123  0.150447   1.78536 255 255 255
 0.364237 0.0454697   1.69961 255 255 255
 0.400375 -0.296228   1.77954 255 255 255
  0.291685 -0.0727146    1.75731 255 255 255
 0.369998 -0.322064   1.79804 255 255 255
 0.0993321 -0.0764608    1.83871 255 255 255
0.257751 0.345824  1.67187 255 255 255
 0.378334 0.0378124   1.69556 255 255 255
0.408191 0.270134  1.63061 255 255 255
-0.102676  0.205148   1.85623 255 255 255
-0.187748 0.0582547    1.9266 255 255 255
 0.204096 -0.059604   1.78912 255 255 255
-0.0435902   0.315227    1.80693 255 255 255
  0.139353 -0.0110817    1.79716 255 255 255
0.101179 -0.29519  1.89296 255 255 255
 0.0431194 -0.0257053    1.84996 255 255 255
0.121266  0.34983  1.72741 255 255 255
 0.442407 0.0277962   1.67549 255 255 255
 0.309841 -0.172867   1.77799 255 255 255
  0.35744 0.0327433   1.70272 255 255 255
-0.0823985    0.21736    1.84342 255 255 255
0.0932232 -0.169861   1.86419 255 255 255
 0.288093 -0.358489   1.84609 255 255 255
0.397271 -0.30665  1.77955 255 255 255
 0.0203422 -0.0182623    1.85766 255 255 255
0.339447 0.317944  1.64689 255 255 255
-0.0642328   0.164455    1.84775 255 255 255
0.416779 0.329846  1.61773 255 255 255
 0.4773  0.3444 1.58612 255 255 255
 0.228683 -0.391076   1.87605 255 255 255
0.149397 0.280173  1.72747 255 255 255
  0.135288 0.00638123    1.79619 255 255 255
 -0.176157 -0.0125454    1.93795 255 255 255
  0.337471 -0.0292662    1.72503 255 255 255
0.123128 0.194276  1.75922 255 255 255
 0.317823 -0.390236   1.83834 255 255 255
 0.433613 -0.238025   1.74966 255 255 255
 0.24298 0.256196  1.70062 255 255 255
-0.0924441   0.108612    1.87232 255 255 255
 -0.273024 -0.0115351    1.97593 255 255 255
 0.393426 -0.156644   1.73682 255 255 255
 0.419451 -0.164139   1.72812 255 255 255
0.293269 0.227639  1.68798 255 255 255
-0.101762  0.305852   1.83132 255 255 255
 0.389987 -0.257351   1.76948 255 255 255
0.111385 0.234632  1.75218 255 255 255
-0.109457 -0.176903   1.94963 255 255 255
-0.0636751   0.321817    1.81203 255 255 255
  0.269501 -0.0406252    1.76095 255 255 255
 0.187813 -0.090768   1.80018 255 255 255
0.0210253  0.133892   1.82047 255 255 255
0.203812 0.114766  1.74652 255 255 255
 -0.0818085 0.000172031     1.89873 255 255 255
 0.577116 0.0832473   1.60786 255 255 255
   0.47811 -0.0733571     1.6752 255 255 255
 0.158834 -0.135171   1.82992 255 255 255
 0.530311 0.0424149   1.63435 255 255 255
  0.454953 -0.0302602     1.6777 255 255 255
 0.358906 -0.265897   1.78875 255 255 255
0.278017 0.125139  1.71219 255 255 255
0.223126 0.225531  1.71001 255 255 255
  0.278298 -0.0432993    1.75409 255 255 255
 0.143247 -0.149607   1.84326 255 255 255
0.618606 0.107597  1.58214 255 255 255
0.547145 0.190314  1.58814 255 255 255
 0.305417 0.0381365   1.72521 255 255 255
 0.446447 0.0663158   1.65969 255 255 255
-0.13834 0.278062   1.8546 255 255 255
0.184486 0.163425  1.74147 255 255 255
0.254828 0.194787   1.6994 255 255 255
0.101063 0.163555  1.77499 255 255 255
 0.301169 -0.131448   1.76565 255 255 255
 0.351805 -0.282633   1.79336 255 255 255
  0.143827 -0.0902094    1.81673 255 255 255
0.351945 0.330773  1.63778 255 255 255
 0.210644 -0.317687   1.86514 255 255 255
 0.457463 -0.234632   1.74053 255 255 255
 0.0608068 -0.0542366    1.84913 255 255 255
0.116585 0.299942  1.73755 255 255 255
0.477326 0.285979   1.5999 255 255 255
 0.0275215 -0.0645646    1.86251 255 255 255
 0.0946179 -0.0978236    1.84538 255 255 255
 0.206373 -0.364795   1.87801 255 255 255
0.0844668  0.270195   1.75721 255 255 255
0.0866981   0.11995   1.79193 255 255 255
0.0237559  0.327516   1.77283 255 255 255
 0.242033 -0.306352   1.84908 255 255 255
 0.403374 -0.106865   1.72163 255 255 255
 -0.214467 -0.0333529    1.95744 255 255 255
 0.439003 -0.054446    1.6886 255 255 255
 0.479968 0.0277651   1.65841 255 255 255
  0.22883 -0.113713    1.7869 255 255 255
0.477316 0.332959  1.58929 255 255 255
0.0232013  0.102578   1.82743 255 255 255
 0.586214 -0.124532   1.65707 255 255 255
0.0826994 0.0259118   1.81825 255 255 255
 0.39025 0.116115  1.67125 255 255 255
0.0993499 -0.264243   1.88787 255 255 255
0.262204 -0.30623  1.83765 255 255 255
  0.338028 -0.0119944    1.72349 255 255 255
   0.3223 -0.143871    1.7589 255 255 255
 0.279064 -0.192353   1.79074 255 255 255
 0.26966 0.207091  1.69494 255 255 255
0.125712 0.180899  1.76505 255 255 255
 0.181243 -0.124447   1.81197 255 255 255
-0.268538 0.0683722    1.9545 255 255 255
0.0605861   0.37555    1.7491 255 255 255
  0.33292 -0.147449   1.75859 255 255 255
 0.342123 -0.124359   1.75106 255 255 255
0.0347195 0.0907502    1.8257 255 255 255
0.0334069  0.348156   1.76913 255 255 255
 0.271987 -0.124119   1.78318 255 255 255
 0.297017 0.0328019   1.73117 255 255 255
 0.123396 -0.112214   1.84026 255 255 255
 0.377008 -0.177517   1.74516 255 255 255
0.195056  0.30965  1.70446 255 255 255
 0.0100483 -0.0987528     1.8835 255 255 255
0.594271 0.340259  1.53327 255 255 255
0.0938279  0.240887   1.75855 255 255 255
0.0640554  0.252412   1.77581 255 255 255
0.396233 -0.11736  1.72562 255 255 255
  0.335115 -0.0702444    1.73071 255 255 255
0.607133 0.157138  1.57566 255 255 255
0.169423 0.294651  1.71988 255 255 255
0.0737385  0.143095   1.79364 255 255 255
0.328677 0.322299  1.65304 255 255 255
 0.313548 -0.405185   1.84408 255 255 255
0.029726 0.222232  1.79459 255 255 255
0.312535 0.300544  1.66241 255 255 255
0.309374 0.087097  1.71275 255 255 255
  0.451479 -0.0564984    1.68419 255 255 255
 0.283038 -0.403712   1.85823 255 255 255
0.549356  0.25752  1.57511 255 255 255
 0.276236 -0.121237   1.77624 255 255 255
0.513919 0.269413  1.58653 255 255 255
-0.0597213 -0.0827107     1.9107 255 255 255
-0.0886491  -0.180201     1.9438 255 255 255
 0.177599 0.0485319   1.77455 255 255 255
 0.299857 -0.307072   1.82226 255 255 255
 0.318249 -0.365646   1.83061 255 255 255
-0.0592215   0.153117    1.85014 255 255 255
  0.0984164 -0.00539737     1.81506 255 255 255
 0.224242 -0.358835   1.86635 255 255 255
 0.599226 0.0622745   1.60409 255 255 255
 0.553546 -0.077865   1.64829 255 255 255
   0.356218 -0.00234202     1.71044 255 255 255
0.296691 0.255836  1.67792 255 255 255
-0.13368 0.193583  1.87038 255 255 255
   0.431453 -0.00545293     1.67949 255 255 255
0.252577 0.214911  1.69728 255 255 255
 0.167811 -0.376663   1.89958 255 255 255
-0.183114  0.151463   1.90339 255 255 255
-0.0199003  -0.146207    1.89995 255 255 255
0.224763 0.202844  1.71566 255 255 255
 0.234562 -0.320743   1.85567 255 255 255
0.0351475 -0.304822   1.91798 255 255 255
 -0.126861 -0.0347562    1.92867 255 255 255
 0.541667 0.0528906   1.62703 255 255 255
 0.11568 0.029182  1.80116 255 255 255
 0.544228 -0.196899   1.69092 255 255 255
0.463664 0.262838  1.60779 255 255 255
0.261245 -0.17406  1.79464 255 255 255
0.487789 0.357183  1.58012 255 255 255
0.134552 0.350677  1.72048 255 255 255
  0.496977 -0.0956582    1.67583 255 255 255
0.0824818  0.263511   1.76329 255 255 255
-0.0495454  0.0362651    1.86395 255 255 255
0.0815976 0.0145989   1.82257 255 255 255
0.280258 0.018522  1.73589 255 255 255
  0.360753 -0.0236065    1.71168 255 255 255
0.0376904 0.0605052    1.8247 255 255 255
 0.348109 -0.385793   1.82874 255 255 255
  0.105903 0.00625336    1.80759 255 255 255
 0.227736 -0.341556   1.86147 255 255 255
 0.048588 -0.250757   1.90774 255 255 255
  0.17194 -0.125985   1.81526 255 255 255
-0.070452 -0.110166    1.9153 255 255 255
0.0898035  0.209722   1.76824 255 255 255
0.345324 0.306215  1.64296 255 255 255
 0.0328134 -0.0989251    1.86527 255 255 255
 -0.207043 -0.0577923    1.96334 255 255 255
 0.374797 -0.373417   1.81194 255 255 255
 -0.1901 0.156074  1.90342 255 255 255
0.0302177 -0.257725   1.91749 255 255 255
0.218868 0.299395  1.69894 255 255 255
0.128361 0.342202  1.72328 255 255 255
0.0761265   0.36704   1.73793 255 255 255
0.312753 0.181263  1.68382 255 255 255
0.429232 0.223761  1.62499 255 255 255
0.410981 0.145718  1.65768 255 255 255
0.116572 0.314476  1.73562 255 255 255
0.143775 0.310105  1.72643 255 255 255
0.312899 0.152227  1.68763 255 255 255
-0.0229747 -0.0869651    1.89595 255 255 255
0.0801158  0.186829   1.77929 255 255 255
 0.606512 0.0843349   1.59387 255 255 255
-0.219811  0.030603   1.93982 255 255 255
0.362835 0.347227  1.63073 255 255 255
   0.182511 0.000276719     1.78364 255 255 255
 0.496116 0.0821681   1.63827 255 255 255
 0.588786 0.0583651    1.6085 255 255 255
 0.382512 -0.166099   1.74069 255 255 255
   0.132537 -0.00346249     1.79923 255 255 255
0.245924 0.036884  1.75018 255 255 255
  0.10453 -0.272518   1.88735 255 255 255
 0.139655 -0.161872    1.8511 255 255 255
0.0523201 -0.276177   1.90624 255 255 255
 0.30894 0.227145  1.67985 255 255 255
 0.637262 0.0784827   1.58135 255 255 255
  0.37285 -0.263471   1.78138 255 255 255
 0.581562 0.0529538   1.61241 255 255 255
 0.602205 0.0136693   1.61171 255 255 255
 0.316791 -0.122551   1.75958 255 255 255
  0.432319 -0.0625997    1.69145 255 255 255
 0.381257 0.0257112   1.69527 255 255 255
0.610176 0.342187  1.52565 255 255 255
 0.356584 -0.186652   1.76083 255 255 255
 0.0546192 -0.0932405    1.85581 255 255 255
0.326194 0.290532  1.65429 255 255 255
0.396844 0.169767  1.65572 255 255 255
 -0.115358 -0.0954485    1.93663 255 255 255
  0.380334 -0.0134859    1.70199 255 255 255
0.284659 0.328516  1.66801 255 255 255
 0.110289 -0.140128   1.85249 255 255 255
 0.354158 -0.112343   1.73725 255 255 255
 0.187303 -0.129876   1.80997 255 255 255
0.601755 0.101773  1.59143 255 255 255
-0.0457709  0.0215369    1.87032 255 255 255
  0.34729 0.0178567   1.71014 255 255 255
 0.106301 -0.290132   1.88979 255 255 255
0.433911 0.342414  1.60502 255 255 255
0.453656  0.26611  1.61149 255 255 255
0.0770038 -0.321773   1.90778 255 255 255
0.344322 0.327462  1.64307 255 255 255
 0.349261 -0.099465   1.73536 255 255 255
-0.0739329 -0.0968426    1.91827 255 255 255
-0.0178759   0.354037    1.78339 255 255 255
 0.560393 -0.130964   1.67003 255 255 255
-0.13848 0.213281  1.86602 255 255 255
 0.235503 0.0316007   1.75684 255 255 255
 0.112055 -0.273874   1.88283 255 255 255
 0.530752 0.0516073   1.63295 255 255 255
0.0645519  0.186046   1.78369 255 255 255
0.526405 0.202473  1.59297 255 255 255
0.210076 0.209983  1.72019 255 255 255
0.300598 0.221505  1.68332 255 255 255
0.0254813 0.0486247   1.83445 255 255 255
-0.0800379  -0.199133    1.93971 255 255 255
0.430992 0.251527   1.6193 255 255 255
 0.286003 -0.154881   1.78474 255 255 255
-0.0497401   0.207622    1.82821 255 255 255
  0.131523 -0.0357633    1.80514 255 255 255
  0.141584 -0.0466453    1.80347 255 255 255
0.0455462  0.268352   1.77925 255 255 255
  0.312157 -0.0376882    1.74008 255 255 255
    0.143141 -0.000917027       1.7951 255 255 255
-0.0478075   0.220909    1.82739 255 255 255
  0.012444 -0.0391089    1.86958 255 255 255
0.422767 0.201395  1.63137 255 255 255
0.161936 0.135742  1.75921 255 255 255
0.260597  0.16953  1.71119 255 255 255
 0.289601 0.0257084   1.72992 255 255 255
0.254368 0.126335  1.72434 255 255 255
-0.065074  0.291002   1.81902 255 255 255
0.0798334  0.187127   1.77925 255 255 255
0.138653  -0.1381  1.84273 255 255 255
0.0342242 0.0988016   1.82401 255 255 255
   0.275352 -0.00250976     1.74025 255 255 255
-0.0484432  0.0666537    1.86361 255 255 255
0.170354 0.303133  1.71882 255 255 255
 0.403793 0.0167394   1.68867 255 255 255
 0.233877 -0.210128   1.81858 255 255 255
0.221203 0.332421  1.69176 255 255 255
-0.0209145 -0.0275773    1.87747 255 255 255
-0.137277  0.206213      1.87 255 255 255
0.418593  0.10524  1.65803 255 255 255
-0.0836721 -0.0932412    1.92269 255 255 255
 0.397173 -0.245806   1.76738 255 255 255
 0.0197333 -0.0363297    1.86618 255 255 255
 0.50291 0.234853   1.5959 255 255 255
 0.16148 -0.17538  1.84126 255 255 255
0.051504 0.297083  1.76837 255 255 255
 0.210534 -0.167976   1.80847 255 255 255
0.0584962 -0.284893   1.90581 255 255 255
0.088266 0.196794  1.77487 255 255 255
0.101364 0.179927  1.77568 255 255 255
0.324348 0.233316  1.67049 255 255 255
0.295427 0.280636  1.67201 255 255 255
0.0946102 -0.238545   1.88544 255 255 255
  0.242374 -0.0678555    1.77079 255 255 255
 0.173769 -0.169514   1.83329 255 255 255
 0.106677 0.0137759   1.80566 255 255 255
 0.194816 0.0123941    1.7782 255 255 255
0.0106603  0.103061   1.83132 255 255 255
0.0494143 -0.263419   1.90663 255 255 255
    0.4154 0.00161095    1.68438 255 255 255
0.460224 0.353778  1.59085 255 255 255
0.137197 0.320264  1.72788 255 255 255
0.223976 0.220231  1.71167 255 255 255
-0.0239173   0.152386    1.83329 255 255 255
-0.0596633   0.175706     1.8466 255 255 255
  0.31327 -0.235323   1.78656 255 255 255
0.262581 0.328729  1.67398 255 255 255
-0.0709187 -0.0894864    1.91605 255 255 255
0.336596  0.20757  1.66836 255 255 255
0.0679512 -0.152564   1.86435 255 255 255
0.00460733  -0.267504    1.93293 255 255 255
-0.039203 0.0853458   1.85434 255 255 255
0.134206  0.37433  1.71367 255 255 255
0.430825  0.23219  1.62279 255 255 255
  0.515576 0.00613474    1.64518 255 255 255
0.614648 0.236725  1.55233 255 255 255
 0.37233 0.040339  1.69659 255 255 255
 0.539228 0.0938644   1.61804 255 255 255
0.335234 0.239973  1.66473 255 255 255
0.0680425   0.13453   1.80006 255 255 255
 0.145113 -0.232213   1.86037 255 255 255
0.532711 0.340478  1.56192 255 255 255
-0.139539  0.139254   1.88798 255 255 255
  0.205118 -0.0120361    1.77735 255 255 255
  0.58561 0.0925961   1.60153 255 255 255
0.528944 0.275459  1.57595 255 255 255
 0.239325 -0.233193   1.81763 255 255 255
0.318286 0.292546  1.66021 255 255 255
0.0512964  0.205854   1.78512 255 255 255
0.335867 -0.39607  1.83225 255 255 255
 0.277692 -0.178888   1.79078 255 255 255
 0.153746 -0.336568   1.89352 255 255 255
 0.319007 0.0490524   1.71454 255 255 255
0.207868   0.3498  1.68937 255 255 255
  0.210753 -0.0690382    1.78738 255 255 255
0.208427 0.168005  1.73002 255 255 255
 0.41645 0.113454  1.65959 255 255 255
 0.0359814 -0.0191022    1.85281 255 255 255
0.00234873 -0.0239338    1.86715 255 255 255
 0.403955 0.0402514   1.68417 255 255 255
-0.00818834   -0.117919     1.88898 255 255 255
0.556734 0.266832  1.56613 255 255 255
 0.388032 -0.248732   1.76985 255 255 255
 0.260152 -0.413398    1.8695 255 255 255
0.0727985  0.259236   1.76831 255 255 255
 0.465228 -0.287441    1.7508 255 255 255
0.120841 0.216504  1.75332 255 255 255
-0.127784 -0.166616   1.95424 255 255 255
  0.317658 -0.0658659    1.73777 255 255 255
 0.181392 -0.146228   1.81666 255 255 255
0.414373  0.24991  1.62746 255 255 255
0.0492545  0.271809   1.77534 255 255 255
0.000953606   -0.180953      1.8969 255 255 255
0.515415 0.205812  1.59793 255 255 255
0.220138 0.291327  1.69728 255 255 255
0.373169 0.253842  1.64753 255 255 255
 0.398893 0.0839912   1.67491 255 255 255
 0.127062 0.0136604   1.79687 255 255 255
0.0936254  0.295438   1.74304 255 255 255
0.0796779 -0.183297   1.86487 255 255 255
0.00740183   0.296025    1.78785 255 255 255
0.330162 0.211935  1.67092 255 255 255
0.00170035  -0.283053    1.93798 255 255 255
 0.317095 -0.041289    1.7362 255 255 255
 0.241992 -0.319258   1.85177 255 255 255
-0.0306545   0.362197    1.78813 255 255 255
0.0945344  0.161409   1.77996 255 255 255
 0.185251 -0.233239   1.83756 255 255 255
-0.257417 0.0205006   1.95423 255 255 255
0.544734  0.10844  1.60785 255 255 255
 0.0879248 -0.0626122    1.84293 255 255 255
 -0.165553 0.00999267     1.9305 255 255 255
 0.036019 -0.259259   1.91366 255 255 255
0.0301048  0.301968   1.77478 255 255 255
0.0155735  0.355606   1.77391 255 255 255
 0.216916 -0.281749   1.83913 255 255 255
0.448575 0.315339  1.60555 255 255 255
 0.239711 0.0779969   1.74376 255 255 255
-0.0744463   0.315484    1.81989 255 255 255
 0.120376 0.0219393   1.80011 255 255 255
 0.203752 -0.311287   1.86606 255 255 255
0.181513 0.111365  1.75612 255 255 255
 0.142586 0.0116353   1.79407 255 255 255
0.497799 -0.21052  1.71641 255 255 255
0.0737768  0.331853   1.75189 255 255 255
   0.344 0.246535  1.65973 255 255 255
-0.0980129 -0.0257634    1.91237 255 255 255
-0.0997664   0.149288    1.86937 255 255 255
 0.455286 -0.259302   1.74463 255 255 255
-0.0376259  -0.149512    1.91251 255 255 255
-0.0466631   0.234439     1.8256 255 255 255
    0.364801 -0.000594272      1.70621 255 255 255
0.164061 0.104189  1.76556 255 255 255
-0.025567  0.226089   1.81624 255 255 255
  0.63221 0.0373554   1.59102 255 255 255
0.0842482  0.232883   1.76775 255 255 255
-0.117272 -0.174899   1.95252 255 255 255
0.0213412 0.0761337    1.8307 255 255 255
  0.345341 -0.0434299    1.72847 255 255 255
0.239668 0.366764  1.67295 255 255 255
 0.343535 0.0389318   1.70737 255 255 255
  0.345191 -0.0234892    1.71631 255 255 255
  0.346008 -0.0149261    1.71758 255 255 255
    0.51948 -0.00808851     1.64582 255 255 255
0.0333381  0.140548   1.81275 255 255 255
 0.522983 0.0414293   1.63724 255 255 255
 0.209183 -0.371749   1.88045 255 255 255
0.193911 0.284249  1.71181 255 255 255
-0.0577503  -0.120262    1.91226 255 255 255
0.482984 0.162559  1.62418 255 255 255
-0.129458   0.29859   1.84428 255 255 255
0.292649 0.137135  1.70166 255 255 255
  0.18225 -0.209946   1.83734 255 255 255
0.163387 0.148642   1.7511 255 255 255
0.494841 0.165722  1.61383 255 255 255
-0.0211291  -0.130499     1.8978 255 255 255
  0.313751 -0.0809877    1.74935 255 255 255
   0.330862 -0.00392033     1.72225 255 255 255
-0.0737456   0.166461     1.8517 255 255 255
 0.124266 0.0340504   1.79915 255 255 255
0.0778258  0.293913   1.75421 255 255 255
 0.10334 0.018852  1.80876 255 255 255
0.217752 0.188379   1.7186 255 255 255
0.327297 0.166016  1.68166 255 255 255
  0.607352 -0.0366129    1.61979 255 255 255
 0.178805 -0.235525   1.84425 255 255 255
-0.0727226 -0.0729034    1.91557 255 255 255
-0.134617 -0.121925    1.9503 255 255 255
0.326578 0.158244  1.67973 255 255 255
  0.410718 0.00553143    1.68736 255 255 255
 0.184024 0.0399456   1.77171 255 255 255
 0.556988 -0.153363   1.67466 255 255 255
-0.0434399    0.20557    1.82585 255 255 255
-0.0727939  -0.178738    1.93514 255 255 255
0.177025 0.333654   1.7047 255 255 255
0.131034 0.187091  1.75862 255 255 255
 0.151431 -0.204488   1.85311 255 255 255
0.148701  0.29046  1.72727 255 255 255
 0.613054 -0.142493   1.64782 255 255 255
 0.308858 -0.142514   1.76417 255 255 255
-0.00347212    0.397365     1.77187 255 255 255
 0.128464 0.0293237   1.79738 255 255 255
0.0850827   0.15969   1.78793 255 255 255
 0.417585 -0.180194   1.73049 255 255 255
 0.544999 -0.189185   1.68744 255 255 255
 0.503317 0.0215519   1.64811 255 255 255
-0.0747603    0.33241     1.8133 255 255 255
-0.215018  0.161434   1.91294 255 255 255
0.538769 0.108059  1.61348 255 255 255
0.0962762 -0.287737   1.89123 255 255 255
 0.417779 -0.148351   1.71961 255 255 255
0.247393 0.235006  1.69816 255 255 255
-0.00146472    -0.19097      1.9036 255 255 255
0.527979 0.327692  1.57261 255 255 255
  0.149184 0.00667892    1.79184 255 255 255
  0.14675 -0.157742   1.84356 255 255 255
0.0350682 -0.062087   1.85946 255 255 255
 0.377996 0.0549511   1.69168 255 255 255
 0.258986 -0.361437   1.85562 255 255 255
  0.041728 -0.0598295    1.85574 255 255 255
0.230602 0.127562  1.73246 255 255 255
 0.252825 0.0718974   1.73822 255 255 255
0.0807962  0.321461   1.75106 255 255 255
 0.26946 0.129352  1.71866 255 255 255
  0.562143 -0.0429211    1.64013 255 255 255
  0.210878 -0.0809348    1.78817 255 255 255
 0.343788 -0.393413   1.82896 255 255 255
 0.288016 -0.369983   1.84749 255 255 255
   0.526083 -0.00597577     1.64191 255 255 255
-0.266612 0.0864277   1.94925 255 255 255
 0.439954 0.0128735    1.6728 255 255 255
  0.144637 -0.0192946    1.79689 255 255 255
0.412104 -0.11804  1.71736 255 255 255
0.0966979 0.0650824   1.80597 255 255 255
0.122706 0.129615   1.7727 255 255 255
0.289291 0.121736  1.70962 255 255 255
-0.222343 0.0538466   1.93896 255 255 255
-0.208557  0.137075   1.91599 255 255 255
0.00980795  0.0913533    1.83353 255 255 255
  0.40257 0.0783588   1.67485 255 255 255
0.582325 0.294632  1.54967 255 255 255
  0.131697 -0.0170848    1.80099 255 255 255
  0.327218 0.00141679    1.72378 255 255 255
 0.205556 -0.332989   1.86917 255 255 255
0.619681 0.155951  1.57063 255 255 255
 0.227725 -0.311163   1.85742 255 255 255
0.199802 -0.20046   1.8273 255 255 255
-0.0324092 -0.0506066    1.89168 255 255 255
-0.0787504  -0.136491     1.9227 255 255 255
0.102218 0.328354  1.73931 255 255 255
-0.265803  0.092365   1.94533 255 255 255
   0.46683 -0.0615799    1.67785 255 255 255
0.109377  0.35634  1.73291 255 255 255
  0.126593 -0.0482372    1.81066 255 255 255
0.271697 0.138711  1.71176 255 255 255
0.206843 -0.19864  1.82404 255 255 255
  0.460326 -0.0405493    1.67796 255 255 255
 0.477897 -0.103343   1.68507 255 255 255
 0.349506 0.0380482    1.7045 255 255 255
 0.458426 -0.200805   1.72998 255 255 255
-0.109816 0.0292638   1.90255 255 255 255
0.416811 0.214922  1.63186 255 255 255
 0.448769 0.0540957   1.66047 255 255 255
-0.0689463 -0.0795434    1.91469 255 255 255
-0.0737654   0.253417    1.83288 255 255 255
0.0533399  0.319077   1.76406 255 255 255
0.0493421  0.129905   1.80842 255 255 255
 0.441379 -0.243592     1.748 255 255 255
 0.194978 0.0308939   1.76939 255 255 255
0.541299 0.236541  1.58482 255 255 255
 0.268788 0.0132271   1.74378 255 255 255
0.123595 0.313067   1.7337 255 255 255
  0.200374 -0.0476793    1.79056 255 255 255
-0.211635 0.0502067   1.93716 255 255 255
0.0145806  0.223195   1.80323 255 255 255
0.551119 0.286862  1.56437 255 255 255
 0.382656 0.0908597   1.68379 255 255 255
0.0355942  0.307285   1.77385 255 255 255
-0.00625664     0.13069     1.83482 255 255 255
0.338831 -0.28447  1.79878 255 255 255
-0.278689 0.0423966   1.96401 255 255 255
0.0393441  0.139037   1.81151 255 255 255
0.00609677   0.387649    1.76862 255 255 255
-0.143759  0.282378   1.85524 255 255 255
0.121306  0.37659  1.72113 255 255 255
0.0963721 -0.129667   1.85731 255 255 255
   0.615087 -0.00582905     1.60719 255 255 255
0.142065  0.29681  1.72966 255 255 255
0.165618 0.189956  1.74376 255 255 255
  0.11267 0.0182316   1.80398 255 255 255
-0.0263983  -0.197896    1.91565 255 255 255
 0.0837518 -0.0302817    1.83558 255 255 255
0.289116 0.284929  1.67307 255 255 255
 0.514054 0.0580021    1.6374 255 255 255
 0.247401 -0.174105   1.80076 255 255 255
   0.52121 -0.0749329    1.66224 255 255 255
0.0471885  0.210877   1.78443 255 255 255
  0.26104 -0.420572   1.87259 255 255 255
 0.578506 -0.127318   1.66124 255 255 255
 0.346237 -0.135916    1.7508 255 255 255
  0.100535 -0.0412305    1.82036 255 255 255
0.085443 0.384901  1.73353 255 255 255
 0.445512 -0.217756   1.74103 255 255 255
 -0.0682105 -0.00193243      1.8954 255 255 255
   0.159975 -0.00458966     1.79017 255 255 255
  0.239043 -0.0789384    1.77383 255 255 255
 0.297316 -0.213215   1.78804 255 255 255
0.416415  0.30745  1.61827 255 255 255
 0.207072 -0.186575   1.81998 255 255 255
 0.369359 -0.127467   1.73372 255 255 255
 0.231484 -0.221815   1.81961 255 255 255
 0.391847 -0.311482   1.78499 255 255 255
0.143567 0.241469  1.73944 255 255 255
0.202159 0.164917  1.73366 255 255 255
0.300999 0.297859  1.66664 255 255 255
-0.0462608 -0.0846674    1.90641 255 255 255
  0.596738 -0.0219102    1.61973 255 255 255
 0.145379 -0.256067   1.86579 255 255 255
 0.519527 -0.107488   1.66995 255 255 255
 0.0450672 -0.0656053    1.85764 255 255 255
0.0413833 -0.274837   1.91179 255 255 255
0.0412579  0.309732   1.77382 255 255 255
 0.468207 -0.160609   1.70713 255 255 255
-0.00766812  -0.0911973     1.88717 255 255 255
0.339917 0.234574  1.66164 255 255 255
0.372111  0.33779  1.62816 255 255 255
0.473772  0.35344   1.5845 255 255 255
 0.607022 -0.143109   1.65313 255 255 255
0.125583 0.328926  1.73278 255 255 255
0.00788018   0.381007    1.76772 255 255 255
  0.135211 -0.0304136    1.80197 255 255 255
-0.0144738   0.289987    1.79974 255 255 255
-0.122006 0.0474535   1.90284 255 255 255
-0.00886008  -0.0365148     1.87693 255 255 255
  0.17806 -0.227402   1.84378 255 255 255
0.512484 0.348727  1.57152 255 255 255
0.0762689 0.0161615   1.82563 255 255 255
 0.463396 -0.103939   1.69073 255 255 255
0.0725035  0.188434   1.78038 255 255 255
 -0.127665 -0.0904019    1.94141 255 255 255
0.538713 0.162611   1.5988 255 255 255
0.000206418   -0.116892       1.886 255 255 255
0.0767052 -0.134609   1.85953 255 255 255
 -0.238005 -0.0171226    1.96265 255 255 255
0.0581026  0.130315   1.80508 255 255 255
 0.0146341 -0.0972938    1.87258 255 255 255
  0.373348 -0.0481933    1.71167 255 255 255
0.0923914 -0.259319   1.89006 255 255 255
-0.226016 0.0351513   1.93993 255 255 255
 0.47895 0.213005  1.60412 255 255 255
  0.3476 0.267061  1.65413 255 255 255
 0.152362 -0.152493    1.8412 255 255 255
 0.448038 -0.258432    1.7469 255 255 255
-0.174948  0.230305    1.8803 255 255 255
 0.510351 0.0113891   1.64698 255 255 255
 -0.151204 0.00304181    1.92627 255 255 255
-0.234751 0.0433392   1.94074 255 255 255
  0.207561 -0.0375479    1.78126 255 255 255
 0.0714389 -0.0385182    1.84374 255 255 255
 0.105487 -0.331322    1.8974 255 255 255
-0.0434246  -0.122339    1.90995 255 255 255
 0.250876 0.0785308   1.73711 255 255 255
0.161579 0.300353  1.72225 255 255 255
   0.2436 0.0110397   1.75548 255 255 255
0.139807 0.291376  1.73167 255 255 255
-0.0363679 -0.0442314    1.89139 255 255 255
-0.125014  0.271275   1.84963 255 255 255
 0.108933 -0.295505   1.88856 255 255 255
 0.091311 -0.265419   1.88891 255 255 255
 0.275395 0.0048139   1.73965 255 255 255
0.390004 0.294316  1.63379 255 255 255
0.318456 0.262422  1.66611 255 255 255
-0.148015  0.189727    1.8787 255 255 255
 0.560321 -0.173815    1.6792 255 255 255
 0.245675 -0.325152    1.8503 255 255 255
 0.289926 -0.298936   1.83056 255 255 255
-0.0169097   0.324169    1.79426 255 255 255
-0.221299 0.0821887   1.93477 255 255 255
 0.550871 0.0494574   1.62435 255 255 255
  0.425297 -0.0651471    1.69513 255 255 255
  0.110853 -0.0067076    1.80588 255 255 255
  0.426963 -0.0127147    1.68126 255 255 255
  0.250199 -0.0610178    1.76983 255 255 255
0.243777 0.189521  1.70974 255 255 255
-0.177872  0.107138    1.9082 255 255 255
 0.278158 -0.373981   1.85125 255 255 255
 0.403932 -0.285976   1.77326 255 255 255
-0.086998  0.310194   1.82643 255 255 255
0.0408204  0.191113   1.78946 255 255 255
 0.257636 -0.320101   1.84645 255 255 255
-0.0570529 -0.0415818    1.90038 255 255 255
 0.149637 0.0496439   1.78755 255 255 255
0.485744 0.132513   1.6287 255 255 255
0.308435 0.102892  1.70772 255 255 255
-0.0755865  -0.140891    1.92236 255 255 255
0.417845 0.269629  1.62418 255 255 255
 0.412531 -0.251728   1.75758 255 255 255
 0.247633 0.0181373   1.75099 255 255 255
 0.286959 -0.210536   1.79044 255 255 255
  0.327404 -0.0622673    1.73296 255 255 255
0.0595402  0.323829   1.76075 255 255 255
  0.327953 -0.0388353    1.73147 255 255 255
-0.0418263 -0.0936649    1.90602 255 255 255
 0.402028 -0.242927   1.75766 255 255 255
  0.459971 -0.0953687    1.68883 255 255 255
0.394255 0.214505  1.64519 255 255 255
-0.0755375 -0.0795078    1.91609 255 255 255
 0.476125 -0.161027   1.70443 255 255 255
0.00973445   0.342457    1.77929 255 255 255
 0.250236 -0.325625   1.84812 255 255 255
0.131525 0.144772  1.77049 255 255 255
0.257091  0.15606  1.71551 255 255 255
-0.0649654 -0.0870004    1.91325 255 255 255
0.0335464 0.0529078   1.82818 255 255 255
0.0837062  0.204119   1.77173 255 255 255
 0.0567912 -0.0715068    1.85224 255 255 255
-0.247917  0.135786   1.93142 255 255 255
 0.117225 -0.161542   1.85218 255 255 255
0.221212  -0.1174  1.79205 255 255 255
-0.254872 0.0667396   1.94889 255 255 255
 0.369507 0.0908846   1.68551 255 255 255
 0.398039 -0.300144   1.77976 255 255 255
0.00403372 -0.0524412    1.87264 255 255 255
0.476831 0.179227   1.6174 255 255 255
0.0418887  0.210948   1.78839 255 255 255
0.178777 0.197738   1.7352 255 255 255
 0.449542 0.0188665   1.66597 255 255 255
 0.296928 0.0611857   1.72555 255 255 255
 0.580236 -0.164035   1.67126 255 255 255
0.560828 0.343449  1.54948 255 255 255
 0.0225177 -0.0839432    1.86795 255 255 255
0.383743 -0.36114  1.80265 255 255 255
-0.0468911   -0.11755    1.90795 255 255 255
-0.0781044   -0.12212    1.92279 255 255 255
-0.227788 0.0418439   1.94052 255 255 255
0.322063 0.278886   1.6614 255 255 255
0.165299 0.164214  1.74679 255 255 255
-0.0207336    0.26992    1.80706 255 255 255
 0.0370911 -0.0849886    1.85955 255 255 255
0.303208 0.273809  1.67053 255 255 255
 0.423376 0.0386053   1.67576 255 255 255
 -0.101168 -0.0101406    1.91009 255 255 255
 0.20295 0.309807   1.7012 255 255 255
 0.276259 -0.105682   1.77598 255 255 255
0.0296372 -0.269156   1.91807 255 255 255
 0.54356 0.159815  1.59615 255 255 255
0.488157 0.204878    1.604 255 255 255
-0.0593905  0.0754185    1.87006 255 255 255
0.0672211  0.328281   1.75652 255 255 255
   0.3341 -0.198676   1.77196 255 255 255
-0.0114115  0.0961484    1.84219 255 255 255
 0.108538 0.0795427   1.79898 255 255 255
 0.466907 -0.236397   1.73293 255 255 255
0.276119 -0.20582  1.79518 255 255 255
0.131073 0.370538  1.71705 255 255 255
-0.0252623   0.402213    1.77914 255 255 255
0.510316 0.132891  1.61933 255 255 255
 0.290243 -0.396127   1.85156 255 255 255
 0.101506 0.0879249   1.79823 255 255 255
0.0677418 -0.257219   1.89936 255 255 255
-0.226257 0.0495545   1.93904 255 255 255
  0.353048 -0.0254181    1.71497 255 255 255
 0.49542 0.172418  1.61154 255 255 255
 0.428801 -0.300935   1.76614 255 255 255
