ply
format ascii 1.0
element vertex 1186
property float x
property float y
property float z
property uchar red
property uchar green
property uchar blue
end_header
 3.64141 -2.08174  2.06452 255 255 255
 2.86974 -2.64289  2.06847 255 255 255
1.41279 -2.2097 2.97806 255 255 255
 6.03461 -3.97426   3.6427 255 255 255
 3.87286 -2.12878  2.10482 255 255 255
 2.68543 -2.42502  1.93889 255 255 255
  3.1631 -2.68583   2.0548 255 255 255
 3.14449 -2.08663  2.07649 255 255 255
  6.798 -1.4565   3.717 255 255 255
 2.10229 -3.78855  1.93421 255 255 255
2.80624 -2.8123 1.90539 255 255 255
 2.70351 -3.41167  1.85274 255 255 255
 6.37063 -4.24293  3.67909 255 255 255
 7.21365 -3.10185  3.74733 255 255 255
 2.77404 -2.48473  1.85801 255 255 255
 3.27387 -2.53816  2.03195 255 255 255
7.33214 -1.6917 3.80364 255 255 255
 5.83528 -1.98038  3.07753 255 255 255
-0.695439  -2.50982   2.88075 255 255 255
-0.428832  -3.07142   2.96832 255 255 255
-0.53557 -3.31484  2.90048 255 255 255
0.502457 -1.04469  2.27413 255 255 255
0.442628 -1.45777  2.19607 255 255 255
-1.29989  -2.3488  2.90641 255 255 255
 1.55157 -2.93128  2.95392 255 255 255
-1.98717 -2.43349  2.15751 255 255 255
-1.93161 -2.53369  2.16597 255 255 255
-0.607379   -1.8599   3.00084 255 255 255
-1.24583 -2.86174  2.92427 255 255 255
0.938558 -2.71961  2.99995 255 255 255
-0.182852  -2.28572   2.96239 255 255 255
 2.62062 -1.71336  2.80901 255 255 255
2.99748 -1.6975 2.78325 255 255 255
 2.87352 -3.16633  1.97242 255 255 255
-0.036209  -3.06008   2.80439 255 255 255
-1.62041 -1.82337  2.82212 255 255 255
0.860553 -4.04288    2.543 255 255 255
-0.112862  -4.17696    2.8389 255 255 255
-0.463821  -3.84822    2.7798 255 255 255
 0.37786 -1.45824  2.20998 255 255 255
  2.15345 -0.338147   3.10805 255 255 255
-0.756011   -4.2378    2.8593 255 255 255
  2.10032 -0.965293   3.07069 255 255 255
-0.698611  -2.99241   2.93484 255 255 255
 1.64664 -3.24961  2.91972 255 255 255
 1.99332 -1.12138  2.92557 255 255 255
0.296948  -3.1572  3.04078 255 255 255
   1.30693 -0.0464915    3.01102 255 255 255
-0.227606  -4.03462    2.8063 255 255 255
 1.46302 -0.23624  2.85802 255 255 255
-0.630512   -4.0436   2.80165 255 255 255
-0.890836 -0.749008   2.17234 255 255 255
-0.494119  -3.98684   2.79556 255 255 255
0.532455 -2.74998  2.96163 255 255 255
 2.99696 0.441602  3.00549 255 255 255
  2.37476 -0.337533   3.08893 255 255 255
 2.74883 -1.60277  2.98788 255 255 255
0.792761 -3.67456    2.936 255 255 255
-0.192651  -4.28101   2.81311 255 255 255
  2.42281 -0.628304   3.14067 255 255 255
  2.19938 -0.756866   3.08732 255 255 255
   1.3091 -0.580344   3.03967 255 255 255
-1.77151  -2.3068  2.74998 255 255 255
-0.106449  -3.96378   2.81922 255 255 255
-1.89814 -4.33909  2.87456 255 255 255
0.671319 -2.62254  2.98981 255 255 255
-1.72982 -1.93941  2.82821 255 255 255
-1.10523 -4.05493  2.96189 255 255 255
3.41009 -0.5721 3.11592 255 255 255
 1.47877 -3.35397  2.91532 255 255 255
   2.8967 -0.587851   3.10891 255 255 255
-1.73495 -2.33703  2.65297 255 255 255
-1.31827 -2.91484   2.9286 255 255 255
  3.46021 -0.664152   3.07874 255 255 255
  0.8022 -2.55639  3.00237 255 255 255
  3.1314 -1.61006  2.97163 255 255 255
  0.39708 -0.691447   2.40092 255 255 255
-2.51805 -1.16663   2.4447 255 255 255
  1.3665 -2.28075  2.94668 255 255 255
1.09796 -3.3418 2.90273 255 255 255
0.304783 -2.09414  3.00344 255 255 255
  1.94416 -0.646933   3.08921 255 255 255
0.674314 -3.53371  2.99211 255 255 255
-2.34449 -1.08901  2.42803 255 255 255
0.184488   -1.544  2.21186 255 255 255
 1.96614 -1.87905  3.04069 255 255 255
  2.24724 -0.581955   3.06977 255 255 255
-1.08987 -2.40843  2.90523 255 255 255
 2.73121 -1.21518  3.04068 255 255 255
-0.274166  -4.34974   2.85993 255 255 255
  2.29826 -0.486634    3.1006 255 255 255
  2.02925 -0.271731   3.08689 255 255 255
2.82403 0.30477 3.14195 255 255 255
-0.66623  -2.8559  2.93226 255 255 255
 -2.32971 -0.835335   2.40863 255 255 255
 1.20707 -3.13986  2.98766 255 255 255
 1.39895 -1.00858  3.03305 255 255 255
 1.85842 0.157246  2.93729 255 255 255
0.344016 -1.51615  2.21241 255 255 255
-1.39092 -1.25441  2.29472 255 255 255
 0.23209 -1.32988  2.22002 255 255 255
 -2.68693 -0.847759   2.46061 255 255 255
0.225845 -2.83672  2.93767 255 255 255
0.198412 -3.39756  2.79626 255 255 255
-0.0668902  -0.575142    2.23844 255 255 255
 -2.37891 -0.961387   2.44994 255 255 255
0.120954 0.696335  2.55289 255 255 255
 1.70653 0.505018  2.95708 255 255 255
 1.57189 0.581421  2.97931 255 255 255
 -1.54735 -0.933561     2.237 255 255 255
-0.466751 -0.717644   2.24727 255 255 255
-2.30833 0.109998  2.27608 255 255 255
 1.67391 0.490515  2.97471 255 255 255
  1.71776 -0.367861   3.05048 255 255 255
 -2.36669 -0.251516   2.29726 255 255 255
 3.10971 -2.45227  2.05876 255 255 255
 4.50484 -2.66819  2.76966 255 255 255
 5.22442 -4.30211  3.57261 255 255 255
0.607819 -2.50258  2.92189 255 255 255
-1.87219 -3.74507  2.83088 255 255 255
-0.955973  -3.40288   2.91115 255 255 255
 1.41766 -4.13776  2.59118 255 255 255
  1.3955 -2.23955  2.95618 255 255 255
  2.71106 -0.881011   3.10354 255 255 255
 2.07833 -1.19841  3.07977 255 255 255
0.762953 -2.06231  2.99058 255 255 255
-0.60299 -1.61043  4.30718 255 255 255
 1.83398 -2.81998  2.89083 255 255 255
    2.6026 -0.0391946    3.24463 255 255 255
  1.40163 -0.820997   3.02215 255 255 255
  1.1434 0.622388  3.07939 255 255 255
-1.86779  1.00516  2.61885 255 255 255
 2.28998 0.360751  2.49894 255 255 255
 2.17887 0.602314  2.31469 255 255 255
-2.42303 -1.32437  2.58522 255 255 255
-2.36157 0.820211  2.51952 255 255 255
 -0.496701 -0.0563973    2.25729 255 255 255
-0.535639  0.785208   2.47614 255 255 255
-0.626195  0.934655   2.61717 255 255 255
0.644712 -1.09689  2.29083 255 255 255
   1.79983 -0.0971844    3.06836 255 255 255
0.345218  1.22195  2.37954 255 255 255
  2.6707 0.111579  3.24729 255 255 255
  0.48173 -0.134289   2.68167 255 255 255
   1.2364 -0.132165   2.86591 255 255 255
-2.21732 0.946156  2.60924 255 255 255
-0.215842   1.39324   2.60714 255 255 255
-2.25563  1.00187  2.15908 255 255 255
-0.553823  -0.29264   2.04494 255 255 255
 -2.04929 -0.905005   2.47892 255 255 255
 3.14959 -1.05436  2.96966 255 255 255
0.913747  1.33912  2.43552 255 255 255
1.06708 1.33286  2.5147 255 255 255
-0.753893  -1.03557   2.11676 255 255 255
-2.51402  -1.5266  2.64984 255 255 255
-0.331835   1.08273    2.5899 255 255 255
0.213308  1.00604  2.62223 255 255 255
  -1.6052 -0.756306   2.20214 255 255 255
1.57822 -1.7428 3.03842 255 255 255
  1.79864 -0.271546   3.06155 255 255 255
 1.24665 0.344479  2.71799 255 255 255
 -1.60719 -0.648826   2.25858 255 255 255
-0.557407   1.31311   2.66594 255 255 255
 -1.94686 -0.289204   2.23455 255 255 255
1.35705 1.49324 2.88591 255 255 255
 0.652373 -0.125435   2.76206 255 255 255
-1.19785 -1.40239  2.30625 255 255 255
 -1.55626 -0.607869     2.464 255 255 255
0.114498 0.350967   2.5929 255 255 255
-0.845401 -0.783042   2.34512 255 255 255
-2.39332 -1.23946  2.61549 255 255 255
 -1.25177 -0.799046    2.0814 255 255 255
0.622919   1.3943  2.65828 255 255 255
-0.529086   1.50071   2.54999 255 255 255
 1.01675 0.646627  2.81336 255 255 255
  1.45133 -0.223442   2.87439 255 255 255
-1.94435   0.8158  2.64377 255 255 255
-0.233325   0.93633    2.5126 255 255 255
-1.43415 -0.83399  2.12427 255 255 255
0.185854  0.74601  2.71205 255 255 255
 2.05612 -0.79941  3.05088 255 255 255
 2.68642 -1.20751  3.03601 255 255 255
 -1.23532 -0.960354   2.22426 255 255 255
 2.78542 -1.46875  3.02338 255 255 255
  1.07449 -0.350446   2.66463 255 255 255
  -1.0207 -0.438796   2.24399 255 255 255
-0.920641 -0.989372   2.28804 255 255 255
-1.26079  1.31042  2.67733 255 255 255
 -2.03288 -0.262475   2.18771 255 255 255
1.19886 1.32272 2.83014 255 255 255
-1.02643  1.05615  2.46572 255 255 255
 1.29603 0.175688  2.98758 255 255 255
-1.98854 -1.42656  2.76155 255 255 255
-0.694635 -0.200691   2.05452 255 255 255
 -1.09847 -0.269327   2.31907 255 255 255
 -1.29111 -0.377574   2.35561 255 255 255
 -2.63311 -0.524955   2.50718 255 255 255
-1.41228 -1.43303  2.33915 255 255 255
-1.75433 0.392971  2.32256 255 255 255
 -2.61841 -0.665508   2.54393 255 255 255
-2.08056 -1.38271  2.77538 255 255 255
 2.17055 0.250854  3.02188 255 255 255
 -2.51204 -0.404755   2.36501 255 255 255
  -2.09397 -0.0406543    2.18703 255 255 255
 -1.36279 -0.875622   2.15288 255 255 255
 1.25079 0.405451  2.98338 255 255 255
-2.11804 -1.55029  2.74956 255 255 255
 0.624563 -0.333738   2.79598 255 255 255
  -0.8268 -0.720608    2.4525 255 255 255
  1.07197 -0.874245   3.03558 255 255 255
 -1.5785 0.517155  2.33523 255 255 255
 2.55155 0.680291  2.30615 255 255 255
-1.2504 1.21763 2.46103 255 255 255
-1.11234 -1.17497  2.26167 255 255 255
-2.15139 0.651305  2.63285 255 255 255
-2.5018 -1.3014 2.61669 255 255 255
 -1.94392 -0.111634   2.20949 255 255 255
-0.32411 0.933329  2.58878 255 255 255
0.188646  1.42369  2.41495 255 255 255
1.19174 -0.5716 3.00999 255 255 255
-1.95865 -1.49804  2.61361 255 255 255
-1.05749 -1.09674  2.25913 255 255 255
-1.98796  1.07515  2.65945 255 255 255
-1.36922 -0.97667  2.17924 255 255 255
0.759557  1.27146  2.20086 255 255 255
  1.05816 -0.756683   3.02723 255 255 255
-0.724264   1.20518   2.69529 255 255 255
0.591051 -1.04399  2.26405 255 255 255
-1.2664 -1.1549 2.25188 255 255 255
0.171557  1.01371  2.29783 255 255 255
-2.15595 0.751093  2.56588 255 255 255
0.207326 0.924715  2.80762 255 255 255
 2.96189 0.239325  3.11777 255 255 255
-2.50204 0.820778  2.58689 255 255 255
0.797127  1.45532  2.69057 255 255 255
 -2.07025 -0.389901   2.24418 255 255 255
1.89616 1.42286 2.34729 255 255 255
1.29951 1.58942 3.11087 255 255 255
2.45326 1.47088 2.32937 255 255 255
    1.467 -0.423317   3.04803 255 255 255
-1.76579 -1.33759  2.45949 255 255 255
 3.24344 -0.94967  3.02839 255 255 255
 -1.97281 0.0308167   2.24506 255 255 255
 -2.53911 -0.548059   2.49834 255 255 255
 0.593524 -0.219643   2.62397 255 255 255
0.308945  1.44125  2.61769 255 255 255
0.223138  1.21455  2.42634 255 255 255
-2.09334 0.863737  2.61785 255 255 255
2.51774  1.1309 2.36685 255 255 255
2.58202 1.00814 2.35714 255 255 255
-2.07709 0.592841  2.56912 255 255 255
-0.919378  -1.57873   2.66518 255 255 255
-1.0964  1.3483 2.06246 255 255 255
 -2.1622 -1.02956  2.44522 255 255 255
-2.18607  1.06088  2.65831 255 255 255
  1.02191 -0.114204   2.73666 255 255 255
-0.432451   1.23836   2.64323 255 255 255
-2.30804  1.02231  2.58894 255 255 255
1.38773 1.59868 2.76233 255 255 255
-1.67876 -1.43143  2.46135 255 255 255
-2.22107  1.06976   2.6185 255 255 255
-1.99865 0.637944  2.61185 255 255 255
0.458102 0.137002  2.59592 255 255 255
-0.749991    1.4814    2.6209 255 255 255
-0.709039 -0.827548    2.1008 255 255 255
  0.898543 -0.0855083    2.74182 255 255 255
 2.5383 1.06194 2.34123 255 255 255
-2.07185 0.881764  2.67975 255 255 255
 -1.26989 -0.527546   2.17574 255 255 255
-2.32393 0.940845  2.41834 255 255 255
-0.304424  0.822268    2.4873 255 255 255
  1.83709 -0.829194   2.92656 255 255 255
-2.35363 0.777301  2.66467 255 255 255
0.761899  1.03469  2.70007 255 255 255
0.00638725   -0.25306    2.68486 255 255 255
-0.435463 -0.159713   2.18746 255 255 255
0.725165 -1.09662  2.26956 255 255 255
-2.20343 -1.58343   2.7092 255 255 255
  1.59347 0.0446121   2.81137 255 255 255
-2.01061 -1.16332  2.59987 255 255 255
 0.682333 -0.473162   3.02322 255 255 255
0.63594 1.00097 2.78411 255 255 255
 1.41127 -1.51979  3.01149 255 255 255
-0.174385   1.45834   2.46637 255 255 255
 0.423279 -0.414058   2.50397 255 255 255
  0.42181 -0.403418    2.4544 255 255 255
-1.30439 -1.40314  2.34993 255 255 255
-0.0907029    1.24126     2.7137 255 255 255
 2.51539 0.752718  2.30835 255 255 255
 3.20875 -1.17754  3.01527 255 255 255
  3.33512 -0.900048   3.00861 255 255 255
-2.13628 0.725857  2.63884 255 255 255
-0.674979  -0.46836   2.28861 255 255 255
-0.978315 -0.402606   2.14959 255 255 255
-0.874105 -0.617577   2.16442 255 255 255
-2.49962 0.884564  2.58488 255 255 255
  0.92115 -0.125504   2.69466 255 255 255
 2.2575   1.209 2.32901 255 255 255
0.0256533   1.31105   2.49806 255 255 255
2.32646 1.44823 2.33546 255 255 255
-2.37474 -1.64959  2.64141 255 255 255
-0.462788 -0.715097   2.23384 255 255 255
-2.63585 -1.36071   2.5523 255 255 255
-0.424826   1.12961   2.58611 255 255 255
3.30136 -1.0186  2.9854 255 255 255
-2.35294 0.250758  2.31616 255 255 255
 -2.31858 -0.708863   2.43867 255 255 255
 1.4914 1.41063 2.75666 255 255 255
  0.961311 -0.0826583    2.70635 255 255 255
1.65761 1.12016 2.75014 255 255 255
 -1.10905 -0.503123   2.78153 255 255 255
-0.986651 -0.630217   2.13673 255 255 255
-1.8084 1.16498 2.52823 255 255 255
 2.53879 -1.16351  3.07562 255 255 255
  2.1839 -1.29995  3.06138 255 255 255
 2.46357 0.830674  2.30383 255 255 255
-2.26854 -1.16791   2.6469 255 255 255
 1.75153 0.951415  2.74345 255 255 255
-0.162826  0.348264   2.70175 255 255 255
-0.779679   1.40526   2.67822 255 255 255
 1.6604 1.06655 2.95701 255 255 255
 1.04089 -1.57639  3.02561 255 255 255
-2.30833 0.109998  2.27608 255 255 255
-2.18686 -1.00659  2.52484 255 255 255
-0.260448   1.40218   2.62828 255 255 255
-1.88755 0.716009  2.64868 255 255 255
  1.37507 -0.484374   2.90534 255 255 255
-0.619193 -0.870698   2.12136 255 255 255
2.29676 1.11652 2.30757 255 255 255
-0.870391 -0.482059   2.30799 255 255 255
1.59003 1.24822 2.66456 255 255 255
-0.985866  -1.07439   2.25487 255 255 255
-1.86979   1.1416  2.57127 255 255 255
2.33324 0.97804  2.3082 255 255 255
 1.29967 -0.39707  2.72203 255 255 255
-2.55554 -1.04525  2.42945 255 255 255
0.69117 1.05541 2.79189 255 255 255
-0.434581 -0.342722   2.17889 255 255 255
2.14826 1.05517 2.32317 255 255 255
  2.23839 -0.954413   3.08137 255 255 255
 2.38076 0.886311  2.29646 255 255 255
 2.3933 1.19564 2.32251 255 255 255
-1.20118 -1.15912   2.2445 255 255 255
   -2.0935 -0.0978701    2.17321 255 255 255
 2.1972 1.20139 2.30407 255 255 255
-2.26641 -1.03257  2.42807 255 255 255
1.82337  1.4194 2.31898 255 255 255
2.30126 0.45293 2.32646 255 255 255
2.30794 1.32872 2.31228 255 255 255
  2.39956 -0.714977   3.09609 255 255 255
 -1.6384 0.918225  2.65597 255 255 255
-1.52348 0.984406  2.67322 255 255 255
   1.1412 -0.228213   2.79142 255 255 255
0.309813 -1.21053  2.16991 255 255 255
-0.880166 -0.541458   2.43507 255 255 255
2.06104 1.00537 2.31523 255 255 255
 -1.37711 -0.547632   2.62602 255 255 255
-1.3234 1.23291 2.05826 255 255 255
2.08885 1.38316 2.29858 255 255 255
 1.95015 -1.80719  3.03939 255 255 255
 -2.31047 -0.381621   2.24514 255 255 255
2.44134 1.10143 2.31187 255 255 255
2.06918 1.43599 2.31714 255 255 255
2.49494 1.01016 2.31107 255 255 255
2.41681 1.14821  2.3161 255 255 255
-1.21768 0.843775  2.32894 255 255 255
-0.664736  0.971729   2.65403 255 255 255
  -2.01695 -0.0533477    2.18685 255 255 255
 2.43718 0.666051  2.29461 255 255 255
0.362241 -1.30704  2.18013 255 255 255
0.334617 -1.26268  2.18895 255 255 255
1.62565 1.42735 2.34408 255 255 255
1.59493 1.22874 2.75391 255 255 255
2.28653 1.37757 2.32019 255 255 255
-0.133638   1.40504   2.50833 255 255 255
 0.942089 -0.314522   2.58045 255 255 255
2.46902 1.05602 2.31225 255 255 255
 -1.35509 -0.992441   2.25178 255 255 255
1.64612  1.5079 2.33607 255 255 255
 2.65579 -1.32789  3.01882 255 255 255
0.282977 -1.17155  2.19129 255 255 255
 3.16404 -1.28261  3.01526 255 255 255
 0.047657 -0.761909   2.21015 255 255 255
 0.743528 -0.414062   2.71675 255 255 255
 2.16735 0.821837  2.31322 255 255 255
-0.932115  0.982121   2.35818 255 255 255
0.251295 0.278207  2.52272 255 255 255
 1.86662 0.928242  2.32975 255 255 255
  -2.6891 -0.796334   2.56786 255 255 255
-1.16331  1.30078  2.68836 255 255 255
-2.58787 -1.18699  2.45979 255 255 255
0.144491   1.3967  2.75806 255 255 255
 1.95543 -0.78783   3.0482 255 255 255
 2.07537 -1.19304  3.05165 255 255 255
1.73922 1.15778 2.33492 255 255 255
  2.73981 -0.833445   3.06451 255 255 255
1.72536 -1.4768 2.85567 255 255 255
0.223373  1.45213  2.42807 255 255 255
  2.8594 0.137755  3.14433 255 255 255
2.66974  1.0219 2.38447 255 255 255
-1.83674 -1.48089  2.45972 255 255 255
1.53852 1.34441 2.77846 255 255 255
-0.78092  1.38544   2.1183 255 255 255
 2.52465 0.964843   2.3155 255 255 255
 1.06814 0.846636  2.92212 255 255 255
-1.64326  1.29767  2.05968 255 255 255
2.19444 0.77564 2.31266 255 255 255
 -2.25581 -0.522341   2.23529 255 255 255
-0.404408   1.20945   2.58976 255 255 255
2.29248 1.20063 2.30098 255 255 255
  2.1412 0.867994  2.31327 255 255 255
-2.40457 -1.29217  2.62305 255 255 255
0.468388  1.09055  2.90029 255 255 255
  1.48773 0.0228174   2.78391 255 255 255
 1.87252 0.751059  2.64899 255 255 255
 0.46027 0.538475  2.89808 255 255 255
 1.94457 0.116289  2.98602 255 255 255
  -2.6632 -0.606651   2.54158 255 255 255
-1.96247 0.582056  2.59238 255 255 255
 2.46343 0.928996  2.31996 255 255 255
 2.49045 0.883254  2.32047 255 255 255
0.893285  1.42372  2.46893 255 255 255
-2.26265 0.839955  2.60462 255 255 255
0.00372072    1.38942    2.36782 255 255 255
-0.240584   1.50571   2.70561 255 255 255
-2.65343 -1.04805  2.43515 255 255 255
-0.236262  0.640228   2.57122 255 255 255
 3.09548 -1.05119  3.01122 255 255 255
0.725925 -1.19733  2.19549 255 255 255
2.31669 1.15422 2.29692 255 255 255
 -1.14166 -0.889962   2.12131 255 255 255
0.261023 0.706816  2.71219 255 255 255
 2.3842 1.06825 2.32242 255 255 255
2.41061 1.02115 2.31996 255 255 255
-0.0296817    0.36495     2.7073 255 255 255
2.14603 1.47995 2.32433 255 255 255
-2.62237 -1.27311  2.46359 255 255 255
-0.945715 -0.443991    2.1797 255 255 255
 -1.96533 -0.655156   2.31345 255 255 255
-0.158181 -0.818605   2.22516 255 255 255
2.35611 1.11297 2.31921 255 255 255
-1.28608  1.02574  2.63474 255 255 255
 0.285064 -0.724684   2.61735 255 255 255
-2.65856 -1.44618  2.60111 255 255 255
1.71678 1.20971 2.34613 255 255 255
 2.51645 0.837446  2.31971 255 255 255
0.513671 -0.24542  2.73189 255 255 255
-2.59247 -1.03277  2.41788 255 255 255
  1.55645 -0.271201   2.98309 255 255 255
 2.52953 0.913843  2.27968 255 255 255
 -2.68313 -0.848106   2.45762 255 255 255
 0.67305 0.969308  2.67456 255 255 255
1.55629 1.27671  2.7221 255 255 255
 -2.13399 -0.924008   2.58135 255 255 255
-1.48311 0.690395  2.29629 255 255 255
 2.43764 0.975806  2.32209 255 255 255
-0.894097  -0.83974    2.2931 255 255 255
1.22169 1.22083 2.70946 255 255 255
-0.215195    1.3203   2.56487 255 255 255
 -2.1527 -0.15776  2.23485 255 255 255
-2.57785 0.852436  2.59444 255 255 255
-2.21122   1.0229  2.64202 255 255 255
-0.992299  -1.13259   2.46154 255 255 255
-2.22549 0.931317  2.62708 255 255 255
0.467417 -1.31537  2.20658 255 255 255
-0.771286 -0.868679   2.14335 255 255 255
0.130751 0.908117  2.76944 255 255 255
0.132639 -1.32078  2.20042 255 255 255
 2.56002 0.868327  2.28683 255 255 255
 -1.44456 -0.791993   2.22026 255 255 255
-2.43458 -1.24652  2.55201 255 255 255
-0.488833   1.28743    2.7125 255 255 255
-1.11255   1.2937  2.68694 255 255 255
2.12234 1.22396 2.31024 255 255 255
0.208492  -0.7294  2.20928 255 255 255
-1.57842 0.981167  2.56357 255 255 255
 -2.23512 -0.938553   2.40189 255 255 255
-0.505111    1.4616   2.64729 255 255 255
  -1.0822 -0.301245   2.55873 255 255 255
-2.1806 1.08702 2.63272 255 255 255
-1.85993  1.09698  2.65257 255 255 255
-0.19496  1.51161  2.41547 255 255 255
1.03753 1.17148 2.90652 255 255 255
-1.84041 0.487099  2.27216 255 255 255
-1.23813 -1.07964  2.26693 255 255 255
2.25653 1.42296 2.31778 255 255 255
-0.0746455    -1.3293    2.22986 255 255 255
 0.235276 -0.773701   2.20378 255 255 255
-1.29383 0.364905  2.24235 255 255 255
 -1.4375 -1.14529  2.28924 255 255 255
-2.12786 -1.54696  2.72354 255 255 255
-0.0398935    1.05584    2.65049 255 255 255
0.205445 -1.29015  2.23196 255 255 255
-2.06983    1.094  2.69232 255 255 255
-0.359814 -0.689168   2.22315 255 255 255
  1.10357 -0.380878   2.74574 255 255 255
-2.24515 0.246068  2.24439 255 255 255
0.0993364   1.34564   2.64184 255 255 255
2.22539 1.46566 2.30904 255 255 255
 0.52418 -1.28481  2.20278 255 255 255
0.296925 0.603002  2.72586 255 255 255
-1.77549   1.2238   2.1476 255 255 255
0.594626  1.02504  2.89402 255 255 255
 0.885895 -0.389694   2.55658 255 255 255
  1.03035 -0.261261   2.72072 255 255 255
 1.10539 -1.39716  2.80663 255 255 255
3.29072 0.96711 3.10868 255 255 255
 -1.9808 0.668733  2.64588 255 255 255
-1.33553 -1.00418   2.1765 255 255 255
-0.735432   1.44986    2.6899 255 255 255
-0.442619 -0.232766    2.1826 255 255 255
-1.54102 0.648483  2.27188 255 255 255
-2.43014 -1.43519  2.57769 255 255 255
 2.23568 -1.59161  3.06721 255 255 255
 1.13883 0.886138  2.76265 255 255 255
-0.587811 -0.894718   2.18352 255 255 255
1.21124  1.4848 2.95842 255 255 255
-2.62574 -1.20492  2.44228 255 255 255
1.63026 1.39733 2.38757 255 255 255
0.485636   1.1236  2.88742 255 255 255
-2.23778 0.928979  2.12029 255 255 255
2.67459 1.50673 2.36981 255 255 255
 0.759629 -0.457187   2.65887 255 255 255
-2.58263 -1.13428  2.43077 255 255 255
-2.2692  1.0696 2.59668 255 255 255
 2.15467 -1.67048  3.04812 255 255 255
 -1.13398 -0.510469   2.17535 255 255 255
  2.1823 0.216948  2.93625 255 255 255
-0.488594 -0.435175   2.19083 255 255 255
-2.16008 -1.00436   2.5927 255 255 255
-0.971035 -0.493185   2.13468 255 255 255
1.69496 1.03055 2.71665 255 255 255
-1.55517 -1.44981  2.40621 255 255 255
-2.52691 0.774015  2.63454 255 255 255
 1.23693 -1.01521  3.02635 255 255 255
-2.51705  1.31582  2.71662 255 255 255
 2.73121 -1.21518  3.04068 255 255 255
-1.12264  1.33667  2.02277 255 255 255
-0.854849   1.03379   2.37792 255 255 255
   1.12085 -0.0561916    2.70641 255 255 255
-0.729661 -0.780902   2.17589 255 255 255
0.852331  1.52945  2.42761 255 255 255
-2.07723 0.800941  2.61486 255 255 255
-1.01283 0.182866  2.33323 255 255 255
-2.75525  1.46318  2.70727 255 255 255
 2.63385 0.581677  2.34274 255 255 255
  -1.6577 -0.917119   2.25962 255 255 255
-0.653009  -1.00553    2.1185 255 255 255
-1.05619 0.928779  2.33295 255 255 255
-1.21703 -1.11124  2.24253 255 255 255
-1.15588 -1.43403  2.33976 255 255 255
 2.58107 -1.28941  2.97074 255 255 255
 2.37292 -1.32326  3.07707 255 255 255
 -1.56691 -0.691022   2.20614 255 255 255
   1.1443 -0.338462   2.70021 255 255 255
  1.06631 -0.239142    2.7182 255 255 255
0.101739 0.957862  2.40633 255 255 255
  -1.32622 0.00475416    2.28989 255 255 255
-1.98063 0.719332  2.65283 255 255 255
 1.03444 -1.32723  2.75967 255 255 255
-1.08529  -1.4592  2.40018 255 255 255
-1.49479 -1.15407  2.31225 255 255 255
-2.11629  0.31304  2.30826 255 255 255
 -1.46317 -0.986832   2.18255 255 255 255
 1.71676 0.988169  2.95877 255 255 255
-0.442852   1.17242    2.6068 255 255 255
-1.22474 -1.59021  2.50164 255 255 255
-1.15181 0.120937  2.23286 255 255 255
-0.998181  0.572531    2.2821 255 255 255
0.0168119  0.730431   2.56775 255 255 255
 0.250627 -0.424244   2.67919 255 255 255
0.910702 0.658053  2.93614 255 255 255
0.349327  1.51893  2.37969 255 255 255
-2.33733 0.948604  2.64977 255 255 255
-1.29312 0.410852  2.28181 255 255 255
-2.18888 0.301906  2.32628 255 255 255
 -2.37427 -0.826715   2.43389 255 255 255
1.08668 1.27957 2.91423 255 255 255
  1.06123 -0.774737    3.0248 255 255 255
  1.04388 -0.333718   2.70396 255 255 255
-0.685992  0.233221   2.35454 255 255 255
  -1.36685 -0.0212694    2.28817 255 255 255
 2.77782 -1.34196  2.96276 255 255 255
 1.74092 -1.36223  2.87302 255 255 255
 0.13737 0.825264  2.72974 255 255 255
0.284864  1.25051  2.23407 255 255 255
  3.09033 -0.982443    3.0218 255 255 255
 -1.44568 -0.122237   2.28701 255 255 255
-2.16466 0.847591  2.67434 255 255 255
-2.49821  1.26049  2.58436 255 255 255
0.250769 0.170883  2.50386 255 255 255
1.67876 1.07984  2.9135 255 255 255
-2.07254 0.960427  2.66286 255 255 255
-0.622388  0.832347   2.43564 255 255 255
-0.48116 0.992644  2.64139 255 255 255
3.29581 -1.0666 3.01746 255 255 255
-2.31648 -1.08406  2.43396 255 255 255
-1.04308 0.547699  2.28311 255 255 255
-0.919208  0.573036   2.24769 255 255 255
-2.42719 -1.24039  2.60942 255 255 255
 2.32963 0.377093    2.309 255 255 255
 -1.88926 -0.321176   2.24544 255 255 255
-0.918361   1.37535      2.12 255 255 255
-0.522425  -1.02059   2.28639 255 255 255
-2.21096 -1.04341   2.3989 255 255 255
-0.870147  -1.01842   2.20489 255 255 255
 0.725904 -0.962592   2.26256 255 255 255
 -2.63507 -0.779715   2.58736 255 255 255
 -2.26273 -0.202529   2.20963 255 255 255
2.60624 1.12132  2.3829 255 255 255
 -1.28931 -0.954565   2.19166 255 255 255
-0.547074 -0.873306   2.20755 255 255 255
 -2.30146 -0.167754   2.23583 255 255 255
-1.88103  0.76462  2.66616 255 255 255
 -1.94385 -0.350759   2.26019 255 255 255
 -1.24897 -0.286515   2.30674 255 255 255
2.66268   0.706 2.34266 255 255 255
-1.55566 -1.20429  2.28768 255 255 255
-1.60837 -1.13875  2.29889 255 255 255
 -2.35307 -0.196038   2.24832 255 255 255
 2.28159 -1.62109   3.0757 255 255 255
 1.34923 0.128663  2.80706 255 255 255
-1.86028 -0.33644  2.25815 255 255 255
 -2.38597 -0.306032   2.24844 255 255 255
-2.02461 -1.33024  2.75115 255 255 255
0.0390964    1.0031    2.5098 255 255 255
0.22141 1.45766 2.67136 255 255 255
 -2.2772 0.773268  2.57209 255 255 255
  1.52825 -0.455553   3.04798 255 255 255
0.618894 -1.26614  2.20785 255 255 255
 1.04397 -1.29176  2.76505 255 255 255
 2.98386 -1.18627  3.00853 255 255 255
0.140331 0.325296  2.60078 255 255 255
 0.318805 -0.744941   2.49552 255 255 255
 -1.07687 -0.212352   2.31663 255 255 255
  -2.3651 -0.344378   2.24584 255 255 255
  -2.09356 -0.0465811    2.25233 255 255 255
  2.37981 -0.132799   3.07703 255 255 255
-2.68138 -1.37373  2.52912 255 255 255
0.781298 -1.14526  2.28313 255 255 255
  1.08406 -0.882096   3.02671 255 255 255
-0.519073 -0.903305   2.17965 255 255 255
 2.7209 0.65002  2.3409 255 255 255
 -2.68618 -0.973415   2.60937 255 255 255
-1.43148 0.296456  2.26217 255 255 255
  0.985919 -0.0116124    2.72436 255 255 255
-0.133111   1.31305   2.69936 255 255 255
  3.13574 -0.765682   3.06433 255 255 255
0.400401 0.283042   2.5535 255 255 255
-2.55581   1.3136  2.68226 255 255 255
 1.91164 0.890865  2.35329 255 255 255
 0.16685 0.504515  2.72568 255 255 255
 2.89299 -1.02355  3.05076 255 255 255
 -2.4018 -1.03378  2.42132 255 255 255
  1.54853 -0.827425   3.05381 255 255 255
0.813298 0.310392  2.68724 255 255 255
0.371144 -0.36435  2.49855 255 255 255
-1.31444 -1.48979  2.40583 255 255 255
-0.526216 -0.935216   2.17895 255 255 255
 1.58944 0.206984  2.77093 255 255 255
  1.1425 -1.54287  2.96503 255 255 255
 0.832328 -0.940795    3.0099 255 255 255
 -1.03924 -0.770826   2.12012 255 255 255
0.225027 0.577576  2.72014 255 255 255
-2.52784  -1.0073  2.43197 255 255 255
  2.81059 -0.632534    3.1075 255 255 255
-0.689113  0.972549   2.56249 255 255 255
0.0296861  0.788162   2.57227 255 255 255
 -2.13574 -0.141519   2.14935 255 255 255
-0.121277  0.289127   2.74048 255 255 255
 1.04326 -1.46305  2.85543 255 255 255
 2.21786 -1.55639  3.07475 255 255 255
0.699717 0.993025  2.62513 255 255 255
-2.50464 -1.51819  2.62118 255 255 255
  -2.126 0.486313  2.00957 255 255 255
-2.6527 -0.9626 2.47523 255 255 255
 -2.32763 -0.959061   2.42232 255 255 255
  1.14496 -0.423369    2.7062 255 255 255
   2.3628 -0.193251   3.07836 255 255 255
1.84799 0.13897 2.95625 255 255 255
 0.246935 -0.310074   2.59031 255 255 255
   1.65045 -0.0235237     2.9893 255 255 255
-0.141686   1.28223   2.71531 255 255 255
 1.03389 -1.32272  2.66392 255 255 255
-0.405026 -0.448419   2.16967 255 255 255
   3.13257 -0.0285502    2.99183 255 255 255
0.630201 -1.22235  2.24322 255 255 255
-1.91163  1.12459  2.66067 255 255 255
 -2.63373 -0.847782   2.57693 255 255 255
 -1.37202 -0.979593    2.1782 255 255 255
 2.81107 -0.20293  3.18682 255 255 255
-2.09091  0.75348  2.66513 255 255 255
 2.01665 -1.74291  3.06423 255 255 255
   2.5992 -0.211699   3.10538 255 255 255
 0.781355 -0.248794   2.64558 255 255 255
0.166571 0.301804  2.53461 255 255 255
   1.2423 -0.305336   2.70275 255 255 255
 0.667209 -0.964118   2.30813 255 255 255
 2.56081 -1.27275  3.08193 255 255 255
-0.754009  0.326611   2.31593 255 255 255
-2.39475 -1.48405  2.56484 255 255 255
  2.54042 -0.227329   3.12904 255 255 255
 1.76446 0.616761  2.97197 255 255 255
-1.03546 -1.39005  2.45799 255 255 255
-2.32569 -1.01522  2.43741 255 255 255
 0.073625 0.0985869   2.52292 255 255 255
 1.34375 0.865406  2.95006 255 255 255
 1.46695 -1.58159  3.01511 255 255 255
0.270772  1.47744   2.4095 255 255 255
0.429814 -1.06625  2.21098 255 255 255
-0.0577178    1.50861    2.41446 255 255 255
 -2.33511 -0.872222   2.42378 255 255 255
  2.79956 0.0785974   3.10565 255 255 255
 1.26387 0.540532  2.73659 255 255 255
2.20591 0.49032 2.33888 255 255 255
0.912317  -1.1513  3.03721 255 255 255
-2.77912  1.35512  2.73969 255 255 255
 -0.627297 -0.0675029    2.13048 255 255 255
-0.0294093    1.45928    2.37317 255 255 255
  3.1746 -0.74771  3.06608 255 255 255
-0.838864 -0.836341   2.18403 255 255 255
 0.342883 -0.688266   2.68095 255 255 255
   0.9317 -0.366594   2.54535 255 255 255
-2.73121 -1.46434  2.60356 255 255 255
 0.345534 0.0645324   2.47767 255 255 255
-1.50917 0.943137  2.65567 255 255 255
 0.353813 -0.948776   2.25954 255 255 255
3.34211 -1.0004 3.03038 255 255 255
-2.10363 -1.40394  2.74419 255 255 255
-1.46658 -1.06321  2.22999 255 255 255
 1.92582 0.110145  2.96637 255 255 255
1.30074 1.58631 2.91455 255 255 255
 1.63895 0.480504  2.96037 255 255 255
-2.71244 -1.45598  2.50065 255 255 255
 1.69654 0.444632  2.97095 255 255 255
 0.0893447 -0.0397083    2.43271 255 255 255
0.225064 0.477231  2.71572 255 255 255
-2.25041 0.411182  2.51052 255 255 255
 0.718371 -0.505094   2.96529 255 255 255
 1.62415 0.594686   2.9728 255 255 255
 1.38037 0.825052  2.97303 255 255 255
-0.0234995   0.759441     2.5577 255 255 255
0.273086 0.306342  2.54473 255 255 255
-0.358093  0.365352   2.31418 255 255 255
   1.04464 -0.0190322    2.71051 255 255 255
  1.79967 -0.122803   3.07712 255 255 255
 -0.80889 -0.912016    2.1279 255 255 255
2.64946 1.06393  2.3994 255 255 255
  1.75804 -0.571433   3.07834 255 255 255
 0.178697 -0.357278   2.71301 255 255 255
  0.300217 0.00200048    2.48856 255 255 255
 1.41111 -1.55748  3.04646 255 255 255
-0.0198674   0.704566    2.55598 255 255 255
 1.46435 0.227613  2.74645 255 255 255
  0.42706 -0.683284   2.65883 255 255 255
  1.22912 -0.688609     3.044 255 255 255
-0.601484 -0.542879   2.23429 255 255 255
-1.99346 0.735716  2.63478 255 255 255
 2.66102 0.607021  2.41162 255 255 255
 1.07973 -1.02371  3.02488 255 255 255
-2.08887 -1.16703  2.38001 255 255 255
   2.15016 -0.0832285    3.08119 255 255 255
 0.902165 -0.960598   3.01542 255 255 255
 0.779664 -0.817368   3.03323 255 255 255
 1.92024 0.258514  2.95552 255 255 255
 0.226474 -0.537037    2.4914 255 255 255
-2.01842  1.08593  2.66878 255 255 255
0.166536   1.4164   2.3418 255 255 255
 1.33642 0.774421  2.97093 255 255 255
 0.199041 -0.922678   2.94594 255 255 255
  1.94972 -0.640945   3.08524 255 255 255
 1.63422 0.624147   2.9744 255 255 255
0.316056 0.542308  2.71976 255 255 255
 0.677467 -0.114172   2.65322 255 255 255
0.124786  1.41664  2.48574 255 255 255
-0.165372  0.420327   2.55024 255 255 255
 0.127811 -0.548422   2.25642 255 255 255
  3.39849 -0.938255   3.04849 255 255 255
-0.569718   0.71848   2.51796 255 255 255
 1.69669 0.833968  2.96561 255 255 255
 1.95876 0.295602  2.96924 255 255 255
0.281962 0.188637  2.46988 255 255 255
-0.251066   0.26315   2.56227 255 255 255
  0.141554 0.00987612    2.43088 255 255 255
 0.46744 0.899818  2.90892 255 255 255
0.223211 0.181736   2.4874 255 255 255
 0.242057 -0.660408   2.61424 255 255 255
  1.24744 -0.703857   3.03395 255 255 255
5.49176 -3.8955 3.48525 255 255 255
 5.05895 -2.37187  2.92955 255 255 255
0.497524 -2.84411  2.98537 255 255 255
0.963094 -3.84531  2.60958 255 255 255
-1.32179 -3.83335  2.92002 255 255 255
 3.08614 -2.79166  2.10965 255 255 255
 5.75582 -4.31362  3.64498 255 255 255
-1.14336 -3.37798  2.91367 255 255 255
0.589955 -4.19526  2.68754 255 255 255
-1.10819 -3.25852  2.87881 255 255 255
5.14872 -4.6901  3.5508 255 255 255
-0.265406  -3.32815   2.94646 255 255 255
 5.30697 -2.41798  2.99129 255 255 255
 3.36338 -2.92191  1.90503 255 255 255
-0.952642  -3.47574   2.93581 255 255 255
 1.54375 -2.93031  2.94646 255 255 255
0.0224821  -3.04525    2.9456 255 255 255
 5.37216 -2.36207  3.03707 255 255 255
-0.475404  0.284514   2.52894 255 255 255
0.405322 0.100115  2.64999 255 255 255
0.219651 0.143648  2.59199 255 255 255
 1.26752 0.337739  2.85046 255 255 255
 1.29136 0.176496  2.99062 255 255 255
  0.77972 -0.327484   2.61055 255 255 255
 0.491545 -0.272375   2.58789 255 255 255
   0.36667 -0.0221752    2.52581 255 255 255
0.158497 0.470387  2.73167 255 255 255
 1.25032 0.403883  2.98256 255 255 255
-0.436109 -0.160111    2.1889 255 255 255
0.196102 0.182812  2.42796 255 255 255
-0.244053  0.241216   2.41661 255 255 255
 0.737754 -0.405686    2.6744 255 255 255
 0.542589 -0.633456   2.69749 255 255 255
 0.718445 -0.318141   2.67024 255 255 255
 0.363049 -0.698576   2.55936 255 255 255
-1.06351 0.144161  2.25983 255 255 255
-0.267267  0.377963   2.51437 255 255 255
0.946534 0.625993  2.77604 255 255 255
 0.95501 0.614911   2.9456 255 255 255
-0.296297  0.533498   2.53949 255 255 255
 0.594708 -0.303146   2.68535 255 255 255
 0.274262 -0.428055   2.45335 255 255 255
-0.539766 -0.171633   2.22195 255 255 255
 1.09581 0.756114  2.94365 255 255 255
-0.744544 -0.225807   2.22314 255 255 255
-0.853225 -0.128221   2.32943 255 255 255
-0.174861  0.614609   2.57247 255 255 255
  0.428669 -0.0989835    2.56287 255 255 255
  1.10766 -0.311865   2.73242 255 255 255
-0.743149  0.351459   2.25949 255 255 255
0.243097 0.736425  2.71255 255 255 255
0.802053 0.266482  2.75685 255 255 255
 0.884823 -0.386663   2.55094 255 255 255
 0.517964 -0.641244   2.60227 255 255 255
-0.269052  0.201159   2.71552 255 255 255
 -0.417401 -0.0600786    2.39763 255 255 255
 -0.419433 -0.0923036    2.35327 255 255 255
-0.388603  0.406147    2.3111 255 255 255
  0.291587 -0.0906364    2.51609 255 255 255
-0.964589  0.552044   2.25708 255 255 255
 0.409729 -0.177414   2.56684 255 255 255
-1.10976 0.140388  2.23308 255 255 255
  1.04276 -0.227086   2.77699 255 255 255
-1.04286 0.506508  2.24396 255 255 255
 0.731006 -0.600512   2.99359 255 255 255
-0.977878 0.0163085   2.31352 255 255 255
0.705515 0.656931   2.9355 255 255 255
  1.03259 -0.262935    2.7289 255 255 255
0.967851 0.599755  2.83256 255 255 255
 0.852802 -0.354476   2.54165 255 255 255
 -1.03754 -0.180821   2.31303 255 255 255
 -1.03436 0.0951867   2.31589 255 255 255
 0.60695 0.811171  2.89602 255 255 255
-0.359229  0.405855   2.32343 255 255 255
0.0330672  0.500531   2.60705 255 255 255
  0.16397 -0.393982   2.70926 255 255 255
-0.286916 -0.155124   2.42958 255 255 255
  0.972574 -0.0506508    2.77558 255 255 255
 0.193818 -0.521819   2.47406 255 255 255
-0.408292 -0.121278   2.43241 255 255 255
0.868469 0.272475  2.60754 255 255 255
 0.404866 -0.355123   2.45844 255 255 255
-0.161545  0.286839   2.68519 255 255 255
 0.392166 -0.328524   2.51838 255 255 255
-0.958449  0.227856    2.2993 255 255 255
 -1.33214 -0.516196   2.72731 255 255 255
-0.921922 -0.455377   2.12353 255 255 255
 0.116418 0.0291257   2.40632 255 255 255
0.951833 0.819301  2.93197 255 255 255
-0.356844  0.568824   2.51989 255 255 255
  1.20061 -0.965906   3.01613 255 255 255
 0.919181 -0.538926   2.74374 255 255 255
 1.37846 0.820293  2.96269 255 255 255
0.953937 0.642264  2.95224 255 255 255
-0.525304 -0.193403   2.20301 255 255 255
-0.229836  0.512032   2.49451 255 255 255
 0.977717 -0.273091   2.63364 255 255 255
-0.904551 -0.470466     2.102 255 255 255
  0.324221 -0.0541072    2.50703 255 255 255
-0.393047  0.547474   2.49362 255 255 255
0.331578 0.212611  2.49681 255 255 255
-0.493964 -0.277522   2.16873 255 255 255
-0.574414 -0.181032   2.19223 255 255 255
-0.366253  0.542953   2.53784 255 255 255
-0.424218 -0.209241   2.50923 255 255 255
 0.265889 -0.211555   2.75108 255 255 255
 -0.583437 -0.0367904    2.28987 255 255 255
 1.29342 0.647463  2.96182 255 255 255
-0.0410529 -0.0760271    2.70644 255 255 255
 0.900736 -0.921561   2.99765 255 255 255
 0.118244 -0.376215    2.5323 255 255 255
0.101782 -0.50519  2.26465 255 255 255
0.0350396 -0.389063   2.27201 255 255 255
 0.246536 -0.484762   2.45803 255 255 255
-0.323313 -0.199131   2.35669 255 255 255
-0.370965 -0.112807   2.39456 255 255 255
0.114096 0.258073  2.50325 255 255 255
-0.329081  -0.24879   2.39023 255 255 255
  1.18462 -0.329976   2.68465 255 255 255
  1.08082 -0.244747   2.74206 255 255 255
 0.289388 -0.457311   2.46071 255 255 255
0.934144 0.561553  2.95789 255 255 255
    1.06444 -0.00838578     2.69767 255 255 255
-0.268216  0.398955   2.50334 255 255 255
-0.0471274   0.454362    2.57356 255 255 255
-0.211132  0.629579   2.55659 255 255 255
  1.3681 0.158193  2.77812 255 255 255
-0.829244  0.632084   2.26158 255 255 255
0.186668 0.128394  2.42196 255 255 255
-0.0308921  -0.201499    2.26221 255 255 255
 0.244596 -0.248457   2.56081 255 255 255
-0.336179  0.564934   2.55329 255 255 255
-0.202159   0.42171   2.46567 255 255 255
-0.591196 -0.143425   2.38607 255 255 255
 1.07618 0.860065  2.92733 255 255 255
  1.01807 0.0574202    2.7541 255 255 255
 0.796847 -0.266794   2.61075 255 255 255
  1.20174 -0.292019   2.68301 255 255 255
-0.33557 0.352569  2.30122 255 255 255
-0.0383611   0.347681    2.71675 255 255 255
 0.0913243 -0.0206138    2.48001 255 255 255
 0.104257 -0.211517   2.69573 255 255 255
  0.146265 -0.0501459    2.43126 255 255 255
0.921028  0.46003  2.94773 255 255 255
 -1.34983 -0.487764   2.73152 255 255 255
 0.214348 -0.295136   2.55197 255 255 255
0.320011 0.160562  2.48676 255 255 255
 -0.91011 -0.175177   2.28017 255 255 255
  0.19998 -0.404499   2.72156 255 255 255
  0.12608 -0.452267   2.62042 255 255 255
-0.475407 -0.272822   2.20436 255 255 255
  0.16693 0.0282259   2.42247 255 255 255
-0.70712 0.363567  2.25373 255 255 255
 0.304407 0.0644549   2.43638 255 255 255
 0.64482 -0.51735  2.95665 255 255 255
-0.174563  0.655307   2.54966 255 255 255
0.195732 0.307653  2.47094 255 255 255
-0.120039  0.628532   2.53442 255 255 255
-0.933184 -0.188838   2.27779 255 255 255
0.232478 0.522863  2.74806 255 255 255
 0.189917 -0.475615   2.68367 255 255 255
0.0731693 0.0299824   2.46077 255 255 255
0.108474 -0.33877  2.67192 255 255 255
 0.10841 0.285554  2.59543 255 255 255
-0.0391777   -0.21633    2.25216 255 255 255
-0.101196  0.637914   2.53448 255 255 255
0.378792 -0.37631  2.47626 255 255 255
0.117346  0.16043  2.39871 255 255 255
  0.128904 -0.0867846     2.4472 255 255 255
0.387427 0.726081  2.89675 255 255 255
 0.244078 -0.440275   2.67377 255 255 255
 -1.15312 -0.339252   2.26795 255 255 255
0.405359 0.769221  2.90083 255 255 255
0.334471 0.260595  2.53943 255 255 255
0.909834  0.66298  2.93979 255 255 255
 0.331824 -0.717459   2.58985 255 255 255
0.654842 0.308787  2.92337 255 255 255
0.134121 0.413784  2.68506 255 255 255
  0.191747 -0.0767597    2.44043 255 255 255
  1.02426 -0.126168     2.788 255 255 255
 0.089783 -0.390186   2.61025 255 255 255
 0.865271 -0.816409    3.0213 255 255 255
0.421705 0.813188  2.90605 255 255 255
-0.886059 -0.187968   2.64365 255 255 255
0.100298 0.400034  2.72775 255 255 255
0.119858  0.30528  2.57824 255 255 255
0.839713 0.743829   2.9346 255 255 255
0.0284841  0.480753   2.66352 255 255 255
 0.732022 -0.349691   2.64044 255 255 255
  0.277606 0.00141705    2.46912 255 255 255
-0.101776  0.621911   2.54684 255 255 255
 0.310563 -0.721608   2.65874 255 255 255
 0.706166 -0.231602   2.64408 255 255 255
  1.10122 -0.289698   2.73439 255 255 255
-0.0647318   0.308829    2.72306 255 255 255
0.0152525  0.441626   2.70289 255 255 255
  0.993408 -0.0422142    2.73947 255 255 255
  0.513772 -0.0836599    2.61862 255 255 255
 0.862306 -0.340173   2.57891 255 255 255
 0.817213 -0.587356   2.98854 255 255 255
-0.176381  0.398169   2.53677 255 255 255
-0.273452  0.583412   2.57195 255 255 255
  1.55945 -0.714044   3.04236 255 255 255
0.164087 0.135389  2.47628 255 255 255
  0.707627 -0.0692977    2.67851 255 255 255
 0.790344 -0.290658   2.64102 255 255 255
  0.32268 -0.398234   2.64606 255 255 255
 0.33996 0.572944  2.70696 255 255 255
  1.10089 -0.249392   2.73569 255 255 255
  0.10423 -0.419564   2.62509 255 255 255
 1.39835 0.216769  2.73642 255 255 255
 0.078354 -0.278664   2.66323 255 255 255
-0.274096  0.464015   2.53627 255 255 255
 0.266086 -0.274178   2.58257 255 255 255
0.228286 0.147962  2.44492 255 255 255
   1.09333 -0.0526505    2.72173 255 255 255
  1.07041 -0.959432    3.0266 255 255 255
 1.19453 0.476168  2.98506 255 255 255
  0.240968 -0.0428043    2.49215 255 255 255
  1.12833 -0.807848    3.0302 255 255 255
0.431305  0.17374  2.56282 255 255 255
 0.122148 0.0712323   2.45123 255 255 255
-0.249022  0.342142   2.47321 255 255 255
   0.2867 -0.202792   2.68236 255 255 255
 -1.30081 -0.438814   2.59622 255 255 255
-0.318499  0.574815   2.55013 255 255 255
 1.28841 0.725378  2.96399 255 255 255
0.212727 0.533785  2.74073 255 255 255
0.0915464  -0.30776   2.67307 255 255 255
0.206231 0.347372  2.54842 255 255 255
 0.146048 -0.489137   2.61616 255 255 255
   0.11411 -0.0213809    2.41752 255 255 255
  0.9202 0.773513  2.94375 255 255 255
 -1.14169 -0.306699   2.30841 255 255 255
  1.30188 -0.949118   3.01616 255 255 255
 0.157762 -0.434812   2.66925 255 255 255
 -1.18217 -0.374778    2.2726 255 255 255
 1.29251 0.683219  2.95819 255 255 255
0.365783 0.113471  2.51268 255 255 255
 0.701438 -0.553581   2.96983 255 255 255
0.808515  0.14641  2.95733 255 255 255
-1.10315 -0.32761  2.60843 255 255 255
 0.814829 -0.396912   2.66795 255 255 255
 0.773807 -0.567219   2.99481 255 255 255
0.0595345 -0.284755    2.7136 255 255 255
0.731271 0.235815  2.91652 255 255 255
0.0338613 -0.180551   2.68983 255 255 255
0.746283 -0.56376  2.98393 255 255 255
-0.365061  0.516666   2.46976 255 255 255
0.0680217 -0.383527   2.65622 255 255 255
-0.232241  0.614235   2.54555 255 255 255
 0.897613 -0.314322   2.61349 255 255 255
  1.28052 -0.607121   3.04056 255 255 255
  1.13649 -0.273656   2.69902 255 255 255
 0.835951 -0.897668   3.01601 255 255 255
 0.140459 -0.401276   2.65485 255 255 255
-0.204839  0.429851   2.40379 255 255 255
 0.678007 -0.517554   2.96762 255 255 255
-0.306625  0.426962   2.53249 255 255 255
-0.438361  0.522478   2.48158 255 255 255
-0.191619  0.400925   2.51936 255 255 255
  0.38682 -0.693824   2.64542 255 255 255
 1.03973 -0.81732  3.03041 255 255 255
 0.672648 -0.720572    3.0041 255 255 255
-0.169215  0.714386   2.48297 255 255 255
-0.428063  0.606027   2.50508 255 255 255
 0.983611 -0.844522   3.01522 255 255 255
0.0823173 -0.268893   2.71458 255 255 255
0.323107 0.139244  2.50797 255 255 255
0.0303613 -0.321238   2.67729 255 255 255
-0.354632  0.331035   2.31379 255 255 255
 0.322232 -0.723787   2.63978 255 255 255
 0.311203 -0.731116   2.58878 255 255 255
-0.00338762   -0.188804     2.70279 255 255 255
 1.32858 0.789618  2.94116 255 255 255
0.00890338    0.60038    2.54901 255 255 255
0.364703 0.685111  2.87441 255 255 255
 1.26241 0.558692  2.93485 255 255 255
 1.30614 0.846757  2.94365 255 255 255
0.207167 0.260773  2.53275 255 255 255
0.857317  0.25536  2.60969 255 255 255
0.724336 0.678182   2.9216 255 255 255
 1.40853 0.809917  2.95323 255 255 255
-0.100102  0.345605   2.69078 255 255 255
0.269989 0.281474  2.50708 255 255 255
 0.807899 -0.243773   2.63531 255 255 255
 0.999495 0.0988238   2.77313 255 255 255
0.38791 0.03174 2.53753 255 255 255
 1.36237 0.196052   2.7656 255 255 255
0.194742 0.288511  2.48623 255 255 255
-0.0780889   0.359911    2.69592 255 255 255
 1.31382 0.766051  2.92621 255 255 255
0.068967 0.483529  2.72234 255 255 255
 1.12611 0.810326  2.94857 255 255 255
 0.235285 -0.414908   2.70033 255 255 255
0.965837 0.646811  2.95979 255 255 255
  0.0569812 0.000588858     2.50226 255 255 255
-0.132661  0.676387   2.55658 255 255 255
    1.0603 -0.0880451    2.79293 255 255 255
 0.734975 -0.148399   2.62788 255 255 255
-0.11792 0.646791  2.53378 255 255 255
-0.116145  -0.23679   2.24642 255 255 255
 0.292098 -0.267727   2.57424 255 255 255
0.049026 -0.19944  2.69565 255 255 255
  0.73495 -0.254015    2.6828 255 255 255
-0.249167  0.537506   2.50234 255 255 255
 -1.20039 -0.367268   2.28135 255 255 255
  0.0749181 -0.00648705     2.46103 255 255 255
 0.758146 -0.529188   2.96574 255 255 255
  0.36746 -0.677646   2.66193 255 255 255
 0.866018 -0.734703   3.02586 255 255 255
 0.356872 -0.658744   2.65867 255 255 255
-0.362021  0.329532   2.27563 255 255 255
0.751246 0.679999  2.91697 255 255 255
  1.14299 -0.825982   3.01343 255 255 255
  1.0632 0.829174  2.93141 255 255 255
  1.62238 -0.768607    3.0608 255 255 255
0.221531 0.548215  2.73145 255 255 255
 0.27938 0.229123  2.46814 255 255 255
 0.283607 -0.738649    2.6482 255 255 255
 1.29534 0.873115  2.94864 255 255 255
0.592796 0.530133  2.91863 255 255 255
 0.886724 -0.942388   3.02347 255 255 255
0.872349 0.304235  2.58942 255 255 255
-0.0273314  -0.040243    2.71621 255 255 255
  0.93739 -0.975259   3.03367 255 255 255
 0.807939 -0.824992   3.02564 255 255 255
  0.751791 -0.0277237    2.76693 255 255 255
-0.496728   0.59976   2.44646 255 255 255
0.0697824 0.0536312   2.45546 255 255 255
0.0687954   0.07686   2.48489 255 255 255
 1.09834 0.803597  2.93164 255 255 255
 0.421898 0.0409293   2.45859 255 255 255
0.0233538 -0.120696   2.70886 255 255 255
-0.342279    0.4983   2.55353 255 255 255
0.91991 0.70161 2.94646 255 255 255
 0.627171 -0.567582   2.95813 255 255 255
 0.242695 0.0467209   2.44691 255 255 255
0.961966 -0.86844  3.03901 255 255 255
0.873012 0.318193  2.61983 255 255 255
0.00296466   0.607592    2.51182 255 255 255
 0.814786 -0.158465   2.66141 255 255 255
   1.05892 -0.0480294     2.7274 255 255 255
0.0108161 -0.178817   2.69681 255 255 255
  1.11259 -0.297613   2.69636 255 255 255
1.30712 0.82683 2.94362 255 255 255
  1.53506 -0.722099   3.04774 255 255 255
  1.29973 -0.614424   3.02944 255 255 255
0.264245 0.497133  2.70933 255 255 255
 1.32594 0.153825  2.79394 255 255 255
  1.33272 -0.744224    3.0264 255 255 255
 1.37719 0.185107   2.7677 255 255 255
  1.1397 0.834163  2.93298 255 255 255
 0.125367 -0.407822   2.71989 255 255 255
-0.239931  0.287954   2.49976 255 255 255
 0.59208 0.337166  2.89546 255 255 255
0.880367 0.722432  2.94927 255 255 255
0.148492 0.259284  2.53972 255 255 255
 0.797632 -0.678655   3.02073 255 255 255
  1.69521 -0.850427   3.08441 255 255 255
0.858882 0.735114  2.94082 255 255 255
0.240429 0.313081  2.50167 255 255 255
-1.67463 0.457442  2.31474 255 255 255
-1.14179 0.286318  2.27653 255 255 255
 2.33919 0.066494  3.04574 255 255 255
0.219903 0.136314  2.68448 255 255 255
0.0563634  0.630376   2.55209 255 255 255
-0.607059 -0.303055   2.15269 255 255 255
-1.22788  1.09697  2.60851 255 255 255
 1.79081 0.914984  2.86494 255 255 255
 1.34985 0.220564  2.80298 255 255 255
 0.972764 -0.532786   2.84765 255 255 255
  1.23181 -0.154034   2.88215 255 255 255
  0.26683 -0.244953   2.57156 255 255 255
-0.229473   0.58175   2.53116 255 255 255
 0.511338 -0.617908    2.5127 255 255 255
-0.8582 1.12655 2.37026 255 255 255
-1.05131 -0.44974  2.06905 255 255 255
-1.01752 -1.06002  2.29942 255 255 255
 -0.91606 -0.982658   2.27112 255 255 255
0.0195511   0.89988   2.54192 255 255 255
 2.17081 0.254812  2.55895 255 255 255
 -1.6728 0.556628  2.33544 255 255 255
 -1.38415 -0.892371   2.18993 255 255 255
 1.61633 0.451965  3.08479 255 255 255
 0.712945 -0.608228   2.97623 255 255 255
 1.26061 0.510336  2.72885 255 255 255
-0.218828  0.692093   2.52522 255 255 255
0.246877  1.03716  2.47404 255 255 255
-1.32774  1.25662  2.63518 255 255 255
0.17158 1.01409  2.2993 255 255 255
0.187217  0.39232   2.7028 255 255 255
 1.09696 0.913098  2.67271 255 255 255
 2.17377 0.239011  2.74961 255 255 255
  1.66552 -0.480147    3.0281 255 255 255
 1.38084 0.302769  2.83165 255 255 255
-0.978927 -0.936151   2.31366 255 255 255
 0.794658 -0.433984   2.62374 255 255 255
