ply
format ascii 1.0
element vertex 1216
property float x
property float y
property float z
property uchar red
property uchar green
property uchar blue
end_header
 3.84263 -4.72049  3.59478 255 255 255
2.38257 -3.9373 1.96842 255 255 255
 7.17261 -6.69741  3.90797 255 255 255
 6.05983 -4.15443  3.72316 255 255 255
 5.86959 -5.42318  3.68083 255 255 255
 2.49035 -3.64808  1.98639 255 255 255
 7.12449 -5.08379  4.16602 255 255 255
6.25599  -3.398 3.75047 255 255 255
 8.47611 -6.77854  4.16966 255 255 255
-0.179846  -3.33758   2.94971 255 255 255
 2.53364 -6.78179  3.39808 255 255 255
 2.38273 -3.39424  1.94854 255 255 255
 3.72491 -4.00312  2.93975 255 255 255
5.04659 -6.1565  3.5079 255 255 255
 8.94906 -6.94719  4.12131 255 255 255
3.67802 -4.9162 3.58418 255 255 255
 7.32242 -4.92057  4.18437 255 255 255
 8.32572 -3.16144  3.38261 255 255 255
  4.0486 -2.76834  2.76684 255 255 255
 2.52007 -6.64931  3.40738 255 255 255
 8.79752 -6.29501  4.19917 255 255 255
 1.00935 -5.73665  3.26793 255 255 255
4.31349 -4.3148 3.63284 255 255 255
 4.31145 -4.31423  3.63801 255 255 255
 4.63043 -5.86043   3.5859 255 255 255
 4.63432 -5.86204  3.58307 255 255 255
 3.43481 -5.14942   3.5493 255 255 255
  8.6432 -4.97141  4.18318 255 255 255
  8.7365 -7.06641  4.18919 255 255 255
 4.82578 -6.58005  3.58277 255 255 255
 8.15449 -4.50287  4.07562 255 255 255
0.169576 -3.60082  2.89886 255 255 255
 8.50583 -3.04645  3.36051 255 255 255
 6.21624 -6.75813  3.66361 255 255 255
 5.64972 -5.22587  3.58262 255 255 255
 3.88758 -4.06726  2.94473 255 255 255
  2.7942 -6.80909  3.41028 255 255 255
7.28088 -6.5605 4.04468 255 255 255
 3.47671 -3.63178  2.25468 255 255 255
2.81605 -7.1425  3.4007 255 255 255
 1.93283 -5.22573  3.30289 255 255 255
 4.30324 -4.63094  3.60337 255 255 255
 4.53494 -4.60666  3.62216 255 255 255
-0.472687  -3.63442   2.89443 255 255 255
 5.63623 -4.33771  3.67413 255 255 255
6.70807 -4.9489 3.75541 255 255 255
 9.98429 -6.77126  4.15814 255 255 255
 2.90511 -3.36027  2.03202 255 255 255
 4.68867 -5.86058  3.60294 255 255 255
 7.65957 -4.83796  4.21225 255 255 255
 3.48174 -4.22646  2.93929 255 255 255
 4.24462 -6.02888  3.56554 255 255 255
10.0583 -7.2151 4.29272 255 255 255
 7.74403 -2.15352  3.87817 255 255 255
  2.7482 -6.83266  3.40712 255 255 255
  2.6682 -5.06684  3.48047 255 255 255
 2.66511 -5.06621  3.46954 255 255 255
 6.71665 -4.83576  3.57123 255 255 255
 6.42547 -4.83016  3.72559 255 255 255
6.42356 -4.8273 3.71766 255 255 255
  6.0687 -2.60798  3.29822 255 255 255
 3.25926 -3.94339  2.02649 255 255 255
 5.51517 -5.11641  3.62475 255 255 255
 6.23245 -5.05713  3.60259 255 255 255
0.706224 -4.17916  2.58928 255 255 255
 2.93452 -6.27296  3.47143 255 255 255
 7.67593 -6.67874  4.08088 255 255 255
 3.26015 -4.30653  2.89451 255 255 255
 6.14946 -6.69115  3.67984 255 255 255
 4.60434 -6.85677  3.52293 255 255 255
 8.34256 -4.90608  4.17577 255 255 255
 5.14001 -2.46205  2.99169 255 255 255
 9.83678 -5.55993  4.20032 255 255 255
-0.202623   -3.4119   2.95863 255 255 255
   9.829 -6.85784   4.2355 255 255 255
 2.62502 -3.98539  1.94065 255 255 255
 7.51476 -4.69791  4.27302 255 255 255
   9.278 -6.29268   4.2385 255 255 255
 2.27895 -6.40237  3.31933 255 255 255
 8.18743 -6.62607  4.10428 255 255 255
-0.405575  -4.43303   2.85386 255 255 255
 6.35187 -4.69442  3.71224 255 255 255
 5.01294 -4.31211  3.66365 255 255 255
2.66601 -5.7023 3.33251 255 255 255
 1.00287 -4.91277   3.2693 255 255 255
 2.15036 -6.67701  3.34303 255 255 255
 8.35862 -6.29082  4.18058 255 255 255
 3.73988 -3.89572   2.9415 255 255 255
 7.24071 -5.44415  4.17294 255 255 255
5.42619 -3.6671 3.70694 255 255 255
7.72943 -1.7207 3.87343 255 255 255
  1.7652 -4.85853  3.30823 255 255 255
  5.849 -5.0088  3.6891 255 255 255
 7.70789 -5.52303  4.16292 255 255 255
 5.60411 -5.22052  3.59049 255 255 255
 5.86837 -5.84133  3.67232 255 255 255
 3.50309 -4.26717  2.91302 255 255 255
 4.69576 -6.72432  3.58196 255 255 255
 2.89846 -5.81533  3.39157 255 255 255
 9.12668 -5.44221  4.28713 255 255 255
0.465795 -4.99953  3.22299 255 255 255
 8.48325 -5.82114  4.20661 255 255 255
 3.57359 -4.45456  2.92393 255 255 255
 4.25635 -5.63694  3.56316 255 255 255
 2.39318 -3.41546  2.02241 255 255 255
 4.58971 -6.54734  3.50238 255 255 255
 4.53448 -3.61854  3.13856 255 255 255
 6.55648 -3.45689  3.73034 255 255 255
 7.97222 -2.04298  3.90026 255 255 255
 3.60961 -3.11994  2.26056 255 255 255
 6.24392 -4.86031  3.68916 255 255 255
 6.14843 -6.53656  3.70088 255 255 255
 4.33632 -5.99537  3.55331 255 255 255
 6.27417 -5.38362  3.65675 255 255 255
  6.2794 -5.38433  3.66041 255 255 255
 7.32831 -5.18943  4.18342 255 255 255
 2.15073 -3.56401  1.99108 255 255 255
7.60071 -4.2147 3.79556 255 255 255
 5.91362 -6.05895  3.59715 255 255 255
 0.27434 -5.19932  3.25581 255 255 255
   4.454 -2.86705  2.76321 255 255 255
 5.28453 -6.13178  3.56705 255 255 255
 4.79493 -6.98854  3.52311 255 255 255
1.41971 -6.1386 3.32598 255 255 255
-0.181772  -5.95569   3.20605 255 255 255
  7.9923 -1.87179  3.88546 255 255 255
  3.5369 -4.91951  3.11525 255 255 255
 9.96277 -6.57278  4.21368 255 255 255
   8.417 -3.13499  3.42905 255 255 255
7.65073 -4.1148 4.01422 255 255 255
 7.96034 -3.16723  3.37869 255 255 255
 8.20368 -7.11165  4.09619 255 255 255
 7.53328 -5.94185  4.14741 255 255 255
 2.62848 -5.26656  3.53968 255 255 255
-0.463587     -3.48   2.93275 255 255 255
 5.43662 -6.37144  3.62171 255 255 255
 7.92937 -1.95318  3.88014 255 255 255
 4.84579 -6.62179   3.5449 255 255 255
0.580053 -6.15665  3.22819 255 255 255
 9.3409 -5.8249 4.24635 255 255 255
 7.20643 -3.83224  3.54314 255 255 255
 9.28061 -5.68009  4.26804 255 255 255
 3.62869 -4.32132  2.93038 255 255 255
 4.30956 -6.56414  3.51677 255 255 255
 4.68547 -6.79323  3.56478 255 255 255
 8.78497 -6.55565   4.1793 255 255 255
 5.50543 -4.96398  3.61331 255 255 255
 7.86495 -5.14881  4.21439 255 255 255
 2.74127 -5.77412   3.4435 255 255 255
 5.19604 -2.59096   3.0378 255 255 255
 7.36774 -3.04587  3.79144 255 255 255
 2.51809 -4.19468  1.97612 255 255 255
 2.45687 -6.45887  3.31644 255 255 255
 6.17986 -2.30737  3.31146 255 255 255
 3.22588 -3.93142  2.02705 255 255 255
 7.50607 -2.45879   3.8412 255 255 255
 1.77011 -4.44641  2.62707 255 255 255
 6.10126 -4.51076   3.7152 255 255 255
 5.08823 -4.06904  3.67758 255 255 255
 9.55234 -6.80559    4.164 255 255 255
 5.17437 -5.41322  3.50647 255 255 255
  5.8631 -4.25996  3.68078 255 255 255
 4.73437 -6.09338  3.58144 255 255 255
 3.02842 -3.61714   1.9415 255 255 255
 3.27826 -5.50889  3.54581 255 255 255
 3.59304 -3.73833  2.94778 255 255 255
 8.93882 -6.98834  4.10183 255 255 255
 2.50805 -5.42881  3.54102 255 255 255
7.37903 -5.1834 4.19414 255 255 255
 1.94476 -5.41538  3.22924 255 255 255
 1.94564 -3.73564  1.97714 255 255 255
0.179097 -5.17575  3.24289 255 255 255
 1.51304 -6.57575  3.29168 255 255 255
 2.67836 -5.07846  3.55852 255 255 255
  2.3593 -3.43317  2.01638 255 255 255
 9.57134 -6.33934  4.26376 255 255 255
 3.19674 -5.41939  3.54642 255 255 255
9.41993 -6.6214 4.22206 255 255 255
 8.46747 -3.98924  3.49008 255 255 255
 5.42409 -3.90382  3.71897 255 255 255
 3.96798 -3.69392  2.95693 255 255 255
  6.8162 -4.31027  3.64802 255 255 255
 8.56772 -3.54521  3.42911 255 255 255
 5.77408 -5.50322  3.64948 255 255 255
0.843125 -4.88496  3.30064 255 255 255
 1.38853 -4.98196  3.27119 255 255 255
 1.79965 -5.34731  3.26029 255 255 255
  2.2536 -5.55209  3.36374 255 255 255
 4.16337 -6.14085  3.50085 255 255 255
 4.80886 -6.48486  3.57487 255 255 255
 1.20644 -3.22194   2.9486 255 255 255
 8.12206 -3.36734  3.38593 255 255 255
 3.32542 -5.77089  3.55781 255 255 255
 1.38771 -5.18433  3.29408 255 255 255
0.609798 -5.62017  3.27032 255 255 255
 4.15025 -3.15804   2.9411 255 255 255
 6.30471 -5.03941  3.66744 255 255 255
 3.48124 -6.02017     3.74 255 255 255
 7.35974 -5.54095  4.34919 255 255 255
0.113758 -5.29747   3.2338 255 255 255
 6.68551 -5.03477  3.78425 255 255 255
 9.31041 -6.59143  4.26934 255 255 255
2.37178 -5.2133 3.44281 255 255 255
 2.21368 -6.35593  3.38795 255 255 255
 8.69467 -6.94828  4.16831 255 255 255
  6.9842 -5.86249  4.09947 255 255 255
0.960553 -5.63113   3.2615 255 255 255
 4.45982 -6.85356  3.48538 255 255 255
  6.5138 -6.62861  3.54827 255 255 255
 4.64216 -6.92667  3.53626 255 255 255
 5.02707 -4.64282  3.65693 255 255 255
-0.154284   -6.0748   3.19034 255 255 255
-0.155569  -6.07604   3.19202 255 255 255
 9.03657 -5.16914  4.29143 255 255 255
5.12196 -4.0291 3.66558 255 255 255
 7.80011 -3.61813  3.44296 255 255 255
0.711619 -5.83027  3.25391 255 255 255
 3.12047 -4.52827   2.9218 255 255 255
7.84939 -4.5507 4.08782 255 255 255
   7.603 -4.47506   4.1773 255 255 255
-0.0763448   -5.70264    3.19182 255 255 255
 7.68828 -5.55516  4.19521 255 255 255
 8.86163 -7.05849  4.05007 255 255 255
3.44507 -4.7385 3.11152 255 255 255
 3.39945 -6.55464  3.49872 255 255 255
 8.31358 -7.10259  4.12912 255 255 255
 3.87674 -4.25225  3.05232 255 255 255
 3.66164 -3.25577  2.27111 255 255 255
 5.96786 -6.62304  3.67556 255 255 255
 7.95398 -6.42317   4.1342 255 255 255
 4.30766 -6.82016  3.49423 255 255 255
 3.77762 -4.45022  3.13119 255 255 255
 3.43494 -4.49731  2.91852 255 255 255
  8.3726 -5.38027  4.24004 255 255 255
 4.89356 -5.30155  3.64202 255 255 255
 8.46031 -5.18965  4.26386 255 255 255
 5.86406 -4.74274  3.61892 255 255 255
  6.0122 -6.05235   3.6825 255 255 255
  4.7578 -6.25101  3.58884 255 255 255
 6.28549 -5.32105  3.64026 255 255 255
 6.28883 -5.32462  3.64262 255 255 255
 7.02702 -3.90698  3.73878 255 255 255
 2.12572 -6.38071  3.37423 255 255 255
0.879318 -6.57405  3.04555 255 255 255
 5.95289 -4.74144  3.69585 255 255 255
  3.0928 -5.63323  3.51755 255 255 255
 5.27664 -6.37345  3.65361 255 255 255
 2.33104 -6.46092  3.43783 255 255 255
 5.29953 -5.42779   3.5803 255 255 255
 6.11049 -6.72859   3.6651 255 255 255
0.873385 -5.57967  3.28315 255 255 255
 6.22907 -3.91814  3.74771 255 255 255
 8.46268 -6.76222  4.13117 255 255 255
7.66198 -5.6191 4.18393 255 255 255
 3.72057 -4.48897  3.15911 255 255 255
  6.5905 -4.39459  3.73048 255 255 255
 5.10888 -4.64408  3.75345 255 255 255
 3.99207 -5.09876  3.58316 255 255 255
 8.56632 -4.91443  4.14731 255 255 255
 9.18467 -5.54593  4.28087 255 255 255
 5.01798 -5.70935  3.61329 255 255 255
 4.85215 -5.17855  3.64901 255 255 255
 4.68547 -6.79323  3.56478 255 255 255
 9.11761 -5.68335  4.28801 255 255 255
 3.23491 -6.89425  3.46646 255 255 255
 8.27245 -6.80954  4.09679 255 255 255
 5.51107 -5.20229  3.65909 255 255 255
 4.89685 -6.49906  3.55203 255 255 255
 6.59742 -4.83709  3.70161 255 255 255
-0.903924  -4.90833   3.18099 255 255 255
 4.46161 -6.42124  3.55611 255 255 255
  3.9674 -4.48488  3.58458 255 255 255
-0.558457  -5.48071   3.16507 255 255 255
 2.89216 -4.51665  2.89082 255 255 255
7.54872 -6.7165 4.07281 255 255 255
 5.42356 -5.19131  3.64776 255 255 255
 6.88693 -6.08868  4.11711 255 255 255
7.36827 -6.7436 3.93734 255 255 255
 8.29419 -5.26747  4.21985 255 255 255
2.01963 -4.9762 3.31805 255 255 255
 5.26263 -4.96437  3.61667 255 255 255
 7.87836 -4.93019  4.23755 255 255 255
 5.77408 -5.50322  3.64948 255 255 255
0.923369 -4.92254  3.29996 255 255 255
3.96396 -6.1937 3.51695 255 255 255
 4.16288 -6.26412  3.53551 255 255 255
 7.62813 -6.80553  3.96211 255 255 255
0.458093 -4.84556  3.30715 255 255 255
 7.91674 -6.69359  4.10323 255 255 255
 7.87612 -4.49199  4.10396 255 255 255
 7.55857 -4.74541  4.21493 255 255 255
 4.90986 -4.21887  3.67743 255 255 255
 7.24886 -4.06935  3.75695 255 255 255
 6.22784 -4.42838  3.63831 255 255 255
 8.27834 -2.95226  3.43203 255 255 255
 8.16202 -2.46734  3.66118 255 255 255
 8.08131 -1.87776  3.92798 255 255 255
 5.51533 -3.94276  3.64248 255 255 255
 3.13705 -3.37001  1.95516 255 255 255
 4.52944 -4.35508  3.62926 255 255 255
 8.73392 -1.28931   3.8349 255 255 255
 8.95586 -5.81571  4.39543 255 255 255
  6.4127 -4.79383  3.60678 255 255 255
 8.50126 -2.14485  3.95372 255 255 255
 6.85943 -1.52754  3.76673 255 255 255
9.21894 -2.0962   3.516 255 255 255
7.72661 -2.2931 3.85105 255 255 255
4.66439 -2.3001 2.84324 255 255 255
5.98561 -1.2153 3.56993 255 255 255
 4.52838 -2.51931  2.80866 255 255 255
  5.3087 -2.25543  3.02083 255 255 255
 6.93156 -1.08487   3.7554 255 255 255
4.27753 -2.7856 2.76953 255 255 255
 6.35754 -1.28013   3.6627 255 255 255
 3.77026 -2.14104  2.10989 255 255 255
 5.15691 -2.54572  3.03776 255 255 255
  6.6457 -1.46602   3.7168 255 255 255
 6.18373 -2.44496  3.28261 255 255 255
 4.88014 -3.68601  3.15202 255 255 255
 5.39988 -2.47593  2.94538 255 255 255
 3.5563  -3.064 2.22901 255 255 255
 5.15224 -2.30249  2.89662 255 255 255
 3.40523 -2.10868   2.1319 255 255 255
3.14091 -2.5393  2.0083 255 255 255
 3.28431 -3.50657  2.26141 255 255 255
 3.54225 -2.03342    2.092 255 255 255
  3.8142 -1.43934  1.98437 255 255 255
 4.59404 -3.58654  3.14281 255 255 255
 4.75784 -2.48717  2.84382 255 255 255
 6.83628 -1.91703  3.77289 255 255 255
 4.64669 -1.74552  2.81884 255 255 255
 4.55249 -4.38458  3.71195 255 255 255
8.41534 -1.0317 3.88733 255 255 255
 7.37416 -3.33574  3.77757 255 255 255
 3.03406 -2.45655  2.00915 255 255 255
 5.41054 -4.48302  3.62473 255 255 255
 3.18567 -1.58458  2.04588 255 255 255
 7.79427 -1.96135  3.81805 255 255 255
 3.28459 -2.59424  2.01315 255 255 255
 8.24167 -3.30854  3.43701 255 255 255
 7.79243 -1.77546  3.88378 255 255 255
 4.89989 -1.52462  2.81787 255 255 255
 8.18612 -2.56272  3.69928 255 255 255
 4.52588 -2.36161  2.77658 255 255 255
 5.49924 -2.59912  2.99701 255 255 255
 4.77731 -2.92052  3.00923 255 255 255
 2.92222 -2.46457  1.99597 255 255 255
 10.1409 -5.88419    4.268 255 255 255
7.07329 -2.6514 3.82302 255 255 255
  5.5698 -2.06934  2.99255 255 255 255
 8.89159 -3.02811  3.42114 255 255 255
 7.17685 -3.68223  3.75789 255 255 255
 6.53138 -1.31523  3.66995 255 255 255
 6.86399 -1.65826  3.78238 255 255 255
 3.51118 -2.37166  2.03969 255 255 255
 3.26642 -1.70549  2.08496 255 255 255
  5.2651 -2.15387  3.08425 255 255 255
 7.01595 -3.71069  3.71637 255 255 255
 7.15685 -1.97068  3.82284 255 255 255
 5.55894 -2.18645  3.05112 255 255 255
 7.71284 -1.63847  3.91495 255 255 255
 7.31935 -1.05459   3.8728 255 255 255
 6.92856 -1.56259  3.75183 255 255 255
 8.67095 -2.58914  3.48683 255 255 255
 3.34327 -3.63651  2.25345 255 255 255
  6.69937 -0.996728   3.70197 255 255 255
 8.51929 -3.46708  3.44913 255 255 255
 8.70422 -5.91385  4.23739 255 255 255
  7.3841 -1.37122  3.88698 255 255 255
6.10414 -3.7182 3.72377 255 255 255
 7.98516 -6.07471   4.0287 255 255 255
 4.42969 -5.91537  3.57548 255 255 255
3.76474 -1.9169 1.94621 255 255 255
4.64833 -1.4425 2.77294 255 255 255
8.03026 -2.6005 3.80913 255 255 255
 3.17949 -4.14911  2.10169 255 255 255
 3.17442 -2.29371  1.98926 255 255 255
   8.968 -2.67642  3.57351 255 255 255
 5.70266 -3.21799  3.24226 255 255 255
  5.3325 -5.77205  3.54339 255 255 255
 8.68087 -3.55594  3.47978 255 255 255
 8.65378 -2.83577  3.41793 255 255 255
 5.52433 -5.52687  3.61064 255 255 255
 7.27476 -1.76069  3.81282 255 255 255
 3.98229 -2.71262  2.75437 255 255 255
 7.96054 -2.45375  3.84243 255 255 255
3.56617 -2.4711 1.96191 255 255 255
 3.93069 -1.42177  2.00494 255 255 255
 9.17746 -1.89295  3.47043 255 255 255
 9.56912 -6.27242  4.25845 255 255 255
 4.92051 -2.24278  2.92674 255 255 255
  6.8119 -1.80092  3.73431 255 255 255
 5.46846 -3.19933  3.23233 255 255 255
 5.95977 -5.94239  3.67007 255 255 255
 4.47106 -1.57055  2.37765 255 255 255
 3.98784 -1.70784  1.96045 255 255 255
 6.98002 -5.62751  4.12377 255 255 255
 2.97077 -1.94808  2.08253 255 255 255
 10.5854 -5.90106  4.24312 255 255 255
 8.24651 -2.07947  3.90586 255 255 255
8.60002 -3.0197 3.44545 255 255 255
 3.13111 -2.23219  1.98381 255 255 255
  10.394 -5.45024  4.17944 255 255 255
4.51034 -4.1469 3.66368 255 255 255
 3.14623 -2.13963  2.07236 255 255 255
 3.75963 -4.86463  3.57855 255 255 255
 3.42614 -4.36689  2.91486 255 255 255
 3.42614 -4.36692  2.91487 255 255 255
  3.7826 -4.10977  2.94155 255 255 255
2.33709 -5.5631 3.37257 255 255 255
 3.19375 -2.19414  2.03978 255 255 255
  10.232 -5.79196  4.21375 255 255 255
 10.2654 -5.50411  4.17001 255 255 255
 3.29218 -2.27963  2.03345 255 255 255
 3.46355 -2.40688   1.9759 255 255 255
  3.8272 -1.96111  1.95717 255 255 255
 8.22507 -1.79482   3.8857 255 255 255
 9.00688 -2.62569  3.52102 255 255 255
 3.46313 -2.50207  1.97157 255 255 255
 6.14669 -1.28637  3.55392 255 255 255
 8.63316 -6.32006  4.17638 255 255 255
  3.2101 -1.67331  2.05295 255 255 255
 4.04537 -1.42661  2.00229 255 255 255
 9.19165 -2.00123  3.47331 255 255 255
 8.07318 -2.45435   3.8036 255 255 255
9.84093 -2.8832 4.21393 255 255 255
 5.71967 -5.07667  3.60268 255 255 255
 3.85981 -4.44365  3.13913 255 255 255
 4.41667 -2.23066  2.77115 255 255 255
 3.95029 -4.41813  3.57802 255 255 255
 5.85254 -3.09063  3.26268 255 255 255
8.83893 -2.8524  3.4274 255 255 255
 3.91242 -1.66233  1.98076 255 255 255
 5.77696 -4.68056  3.64005 255 255 255
 3.34767 -3.15207   1.9231 255 255 255
 8.86439 -3.47443  3.44762 255 255 255
 4.55574 -3.69381  3.20676 255 255 255
  5.94421 -0.601528   3.52315 255 255 255
  5.3364 -3.70193  3.70377 255 255 255
 4.00512 -1.39423  2.02909 255 255 255
 2.98308 -2.09598  2.00266 255 255 255
 3.08004 -1.94672  2.06096 255 255 255
9.10334 -1.8241 3.43762 255 255 255
 9.88981 -2.93483  4.21439 255 255 255
 3.70261 -2.31155  1.98755 255 255 255
7.04184 -1.0872 3.80968 255 255 255
 8.77292 -2.90136  3.40773 255 255 255
 3.58508 -2.13742  2.07645 255 255 255
 3.83849 -1.72966  1.96278 255 255 255
 5.31097 -2.02599  3.10521 255 255 255
5.82542 -1.0703 3.55423 255 255 255
 4.03547 -1.32458  2.01541 255 255 255
 9.44769 -6.35395   4.2404 255 255 255
 3.94663 -1.36766   1.9993 255 255 255
 7.56514 -5.73224  4.16361 255 255 255
4.70824  -3.446 2.97686 255 255 255
  3.6102 -5.95448  3.52547 255 255 255
 5.05364 -3.04939  3.03823 255 255 255
 6.41751 -1.45731  3.54938 255 255 255
 3.49932 -4.35758    2.924 255 255 255
6.97745 -2.5213 3.82147 255 255 255
 3.15531 -2.40814  2.03123 255 255 255
 5.04633 -3.43661  2.97808 255 255 255
 10.0978 -2.38414  4.20886 255 255 255
 8.90558 -1.69521  3.51638 255 255 255
 3.51459 -1.69641   1.9652 255 255 255
 8.42324 -2.95432  3.37793 255 255 255
 3.78869 -1.17878  2.13936 255 255 255
 8.66353 -2.01381  3.98391 255 255 255
 4.34523 -2.22628   2.7792 255 255 255
 8.34037 -1.97606  3.88063 255 255 255
 5.34226 -3.20947  3.20549 255 255 255
 7.10696 -1.09322  3.81562 255 255 255
 3.20551 -2.43335  2.03311 255 255 255
 5.92917 -2.95195  3.26258 255 255 255
 7.16104 -2.52739  3.82192 255 255 255
  8.3551 -2.04762  3.91455 255 255 255
 2.78796 -2.64758  2.02662 255 255 255
 8.86386 -5.26628  4.29083 255 255 255
  4.7022 -2.63957  3.00037 255 255 255
 3.01932 -3.01812  1.90525 255 255 255
 3.46928 -4.55051  2.91074 255 255 255
 8.53483 -3.33214  3.42588 255 255 255
  4.6933 -1.59599   2.8297 255 255 255
 8.80217 -1.58851  3.48922 255 255 255
 7.10253 -2.28305  3.83719 255 255 255
 9.15939 -1.63203  3.50309 255 255 255
 5.27793 -3.65255  3.65934 255 255 255
 5.52764 -2.75975  2.96899 255 255 255
 5.22576 -2.29257  3.02347 255 255 255
  3.5492 -2.20913  2.09431 255 255 255
 2.82639 -2.56173  2.00887 255 255 255
 5.08866 -2.96579  3.02136 255 255 255
 5.08937 -2.96667  3.02206 255 255 255
 4.97409 -2.09685  3.04096 255 255 255
 5.85034 -4.90775  3.61959 255 255 255
 6.03701 -0.91644  3.62597 255 255 255
 2.30596 -5.58457  3.31288 255 255 255
 9.31835 -5.29374  4.31591 255 255 255
 2.98922 -5.84846  3.37235 255 255 255
 8.74456 -2.98078  3.46141 255 255 255
 6.39077 -3.19776  3.76076 255 255 255
  9.2957 -4.86643   4.1879 255 255 255
 5.14494 -5.94721   3.5891 255 255 255
 5.37414 -6.06071   3.6106 255 255 255
 3.59227 -4.02863  2.92813 255 255 255
 3.27056 -4.49734  2.91384 255 255 255
 9.18162 -1.57265  3.44865 255 255 255
 2.94578 -2.40848  2.01297 255 255 255
 3.31448 -2.77496  1.95767 255 255 255
 3.66383 -2.17794  2.10507 255 255 255
 8.50184 -3.09529  3.35969 255 255 255
 5.75582 -3.15794  3.25294 255 255 255
8.50618 -2.6074 3.41094 255 255 255
 5.48853 -3.28319  3.20884 255 255 255
 4.86022 -5.86405  3.58531 255 255 255
 5.87755 -3.69475  3.70112 255 255 255
 7.68991 -4.63031  4.11116 255 255 255
 2.87213 -2.04361  1.96807 255 255 255
 5.59676 -4.82166  3.65482 255 255 255
 4.20849 -5.66901  3.58523 255 255 255
 3.22838 -1.55693  2.12153 255 255 255
 4.57048 -2.78882    2.911 255 255 255
 7.04696 -1.45206  3.87149 255 255 255
 9.62595 -3.26898  4.03063 255 255 255
 2.91457 -2.97581  1.91642 255 255 255
 8.81686 -2.56881  3.54346 255 255 255
 7.41298 -2.44362  3.83522 255 255 255
 6.15258 -2.68528   3.2952 255 255 255
 7.80592 -3.87497  3.45931 255 255 255
 8.22458 -3.68748  3.47875 255 255 255
 8.81003 -4.47995  4.00774 255 255 255
 10.4496 -5.84305  4.18612 255 255 255
 4.70716 -2.76643   3.0254 255 255 255
 4.94229 -1.25116  3.32726 255 255 255
3.76394 -4.2999 2.90561 255 255 255
 9.12019 -2.34408  3.53422 255 255 255
 6.86473 -3.42754  3.75936 255 255 255
 2.84941 -5.46334  3.49648 255 255 255
 6.29621 -4.89637  3.70562 255 255 255
 4.88064 -4.74183  3.64722 255 255 255
 8.50571 -3.04645   3.3604 255 255 255
 6.31867 -5.21879  3.70995 255 255 255
 5.92723 -5.03471  3.71476 255 255 255
  5.1974 -3.16235  2.97345 255 255 255
 3.58983 -2.18767  2.09864 255 255 255
 10.6553 -6.14615  4.34598 255 255 255
 5.12497 -4.80154  3.61977 255 255 255
 5.94731 -3.77541   3.7274 255 255 255
 5.36094 -2.21623  3.05926 255 255 255
 5.52393 -4.82921  3.61384 255 255 255
 7.42947 -4.30079  3.87304 255 255 255
 8.5692 -2.6345 3.39731 255 255 255
 6.81003 -4.02827  3.73628 255 255 255
 8.35745 -2.75027  3.40332 255 255 255
 3.03534 -1.99421   2.0876 255 255 255
 3.01651 -1.77463  1.98495 255 255 255
 2.88455 -2.35551  2.01517 255 255 255
  6.6115 -4.71842  3.63353 255 255 255
 3.29581 -5.96442  3.38107 255 255 255
 7.34902 -1.67722  3.86893 255 255 255
 5.15443 -4.74928  3.62607 255 255 255
 6.92064 -3.80312  3.71387 255 255 255
5.15048 -5.5423 3.51353 255 255 255
 6.69336 -3.08176  3.77541 255 255 255
 5.98486 -4.37585  3.70143 255 255 255
 3.49298 -2.08647  2.09088 255 255 255
 4.09155 -5.90652  3.56439 255 255 255
 5.53596 -5.35568  3.58862 255 255 255
 3.37631 -4.93199  3.13517 255 255 255
 9.05027 -2.06369  3.59265 255 255 255
 5.50433 -4.87786  3.60248 255 255 255
 5.34482 -1.00775  3.51149 255 255 255
  6.6296 -4.11598  3.72433 255 255 255
 8.90846 -5.02406  4.18126 255 255 255
 7.19418 -3.74558  3.80313 255 255 255
 1.69754 -5.29698  3.30902 255 255 255
 9.01517 -2.54045  3.55244 255 255 255
 3.72629 -4.00345  2.93646 255 255 255
 6.68572 -2.71078  3.76629 255 255 255
 2.88835 -2.59446  2.02648 255 255 255
  10.635 -6.19494  4.30014 255 255 255
4.53116 -4.6107 3.64421 255 255 255
 7.86065 -1.29813  3.88614 255 255 255
 10.8229 -6.30268  4.36723 255 255 255
 8.67667 -3.00665  3.44096 255 255 255
 3.97021 -2.68253  2.76249 255 255 255
 5.19898 -6.03737  3.60373 255 255 255
  2.2199 -5.57003   3.3402 255 255 255
 5.87745 -3.95714  3.71969 255 255 255
 3.86881 -1.10847  2.14021 255 255 255
 7.7219 -1.1091 3.92693 255 255 255
 4.29164 -2.26869  2.78489 255 255 255
 9.21156 -2.63225  3.50295 255 255 255
  8.19852 -0.970892   3.95361 255 255 255
  8.0314 -1.27372  3.92015 255 255 255
 6.23724 -3.76698  3.73061 255 255 255
5.64444 -5.5516 3.64989 255 255 255
 5.66216 -2.05534  3.03334 255 255 255
 6.36503 -4.02279  3.73568 255 255 255
 6.83678 -1.58365   3.7413 255 255 255
 7.79688 -1.45113  3.90005 255 255 255
 8.70663 -2.69033  3.39137 255 255 255
  5.6072 -1.70003  3.27484 255 255 255
 5.51683 -5.11858  3.62002 255 255 255
 7.85295 -1.34629  3.91653 255 255 255
 7.66573 -1.99405  3.88535 255 255 255
 9.19501 -1.49715   3.4765 255 255 255
 6.61568 -2.69433  3.80196 255 255 255
  9.2158 -1.93566   3.4506 255 255 255
 8.70764 -2.92719  3.39416 255 255 255
 4.59157 -4.17922  3.64624 255 255 255
 7.22925 -2.30846  3.82375 255 255 255
  4.7293 -6.10182  3.60503 255 255 255
 6.93395 -2.42538  3.78595 255 255 255
 3.45847 -5.57271  3.56093 255 255 255
  4.1314 -3.28218  2.95982 255 255 255
 10.1347 -2.29279  4.30771 255 255 255
 3.92108 -2.65081  2.74267 255 255 255
8.84168  -2.732 3.40883 255 255 255
 7.72681 -1.22174  3.89571 255 255 255
 5.34583 -2.77221  2.97195 255 255 255
 3.78839 -6.10401  3.53737 255 255 255
   8.267 -6.27407   4.1553 255 255 255
 7.88751 -1.53818  3.88625 255 255 255
 4.24212 -3.86653  3.17109 255 255 255
 6.46664 -2.98112  3.75936 255 255 255
 8.45437 -5.34611  4.24455 255 255 255
 8.87432 -2.74794  3.40001 255 255 255
  8.21171 -0.703011   3.97821 255 255 255
 4.49459 -2.09299  2.81387 255 255 255
  5.8255 -1.31194  3.57148 255 255 255
 4.35881 -3.08558  2.75741 255 255 255
 6.07822 -3.85864  3.73327 255 255 255
 7.77673 -1.49763  3.92259 255 255 255
 7.02989 -1.73006  3.77305 255 255 255
 4.01071 -1.58738  1.97586 255 255 255
 8.1108 -2.0849 3.89572 255 255 255
 9.69757 -5.82265  4.31254 255 255 255
 3.31575 -2.91298  1.91648 255 255 255
 3.85718 -1.47147  1.99665 255 255 255
 3.51087 -2.67919   2.0303 255 255 255
 5.53717 -4.70968  3.66396 255 255 255
 3.29437 -2.94076  2.04159 255 255 255
 8.77774 -3.24956  3.40322 255 255 255
7.47229 -5.4023 4.19038 255 255 255
 3.52933 -5.56775  3.59104 255 255 255
 5.42694 -4.33619  3.66638 255 255 255
 5.65812 -4.08838   3.6929 255 255 255
 2.67874 -5.57085  3.46731 255 255 255
 6.18011 -2.62996  3.30105 255 255 255
 3.53658 -2.16807  2.08817 255 255 255
 4.28435 -4.38168  3.66774 255 255 255
 5.05762 -4.24557   3.6569 255 255 255
 3.63664 -5.27926  3.60774 255 255 255
2.84722 -0.6624 3.01651 255 255 255
0.226019 -2.92742  2.91651 255 255 255
-0.951087  -2.41864   2.95517 255 255 255
 2.24501 -2.50988  2.92529 255 255 255
  1.36162 -0.951503   3.03096 255 255 255
0.429361 -1.25498  2.19028 255 255 255
  0.54404 -0.792193   2.25963 255 255 255
-0.836694  0.901268   2.38353 255 255 255
 1.07939 -1.75785  2.86679 255 255 255
 6.05861 -1.75809  3.32889 255 255 255
  4.61159 -0.462121   3.40768 255 255 255
 5.51669 0.356696  2.78864 255 255 255
  1.85778 -0.986621   2.96735 255 255 255
    4.56098 -0.00110883      3.4471 255 255 255
  1.83683 -0.470539   3.07602 255 255 255
  0.1601 0.187337  2.87906 255 255 255
 4.27303 0.168828  3.34443 255 255 255
0.539811  -1.5492  2.28314 255 255 255
  2.3611 -1.68646  3.07617 255 255 255
 2.94182 -1.11191  2.81418 255 255 255
 2.74396 -1.27402  2.99104 255 255 255
 3.18902 -1.95696  2.08429 255 255 255
 7.12312 -1.42162  3.82403 255 255 255
3.78414 1.02146 3.09944 255 255 255
  6.15941 -0.856267   3.65178 255 255 255
 3.50143 -1.15617  2.11248 255 255 255
 3.94021 0.313189  3.28157 255 255 255
   3.7236 -0.475056     3.064 255 255 255
  4.87309 -0.181527   3.54379 255 255 255
 1.65363 0.250912  2.99222 255 255 255
 0.487779 -0.137617   2.83966 255 255 255
  6.46876 -0.988611   3.77606 255 255 255
0.676589 -1.34604   2.9027 255 255 255
 2.08708 -1.00139  3.09337 255 255 255
  6.8216 -1.52518  3.70966 255 255 255
-0.0939763   0.929743    2.55525 255 255 255
 5.72749 -3.02588  3.22754 255 255 255
 6.44335 -0.12933  2.99043 255 255 255
  4.01179 0.0211983   3.25167 255 255 255
 1.97139 -1.98945  3.08221 255 255 255
 5.19519 0.234828  3.49656 255 255 255
-0.0161075   -3.02733    2.75799 255 255 255
  3.80734 0.0183208   3.21155 255 255 255
  5.63088 -0.419626   3.53939 255 255 255
  5.09719 0.0173842   3.48833 255 255 255
0.921478 -2.08034  2.90788 255 255 255
  6.30077 -0.770992   3.57114 255 255 255
  4.38809 -0.329527   3.35311 255 255 255
  6.02003 -0.569486   3.52548 255 255 255
  3.19186 -0.061668   2.98755 255 255 255
  5.8327 -0.64193  3.54103 255 255 255
  5.92239 -0.423003   3.56003 255 255 255
  5.99805 -0.250758    3.5583 255 255 255
  3.39702 0.0241838   3.12584 255 255 255
   1.43702 -0.0542922    3.05199 255 255 255
  6.6848 -1.73577   3.6803 255 255 255
 5.31656 0.688797  2.55032 255 255 255
  0.4649 -2.62193  2.99895 255 255 255
 6.27145 -2.61781  3.23875 255 255 255
0.287522 -2.65102  2.97766 255 255 255
   4.86825 0.00129923    3.42687 255 255 255
-0.895497  -3.14565   2.92627 255 255 255
 7.16029 -3.14705  3.79694 255 255 255
  2.16482 -0.824533   3.08944 255 255 255
 3.76846 0.620029  3.18379 255 255 255
 1.30431 -2.48959  3.02303 255 255 255
 1.19256 0.357669  2.82793 255 255 255
  5.36267 0.0981414   3.47443 255 255 255
 3.99346 -1.64283  1.96251 255 255 255
  2.60635 -0.942294   3.09239 255 255 255
 2.60242 0.101394  3.13562 255 255 255
 3.54599 -1.33782  2.08454 255 255 255
  6.50916 -0.667103   3.60709 255 255 255
0.195261  -0.1318   2.6156 255 255 255
 6.32156 -1.29073  3.60682 255 255 255
 5.03357 -1.61018  2.81789 255 255 255
 3.64126 -1.46483  1.95467 255 255 255
 1.73844 -1.98162  3.04889 255 255 255
  4.7495 0.247594  3.36946 255 255 255
 1.03093 -1.43442  3.02688 255 255 255
2.39584 -1.5293 2.90912 255 255 255
-0.271375  0.330672   2.46758 255 255 255
0.389929 0.618816  2.80348 255 255 255
 4.98463 0.174395  3.44408 255 255 255
0.895104 -1.04091  3.06246 255 255 255
2.63595 -2.7697 1.96427 255 255 255
-0.152723  0.855811   2.57547 255 255 255
 2.78324 -2.48315  2.00991 255 255 255
 5.85519 -3.21612  3.24872 255 255 255
 3.41931 -1.93244  1.83362 255 255 255
 5.81916 0.580386  2.75806 255 255 255
-0.427399 -0.356653   2.27275 255 255 255
  4.24764 -0.244465   3.31692 255 255 255
-0.611568   1.20452   2.69987 255 255 255
 6.29683 0.192541  2.81559 255 255 255
  6.29425 -0.166571   2.96973 255 255 255
 1.12056 -3.10551  3.01046 255 255 255
 6.35947 -1.57756  3.63878 255 255 255
  3.25096 -0.197588   3.10968 255 255 255
 2.71979 -2.30981  1.96013 255 255 255
 1.08345 -2.65816  3.01457 255 255 255
  3.88721 -0.195308   3.25963 255 255 255
   6.09882 -0.0452718    2.82319 255 255 255
 6.11128 0.411319  2.73301 255 255 255
-0.347974  -3.04595   2.82249 255 255 255
 6.15917 -1.56255  3.69432 255 255 255
 3.84331 0.441712   3.2069 255 255 255
 3.00837 0.480069  3.10306 255 255 255
 2.80675 -2.38042  1.96751 255 255 255
 5.84386 0.698472  2.79898 255 255 255
 1.03124 -3.40323   2.8969 255 255 255
 3.11194 0.681101  3.13197 255 255 255
 5.55973 -2.46889  3.00364 255 255 255
 3.79337 -1.24811  2.14222 255 255 255
0.929095 -1.27767  3.03817 255 255 255
   1.91739 0.00548403    3.10124 255 255 255
  2.34022 -0.772596   3.09951 255 255 255
 5.87552 0.336914   2.8214 255 255 255
0.961877 0.648999  2.77415 255 255 255
 0.785565 -0.884446   3.06475 255 255 255
0.644979 -2.20314   2.9874 255 255 255
  3.5363 -1.81307  1.92608 255 255 255
3.51502 -0.1313 3.17706 255 255 255
 1.25409 -1.77868  3.03718 255 255 255
 5.96352 -2.28086  3.10065 255 255 255
 0.624269 -0.677824   2.97781 255 255 255
-0.988796  0.201588   2.31484 255 255 255
 -1.30062 0.0648525   2.23103 255 255 255
 3.03052 0.864276  3.12869 255 255 255
 4.53767 0.536165   3.3421 255 255 255
 6.16804 -2.73965  3.26384 255 255 255
 2.80997 -2.29692  2.00073 255 255 255
 3.83169 -2.28294  2.09594 255 255 255
 7.23396 -2.22436    3.778 255 255 255
 0.38228 0.180282  2.57103 255 255 255
   4.5283 -0.405232   3.40101 255 255 255
-1.78087 -2.28682  2.79084 255 255 255
  4.4247 0.132477  3.36012 255 255 255
 4.89886 -1.96687  2.81341 255 255 255
 2.16032 0.130858  3.01609 255 255 255
0.871372  -1.1365  3.02849 255 255 255
 5.29351 -2.93798  2.97958 255 255 255
   4.74752 -0.0412214    3.47118 255 255 255
6.08305 0.58493 2.82696 255 255 255
  6.18937 -0.396105   3.45803 255 255 255
  3.28817 -0.823306   3.08115 255 255 255
  1.10503 0.0634456   2.68416 255 255 255
 6.65051 -1.06535  3.72761 255 255 255
 3.43533 -1.25578  2.10745 255 255 255
 3.99393 0.423479   3.2124 255 255 255
 0.182066 -0.624521   2.28076 255 255 255
 1.06704 -0.33165   2.7077 255 255 255
 7.02178 -3.41191  3.73368 255 255 255
  2.2498 -2.08777  3.06529 255 255 255
 2.27528 -2.15934  2.98589 255 255 255
  5.9627 0.747282  2.79612 255 255 255
 3.99049 -1.70631  1.96349 255 255 255
0.439821 -2.68864  3.00923 255 255 255
 6.86677 -3.35475  3.73455 255 255 255
 6.25029 -2.76547  3.25248 255 255 255
 6.53318 -1.69814  3.70357 255 255 255
  3.1701 -1.82534  2.09119 255 255 255
-0.704147  0.356639   2.31049 255 255 255
-0.286031  -2.78822   2.86965 255 255 255
0.0977119 -0.468735   2.27404 255 255 255
  3.6131 0.311063  3.16126 255 255 255
  2.89257 -0.837309   3.07386 255 255 255
  3.89583 0.0812344   3.24285 255 255 255
  4.53354 -0.228994   3.43302 255 255 255
 4.33798 0.819467  3.34369 255 255 255
 3.01622 -1.90719  2.00949 255 255 255
  5.48896 -0.162634   3.51471 255 255 255
-0.869356  0.268539   2.31826 255 255 255
 2.82731 -1.37952  2.97565 255 255 255
-0.406621  0.945175   2.56662 255 255 255
  2.32582 -0.513406   3.10431 255 255 255
  6.13712 -0.551819   3.48396 255 255 255
0.948246 -3.43675   2.8586 255 255 255
5.15671 -1.0561 3.46161 255 255 255
0.370811 -1.24772  2.25002 255 255 255
3.44225 -2.6311 2.00875 255 255 255
-0.000996121    -0.620676      2.28571 255 255 255
 5.40164 -3.16213  3.15783 255 255 255
 3.85145 0.696613  3.20951 255 255 255
 5.40491 -2.77154  2.98049 255 255 255
 5.75851 -2.06605  3.07625 255 255 255
 0.190282 -0.930796   2.25532 255 255 255
 5.51213 0.065586  2.80937 255 255 255
 4.14044 -1.10476  2.02039 255 255 255
 2.24717 -1.68146  3.07102 255 255 255
3.22359 0.94497 3.20003 255 255 255
 2.54736 0.179422  3.16752 255 255 255
 1.06666 -1.03095  3.04251 255 255 255
 3.49025 -1.17757  2.13289 255 255 255
 4.42565 0.736215  3.29875 255 255 255
-0.407749  0.610867   2.55524 255 255 255
  3.61036 -0.984133   2.14199 255 255 255
 4.79983 -2.16951   2.8021 255 255 255
 2.43193 0.896093  2.33247 255 255 255
0.821525 -1.33459  3.13193 255 255 255
5.86009 0.36674 2.82426 255 255 255
 4.61907 0.335256  3.36751 255 255 255
-0.0648418   -2.64406    2.95974 255 255 255
0.346031 0.278523  2.57114 255 255 255
 5.27401 -0.58463  3.41155 255 255 255
  4.90824 -0.536656   3.48164 255 255 255
3.59268 -1.2314 2.12338 255 255 255
  1.45946 -0.406973    3.0549 255 255 255
-0.438429  -1.84588   2.95228 255 255 255
0.205451 -1.34778  2.22689 255 255 255
 2.15735 0.954508   2.3365 255 255 255
 5.69799 -3.26274  3.10483 255 255 255
 1.61651 0.135854  2.80031 255 255 255
   1.67276 -0.0968821    3.07414 255 255 255
  5.80245 -0.924138   3.52063 255 255 255
  1.30112 -0.549189   3.01245 255 255 255
0.392118 -2.89299  2.91793 255 255 255
  5.20759 -0.604805   3.51318 255 255 255
-0.136247 -0.186862   2.29698 255 255 255
  6.22773 -0.486346   3.15575 255 255 255
 6.86768 -1.35985  3.78412 255 255 255
 0.45266 -2.28189  2.86026 255 255 255
  3.6265 -2.69945  2.01455 255 255 255
 1.23614 -2.02396  3.01553 255 255 255
 3.30992 -2.02574  2.08246 255 255 255
  3.39991 -0.724612   3.07123 255 255 255
 6.12772 -1.08339  3.62166 255 255 255
 2.69532 -1.67656  3.00347 255 255 255
  5.92949 -0.672714   3.55743 255 255 255
 6.73237 -3.35766   3.7527 255 255 255
 4.40339 0.400106  3.36909 255 255 255
-0.667532 -0.829776   2.14855 255 255 255
 5.93563 0.582716  2.79139 255 255 255
 5.76441 0.750172  2.81208 255 255 255
 2.39152 0.977586  2.35121 255 255 255
 2.36033 -1.41114  3.07971 255 255 255
 5.33066 -3.28595   3.0926 255 255 255
0.976219 -3.15186  2.98416 255 255 255
 3.26754 -1.68668   2.1081 255 255 255
 3.12995 -2.23359  1.97441 255 255 255
 4.30565 0.432823  3.33552 255 255 255
 4.69697 0.683179  2.59948 255 255 255
  2.88531 -0.569621   3.13214 255 255 255
  2.88505 -0.567478   3.12184 255 255 255
 6.48413 -1.45613  3.66173 255 255 255
0.943377 -1.35958  3.03848 255 255 255
-0.218793  0.699089   2.53678 255 255 255
 2.51055 0.757435   2.3245 255 255 255
  6.29957 -0.551368   3.45033 255 255 255
-1.00472 -3.42833  2.87649 255 255 255
 1.28445 -3.31749  2.87839 255 255 255
 4.31783 0.574713  3.37507 255 255 255
 3.18021 -1.34583  2.12327 255 255 255
 4.68185 0.178825  3.42317 255 255 255
  1.56348 -0.340193   3.05447 255 255 255
  3.83284 -0.194304   3.20387 255 255 255
 3.82202 0.517066  3.12666 255 255 255
  4.53493 -0.127411   3.41333 255 255 255
0.0819187  -2.52327   2.96751 255 255 255
0.519379 -2.86513  3.01368 255 255 255
 6.18367 0.904902  2.75755 255 255 255
 -1.58407 -0.945597   2.24307 255 255 255
 2.58882 0.127553  3.13558 255 255 255
0.432929 -1.11362  2.31747 255 255 255
  3.13075 -0.159793   3.02435 255 255 255
 2.58385 -1.01587  3.09898 255 255 255
0.493976 -1.17923  2.27315 255 255 255
 2.33542 0.650166   2.3373 255 255 255
   6.2297 -0.649483   3.54969 255 255 255
 2.87946 0.496289   3.1612 255 255 255
 4.00883 -1.92734  2.07561 255 255 255
  2.69852 -0.862422   3.10467 255 255 255
 2.66994 -2.71263  2.00954 255 255 255
 6.28302 0.812871  2.79519 255 255 255
   4.711 -2.37337  2.78879 255 255 255
 7.17535 -1.02163  3.79857 255 255 255
2.45925 -2.3143 2.94889 255 255 255
 3.70468 -1.20072  2.16325 255 255 255
 3.69601 -1.19636   2.1231 255 255 255
 6.73395 -1.50678  3.73796 255 255 255
  3.32565 -0.883551   3.02251 255 255 255
  5.88987 -0.294714   3.54855 255 255 255
  5.14248 -0.925814   3.50323 255 255 255
  5.24463 -0.718746   3.48923 255 255 255
0.431691 -2.98724  2.94333 255 255 255
  1.41048 -0.504791   3.07726 255 255 255
 1.9355  -2.514 3.01021 255 255 255
 2.10823 0.207915  2.99671 255 255 255
 1.45487 0.258414  2.78176 255 255 255
-0.420406   1.13783   2.60735 255 255 255
  1.21012 -0.101639    2.9713 255 255 255
 0.594025 -0.987979    2.2953 255 255 255
   5.33105 -0.0606845    3.51952 255 255 255
-0.0326609  -0.170362    2.60593 255 255 255
 3.7756 0.69746 3.23688 255 255 255
 6.94587 -2.76809  3.77615 255 255 255
0.483882 -2.80643  2.92371 255 255 255
  3.68897 0.0802271   3.15716 255 255 255
 4.54821 0.639626  2.55989 255 255 255
 1.77723 -0.15976  3.08596 255 255 255
  1.05029 -0.166572   2.80442 255 255 255
  5.82106 -0.636986   3.53949 255 255 255
 3.81466 -1.10112  2.13913 255 255 255
  2.55242 -0.455284   3.12029 255 255 255
  2.55385 -0.457332   3.12234 255 255 255
 3.14917 -2.33986  1.95861 255 255 255
 6.19183 0.390256  2.76208 255 255 255
  5.77148 -0.506262   3.53714 255 255 255
 6.51507 -3.49996  3.72875 255 255 255
-1.06501 -3.19615  2.83229 255 255 255
3.35531 1.07229 3.19372 255 255 255
 5.20561 0.117037  3.52728 255 255 255
 5.04364 -3.04545  3.00888 255 255 255
  3.2596 -1.85187  2.02685 255 255 255
 3.42477 -2.43732  1.95748 255 255 255
 0.979446 -0.475652   2.67987 255 255 255
 3.55818 -1.68227  1.93992 255 255 255
 2.07237 -1.17866  3.08458 255 255 255
 5.80987 -1.03154  3.52245 255 255 255
4.43244 0.88851 3.37501 255 255 255
3.09713 0.53255 3.18049 255 255 255
  3.36204 -0.807971   3.05436 255 255 255
 4.84528 0.589328  2.54472 255 255 255
 5.71971 -1.11259  3.56091 255 255 255
 6.14355 0.889166    2.781 255 255 255
 5.34453 0.838156   2.5692 255 255 255
 6.71255 -1.03625  3.69485 255 255 255
-0.197217  0.315369   2.68254 255 255 255
  6.63403 -0.895596   3.72227 255 255 255
 6.14863 -2.25956  3.23818 255 255 255
  3.367 1.01307 3.19554 255 255 255
 5.33056 0.217795  3.51993 255 255 255
  3.12929 -0.518829   3.13871 255 255 255
 2.52073 0.272171  3.13582 255 255 255
 2.57503 -2.13505  2.96344 255 255 255
 6.10633 0.828053  2.84148 255 255 255
 3.96719 -1.13626  2.14548 255 255 255
 3.68756 -2.45003  1.97553 255 255 255
 3.67138 0.629552  3.17661 255 255 255
   6.4492 -0.928638   3.63109 255 255 255
-0.403525 -0.789508   2.23475 255 255 255
 1.42215 -3.35491  2.91467 255 255 255
-1.08357 -2.37966  2.91017 255 255 255
  5.12646 -0.155195   3.52195 255 255 255
  1.12333 -0.369183   2.67365 255 255 255
 1.91325 -1.41972  3.06934 255 255 255
  5.77076 -0.148609   3.50333 255 255 255
3.43956 0.35114 3.17481 255 255 255
  3.55267 0.0609545   3.15961 255 255 255
 1.67686 -1.14159  3.08577 255 255 255
 2.98408 -2.09594   1.9955 255 255 255
 3.51938 -2.74306  1.97419 255 255 255
 3.47428 -2.69427  2.02731 255 255 255
-1.07399 -3.03729  2.95158 255 255 255
  6.20354 -0.384965   3.02942 255 255 255
 1.61852 -2.90875  2.96034 255 255 255
  4.29688 -0.256526   3.31736 255 255 255
2.29501 -2.0622 2.98069 255 255 255
 6.06009 0.859395  2.78546 255 255 255
 4.00749 -1.05003  2.16233 255 255 255
   3.5262 -0.933953    2.1469 255 255 255
2.57018 0.74853 2.32749 255 255 255
-0.364376 -0.841109   2.22015 255 255 255
 2.54009 -2.87542  1.99052 255 255 255
0.576219 -2.88799  2.96884 255 255 255
 2.23835 0.519282  2.33281 255 255 255
  2.00818 -0.805787    3.0638 255 255 255
-0.0471736  -0.461029    2.23934 255 255 255
 4.08197 -1.21305   2.0145 255 255 255
-0.77785  1.23753  2.69985 255 255 255
  6.1906 0.439274   2.8051 255 255 255
  5.28296 -0.648219   3.50889 255 255 255
 1.83197 0.145586   2.9736 255 255 255
   3.241 0.789114  3.18358 255 255 255
  1.56509 -0.266248   3.06366 255 255 255
0.217298 -3.54332  2.91995 255 255 255
  4.90211 -0.506942   3.47515 255 255 255
-0.304025  -3.29177   2.90296 255 255 255
 4.17171 -1.39429  2.01094 255 255 255
  1.19926 -0.583173   3.04624 255 255 255
  3.65628 0.0029665   3.18994 255 255 255
 3.06883 -1.66636  1.98841 255 255 255
-0.76983 -3.12398  2.92161 255 255 255
-0.34362 -2.74165   2.9391 255 255 255
 3.12134 -1.56552   1.9988 255 255 255
-0.592853  -2.01031   2.93709 255 255 255
  5.70395 -0.312397   3.50921 255 255 255
-0.82087 0.614546  2.32481 255 255 255
 3.43811 -1.76578  1.93551 255 255 255
  4.96211 -0.477515    3.5051 255 255 255
-1.35675 0.391941  2.29918 255 255 255
 6.63678 -3.51987  3.74014 255 255 255
 1.52098 -3.12786  2.83565 255 255 255
  7.1459 -3.30537  3.76367 255 255 255
 5.08776 -2.96491  3.01413 255 255 255
0.651172 -2.75189  3.00427 255 255 255
-0.212002  -0.52577    2.2434 255 255 255
2.07123 0.14921 3.10871 255 255 255
  5.5999 -1.07127  3.50648 255 255 255
  5.76101 -0.646355   3.55154 255 255 255
 3.28395 -2.24074   1.9447 255 255 255
 2.34745 -1.15773  3.09525 255 255 255
  1.89639 -0.299417   3.07812 255 255 255
 2.41865 -1.92285  2.99205 255 255 255
 2.62113 -2.19317  2.96986 255 255 255
 4.35762 0.654769  3.36088 255 255 255
  6.12508 -0.446967   3.52517 255 255 255
1.93037 0.14314 2.96636 255 255 255
 1.25075 -1.56815  3.07063 255 255 255
 3.74286 -1.18423  2.14422 255 255 255
  6.58387 -0.263266   3.06531 255 255 255
 2.51087 0.481604  2.34025 255 255 255
 0.826056 -0.234139   2.65593 255 255 255
0.967283 -2.49033  3.01627 255 255 255
-1.00359 -3.35382   2.8734 255 255 255
2.16771 1.01222 2.33212 255 255 255
  1.55063 -0.372565   3.02028 255 255 255
  4.95923 -0.418002   3.49271 255 255 255
 6.49993 -2.33718  3.31864 255 255 255
-0.0641283  -0.203987    2.56475 255 255 255
 5.79452 0.504981  2.84015 255 255 255
  3.1283 -2.05574   2.0932 255 255 255
 1.93548 0.877549  2.34332 255 255 255
 2.95648 -2.13093  1.99034 255 255 255
  1.69038 -0.483353   3.07549 255 255 255
 2.08262 0.964249  2.32728 255 255 255
 6.14492 -1.48101  3.57818 255 255 255
 0.887157 -0.381104   2.57429 255 255 255
 0.51247 -2.32489  3.00869 255 255 255
 1.09306 -3.31898   2.9161 255 255 255
  1.69104 -0.523896   3.07037 255 255 255
    5.48217 -0.00398962     3.51305 255 255 255
  3.7492 -1.79129  1.96816 255 255 255
  1.16142 -0.696861   3.04529 255 255 255
  6.06626 -0.263119    3.5357 255 255 255
3.44966 1.26693 3.19846 255 255 255
 2.46158 -1.89901  3.00614 255 255 255
  2.5698 0.553745  2.35578 255 255 255
0.202744 -1.02439   2.2159 255 255 255
-0.410958   0.10902   2.40849 255 255 255
 5.44181 0.166503  2.82285 255 255 255
  6.47906 -0.837556    3.5891 255 255 255
 2.09109 0.604733  2.33694 255 255 255
-1.57611 0.271635  2.28106 255 255 255
 3.08447 -2.54203  2.02501 255 255 255
  5.28381 -0.299062   3.52867 255 255 255
 3.35194 -1.73595  2.10768 255 255 255
-0.668737   -2.6365    2.9255 255 255 255
2.95519 0.86697 3.16877 255 255 255
  2.05254 -0.555674   3.11104 255 255 255
-0.0399876   -3.01548    2.92337 255 255 255
0.231673 -1.06812  2.20969 255 255 255
1.88183 0.13737 2.97334 255 255 255
 6.13949 0.358257  2.75683 255 255 255
  1.4672 -3.11177  2.87632 255 255 255
 3.57552 -2.76632  2.03742 255 255 255
0.185983 -1.40313  2.21909 255 255 255
0.0206577 -0.704175   2.22051 255 255 255
-0.794426  0.525839   2.26604 255 255 255
 6.19552 0.757782  2.85179 255 255 255
 6.31577 0.404281  2.79494 255 255 255
 5.83562 -1.31607  3.51094 255 255 255
 1.90867 0.924128  2.34272 255 255 255
0.428946  -2.0819  3.02023 255 255 255
 -0.30659 -0.892478   2.23429 255 255 255
 2.91253 0.318612  3.17199 255 255 255
 3.92151 -2.19358  2.08849 255 255 255
  2.3944 -2.11381  2.95359 255 255 255
 0.25713 -0.80883  2.22353 255 255 255
 2.01215 0.863648  2.32955 255 255 255
 2.58358 -2.81879  1.96977 255 255 255
 0.146148 -0.748338   2.23965 255 255 255
  5.69287 -0.863067   3.56899 255 255 255
0.550941 -1.31479  2.20501 255 255 255
 2.40704 0.724671   2.3166 255 255 255
-0.338668  0.135465   2.62495 255 255 255
-0.259618  0.179418   2.30739 255 255 255
6.14788 0.77704 2.83844 255 255 255
  5.18252 -0.987135   3.49354 255 255 255
 2.32511 0.738584   2.3243 255 255 255
0.231975  -0.8867  2.22608 255 255 255
 2.30092 0.552108  2.32374 255 255 255
 5.87605 0.640958  2.76868 255 255 255
 6.02927 0.711357  2.81545 255 255 255
 5.76243 0.566349  2.82289 255 255 255
 3.85381 -1.80481  1.91055 255 255 255
  7.2781 -2.68589  3.81107 255 255 255
 4.95964 -1.79134   2.8159 255 255 255
 5.83046 0.525027  2.83709 255 255 255
 5.33083 -1.00087  3.49207 255 255 255
 3.42204 -2.98229  2.20025 255 255 255
   -1.275 0.0605231    2.2495 255 255 255
-0.614657  -2.50502   2.92482 255 255 255
 2.92167 -1.20096  3.02093 255 255 255
 5.32399 -3.00057  2.98377 255 255 255
 2.21296 0.618298  2.33649 255 255 255
-0.498298  0.995779   2.59636 255 255 255
 3.67128 -2.59113  1.99615 255 255 255
 0.600893 -0.564172   2.94451 255 255 255
 1.51085 -1.62039  3.04741 255 255 255
 1.80189 -2.78004   2.9186 255 255 255
  3.66963 -0.997092    2.1446 255 255 255
 0.182273 -0.668794   2.22084 255 255 255
 1.72538 -2.68092   3.0022 255 255 255
0.778713 -1.55982  3.01903 255 255 255
 7.05629 -1.28938  3.72989 255 255 255
-0.592455 0.0175541   2.33978 255 255 255
 5.64139 -2.04128  3.06168 255 255 255
 2.48502 -2.16483  2.97243 255 255 255
-0.704508  -2.73326    2.9111 255 255 255
  1.91251 -0.387645   3.08119 255 255 255
 6.29911 0.251663  2.80851 255 255 255
3.55122 -1.0066  2.1331 255 255 255
-0.393545  -1.95105   2.98328 255 255 255
-0.199778  -1.07438   2.22546 255 255 255
1.44748 -2.6915  3.0209 255 255 255
 3.27177 -1.61582  2.11186 255 255 255
 -0.92716 -0.597879   2.15119 255 255 255
 0.96234 -2.79465  3.00696 255 255 255
-1.05317 -2.35805  2.93809 255 255 255
 0.432994 -0.406877   2.66287 255 255 255
 1.89365 -1.26266  3.08105 255 255 255
 1.57608 -2.94772   2.9308 255 255 255
  2.1946 0.965985  2.33084 255 255 255
1.44291 -1.9153 3.04121 255 255 255
 6.18334 0.956827   2.7801 255 255 255
-0.376457  0.131519   2.33298 255 255 255
0.182156 -1.09623  2.21393 255 255 255
    3.1085 0.00889147    2.99992 255 255 255
 2.60922 0.702643  2.37865 255 255 255
 2.17317 0.484552  2.34813 255 255 255
 2.90077 -2.60141  1.99989 255 255 255
0.059975 -2.91433  2.94009 255 255 255
-1.37339  0.32813  2.25889 255 255 255
 7.36022 -1.83482  3.86307 255 255 255
 1.63295 0.660983   2.9806 255 255 255
 3.01292 -1.09532  3.02553 255 255 255
 0.914988 -0.908692   3.02357 255 255 255
1.51845 -3.3882 2.90459 255 255 255
 1.63113 -1.22468  2.78536 255 255 255
-1.04061 -3.22124  2.89369 255 255 255
 3.05867 -1.00611  3.03019 255 255 255
-0.112481  0.705877   2.53522 255 255 255
-0.5373 1.06559 2.59831 255 255 255
 1.53781 -3.01849  2.90051 255 255 255
-0.875177  0.605113   2.27221 255 255 255
  3.9287 -1.08118  2.15485 255 255 255
  5.6254 -1.66146  3.25625 255 255 255
 6.78324 -1.55876  3.74092 255 255 255
  4.3044 -3.05574  2.73782 255 255 255
  4.0241 -1.10124  2.15119 255 255 255
  4.60467 -0.381424   3.40501 255 255 255
 4.35474 -2.87685  2.69816 255 255 255
 1.47294 -1.64004  3.04555 255 255 255
  0.38547 -0.855554   2.31432 255 255 255
 3.95887 -1.71169  1.97171 255 255 255
 0.574165 -0.509153   2.90972 255 255 255
  7.2261 -2.37006  3.79807 255 255 255
-0.327933  0.153477   2.32335 255 255 255
 4.58499 -4.34507  3.63351 255 255 255
-0.152886  -4.84808   3.09259 255 255 255
