ply
format ascii 1.0
element vertex 1225
property float x
property float y
property float z
property uchar red
property uchar green
property uchar blue
end_header
 1.57496 0.589401  3.02614 255 255 255
 -1.53383 -0.917967   2.27286 255 255 255
-0.456239  -0.70358   2.27754 255 255 255
0.958063   0.5195  3.01549 255 255 255
 1.24389 0.216373  3.04854 255 255 255
-2.31354  0.11883  2.35391 255 255 255
1.67676 0.49919 3.01777 255 255 255
  1.71882 -0.349989   3.10787 255 255 255
 -2.91293 -0.319297   2.59912 255 255 255
 -2.34833 -0.237196   2.33906 255 255 255
 4.95947 -8.04253   2.2894 255 255 255
 9.28339 -4.12493  3.39977 255 255 255
6.76591 -6.5574 3.77833 255 255 255
 3.90355 -5.31925  3.45263 255 255 255
 8.89158 -5.41046  4.25225 255 255 255
 9.11912 -7.55869  3.85858 255 255 255
 8.75924 -4.55149  4.15326 255 255 255
   7.974 -4.34319  3.92297 255 255 255
 9.27161 -6.06676  4.29191 255 255 255
4.21029 -4.5678 3.53809 255 255 255
 4.79861 -6.64248   3.4827 255 255 255
 4.41742 -8.37976  3.10494 255 255 255
0.809666 -5.75881  3.29411 255 255 255
 5.00677 -7.71074  3.50703 255 255 255
 2.64326 -8.57528  2.44283 255 255 255
 4.61988 -8.46423  3.09079 255 255 255
5.67233 -5.5794 3.69103 255 255 255
 3.36513 -8.73582  2.93504 255 255 255
 3.32012 -8.78727  3.04188 255 255 255
 9.97352 -4.78094  3.90574 255 255 255
 10.4679 -6.23577  4.18486 255 255 255
 9.20571 -4.16542  3.50959 255 255 255
 2.75267 -6.30258  3.43203 255 255 255
 9.51523 -7.23673  4.18977 255 255 255
 3.69017 -8.01976  3.15914 255 255 255
2.50327 -7.2972 3.03198 255 255 255
 9.60587 -5.19808  4.16413 255 255 255
 3.76335 -4.66477  3.56173 255 255 255
 1.57608 -7.21834  2.61888 255 255 255
9.82687  -3.266 3.99146 255 255 255
 3.66412 -7.16952  3.50108 255 255 255
 4.94379 -3.96998  3.63356 255 255 255
 8.40798 -4.19333  3.56535 255 255 255
 10.2195 -6.74788   4.0135 255 255 255
 5.13277 -8.75486  3.17813 255 255 255
 1.51275 -7.56155   3.1077 255 255 255
 4.83649 -8.03157  3.36992 255 255 255
2.75239 -6.8415 3.39907 255 255 255
5.05055 -4.3906 3.68291 255 255 255
 2.40049 -8.07389  2.59936 255 255 255
 3.72615 -4.84192  3.37953 255 255 255
 10.3356 -7.53099  4.25408 255 255 255
 9.23838 -8.15511   3.7996 255 255 255
 2.31982 -8.01301  2.71084 255 255 255
 9.33228 -4.39293  3.78613 255 255 255
 8.76654 -8.43628  3.86557 255 255 255
 7.86622 -8.18522  4.16286 255 255 255
 3.71775 -7.70704  3.02438 255 255 255
 9.73685 -7.57229   4.2348 255 255 255
 2.65172 -7.88394   2.9481 255 255 255
 6.71981 -8.55349  3.57425 255 255 255
 9.13314 -7.74257   3.4743 255 255 255
 8.42628 -7.20887  4.05606 255 255 255
 5.09193 -6.09177  3.59995 255 255 255
 9.87852 -6.09336  4.30842 255 255 255
 9.55772 -7.61272  4.12204 255 255 255
 4.72666 -8.49327  3.13908 255 255 255
 7.94242 -7.70908  3.43329 255 255 255
3.32272 -8.7307 2.85607 255 255 255
 9.98582 -6.67241  4.29077 255 255 255
 2.82204 -2.32024  2.01965 255 255 255
 2.80586 -8.06362  3.04713 255 255 255
 7.81438 -7.53126  3.78895 255 255 255
 3.05041 -5.99065  3.43666 255 255 255
 8.64384 -4.34355  4.19532 255 255 255
 1.82493 -6.97041  2.50816 255 255 255
 6.03474 -8.33444  3.49304 255 255 255
 10.4188 -2.91086  4.32022 255 255 255
 3.19387 -8.25574  3.28729 255 255 255
 2.71125 -9.01766  3.20693 255 255 255
 2.91188 -8.29871  2.10231 255 255 255
  7.4465 -3.98451  3.90335 255 255 255
 9.42816 -7.57312  4.13766 255 255 255
8.56086 -3.9721 3.52217 255 255 255
 1.31257 -7.58496  2.85737 255 255 255
 5.34702 -5.31526  3.65585 255 255 255
8.03988 -7.2958 3.43576 255 255 255
 2.64425 -6.22596  3.39835 255 255 255
 3.8747 -4.9136 2.63462 255 255 255
 4.43006 -8.04635  3.19989 255 255 255
 10.5818 -6.08035  4.45366 255 255 255
 7.72137 -8.56446  3.77277 255 255 255
 7.54136 -7.32048  4.69076 255 255 255
 2.07816 -7.03093  3.35201 255 255 255
 5.14092 -7.80554   3.5033 255 255 255
 9.77051 -8.17172  3.60318 255 255 255
8.96432 -7.4107 4.13078 255 255 255
 10.2301 -6.19998  4.31824 255 255 255
 3.00917 -3.09253  1.95972 255 255 255
 5.91687 -4.27683  3.67437 255 255 255
 3.63527 -8.53921  3.06448 255 255 255
 4.69546 -7.19747  3.53318 255 255 255
 1.50724 -7.28633   2.6215 255 255 255
1.14236  -4.926 3.28618 255 255 255
 10.5223 -6.47759  4.32962 255 255 255
 3.08424 -8.80465  3.01806 255 255 255
 10.7283 -6.61242  4.30899 255 255 255
 5.42069 -4.61858  3.68174 255 255 255
 7.42705 -3.64944  3.62089 255 255 255
 4.74302 -4.14074  3.59364 255 255 255
 10.4846 -6.18933  4.34434 255 255 255
  2.7613 -8.23224   3.1967 255 255 255
  4.4987 -4.28137  3.67324 255 255 255
 2.19236 -4.45836  3.06664 255 255 255
 4.93594 -5.10753  3.62317 255 255 255
 10.2902 -7.70204  4.22218 255 255 255
 8.40937 -3.70236  3.35079 255 255 255
 1.35249 -7.65905  3.04266 255 255 255
 1.90928 -7.94768  2.84237 255 255 255
 3.99187 -8.28459  3.46041 255 255 255
 6.00445 -4.05645  3.70405 255 255 255
 4.80741 -8.63011  3.02774 255 255 255
 2.70198 -8.15168  3.05104 255 255 255
 5.97313 -7.21701  3.63453 255 255 255
 3.44651 -7.92562    2.815 255 255 255
  4.9013 -8.70964  2.85552 255 255 255
 4.39507 -8.14204  2.94287 255 255 255
 5.65272 -6.18009  3.67988 255 255 255
 8.43187 -4.57209  3.58148 255 255 255
 8.01587 -7.52737  3.55355 255 255 255
 2.34853 -6.89684  3.25992 255 255 255
 7.30994 -5.42171  4.20553 255 255 255
 4.75989 -8.55142  3.16307 255 255 255
3.80893 -4.3387  3.0665 255 255 255
 4.67447 -5.22121  3.63497 255 255 255
 2.12841 -7.09878  3.34272 255 255 255
 10.1523 -7.61622  4.24086 255 255 255
9.27795 -4.5941  4.0827 255 255 255
 1.49015 -6.58461    3.302 255 255 255
 4.26504 -8.08233  3.41631 255 255 255
 3.17786 -7.76943  2.81185 255 255 255
 8.38735 -6.52748  4.16921 255 255 255
 3.22583 -7.60619  3.03614 255 255 255
 4.79821 -6.13317  3.62352 255 255 255
 8.09798 -5.93958  4.20812 255 255 255
 6.71941 -7.15485  3.72475 255 255 255
 4.66041 -8.59699  3.21815 255 255 255
 6.70938 -4.28612  3.66371 255 255 255
 3.98711 -7.92201  3.41397 255 255 255
 2.17574 -5.11694   3.2962 255 255 255
 9.47946 -7.88799  3.62601 255 255 255
 5.50837 -4.48366  3.64284 255 255 255
 2.65048 -8.48817   2.6281 255 255 255
 2.72902 -5.03137  3.59114 255 255 255
 1.45574 -7.52934  2.74325 255 255 255
 7.95389 -7.38247  3.71918 255 255 255
 9.28224 -6.61269  4.23443 255 255 255
 9.49282 -6.20401  4.30273 255 255 255
 3.79327 -4.38531   2.9873 255 255 255
 5.89447 -8.41148   3.5779 255 255 255
  3.3961 -7.95861  2.83125 255 255 255
 4.98693 -6.30658   3.5949 255 255 255
 2.64019 -5.02136  3.49647 255 255 255
 5.12146 -4.00681  3.68653 255 255 255
5.94863 -3.7738 3.73512 255 255 255
 7.72407 -4.55451  4.12793 255 255 255
 4.62252 -8.03618  3.26103 255 255 255
 9.67177 -7.20655  4.26833 255 255 255
 7.26362 -6.54146   4.0518 255 255 255
 4.87505 -8.20754   3.4998 255 255 255
 2.04861 -6.90266  2.60862 255 255 255
10.3663 -7.1692 4.25512 255 255 255
 9.43874 -7.29406  4.23315 255 255 255
 5.88195 -6.09013  3.70605 255 255 255
0.906781 -6.61405  3.21681 255 255 255
 6.89776 -4.35444  3.50128 255 255 255
 3.57455 -4.56758   3.0578 255 255 255
8.44134 -4.4415 4.02837 255 255 255
 1.99655 -7.85159    2.973 255 255 255
 7.08478 -4.57181   3.9089 255 255 255
5.24677 -4.1868 3.69883 255 255 255
 5.12894 -8.02911  2.81615 255 255 255
 7.99632 -4.07097  4.04499 255 255 255
 4.37354 -5.76019  3.62287 255 255 255
  6.5504 -7.05109  3.73491 255 255 255
 6.83721 -4.38988  3.58844 255 255 255
 7.36714 -4.07155  3.82666 255 255 255
 1.76398 -6.00997  3.21692 255 255 255
 7.64215 -3.41869  3.88416 255 255 255
 6.92115 -8.64516  3.63312 255 255 255
 7.50645 -4.43892  3.79336 255 255 255
 2.82222 -7.99921  3.11046 255 255 255
 4.66066 -8.56058  3.00245 255 255 255
 7.44452 -4.25167  3.88402 255 255 255
 2.58773 -8.13839   2.9492 255 255 255
 10.8129 -6.29799  4.33691 255 255 255
 5.47189 -5.60319  3.51218 255 255 255
 9.68865 -7.24838  4.23592 255 255 255
  2.6479 -8.58367  2.60028 255 255 255
 9.50516 -7.11855   4.2504 255 255 255
 1.44467 -4.74899   3.3135 255 255 255
 10.1872 -7.17113   4.4061 255 255 255
 7.72312 -3.63189  4.18241 255 255 255
 9.63866 -7.45933  4.21329 255 255 255
 4.39326 -5.59496  3.60895 255 255 255
 8.52031 -6.67351  4.15758 255 255 255
 9.38742 -5.68195  4.32216 255 255 255
 5.49651 -5.19119  3.66171 255 255 255
 3.21034 -7.61345  3.16632 255 255 255
 1.54098 -5.05245  3.30226 255 255 255
 7.35507 -4.34748  3.88202 255 255 255
 3.64525 -6.08868  3.47165 255 255 255
   4.185 -6.47696  3.53728 255 255 255
 3.73033 -7.69005  3.43516 255 255 255
 7.32569 -8.29523  3.74224 255 255 255
 5.93057 -5.96076  3.62049 255 255 255
 4.56663 -6.81196  3.56252 255 255 255
 4.16665 -4.89005  3.65129 255 255 255
 4.72015 -4.37456  3.67797 255 255 255
11.0368 -6.6265 4.36839 255 255 255
0.661413 -5.83606  3.28589 255 255 255
 8.87214 -7.12758  4.15372 255 255 255
 10.2359 -5.23972  4.26574 255 255 255
 5.14213 -7.88989  3.41151 255 255 255
 5.34608 -8.11666  3.64352 255 255 255
  5.1057 -8.45076   3.2576 255 255 255
 8.24005 -7.24555  4.13763 255 255 255
  5.4064 -8.72513  3.35265 255 255 255
 5.38343 -8.13609  3.54076 255 255 255
 1.54405 -7.92753  2.91609 255 255 255
  1.5963 -6.73991  2.44884 255 255 255
 9.92224 -4.27459  3.39826 255 255 255
 7.03051 -4.81553  4.34007 255 255 255
0.682635 -5.28184   3.3185 255 255 255
 3.57881 -5.89956  3.51317 255 255 255
  6.1871 -6.69687  3.69721 255 255 255
  5.0497 -5.09906  3.47774 255 255 255
  2.2689 -7.14777  2.76325 255 255 255
 1.88306 -6.92998  2.63775 255 255 255
 9.83229 -6.94145  4.27726 255 255 255
 5.14584 -4.50101   3.6757 255 255 255
 5.25818 -5.51441  3.50385 255 255 255
 7.85459 -3.54214  3.51841 255 255 255
 5.51744 -6.31732  3.66549 255 255 255
 7.82233 -7.10846  3.94596 255 255 255
 4.82744 -8.59634  3.06095 255 255 255
 7.39246 -7.03541  3.77018 255 255 255
 1.09117 -6.44187   3.2693 255 255 255
 7.02314 -2.78277  3.65434 255 255 255
 7.23609 -5.72163  4.11036 255 255 255
 5.01803 -2.99536  2.94703 255 255 255
 5.70787 -2.72538  3.26601 255 255 255
 3.19282 -2.75834  2.01231 255 255 255
 4.12043 -4.81338  3.57749 255 255 255
 8.91563 -2.00955  3.53821 255 255 255
 6.43567 -2.59116  3.58809 255 255 255
 4.80678 -6.63857  3.48212 255 255 255
 9.38599 -6.97854  4.32059 255 255 255
 9.59148 -2.73934  4.06476 255 255 255
 6.37906 -6.16058  3.66471 255 255 255
 4.69526 -5.66883  3.52192 255 255 255
 10.1822 -4.66819  3.72867 255 255 255
 9.93598 -2.14369  3.95369 255 255 255
8.71541 -2.3005 3.65437 255 255 255
    10.3 -6.63297   4.2913 255 255 255
 10.3143 -2.53626  4.28101 255 255 255
  7.4238 -2.61631  3.90616 255 255 255
 10.4234 -4.24414    3.773 255 255 255
 3.67155 -6.38106  3.46494 255 255 255
 9.93353 -5.51484  4.24817 255 255 255
 4.86797 -4.73109  3.64839 255 255 255
 4.13628 -5.66845  3.57835 255 255 255
 3.47518 -4.11886  2.23949 255 255 255
 10.7152 -6.83331   4.3612 255 255 255
 8.31977 -2.49629  3.64823 255 255 255
 10.5997 -2.74519   4.2419 255 255 255
 10.3589 -2.22294  3.75561 255 255 255
 10.8583 -2.65587  4.26637 255 255 255
 6.88866 -5.06957  3.93377 255 255 255
 10.6327 -4.45459  3.88655 255 255 255
 2.43103 -6.78039   3.4217 255 255 255
 10.6583 -3.53808  4.42473 255 255 255
 4.62304 -5.00011  3.65526 255 255 255
 6.23049 -5.36443  3.71994 255 255 255
 10.0183 -2.63293  4.33778 255 255 255
 5.81159 -2.23397  3.22668 255 255 255
 11.1409 -3.71175  4.34166 255 255 255
 3.06383 -4.37643  2.63169 255 255 255
 10.1467 -3.20182   4.2211 255 255 255
 7.24006 -6.25765  4.17941 255 255 255
 3.94739 -2.29568   2.2543 255 255 255
 10.1018 -3.20675  4.14498 255 255 255
 2.93189 -4.00498  1.89676 255 255 255
 10.1721 -2.67447  4.17735 255 255 255
 4.06525 -3.38151  3.05819 255 255 255
 5.56694 -2.90701  3.22544 255 255 255
 6.15333 -2.26654  3.17461 255 255 255
 10.4316 -2.40646  4.30952 255 255 255
 2.65778 -2.76968  1.96486 255 255 255
 6.82059 -1.93177  3.78851 255 255 255
11.0099 -5.2804 4.11466 255 255 255
 3.18763 -3.04633  1.98564 255 255 255
 4.97967 -2.59578  2.94749 255 255 255
 8.72712 -2.12337  3.73217 255 255 255
 2.62148 -2.40875  1.97146 255 255 255
 5.18546 -3.38303  3.16834 255 255 255
 5.18561 -3.38857  3.19425 255 255 255
  4.6108 -2.93628  2.95916 255 255 255
7.89275 -2.3039 3.79887 255 255 255
9.83959 -3.8084 3.55653 255 255 255
 5.78284 -3.47122  3.64922 255 255 255
 8.96026 -2.96225   3.4741 255 255 255
 4.24334 -3.35978  2.95087 255 255 255
 5.44396 -2.98846  3.26011 255 255 255
 5.75177 -4.80844  3.68092 255 255 255
 5.54232 -2.48797  3.00817 255 255 255
5.26066 -1.8396 3.03137 255 255 255
10.8356 -3.7465 4.26163 255 255 255
 1.50716 -6.53634  3.33571 255 255 255
 10.9267 -7.04531   4.2193 255 255 255
 7.83469 -3.80496  3.48996 255 255 255
 5.75176 -2.86634  3.01183 255 255 255
 5.73613 -2.83868  3.18716 255 255 255
5.46929  -2.811   3.062 255 255 255
 5.26942 -3.29449  3.24054 255 255 255
 4.02905 -2.98894  2.97502 255 255 255
 11.3743 -3.78967  4.39362 255 255 255
 5.56631 -2.07077  2.98374 255 255 255
 4.85597 -6.96655  3.56563 255 255 255
 6.66476 -2.37373  3.80877 255 255 255
 3.29923 -4.31708  2.92186 255 255 255
 3.17837 -3.78748  2.14144 255 255 255
 8.08431 -4.06243  3.45382 255 255 255
 11.1349 -2.95746  4.35082 255 255 255
 5.04702 -4.39571  3.70129 255 255 255
 8.96442 -2.06677  3.38379 255 255 255
 8.12704 -6.59455  4.20094 255 255 255
 3.32962 -3.99357  2.04668 255 255 255
 6.41791 -2.35357  3.32226 255 255 255
  11.299 -5.34196  3.97408 255 255 255
6.25579 -2.6853  3.3204 255 255 255
 3.39887 -5.05465  3.35212 255 255 255
 4.04279 -5.11009  3.63963 255 255 255
  9.3029 -1.62057  3.39202 255 255 255
 8.91346 -1.72933  3.72051 255 255 255
 4.17998 -2.30674  2.75145 255 255 255
  3.2312 -6.46677   3.4713 255 255 255
  7.8002 -3.29166  3.36483 255 255 255
 4.85498 -2.79127   3.0248 255 255 255
 11.1374 -5.39944  3.97827 255 255 255
 4.01972 -3.82299  3.03599 255 255 255
 3.17255 -2.59852  2.04981 255 255 255
  9.8568 -4.74986  3.73361 255 255 255
 10.1541 -3.70123  4.13542 255 255 255
 2.63135 -4.31763  1.96072 255 255 255
 5.74847 -2.74689  3.07967 255 255 255
 2.82522 -3.45457  2.02277 255 255 255
 8.42124 -1.95891  3.88996 255 255 255
11.1038 -5.0757 4.05526 255 255 255
 9.26756 -2.54868  3.60847 255 255 255
 6.69679 -4.40806   3.7811 255 255 255
 6.54777 -2.39212  3.77646 255 255 255
  6.1949 -3.08527  3.74882 255 255 255
2.89873 -6.4561 3.38571 255 255 255
 3.63792 -3.30069  2.89026 255 255 255
 10.3364 -2.24605  3.92312 255 255 255
 5.85775 -4.66357  3.68982 255 255 255
 11.0452 -3.09484  4.37473 255 255 255
 2.80901 -5.48778  3.52901 255 255 255
5.85291 -2.4863 3.29786 255 255 255
 10.8323 -2.81537  4.20364 255 255 255
 3.03387 -2.99016  1.99699 255 255 255
  3.0508 -2.99406  1.97366 255 255 255
 11.0246 -6.24082   4.3011 255 255 255
 10.4319 -5.97873  4.29004 255 255 255
 3.60791 -2.94181  2.52176 255 255 255
 3.69579 -2.75246   2.4466 255 255 255
 10.6712 -4.37138  3.97281 255 255 255
2.89345 -2.1948 1.99672 255 255 255
 2.89334 -2.19366  1.99329 255 255 255
 3.62399 -3.16192  2.95579 255 255 255
 5.62526 -5.16781  3.67425 255 255 255
 7.06439 -3.35482  3.79411 255 255 255
  2.6789 -2.30295  1.96208 255 255 255
 3.08675 -2.86629   2.0367 255 255 255
 5.76987 -5.01705  3.67763 255 255 255
 7.91328 -6.50238   4.1587 255 255 255
 4.23885 -4.15054  3.64513 255 255 255
 2.71612 -2.22216   1.9797 255 255 255
 9.09441 -2.90269  3.62619 255 255 255
 9.35175 -1.98972  3.45961 255 255 255
 2.35152 -4.82071   3.2516 255 255 255
 6.82691 -2.40522  3.87291 255 255 255
 2.56482 -5.21478  3.59307 255 255 255
 10.1849 -5.39032  4.18334 255 255 255
10.8399 -5.7303 4.10862 255 255 255
 10.3868 -2.37261  4.26414 255 255 255
 5.23506 -3.22798  3.10479 255 255 255
  2.8672 -3.29238   1.9797 255 255 255
 3.92384 -2.75803   2.6605 255 255 255
 9.57193 -4.62454  3.97655 255 255 255
  5.2385 -3.21578  3.11628 255 255 255
 5.69557 -2.38594  3.00542 255 255 255
8.05611 -4.1481 3.97565 255 255 255
 5.53465 -2.76361   3.1126 255 255 255
 7.12149 -4.09499  3.44781 255 255 255
6.84771 -4.8982  3.8946 255 255 255
  2.9136 -3.51147  1.94272 255 255 255
 8.63807 -4.39049  3.96555 255 255 255
 7.70421 -2.88487  3.81001 255 255 255
 9.92809 -6.61061  4.32321 255 255 255
 10.9621 -5.39666  4.20429 255 255 255
2.2529 -4.765 3.2351 255 255 255
 10.7771 -3.96039   4.2926 255 255 255
 8.06965 -6.75188  4.14187 255 255 255
 5.29481 -5.70584  3.53102 255 255 255
 1.98734 -4.92188  3.33133 255 255 255
  8.3829 -4.35331  4.03519 255 255 255
 7.90806 -2.48361  3.79316 255 255 255
  5.6741 -3.28994  3.25314 255 255 255
 8.86061 -4.45882  4.05912 255 255 255
 7.73205 -3.04291  3.62459 255 255 255
 6.03897 -2.42608  3.25049 255 255 255
 9.28695 -2.91106  3.88725 255 255 255
 4.48583 -3.63323  3.14101 255 255 255
 11.2788 -4.68575  4.08127 255 255 255
 9.24776 -1.90092  3.50882 255 255 255
 6.74254 -5.76631  4.02937 255 255 255
5.84323 -2.0147 3.26247 255 255 255
 5.25244 -2.07699  3.07865 255 255 255
 6.78335 -3.47066  3.76778 255 255 255
 2.81279 -3.20659  1.85868 255 255 255
 2.91383 -3.79542  2.02406 255 255 255
 2.90455 -3.79968  2.03755 255 255 255
6.69915 -4.4798 3.74181 255 255 255
 6.64134 -5.72561  3.74018 255 255 255
 3.83509 -2.04578  2.10959 255 255 255
 10.1257 -2.52159  4.17948 255 255 255
6.37049 -5.0848 3.47373 255 255 255
 4.01319 -2.08313  2.18672 255 255 255
 2.82707 -4.39317  2.38761 255 255 255
2.81392 -3.7245 1.92639 255 255 255
 11.1957 -3.09138  4.33071 255 255 255
 6.69221 -4.93275   3.7535 255 255 255
 3.34505 -5.67541  3.57105 255 255 255
 4.77158 -2.41442  2.83468 255 255 255
 3.27734 -2.20924  2.00493 255 255 255
  2.8443 -2.76334  2.00762 255 255 255
 2.00622 -5.10608  3.33484 255 255 255
 2.73672 -3.50368  1.89478 255 255 255
 10.6591 -2.57117  4.28052 255 255 255
 7.52547 -2.82042  3.83419 255 255 255
  10.661 -2.64185  4.28975 255 255 255
 10.1147 -4.81644  3.80391 255 255 255
 3.69111 -2.45875  2.04981 255 255 255
 10.1186 -5.03493  3.97763 255 255 255
7.75583 -2.9627 3.62322 255 255 255
 3.04533 -2.19521  1.99751 255 255 255
 9.25035 -2.34495  3.57227 255 255 255
 2.77663 -3.51337   1.9155 255 255 255
 2.49585 -3.74463   2.0234 255 255 255
3.51128 -2.1403 2.10226 255 255 255
3.64128 -2.8373 2.68191 255 255 255
 3.70537 -2.79456  2.82398 255 255 255
 5.24915 -3.38519  3.25816 255 255 255
 6.72036 -1.45113  3.77027 255 255 255
 2.79143 -3.79998   1.9036 255 255 255
 10.2997 -2.26343  4.12127 255 255 255
 6.10704 -2.26964  3.30958 255 255 255
 11.1689 -3.19626  4.37194 255 255 255
 3.02364 -3.09239  1.94252 255 255 255
  2.9604 -3.31955  2.03972 255 255 255
 6.51454 -4.36259   3.6737 255 255 255
 4.81859 -3.93108  3.73098 255 255 255
 6.84125 -6.75603  3.41596 255 255 255
 6.09733 -3.34813  3.77747 255 255 255
 5.87892 -4.86366  3.70121 255 255 255
 5.57001 -3.46944  3.69333 255 255 255
 2.85227 -3.65583   1.9284 255 255 255
 10.3596 -5.14383  4.13928 255 255 255
 3.59616 -3.56982  2.26515 255 255 255
2.61972 -4.3746 1.95877 255 255 255
 2.65281 -5.01817  3.56462 255 255 255
 8.30238 -4.21788  4.01231 255 255 255
 2.88796 -3.77144  1.92803 255 255 255
 10.9977 -2.51317  3.80853 255 255 255
 4.10276 -2.82916  2.75859 255 255 255
 2.43662 -3.71928  1.97721 255 255 255
 8.06667 -2.09513  3.93165 255 255 255
  7.1041 -2.59988   3.8505 255 255 255
  2.8072 -4.38656  2.67282 255 255 255
 2.84561 -3.31636   1.8814 255 255 255
 4.03148 -4.31193  3.15991 255 255 255
 2.55657 -2.57293  2.04991 255 255 255
 6.69987 -2.24266   3.8026 255 255 255
 2.79608 -3.12135  1.89028 255 255 255
  5.3289 -3.69777  3.72371 255 255 255
 5.69695 -3.00481  3.09443 255 255 255
 2.81793 -4.53065   2.9277 255 255 255
   7.491 -7.01425  3.91383 255 255 255
 3.65912 -2.75934  2.29949 255 255 255
 8.42237 -4.43894  3.96593 255 255 255
 8.80771 -1.97102   4.2018 255 255 255
 2.41727 -2.79684  2.05908 255 255 255
  3.6942 -3.89218  1.79782 255 255 255
 5.16285 -4.44996  3.69231 255 255 255
 6.86648 -1.52886  3.76194 255 255 255
3.12311 -2.3684  1.9305 255 255 255
 8.29873 -1.74521  3.84881 255 255 255
 4.64594 -2.77597  3.02879 255 255 255
 8.98648 -3.05517  3.52837 255 255 255
 9.44632 -6.67354  4.20828 255 255 255
 11.1503 -2.96821  4.31032 255 255 255
4.13039 -3.7556 3.21204 255 255 255
 6.77677 -6.30898   3.9777 255 255 255
  8.4256 -2.95432  3.42656 255 255 255
 2.67808 -6.36271  3.32703 255 255 255
 5.01186 -4.20197  3.69889 255 255 255
 4.89762 -5.27483  3.63258 255 255 255
 11.0318 -3.84868  4.38482 255 255 255
 7.09716 -3.82224  3.54049 255 255 255
 3.51173 -6.13836  3.41316 255 255 255
 3.22049 -3.01474  1.92879 255 255 255
 4.64338 -3.17262  2.79146 255 255 255
  2.5249 -3.22096  1.98749 255 255 255
 2.80666 -4.37013   2.0904 255 255 255
 2.61446 -4.94831  3.67821 255 255 255
 10.7441 -6.61386   4.3283 255 255 255
 2.44365 -3.81431  1.98971 255 255 255
5.28952 -1.7719 3.07281 255 255 255
 2.39043 -2.84995  2.05857 255 255 255
 4.97388 -3.35663  3.00402 255 255 255
3.58159 -4.0046 2.02995 255 255 255
 2.82598 -6.10148  3.45719 255 255 255
 2.86878 -4.31457  2.39099 255 255 255
 6.74331 -1.91882  3.82879 255 255 255
7.60054 -2.6765 3.83182 255 255 255
2.84655 -3.7551 1.93026 255 255 255
 2.47164 -2.70805  2.05897 255 255 255
 3.69297 -4.79642  3.11127 255 255 255
 11.0648 -5.05813  4.08073 255 255 255
 3.65383 -2.87147  2.34719 255 255 255
  8.7737 -2.89835  3.46074 255 255 255
 1.51302 -6.16455  3.35993 255 255 255
 2.81555 -4.37072  2.16902 255 255 255
  6.3649 -2.54466  3.32367 255 255 255
 2.85183 -3.69435  1.97214 255 255 255
 10.1795 -2.20179   4.0755 255 255 255
 5.34627 -3.63805  3.70291 255 255 255
 7.39138 -6.93576  3.92682 255 255 255
 2.80433 -3.43595  1.92632 255 255 255
  6.3765 -5.21991  3.58885 255 255 255
 2.62538 -4.87207  3.28671 255 255 255
 7.30058 -4.08661  3.70012 255 255 255
 2.82378 -4.40379  2.12568 255 255 255
 6.04869 -6.72013  3.65889 255 255 255
 5.04249 -3.43255  3.00215 255 255 255
 3.37223 -2.10588   1.9531 255 255 255
 7.23332 -5.68291  4.17168 255 255 255
 4.32004 -3.53206  2.71623 255 255 255
 3.40899 -6.92922  3.49892 255 255 255
  6.8692 -2.20674  3.85957 255 255 255
 10.0263 -2.54599  4.15103 255 255 255
 7.04968 -4.01827  3.50248 255 255 255
 4.89532 -2.83028   3.0383 255 255 255
 3.64745 -2.89567  2.57685 255 255 255
 6.73144 -3.32551  3.74946 255 255 255
 4.23053 -3.57872  2.91872 255 255 255
 5.08672 -2.96367  3.03713 255 255 255
 4.39613 -1.94436  2.76302 255 255 255
 3.15794 -2.80114  2.02363 255 255 255
 11.0487 -5.63347  4.29984 255 255 255
 3.28965 -2.88047  1.93094 255 255 255
 8.90451 -1.79401  4.21835 255 255 255
  11.258 -3.14296  4.32946 255 255 255
7.87664 -3.9571 3.48396 255 255 255
  3.9051 -6.41773  3.55563 255 255 255
 10.9635 -3.20925  4.33171 255 255 255
 10.8992 -6.87535  4.20719 255 255 255
  8.6726 -5.41884  4.14118 255 255 255
 11.5792 -3.82868  4.39578 255 255 255
3.68088 -4.9068 3.60395 255 255 255
 2.92587 -2.93154  1.91932 255 255 255
  4.4531 -1.83065  2.71317 255 255 255
 3.10998 -3.00704  2.01825 255 255 255
 6.73202 -6.56151  3.78895 255 255 255
 10.3037 -3.23278  4.32513 255 255 255
 4.83331 -1.95436  2.84456 255 255 255
5.22228 -1.8995 3.09688 255 255 255
 2.60298 -4.84893  3.54469 255 255 255
 4.43824 -3.60214   2.7246 255 255 255
 7.04285 -2.73304  3.82415 255 255 255
 8.01277 -2.89166  3.67375 255 255 255
 10.1034 -2.15748  4.09059 255 255 255
 3.05963 -2.91971  2.04105 255 255 255
  3.3721 -5.00937  3.17166 255 255 255
 6.46318 -6.49494  3.53751 255 255 255
 3.68275 -2.74546  2.58394 255 255 255
 11.0146 -4.92078  4.14552 255 255 255
 10.0171 -2.16005  4.19862 255 255 255
 7.69385 -2.02339   3.8854 255 255 255
 11.4369 -3.71673  4.38761 255 255 255
  2.0983 -4.55548  2.47329 255 255 255
 3.18979 -3.55538  1.92524 255 255 255
 9.97034 -2.06861  3.73664 255 255 255
 6.65187 -6.25845  3.78536 255 255 255
  5.5629 -2.81741    3.271 255 255 255
 6.16215 -2.16165  3.30689 255 255 255
 11.0425 -5.19714  3.98266 255 255 255
 3.61845 -3.77897     2.97 255 255 255
 10.9847 -2.57638  3.78314 255 255 255
 9.15557 -6.29669  4.28118 255 255 255
7.29811 -4.3181 3.84686 255 255 255
 3.29235 -3.12519  1.92824 255 255 255
 10.8618 -5.60103  4.12814 255 255 255
 6.81084 -2.84673  3.82306 255 255 255
 7.29406 -3.83823  3.61483 255 255 255
4.70106 -2.8591 2.83781 255 255 255
 4.38558 -3.65794  2.92998 255 255 255
 2.86932 -2.82877  1.89986 255 255 255
 11.1185 -3.92096  4.32598 255 255 255
  3.6998 -2.70209  2.28731 255 255 255
 8.20362 -4.03608  3.48717 255 255 255
 2.86978 -2.84597  1.98509 255 255 255
 5.38958 -1.78576  3.07318 255 255 255
 5.39098 -1.78981  3.06126 255 255 255
 5.81153 -5.94995  3.65469 255 255 255
 6.59937 -2.14474  3.51882 255 255 255
 5.00796 -3.41858  2.96808 255 255 255
 8.06106 -4.07739  3.84711 255 255 255
 2.94571 -2.87782  1.94111 255 255 255
 2.83494 -4.33491  2.55962 255 255 255
 4.78881 -3.90449  3.26882 255 255 255
 7.27097 -6.54534  4.07589 255 255 255
 9.59497 -1.55376  3.49696 255 255 255
 7.08932 -2.05444  3.85374 255 255 255
 2.90049 -3.99583  2.02294 255 255 255
 9.74394 -4.93852  4.16111 255 255 255
 2.49813 -2.81894  2.04177 255 255 255
 2.74825 -2.52101   2.0668 255 255 255
 3.02554 -3.96225  2.08521 255 255 255
 2.74185 -3.91056  1.96248 255 255 255
  4.4787 -3.08773   2.9961 255 255 255
 8.94876 -4.55769  4.12511 255 255 255
 7.01416 -4.10522  3.45611 255 255 255
 6.74243 -2.15564  3.79899 255 255 255
 3.13733 -3.86929  2.00974 255 255 255
 3.12458 -3.86435  2.03722 255 255 255
  10.821 -3.46787  4.33589 255 255 255
 5.72227 -5.44048   3.6763 255 255 255
 3.61953 -2.71466  1.98471 255 255 255
 11.0813 -6.52565   4.3547 255 255 255
 2.81166 -2.17206  1.98218 255 255 255
 5.56019 -4.35895  3.67583 255 255 255
 8.88275 -1.82689  3.51026 255 255 255
 7.85383 -6.33511  4.17239 255 255 255
 3.87067 -2.37367  2.08011 255 255 255
 5.75372 -4.85847  3.61338 255 255 255
 2.87105 -4.01261  2.00392 255 255 255
 4.46894 -2.99036  3.07153 255 255 255
 6.34239 -4.50059  3.70062 255 255 255
 6.34077 -4.50399  3.71914 255 255 255
 6.30165 -3.18854  3.77393 255 255 255
 4.43334 -2.15189  2.81642 255 255 255
 8.25349 -3.38311  3.44503 255 255 255
 3.74994 -5.55251  3.62391 255 255 255
   5.281 -3.22505    3.231 255 255 255
 3.50093 -5.15101   3.6146 255 255 255
 3.32295 -2.29478  2.00261 255 255 255
 8.62605 -1.48872  3.64061 255 255 255
 3.66304 -2.79921  2.04183 255 255 255
 7.21059 -3.08806  3.82363 255 255 255
 6.21137 -2.15348  3.26626 255 255 255
 3.67624 -2.02519  2.02386 255 255 255
 6.65351 -4.58023  3.76639 255 255 255
 5.87144 -6.26187  3.70323 255 255 255
  3.7911 -2.21658  2.12386 255 255 255
10.5067 -2.7233  4.3148 255 255 255
8.10713 -4.2704 3.95991 255 255 255
 3.15555 -4.10442  2.01892 255 255 255
 2.91507 -4.21789  1.98372 255 255 255
 2.36451 -4.96979  3.52768 255 255 255
 8.02733 -2.23375  3.81024 255 255 255
 9.36577 -4.67709  4.17164 255 255 255
 2.55448 -4.92255  3.63617 255 255 255
 3.79604 -4.92723  3.62718 255 255 255
 3.72153 -2.66545  2.06477 255 255 255
 8.61525 -2.65385  3.42953 255 255 255
 8.06301 -3.60153  3.49301 255 255 255
 7.33914 -1.67798   3.8891 255 255 255
  8.4123 -3.32258  3.46304 255 255 255
 10.9473 -5.38793  4.29279 255 255 255
 11.2777 -3.75179  4.37748 255 255 255
 2.82891 -3.98203  1.82352 255 255 255
 4.44437 -6.58469  3.61854 255 255 255
2.69597 -5.0591 3.63772 255 255 255
 10.5491 -2.92629  4.28658 255 255 255
 6.16094 -6.77373  3.68803 255 255 255
 10.8218 -6.86226  4.30996 255 255 255
 3.61681 -2.12881  2.11322 255 255 255
  3.5402 -2.26309  2.10775 255 255 255
 5.14169 -2.88829  3.04699 255 255 255
 7.26935 -2.68629  3.82254 255 255 255
 4.81431 -2.51126  3.07019 255 255 255
 5.85652 -3.30308  3.28161 255 255 255
 4.54351 -3.44635  2.97646 255 255 255
 5.53399 -2.10635  2.93991 255 255 255
9.52682 -1.8265 3.51949 255 255 255
 3.09889 -2.43623  2.06166 255 255 255
 2.36586 -3.84743  1.98855 255 255 255
 4.08294 -3.34181  3.00119 255 255 255
10.5435 -2.5757 4.27634 255 255 255
 6.17051 -2.24386  3.29695 255 255 255
 4.83478 -3.34505  3.02316 255 255 255
 2.16622 -5.42353  3.40282 255 255 255
 2.18324 -5.41142  3.38372 255 255 255
 9.97223 -2.48604  4.26533 255 255 255
 11.1615 -6.46058  4.35712 255 255 255
 8.36001 -3.18854  3.46994 255 255 255
 7.76316 -1.49882  3.94379 255 255 255
 10.2996 -6.63164  4.28404 255 255 255
 10.6389 -3.51552  4.30525 255 255 255
 10.1978 -4.80223  3.62966 255 255 255
 3.09154 -2.79495  2.06121 255 255 255
 4.98858 -3.74093  3.25725 255 255 255
 4.61773 -2.77949  2.91432 255 255 255
 2.63719 -2.41463  2.05184 255 255 255
  10.993 -5.67938   4.2482 255 255 255
 9.40453 -2.00063  3.54681 255 255 255
 4.14164 -2.37157  2.76022 255 255 255
 7.97595 -6.32051  4.18881 255 255 255
 6.62237 -4.11034  3.75349 255 255 255
 4.44495 -3.60477  3.13383 255 255 255
 2.99342 -2.76952  2.07384 255 255 255
 8.66046 -4.42556  4.02987 255 255 255
 8.48641 -2.47968  3.57245 255 255 255
 2.81485 -3.41856  2.00389 255 255 255
 4.65598 -3.25095  3.00553 255 255 255
 5.28323 -3.16305   3.0548 255 255 255
 2.54275 -4.63381  3.16245 255 255 255
 5.55042 -2.22412  3.07336 255 255 255
 8.91544 -6.48572  4.18282 255 255 255
 5.20064 -4.50521  3.67123 255 255 255
  6.7989 -4.59032   3.5201 255 255 255
  1.2567 -4.77979  3.31866 255 255 255
 3.05489 -4.00241  1.95179 255 255 255
 3.92689 -2.84233  2.69429 255 255 255
 1.72344 -6.12369  3.29132 255 255 255
 3.89011 -4.10957  2.97726 255 255 255
   2.849 -4.24804  1.85598 255 255 255
 3.48331 -3.03422  1.91964 255 255 255
 8.91762 -4.60507  4.03595 255 255 255
 7.02476 -1.46899   3.8429 255 255 255
 5.44127 -2.25041  3.03143 255 255 255
 3.90797 -6.20872  3.57095 255 255 255
 2.72998 -5.64385  3.43757 255 255 255
   3.485 -5.77809  3.53006 255 255 255
 9.57345 -1.71799  3.49539 255 255 255
 9.29393 -5.43077  4.35573 255 255 255
 8.0622 -5.9037 4.21508 255 255 255
5.82489 -2.0923 3.30997 255 255 255
 8.94899 -3.18012  3.56976 255 255 255
 6.62707 -4.06301  3.76893 255 255 255
 8.64777 -3.21653  3.41206 255 255 255
 8.88278 -4.29521  4.11364 255 255 255
 11.1094 -3.41394  4.36705 255 255 255
7.30247 -1.9364 3.88786 255 255 255
 2.21164 -4.57243  2.41081 255 255 255
 8.80455 -1.90839  4.02885 255 255 255
 7.52875 -2.47686  3.86324 255 255 255
 10.3377 -2.27519  3.71947 255 255 255
 3.76256 -2.96246  2.95708 255 255 255
 10.9863 -3.28264  4.35502 255 255 255
  9.9305 -2.03745  3.76317 255 255 255
  8.8781 -1.61427  3.57506 255 255 255
 11.4602 -3.38326  4.41399 255 255 255
  8.9787 -2.59412  3.58293 255 255 255
7.65021 -1.9959 3.89714 255 255 255
 6.85427 -3.42729  3.78669 255 255 255
10.5107 -5.3178 4.22436 255 255 255
 2.58337 -4.96814  3.52772 255 255 255
2.70627 -5.0561 3.53443 255 255 255
 11.0611 -6.42303  4.35248 255 255 255
 10.9513 -5.25968  4.02735 255 255 255
 2.76909 -2.10313  2.03342 255 255 255
 2.34746 -5.86631  3.42283 255 255 255
 2.98707 -3.00925  1.92332 255 255 255
 2.46108 -3.65213  1.99206 255 255 255
 3.65351 -2.05857   2.0814 255 255 255
 7.24683 -1.96974  3.85888 255 255 255
 3.59931 -3.15908  2.74979 255 255 255
 8.55234 -3.27652  3.47953 255 255 255
 10.2883 -5.22928  4.21723 255 255 255
 3.42005 -5.76415  3.55584 255 255 255
 6.00104 -6.14652  3.71285 255 255 255
 8.65803 -1.41888  3.72514 255 255 255
  8.9941 -5.06293  4.24951 255 255 255
 5.26528 -5.37053  3.56981 255 255 255
 1.96421 -5.65445  3.38097 255 255 255
 9.98817 -4.74753  3.68396 255 255 255
  3.9504 -4.18964  3.17239 255 255 255
 10.3992 -3.52989  4.20731 255 255 255
 5.62039 -4.77613    3.682 255 255 255
 3.90234 -5.72576  3.59974 255 255 255
 4.15119 -5.99718  3.58188 255 255 255
 5.32996 -5.35865  3.60688 255 255 255
 3.11268 -2.17519  2.03285 255 255 255
 7.68317 -6.92278  3.99062 255 255 255
 2.96299 -5.85925  3.45694 255 255 255
4.49405  -2.653 2.80609 255 255 255
 2.86359 -5.74601  3.38234 255 255 255
 3.01004 -2.98031  1.91303 255 255 255
 5.68954 -4.76238   3.6944 255 255 255
 9.31357 -2.54418  3.54694 255 255 255
 11.1835 -3.33029  4.36711 255 255 255
 10.1456 -2.86466  4.20865 255 255 255
 5.40723 -2.80327  3.04659 255 255 255
 5.80248 -3.33453  3.23312 255 255 255
  8.5339 -3.23066  3.33204 255 255 255
  10.279 -2.20443  3.80017 255 255 255
 7.12774 -2.95908  3.80676 255 255 255
 5.90813 -4.14984  3.71553 255 255 255
 7.29944 -3.53791  3.78252 255 255 255
 9.92539 -2.83037  4.26411 255 255 255
 6.20519 -5.61846  3.72727 255 255 255
 4.57969 -5.66398  3.60765 255 255 255
3.23252 -5.6641 3.56104 255 255 255
  10.098 -3.39114  4.33406 255 255 255
  3.6954 -3.13865  2.98221 255 255 255
 5.65126 -2.13031  3.06698 255 255 255
8.27517   -1.94 3.92338 255 255 255
 5.18033 -4.06891  3.71017 255 255 255
 3.03642 -2.39716  1.99789 255 255 255
 5.70624 -4.85118  3.61964 255 255 255
 10.4502 -2.66587  4.25232 255 255 255
 8.43938 -2.58812  3.52682 255 255 255
 2.85538 -3.46407  2.04332 255 255 255
 4.04689 -3.42762  3.00726 255 255 255
3.60548 -4.8578 3.11776 255 255 255
 10.2117 -5.23182  4.23573 255 255 255
 5.51059 -2.24627  3.05912 255 255 255
 7.64345 -4.18436  3.96059 255 255 255
  1.8121 -6.57215  3.44153 255 255 255
 6.64444 -2.61856  3.81865 255 255 255
 4.03547 -3.05978   3.0262 255 255 255
 8.47428 -3.87053  3.64064 255 255 255
 2.32349 -7.37704  2.77235 255 255 255
 5.00677 -7.71074  3.50703 255 255 255
 2.24264 -7.01244  3.34911 255 255 255
 3.07167 -7.72718  3.02478 255 255 255
 3.56856 -4.67251  3.10925 255 255 255
 3.51944 -8.35012  3.32364 255 255 255
 2.69671 -7.35579  3.18121 255 255 255
 5.56411 -7.85295  3.58312 255 255 255
 7.94052 -6.17118  4.16807 255 255 255
  2.8405 -7.40633  2.68634 255 255 255
 8.97937 -6.37425   4.1779 255 255 255
 6.11817 -8.30364  3.69832 255 255 255
 9.34101 -5.57492  4.31862 255 255 255
 4.71862 -8.36034  3.08588 255 255 255
 6.63431 -6.49017   3.8757 255 255 255
 6.60635 -6.46939  3.65588 255 255 255
 1.53219 -7.70409  2.95572 255 255 255
 4.48887 -8.11626  2.95021 255 255 255
 5.86092 -8.25965  3.41307 255 255 255
 9.12864 -5.67673  4.30726 255 255 255
 7.92943 -8.11821  3.79291 255 255 255
 5.23407 -4.44286  3.70086 255 255 255
 6.28141 -5.12005  3.72191 255 255 255
 1.67431 -7.44661  2.65392 255 255 255
 8.53424 -8.33819  3.80845 255 255 255
 5.82949 -8.65192  3.50817 255 255 255
 3.12542 -8.10617  3.03853 255 255 255
 4.52839 -8.07383  3.20674 255 255 255
 5.16237 -8.32654  3.39455 255 255 255
 3.03533 -7.47285  2.63647 255 255 255
 3.17611 -8.16875  3.18739 255 255 255
 6.60873 -5.74131  3.53975 255 255 255
 9.85488 -4.75607  3.74558 255 255 255
 4.45113 -7.22646  3.51032 255 255 255
 4.90313 -8.14432  3.40633 255 255 255
 2.93516 -7.43691  2.77068 255 255 255
 3.03018 -8.47784  3.32057 255 255 255
 9.87207 -4.95111  4.23863 255 255 255
 1.68259 -8.02678  2.60263 255 255 255
 2.35313 -4.77023  3.43336 255 255 255
 5.88864 -8.54001  3.42017 255 255 255
 2.41265 -8.08704  2.86279 255 255 255
  3.4459 -7.49498  3.39039 255 255 255
  9.8131 -7.33922  4.23197 255 255 255
 7.3338 -4.6314 4.20358 255 255 255
  10.901 -6.52768   4.4324 255 255 255
 1.84755 -6.87272  2.74539 255 255 255
 1.57338 -6.83467  2.46396 255 255 255
 9.84972 -6.83288  4.36091 255 255 255
 5.04986 -6.32902  3.61552 255 255 255
 7.12777 -7.14629  3.47827 255 255 255
 2.98552 -8.66033  3.26063 255 255 255
 4.25646 -8.74508  2.95331 255 255 255
  8.2671 -4.30693   4.0503 255 255 255
 6.77097 -6.32164  3.90406 255 255 255
 7.27894 -7.02519  3.82872 255 255 255
 11.0013 -6.39003  4.43125 255 255 255
 4.28626 -8.71847  3.24097 255 255 255
 2.85724 -7.46937   2.5363 255 255 255
 8.80139 -3.57047   3.4596 255 255 255
 2.10926 -6.97645  2.72797 255 255 255
 10.2145 -3.06259  4.28458 255 255 255
   1.597 -7.93676  2.77152 255 255 255
 1.40192 -6.69098  2.70786 255 255 255
 8.85244 -8.09703  3.64318 255 255 255
 9.11562 -4.19987  3.53911 255 255 255
 4.12687 -8.56732   3.2501 255 255 255
  7.1063 -6.54062  4.05172 255 255 255
 7.14009 -6.88712   3.9062 255 255 255
 10.3879 -7.67616  4.29281 255 255 255
 11.1988 -7.48855  4.36988 255 255 255
 7.49296 -6.88084  3.92701 255 255 255
 7.49794 -6.88516  3.94758 255 255 255
 5.25112 -4.30615   3.6949 255 255 255
 5.41783 -7.81681  3.60696 255 255 255
 2.47894 -7.19774  2.72837 255 255 255
 2.50049 -4.80602  3.47003 255 255 255
 10.5974 -6.65324  4.34067 255 255 255
 1.78065 -6.91581  2.82286 255 255 255
0.890309 -4.56032  3.35507 255 255 255
 4.35594 -5.85891  3.61716 255 255 255
 7.27136 -4.15478  3.63429 255 255 255
 6.70897 -6.76105  3.36686 255 255 255
 8.19418 -3.50056  3.50255 255 255 255
 8.26818 -4.64967  4.11532 255 255 255
 3.76623 -7.95478  3.16953 255 255 255
 1.58071 -8.08029  2.57002 255 255 255
 2.47331 -7.34248  3.36825 255 255 255
 1.46929 -7.78215  2.75024 255 255 255
 9.75402 -7.35994  4.18802 255 255 255
0.661162 -4.65016  3.35413 255 255 255
 4.72429 -8.34821  2.78362 255 255 255
 1.84712 -5.93747  3.37168 255 255 255
 7.71613 -4.70128  4.23565 255 255 255
 7.65942 -7.98896  3.80141 255 255 255
 6.60873 -4.98879  3.70466 255 255 255
 9.94172 -6.90893  4.22736 255 255 255
 1.65916 -7.91164  2.76431 255 255 255
5.51881 -4.8298 3.67288 255 255 255
 5.65606 -4.03479  3.72977 255 255 255
  5.3305 -7.30343  3.58473 255 255 255
 9.67517 -6.26892  4.31915 255 255 255
 6.73457 -3.98092  3.74405 255 255 255
 2.72277 -8.28867  2.75081 255 255 255
0.800818 -6.17959  3.28852 255 255 255
 4.17153 -4.94471  3.63726 255 255 255
 6.62891 -4.31722  3.61785 255 255 255
 5.44309 -5.49952   3.6003 255 255 255
  4.9601 -4.59182  3.67109 255 255 255
7.76464 -7.4869 3.81427 255 255 255
 10.4559 -5.67896  4.25939 255 255 255
-0.00457289    -4.46257     3.18688 255 255 255
-0.839586  -5.82486   3.23528 255 255 255
-0.586517   -4.8426   3.13084 255 255 255
 1.66135 -4.38758  2.57109 255 255 255
-1.45258 -6.49682  3.13894 255 255 255
1.49562 -4.2574 2.59598 255 255 255
 -1.0982 -6.27632   3.0559 255 255 255
0.583527 -2.38089  2.98829 255 255 255
0.614912 -2.47372  2.95529 255 255 255
 0.52459 -2.31884  2.89425 255 255 255
-1.88075 -3.72447  2.90366 255 255 255
 1.32776 -3.50422  2.88398 255 255 255
-0.937529  -3.35978   2.92471 255 255 255
 3.08988 -5.80746  3.43704 255 255 255
 1.41762 -4.11293  2.63803 255 255 255
-0.546328  -5.71908   3.19195 255 255 255
-1.98517 -4.24022    2.799 255 255 255
 2.44751 -5.02573  3.52725 255 255 255
 -1.8387 -3.80471  2.90283 255 255 255
-1.70356 -6.58703  3.09862 255 255 255
-2.09232 -5.44182  3.09792 255 255 255
 0.25663 -3.08214  2.99546 255 255 255
-1.89932 -4.78921  3.12523 255 255 255
-0.601244  -5.64981   3.17271 255 255 255
  1.3956 -2.21338  2.98979 255 255 255
  2.70812 -0.864633   3.14122 255 255 255
-0.252752  -5.74314   3.21907 255 255 255
-2.17204 -3.77399  2.86635 255 255 255
0.621203 -3.54562  2.97657 255 255 255
-1.14122 -2.21182  2.88132 255 255 255
 2.07753 -1.18049  3.12275 255 255 255
 0.36158 -4.68155  3.33461 255 255 255
 1.46665 -6.14624  3.34491 255 255 255
 0.51633 -6.17981  3.29718 255 255 255
-2.18973 -3.81634   2.8171 255 255 255
-1.04886 -5.54295  3.06032 255 255 255
-1.98826 -5.43485  3.09815 255 255 255
 -1.2708 -4.66715  3.09995 255 255 255
-1.43829 -5.43051  3.13965 255 255 255
 0.76736 -2.03707  3.02666 255 255 255
-0.199343  -1.25997   3.01969 255 255 255
 1.95747 -5.48523  3.32815 255 255 255
-0.114938  -3.75451   2.80568 255 255 255
-1.36785 -2.56572  2.91682 255 255 255
-0.264199  -1.23682     2.745 255 255 255
-1.29058 -4.77985  3.12072 255 255 255
 1.83176 -2.79384  2.92333 255 255 255
0.775693 -2.69228  3.01247 255 255 255
-0.260134  -3.43204   2.96679 255 255 255
-0.0401177   -4.92969    3.17934 255 255 255
 1.58423 -5.15735  3.34215 255 255 255
-0.995605  -3.30961   2.89261 255 255 255
 2.91993 -5.97529  3.45511 255 255 255
0.681722 -2.14874  3.03025 255 255 255
-1.73596 -5.42447  3.12432 255 255 255
   2.60034 -0.0262161    3.28727 255 255 255
  1.40378 -0.803313   3.05949 255 255 255
 1.14771 0.631155  3.11852 255 255 255
-1.85211  1.01533  2.67471 255 255 255
 2.28808 0.366856  2.53122 255 255 255
 2.17808 0.605768  2.34591 255 255 255
-2.40242 -1.30122  2.62372 255 255 255
-2.34727 0.831446  2.57882 255 255 255
 -0.484033 -0.0456222     2.2852 255 255 255
-0.521883  0.791551   2.51303 255 255 255
-2.12025 0.729045  2.72097 255 255 255
-0.611605  0.941476   2.65793 255 255 255
0.649235 -1.08166  2.31785 255 255 255
   1.80072 -0.0842215    3.10791 255 255 255
0.353948  1.22381  2.41477 255 255 255
 2.66881 0.123536  3.29163 255 255 255
 0.488987 -0.122604    2.7211 255 255 255
  1.23944 -0.119623   2.90215 255 255 255
-2.20259  0.95731   2.6694 255 255 255
-0.203071    1.3962   2.64732 255 255 255
-2.24213  1.00999   2.2119 255 255 255
-0.542388  -0.28193   2.07139 255 255 255
-2.03162  -0.8862  2.51821 255 255 255
 3.14244 -1.03743  3.00309 255 255 255
0.919425  1.33985  2.46983 255 255 255
1.07202 1.33392 2.54976 255 255 255
-0.742548  -1.01976   2.14354 255 255 255
-2.49208 -1.50116  2.68713 255 255 255
-0.31876  1.08767  2.62963 255 255 255
0.223156   1.0108  2.66155 255 255 255
 -1.58972 -0.740698   2.23489 255 255 255
 1.57874 -1.71915  3.07243 255 255 255
  1.79869 -0.259895   3.10251 255 255 255
 1.24978 0.352852  2.75303 255 255 255
 -1.59197 -0.633749   2.29375 255 255 255
-0.542529   1.31748   2.70732 255 255 255
 -1.92964 -0.275525   2.27173 255 255 255
1.36131 1.49527 2.92689 255 255 255
 0.658636 -0.113045   2.79876 255 255 255
-1.18543 -1.38393  2.33933 255 255 255
 -1.54073 -0.591844   2.50296 255 255 255
0.124087 0.359693  2.63166 255 255 255
-0.832579 -0.767134   2.37666 255 255 255
-2.37389 -1.21732  2.65664 255 255 255
 -1.23733 -0.783764    2.1087 255 255 255
0.630763  1.39603  2.69575 255 255 255
-0.514826   1.50363   2.59158 255 255 255
 1.02141 0.653565  2.85002 255 255 255
  1.45359 -0.210611   2.91104 255 255 255
-1.92973 0.827164  2.70137 255 255 255
-0.221245  0.941548   2.55109 255 255 255
 -1.41957 -0.818566   2.15443 255 255 255
0.195901 0.752891  2.75098 255 255 255
  2.05482 -0.782337   3.08736 255 255 255
 2.68132 -1.18853  3.06994 255 255 255
 -1.22141 -0.943733   2.25479 255 255 255
 2.7796 -1.4482  3.0561 255 255 255
   1.0754 -0.335997   2.69048 255 255 255
 -1.00704 -0.425494     2.276 255 255 255
-0.908198 -0.972779   2.31916 255 255 255
-1.24296  1.31675   2.7237 255 255 255
  -2.0167 -0.249417   2.22655 255 255 255
 1.2036 1.32545 2.86927 255 255 255
-1.01029  1.06204  2.50582 255 255 255
 1.29928 0.186838   3.0264 255 255 255
-1.97113 -1.40324  2.80388 255 255 255
-0.682279 -0.190176   2.08145 255 255 255
-1.08287  -0.2558  2.35057 255 255 255
-1.27651 -0.36382  2.39216 255 255 255
 -2.69375 -0.528572   2.65659 255 255 255
-1.39919 -1.41416  2.37395 255 255 255
-1.73992  0.40331  2.36833 255 255 255
 -2.59813 -0.646914   2.58794 255 255 255
-2.06255 -1.35934  2.81832 255 255 255
 2.16877 0.261084  3.05867 255 255 255
 -2.49252 -0.388901   2.40708 255 255 255
   -2.0781 -0.0287141    2.22828 255 255 255
 -1.34768 -0.859236   2.18164 255 255 255
 1.25416 0.414964  3.02145 255 255 255
-2.10134 -1.52716  2.79387 255 255 255
 0.630956 -0.319788   2.83321 255 255 255
-0.813933  -0.70465   2.48708 255 255 255
 1.07488 -0.85454  3.06927 255 255 255
-1.56347 0.526797  2.37923 255 255 255
2.54945 0.68318 2.33945 255 255 255
-1.2348 1.22389 2.50716 255 255 255
-1.09689 -1.15336  2.28911 255 255 255
-2.13722 0.663403  2.69183 255 255 255
-2.48031 -1.27784  2.65548 255 255 255
-1.92785 -0.09923  2.24906 255 255 255
-0.311136  0.939206   2.62768 255 255 255
0.198544  1.42524  2.45298 255 255 255
  1.19469 -0.554805   3.04603 255 255 255
-1.94273 -1.47616  2.65484 255 255 255
-1.04482 -1.07971  2.29026 255 255 255
-1.97373  1.08614   2.7206 255 255 255
 -1.35462 -0.959837   2.20881 255 255 255
0.765463  1.27138   2.2315 255 255 255
  1.06244 -0.739172   3.06614 255 255 255
-0.709351   1.21149   2.74114 255 255 255
0.595275 -1.03004  2.29116 255 255 255
-1.25136 -1.13576  2.27994 255 255 255
0.180869  1.01648  2.33148 255 255 255
-2.14044 0.762313  2.62172 255 255 255
0.217606 0.931109  2.84993 255 255 255
 2.95745 0.249335  3.15934 255 255 255
-2.48724 0.832623  2.64837 255 255 255
0.804067  1.45674  2.72852 255 255 255
-2.05571 -0.37646  2.28653 255 255 255
1.89763 1.42269 2.38387 255 255 255
1.30462 1.59215 3.15537 255 255 255
2.45379 1.47069 2.37043 255 255 255
  1.46833 -0.407404   3.08353 255 255 255
-1.75103 -1.31793  2.49817 255 255 255
  3.23613 -0.933391   3.06331 255 255 255
  -1.9567 0.0426786   2.28627 255 255 255
 -2.51896 -0.530428   2.54181 255 255 255
 0.599943 -0.207514    2.6584 255 255 255
0.31871 1.44292 2.65577 255 255 255
0.232644  1.21725  2.46405 255 255 255
-2.07871 0.875062  2.67661 255 255 255
2.51902  1.1327 2.40828 255 255 255
2.57961 1.00973 2.39271 255 255 255
-2.06209 0.604588  2.62404 255 255 255
-0.905879  -1.55497   2.69775 255 255 255
-1.08299  1.35165  2.10323 255 255 255
-2.14587 -1.01109  2.48657 255 255 255
-2.17046  1.07189  2.71899 255 255 255
  1.02439 -0.101874   2.76539 255 255 255
-0.418802   1.24329   2.68649 255 255 255
-2.29376  1.03337  2.65084 255 255 255
1.39197 1.59966 2.80318 255 255 255
-1.66466 -1.41173  2.49999 255 255 255
-2.20644  1.08065  2.68004 255 255 255
-1.98031  0.64926  2.66144 255 255 255
0.465517  0.14667  2.63276 255 255 255
-0.734456   1.48532   2.66475 255 255 255
-0.700266 -0.815071   2.13442 255 255 255
  0.902079 -0.0731578    2.77187 255 255 255
2.53697 1.06312 2.37788 255 255 255
-2.05724 0.893436   2.7399 255 255 255
-1.25592 -0.51404  2.20815 255 255 255
-2.30934 0.950903  2.47559 255 255 255
-0.291971  0.828075   2.52393 255 255 255
  1.83663 -0.812454   2.96105 255 255 255
-2.31395 0.784458  2.69189 255 255 255
0.768925   1.0392  2.73986 255 255 255
0.0165072 -0.237089   2.70773 255 255 255
  -0.4246 -0.148985   2.21635 255 255 255
0.728965 -1.08088  2.29407 255 255 255
-2.18545 -1.55945  2.75099 255 255 255
   1.5953 0.0550854    2.8484 255 255 255
-1.99518 -1.14383  2.64411 255 255 255
 0.688767 -0.456833   3.06328 255 255 255
0.643707  1.00616  2.82457 255 255 255
 1.41259 -1.49717  3.04524 255 255 255
-0.162237   1.46018   2.50492 255 255 255
 0.429918 -0.400377   2.53271 255 255 255
 0.428547 -0.391548   2.48949 255 255 255
-1.29162 -1.38446  2.38461 255 255 255
-0.0785819    1.24569    2.75578 255 255 255
 2.51726 0.755229  2.34731 255 255 255
 3.19784 -1.15779  3.04367 255 255 255
  3.32709 -0.884248   3.04271 255 255 255
-2.11928 0.737411  2.69342 255 255 255
-0.662588 -0.454883   2.31942 255 255 255
-0.965035 -0.390155   2.17983 255 255 255
 -0.86478 -0.606113   2.19978 255 255 255
-2.48475 0.896191  2.64653 255 255 255
 0.926123 -0.114145    2.7315 255 255 255
2.25647 1.20963 2.36415 255 255 255
0.0366227   1.31353     2.536 255 255 255
2.32675 1.44786 2.37487 255 255 255
-2.35233 -1.62252  2.67564 255 255 255
-0.451724 -0.700384   2.26136 255 255 255
-2.61213 -1.33618  2.58688 255 255 255
-0.4111 1.13435 2.62532 255 255 255
  3.28917 -0.999985   3.01271 255 255 255
-2.33632 0.262519  2.36366 255 255 255
 -2.29957 -0.690994    2.4793 255 255 255
1.49488 1.41266  2.7965 255 255 255
  0.965978 -0.0713477    2.74272 255 255 255
1.65957 1.12361 2.78765 255 255 255
 -1.09278 -0.485435   2.82069 255 255 255
-0.973566 -0.616392   2.16578 255 255 255
-1.79342  1.17401  2.58381 255 255 255
  2.5363 -1.14549  3.11366 255 255 255
2.18131 -1.2794 3.09543 255 255 255
 2.46573 0.833526  2.34391 255 255 255
 -2.2461 -1.14457  2.68249 255 255 255
 1.75422 0.956288  2.78508 255 255 255
-0.150801  0.358074    2.7382 255 255 255
-0.763776   1.40984   2.72209 255 255 255
 2.17054 0.507187  2.38325 255 255 255
1.66225 1.07135 2.99608 255 255 255
 1.04446 -1.55352   3.0617 255 255 255
-2.29225 0.122046  2.32204 255 255 255
 -2.16089 -0.982627   2.55313 255 255 255
-0.247345   1.40528   2.66887 255 255 255
-1.87252 0.727526  2.70437 255 255 255
  1.37672 -0.468956   2.93917 255 255 255
-0.608275 -0.856087   2.14835 255 255 255
2.30009 1.11869 2.34982 255 255 255
-0.857132 -0.468198   2.33999 255 255 255
1.59258 1.25058 2.70211 255 255 255
-0.973411  -1.05752   2.28554 255 255 255
-1.85386  1.15076  2.62629 255 255 255
  2.3337 0.979988  2.34511 255 255 255
  1.30171 -0.383613   2.75445 255 255 255
-2.53334 -1.02417  2.46511 255 255 255
0.698693  1.06025  2.83245 255 255 255
-0.423586 -0.331074   2.20762 255 255 255
2.14801 1.05648 2.35726 255 255 255
