ply
format ascii 1.0
element vertex 1213
property float x
property float y
property float z
property uchar red
property uchar green
property uchar blue
end_header
 3.93475 -1.47681  1.99475 255 255 255
 2.93508 -2.22463  1.96837 255 255 255
 1.98568 -2.20101  3.04466 255 255 255
-0.516891  -3.26744   2.87423 255 255 255
 1.47612 -3.32132  2.91713 255 255 255
-0.554335  -1.82031   2.94946 255 255 255
 1.36176 -2.10693  3.02024 255 255 255
 1.40449 -1.57184  3.05876 255 255 255
 3.59362 0.129759  3.17921 255 255 255
-1.37202 -3.71889  2.90847 255 255 255
-0.469062   -3.5214   2.95133 255 255 255
 4.38446 0.700871  3.36579 255 255 255
 4.58251 0.402001  3.36849 255 255 255
  2.2957 0.593318  2.32984 255 255 255
-2.31578  -1.1898   2.6638 255 255 255
 2.85157 0.427934  3.15083 255 255 255
-0.319385  -3.70353   2.93061 255 255 255
0.526955 -3.24119  2.95564 255 255 255
0.116098 -3.55688  2.94302 255 255 255
-0.470147  -3.18703   2.93201 255 255 255
  4.0068 -1.04894  2.16124 255 255 255
 1.29068 -3.06052  3.00417 255 255 255
0.210691 -3.54237  2.93399 255 255 255
-1.78169 -2.61798   2.1941 255 255 255
0.0697837  -3.52627   2.95639 255 255 255
 2.19865 -1.63246   3.0706 255 255 255
  2.55397 -0.457399   3.12083 255 255 255
 -2.81897 -0.683552   2.46569 255 255 255
 -2.87202 -0.722388   2.49466 255 255 255
 1.37841 -3.36327  2.86191 255 255 255
 1.12091 -2.14148  3.02247 255 255 255
-0.974101  -2.32538   2.96462 255 255 255
 1.87454 -2.83283   2.9314 255 255 255
1.89447 -1.7529 3.05201 255 255 255
  2.26954 -0.593891   3.10843 255 255 255
-0.488137   -3.2177    2.8913 255 255 255
-0.488236  -3.21726   2.89132 255 255 255
 1.9128 -1.4173 3.07216 255 255 255
 1.11554 -3.36211  2.89529 255 255 255
0.207757 -1.62054  2.22333 255 255 255
  1.6678 -3.03373  2.91005 255 255 255
0.861387 -3.36243  3.00051 255 255 255
 1.12824 -3.29283  2.95067 255 255 255
 2.24665 -1.75536  3.07281 255 255 255
 2.38469 0.642548  2.32889 255 255 255
 2.13321 -1.44753  3.07747 255 255 255
-0.459692  -3.14755   2.94984 255 255 255
  1.83283 -0.116547   3.09959 255 255 255
0.688167 -3.10316  2.99458 255 255 255
  2.1509 0.508559  2.33959 255 255 255
 1.22817 -2.21343  3.04439 255 255 255
0.983368 -1.97013  3.03195 255 255 255
-1.01173  -3.3522  2.88584 255 255 255
 2.20061 0.535761  2.33476 255 255 255
1.76478 -3.1168 2.90527 255 255 255
-0.111732  -2.24778   2.97858 255 255 255
-0.740948  -3.07252   2.93201 255 255 255
 1.03003 -3.03349  3.00379 255 255 255
-1.99764 -1.28048  2.79802 255 255 255
  4.3536 0.653626  3.36355 255 255 255
 1.14837 -3.18228  2.99423 255 255 255
 1.10055 -3.16079  2.99965 255 255 255
 3.88471 -1.94893  1.95683 255 255 255
-0.365905  -3.55529    2.9513 255 255 255
0.892657 -3.07482  3.00248 255 255 255
1.91313 -2.9379 2.91515 255 255 255
-0.368211  -3.67948   2.93948 255 255 255
 2.70993 -2.60113  2.04444 255 255 255
-2.02093 -2.07391  2.37589 255 255 255
0.859768 -3.52434  2.97577 255 255 255
 1.36276 -2.25926  2.97193 255 255 255
-2.03505 -1.31514  2.80597 255 255 255
 2.11895 0.557135  2.34112 255 255 255
 2.33716 -1.92081  3.00048 255 255 255
0.858943 -3.66431  2.95581 255 255 255
-0.440096  -1.94838   2.92986 255 255 255
1.22567 -3.0756 3.00389 255 255 255
 0.66387 -3.03639  2.99985 255 255 255
 1.55777 -2.78095  3.01972 255 255 255
0.11205 -3.4656 2.97215 255 255 255
 3.27638 -2.83781  1.92249 255 255 255
-0.579642  -1.82828   2.94722 255 255 255
-0.314531  -3.66099   2.93983 255 255 255
 1.05644 -2.69805   3.0167 255 255 255
0.319541 -3.79143  2.93646 255 255 255
 2.37968 -1.90537  3.00495 255 255 255
 1.26542 -2.38181  3.03038 255 255 255
-0.85092  -2.5786  2.96071 255 255 255
 2.36306 0.552881  2.34109 255 255 255
 4.8898 0.10679 3.46144 255 255 255
 3.82172 -1.76441  1.95579 255 255 255
-0.138191   -3.5552   2.96814 255 255 255
4.51866 0.47118 3.36322 255 255 255
2.56644 0.61819 2.36609 255 255 255
-0.384418  -2.33959   2.95035 255 255 255
 4.43183 0.321034  3.36193 255 255 255
0.265105 -3.21491  2.98675 255 255 255
1.50195 -2.3021 3.01962 255 255 255
 1.58576 -2.13414  3.03567 255 255 255
-1.01935 -4.36747  2.79355 255 255 255
-0.732622  -3.48821   2.90023 255 255 255
 2.67197 -1.75453   2.9982 255 255 255
0.371949 -4.94732  3.27141 255 255 255
-0.151909  -4.84142   3.10083 255 255 255
-1.67605 -3.98614  2.92845 255 255 255
2.29245 -2.6654 2.23093 255 255 255
 2.30248 -2.66094  2.24968 255 255 255
  -1.086 -2.93861  2.96786 255 255 255
 2.88973 -2.82997  1.94731 255 255 255
0.477927 -3.70502  2.76202 255 255 255
0.848298 -3.35828  2.94822 255 255 255
 1.11093 -4.91001  3.26886 255 255 255
0.793159 -2.35896  3.01066 255 255 255
 4.84442 -4.75097  3.67877 255 255 255
-0.605988  -2.00612   2.94853 255 255 255
  5.5015 -4.40334  3.69136 255 255 255
  3.9984 -1.25189  2.02445 255 255 255
1.33681 -1.3704 2.91092 255 255 255
  1.0864 -2.06729  3.03174 255 255 255
 1.14353 -4.17674  2.59682 255 255 255
 6.02069 -4.85132  3.71883 255 255 255
 1.50786 -1.99333  3.02126 255 255 255
 6.07313 -4.68586  3.71477 255 255 255
-0.559533  -3.02582    2.9348 255 255 255
 4.71982 -4.82741  3.63137 255 255 255
 2.18706 -5.61428  3.27572 255 255 255
0.820546 -1.89877  3.00903 255 255 255
-1.35843 -3.79792  2.90133 255 255 255
 5.41235 -2.46372  2.98008 255 255 255
-1.03883 -3.93159  2.91869 255 255 255
 5.40105 -4.47143  3.61195 255 255 255
 1.84033 -5.29579  3.30922 255 255 255
 1.81078 -1.44411  3.01932 255 255 255
 2.83674 -1.33049  3.04941 255 255 255
-0.0206232   -3.74119    2.76565 255 255 255
-1.47563 -4.26684  3.02916 255 255 255
5.27753  -2.736   2.979 255 255 255
 2.56859 -3.19735  1.94373 255 255 255
  4.8745 -1.85679  2.82823 255 255 255
 5.07625 -4.15846  3.69194 255 255 255
-0.276226  -2.62285   2.94715 255 255 255
 4.50592 -2.72101  2.78344 255 255 255
5.02256 -4.6356 3.65145 255 255 255
0.411963  -4.7711  3.31758 255 255 255
 2.70023 -5.35736  3.54655 255 255 255
 5.23874 -5.55307  3.49482 255 255 255
 3.45866 -5.63441  3.52974 255 255 255
  2.3665 -5.19964  3.45792 255 255 255
 2.63065 -1.27763  3.02693 255 255 255
-1.82412 -1.82538  2.39655 255 255 255
 2.43099 -5.46528  3.51209 255 255 255
 1.14938 -1.44396  3.04447 255 255 255
5.14441 -4.5753 3.67166 255 255 255
 2.75968 -1.11983  3.04962 255 255 255
  3.00649 -0.939023   3.03939 255 255 255
5.27803   -2.85 3.00977 255 255 255
-1.90623 -4.02441  2.88982 255 255 255
 2.94553 -1.06283  3.00972 255 255 255
 4.76108 -5.03843   3.6365 255 255 255
4.65712 -4.4701 3.64574 255 255 255
 3.61019 -1.69718  1.93813 255 255 255
 3.64367 -5.55461    3.571 255 255 255
0.163374 -5.02552  3.25386 255 255 255
 2.59541 -2.82602  1.98266 255 255 255
-0.489352  -4.11017    2.7962 255 255 255
0.723613 -4.20271  2.59428 255 255 255
5.42708 -5.3171 3.63623 255 255 255
0.240156 -5.13652  3.25604 255 255 255
-1.66853 -3.91268  2.90971 255 255 255
-0.524851  -2.01038   2.98191 255 255 255
-0.900811  -5.00685   3.18704 255 255 255
 4.65419 -4.95328  3.63985 255 255 255
-1.88621  -5.4427  3.08734 255 255 255
-0.510276  -2.40944   2.94528 255 255 255
 3.88805 -1.02847  2.15928 255 255 255
0.993155 -3.41236  2.91225 255 255 255
-0.17701 -5.07555  3.22165 255 255 255
-1.06972 -2.29768   2.9228 255 255 255
0.461762 -4.90682  3.27719 255 255 255
0.148059 -5.69374  3.18241 255 255 255
 2.72027 -3.13751  1.96301 255 255 255
-0.422585  -4.29064   2.75469 255 255 255
 4.91288 -4.65809  3.65562 255 255 255
 2.12109 -5.07747  3.31304 255 255 255
 1.49737 -4.98361  3.29089 255 255 255
-1.07194 -3.51902  2.92116 255 255 255
-0.873706  -5.98525   3.17149 255 255 255
-0.413262  -5.64717    3.1624 255 255 255
1.12156 -1.5438 3.02837 255 255 255
-0.23366 -4.45472   2.8932 255 255 255
 2.86763 -5.45685   3.5454 255 255 255
 2.09557 -1.74111  3.07684 255 255 255
-0.335002  -3.97344    2.8625 255 255 255
0.170451  -3.7236  2.90869 255 255 255
-0.517758  -2.78986   2.93513 255 255 255
 1.72383 -2.79778   3.0261 255 255 255
0.421726 -2.02002  2.99034 255 255 255
 3.89035 -2.23988  2.08854 255 255 255
0.469077 -6.04289  3.26017 255 255 255
0.124258 -6.05291  3.20661 255 255 255
-0.330264  -4.25849   2.83311 255 255 255
-1.98735 -1.94392  2.44552 255 255 255
0.677924 -2.39731  3.02108 255 255 255
0.680164 -2.40096  3.00848 255 255 255
2.76924  -1.419 3.00509 255 255 255
 1.16562 -1.26756  3.02774 255 255 255
 3.59457 -2.41212  1.98514 255 255 255
 5.72082 -5.18353  3.64531 255 255 255
 2.77382 -1.23405  3.02402 255 255 255
 2.17584 -3.32239  2.00535 255 255 255
 1.02544 -2.50841  3.02307 255 255 255
 1.37318 -3.31779   2.8953 255 255 255
0.654911 -2.52577  2.98005 255 255 255
 1.61943 -2.13312  3.01598 255 255 255
-1.89655  -1.9809  2.43191 255 255 255
-0.937454   -5.9255    3.1677 255 255 255
-1.84635 -3.80662  2.88708 255 255 255
 1.24261 -2.32367  3.03298 255 255 255
-2.14946 -3.26812   2.1151 255 255 255
 2.76279 -2.77596  1.95139 255 255 255
 2.61663 -2.92783  1.96758 255 255 255
  3.5154 -2.51562  1.98769 255 255 255
-1.11151 -2.24432  2.92434 255 255 255
 3.28953 -2.36358  1.99051 255 255 255
-1.89755 -2.47406  2.19904 255 255 255
 4.76383 -4.48896  3.65301 255 255 255
-0.422931  -1.98736   2.94542 255 255 255
 1.21115 -2.98914  3.01793 255 255 255
 1.69908 -2.98456  2.91456 255 255 255
 1.98718 -4.92156  3.30021 255 255 255
 5.17746 -4.37877  3.67577 255 255 255
 2.80163 -3.29991  1.87463 255 255 255
  3.02236 -0.742719   3.08938 255 255 255
 5.28129 -2.64706  2.99199 255 255 255
 3.36049 -2.34959  1.97414 255 255 255
-0.830735   -3.9216   2.92888 255 255 255
-0.0536267   -3.83709     2.8124 255 255 255
-0.271326   -4.3696   2.89484 255 255 255
  1.8066 -1.80438  3.05178 255 255 255
 4.97607 -4.95451  3.63808 255 255 255
 3.54019 -5.80829   3.4797 255 255 255
  5.4725 -5.34177  3.60363 255 255 255
 1.48025 -2.13748  3.02788 255 255 255
 1.23147 -2.72538   3.0126 255 255 255
   1.045 -3.09628  3.00519 255 255 255
 0.60262 -4.82382  3.31822 255 255 255
-1.64356 -2.55249  2.20359 255 255 255
 3.43596 -1.08885   2.1439 255 255 255
  2.28795 -0.900816   3.10075 255 255 255
 2.79315 -3.12298  1.89384 255 255 255
0.496105 -6.32271  3.22951 255 255 255
 6.63301 -4.47832  3.73445 255 255 255
-2.18919 -2.08245  2.36354 255 255 255
-1.61745 -5.42367  3.07379 255 255 255
-0.985308  -2.61468   2.94664 255 255 255
 1.04172 -1.55378  3.04252 255 255 255
  3.5897 -5.69372  3.56296 255 255 255
 4.14322 -3.43699  2.97536 255 255 255
-1.13992 -3.96495  2.84659 255 255 255
  3.34543 -0.701692   3.10028 255 255 255
-1.09158 -3.21531  2.87045 255 255 255
 5.77248 -4.66665  3.63608 255 255 255
 3.47305 -1.36308  2.12401 255 255 255
0.950706   -2.615  3.00906 255 255 255
0.741968 -1.90756  2.99436 255 255 255
-1.92741 -4.67241  3.03084 255 255 255
 2.85704 -3.14412  1.90321 255 255 255
-2.58638 -1.99244  2.14638 255 255 255
 2.62452 -5.64907   3.3705 255 255 255
-1.53377 -3.72031  2.89224 255 255 255
 6.44197 -4.15594  3.72499 255 255 255
 6.42255 -4.14313  3.69436 255 255 255
 -2.8447 -3.92649  2.84037 255 255 255
-0.38574 -1.82989  2.96361 255 255 255
1.46726 -5.8314 3.31695 255 255 255
 5.82047 -2.67954  3.27686 255 255 255
3.86085 -1.1084 2.13055 255 255 255
 5.39203 -4.37577  3.65602 255 255 255
 2.69941 -5.52589  3.52339 255 255 255
  1.9593 -5.97509  3.35764 255 255 255
 1.42588 -4.93052  3.28589 255 255 255
 1.35406 -1.52742  3.03885 255 255 255
 1.27481 -1.30487  3.03814 255 255 255
 5.58869 -5.36327  3.58306 255 255 255
 5.29358 -5.03056  3.63157 255 255 255
 0.48543 -3.54562  2.93714 255 255 255
0.481969 -3.54617  2.94271 255 255 255
 3.43401 -4.49242  2.92878 255 255 255
-0.461771  -3.52172   2.93835 255 255 255
-1.77688 -2.61923   2.1936 255 255 255
 3.02309 -5.80655  3.40193 255 255 255
 3.39097 -5.80499  3.49085 255 255 255
 1.46673 -2.79533  3.02209 255 255 255
 5.08161 -4.49846  3.65734 255 255 255
 1.33135 -3.00373  3.00786 255 255 255
3.96852 -5.7658 3.57805 255 255 255
 1.56267 -5.85341  3.32936 255 255 255
  2.7126 -3.32902  1.87232 255 255 255
-1.26158 -2.35851  2.89398 255 255 255
-1.26158 -2.35851  2.89398 255 255 255
0.641311 -5.66144  3.29331 255 255 255
 3.93448 -1.47487  1.99352 255 255 255
0.394098 -6.03267  3.23924 255 255 255
 1.87372 -2.83217  2.92858 255 255 255
-0.00197253    -6.09198     3.22195 255 255 255
 4.77262 -5.18185  3.63516 255 255 255
 2.57171 -2.13366  2.96224 255 255 255
1.72759 -4.9336 3.28924 255 255 255
  3.3745 -3.10245  1.92772 255 255 255
0.069811 -2.78357    2.966 255 255 255
  2.23091 -0.935216   3.09665 255 255 255
  2.23218 -0.935945    3.0991 255 255 255
 2.77163 -3.36423  1.87782 255 255 255
0.133523 -4.45269  2.88821 255 255 255
 3.00828 -2.74038  2.06865 255 255 255
 4.07633 -5.56791  3.59756 255 255 255
 2.21315 -2.21441   2.9607 255 255 255
 5.72003 -3.62695  3.73339 255 255 255
 4.96164 -3.20186   3.0158 255 255 255
-0.733817   -5.8684   3.16221 255 255 255
0.218739 -3.43372  2.97706 255 255 255
 3.87963 -1.16996  2.13113 255 255 255
0.108001 -5.93553  3.19406 255 255 255
-0.713332  -2.02308   2.90726 255 255 255
-2.28427 -2.32602  2.14357 255 255 255
 1.49845 -2.99341  2.94961 255 255 255
 4.08073 -1.08037  2.03096 255 255 255
  1.2078 -6.28154  3.29943 255 255 255
-2.44802 -2.10519  2.13272 255 255 255
-1.25355 -3.94038  2.91249 255 255 255
 3.95163 -5.15635  3.60584 255 255 255
  5.3275 -4.35716  3.66384 255 255 255
-1.72488 -4.07568  2.89337 255 255 255
-0.998717   -3.1517   2.93452 255 255 255
 5.64141 -5.32323  3.63524 255 255 255
 5.00854 -4.37349  3.66009 255 255 255
 5.81667 -5.21197  3.68087 255 255 255
-1.68998  -2.1832  2.81181 255 255 255
  3.39936 -0.725783   3.07737 255 255 255
0.619333 -3.48601  2.97577 255 255 255
 3.51864 -1.69697  1.96006 255 255 255
 3.51632 -1.69597  1.95768 255 255 255
-0.52347 -4.77825   3.1667 255 255 255
-0.142196  -4.45839   2.92175 255 255 255
-2.13692 -3.84261   2.8306 255 255 255
-1.29386 -2.40541   2.8962 255 255 255
-2.30783 -1.85099  2.54639 255 255 255
 1.61789 -2.99732  2.90134 255 255 255
 6.12377 -4.38557  3.72432 255 255 255
 2.13496 -6.04193  3.37507 255 255 255
-1.65219 -4.11643  2.86717 255 255 255
 3.47755 -4.88901   3.1293 255 255 255
 5.26091 -3.21635  3.05091 255 255 255
 3.70273 -1.84216  2.00455 255 255 255
0.650226 -4.76607  3.32063 255 255 255
 1.55102 -6.24195  3.33887 255 255 255
 4.45747 -5.71694  3.59222 255 255 255
 -0.6688 -2.81904  2.93109 255 255 255
 3.75715 -5.63942  3.57419 255 255 255
 5.19592 -2.70828   2.9879 255 255 255
  3.4734 -5.52129  3.58037 255 255 255
 4.59451 -5.73838  3.59954 255 255 255
0.264686 -5.62942  3.21228 255 255 255
  5.35397 -0.124204   3.51454 255 255 255
 4.10634 -1.15973   2.0343 255 255 255
 5.35069 -5.51039  3.52927 255 255 255
-0.874441  -5.41009   3.15801 255 255 255
-1.34549 -5.39433  3.14491 255 255 255
 5.03791 -4.91927  3.63005 255 255 255
-0.102818  -5.44364   3.22684 255 255 255
-2.16448 -5.40416  3.08591 255 255 255
-1.86575 -2.58834  2.18578 255 255 255
-1.89802 -2.66483   2.2187 255 255 255
 4.05375 -1.26524  2.01767 255 255 255
 4.85773 -5.41476  3.62188 255 255 255
  1.6592 -1.52848  3.05234 255 255 255
0.257103 -5.59017  3.26564 255 255 255
-1.98077  -4.5063  2.90002 255 255 255
-2.79175 -3.98828  2.83926 255 255 255
0.514855 -4.79689   3.3085 255 255 255
-1.67973 -2.57826  2.75554 255 255 255
 4.63544 -5.77322  3.59878 255 255 255
 5.30523 -4.03833  3.68929 255 255 255
1.81491 -2.0696 3.05227 255 255 255
-1.93827 -2.44627  2.17248 255 255 255
 5.49234 -5.31217  3.60426 255 255 255
 2.46459 -3.15873  1.96347 255 255 255
0.179367 -5.96155  3.23048 255 255 255
 5.80795 -4.23416  3.68112 255 255 255
 1.31881 -2.33248  3.02726 255 255 255
0.593961 -1.93999  2.98667 255 255 255
6.02223 -4.4461 3.71593 255 255 255
-2.05567 -5.39505  3.07957 255 255 255
 3.85889 -5.63576  3.57802 255 255 255
 1.29379 -5.17796   3.2757 255 255 255
 3.14052 -5.73587  3.49038 255 255 255
 3.41557 -5.47308   3.5671 255 255 255
  3.22743 -0.918444   3.03371 255 255 255
 5.69322 -4.37596   3.6612 255 255 255
-2.38028  -2.1994  2.10232 255 255 255
-2.23158 -3.27027  2.10886 255 255 255
 1.15868 -1.17595  3.03582 255 255 255
0.872859 -3.57104  2.96561 255 255 255
-1.87111 -5.98253  3.08444 255 255 255
 4.86653 -4.92273  3.64391 255 255 255
 1.51659 -4.37794  2.13851 255 255 255
-2.01484 -2.39655  2.13412 255 255 255
 4.47527 -4.54011  3.62581 255 255 255
 -1.3231 -2.74648  2.91315 255 255 255
-0.418554  -1.75297   2.95341 255 255 255
-2.45902 -4.10459  2.85264 255 255 255
0.640643  -4.9625  3.27995 255 255 255
 3.31126 -4.83879    3.126 255 255 255
-2.39574 -3.06986  2.12808 255 255 255
 4.58832 -4.54247  3.65104 255 255 255
 1.20197 -3.38254   2.8694 255 255 255
 4.70147 -4.72469  3.65288 255 255 255
 3.75406 -5.54238   3.5737 255 255 255
0.808395 -6.22282    3.253 255 255 255
-1.52991 -3.87409  2.89063 255 255 255
 4.11807 -5.51502  3.58364 255 255 255
  5.1312 -3.19122  3.01583 255 255 255
-1.13321 -2.31105  2.89693 255 255 255
 5.58149 -4.16226  3.68272 255 255 255
-1.95416 -5.39256  3.08949 255 255 255
-1.03675 -3.27229  2.91463 255 255 255
 1.76776 -3.52151  2.90446 255 255 255
 4.11419 -3.18174  2.93137 255 255 255
-2.35145 -3.15791   2.1303 255 255 255
 1.56097 -5.25752  3.30156 255 255 255
 4.85547 -4.60714  3.65506 255 255 255
-0.871497  -3.71792   2.93193 255 255 255
0.225361 -3.67584   2.9062 255 255 255
 4.97063 -4.72258  3.65749 255 255 255
 4.25644 -4.87758  3.61819 255 255 255
    3.52 -5.61692  3.58919 255 255 255
2.53667 -1.4847 3.04778 255 255 255
 1.15022 -1.09575  3.04472 255 255 255
 5.16674 -4.21105  3.68015 255 255 255
 5.34022 -5.43625  3.56687 255 255 255
 0.10082 -5.51799  3.22942 255 255 255
 -1.3107 -2.79038  2.88853 255 255 255
 4.44981 -3.25942  2.99863 255 255 255
 4.59871 -4.65174  3.64585 255 255 255
0.651144 -2.87379  2.99742 255 255 255
 5.00831 -4.30361  3.65932 255 255 255
 -2.5587 -2.41732  2.01778 255 255 255
0.192828 -5.57089  3.22817 255 255 255
-1.00212  -3.3108   2.8759 255 255 255
-0.392332  -3.47584    2.9424 255 255 255
-1.74734 -4.03098  2.88742 255 255 255
 1.15048 -1.08439  3.03885 255 255 255
 3.71332 -5.88488  3.53785 255 255 255
 3.44972 -5.91984  3.42951 255 255 255
-0.278274  -3.15522    2.9454 255 255 255
 4.95661 -1.97947  3.24457 255 255 255
-2.58464 -2.37159  2.02082 255 255 255
-2.56111 -2.30044  2.01672 255 255 255
-1.10035 -1.83473  2.90119 255 255 255
-2.29142 -2.15057  2.11415 255 255 255
 5.40301 -4.42426  3.65675 255 255 255
-2.26366 -2.35678   1.7372 255 255 255
-2.57898 -2.30728   2.1142 255 255 255
 4.35333 -3.81288  3.20304 255 255 255
-1.57252 -4.09948  2.87534 255 255 255
-1.02825 -5.40813  3.15473 255 255 255
-2.27026 -2.07811  2.11158 255 255 255
 4.77515 -1.90275  2.82822 255 255 255
 1.25767 -1.13404  3.04889 255 255 255
-0.636269  -5.05776    3.1981 255 255 255
0.283648  -3.5955  2.94805 255 255 255
-2.26247 -3.22155  2.11111 255 255 255
-2.26597 -2.19619  2.11467 255 255 255
 5.71698 -4.16744  3.65842 255 255 255
 -1.8816 -2.75264   2.1512 255 255 255
 4.83258 -1.84035  2.80696 255 255 255
-2.27592 -2.19626   2.2035 255 255 255
 5.75003 -4.20021  3.66443 255 255 255
-1.97962 -2.55752  2.14076 255 255 255
-0.0307032   -5.13252    3.24738 255 255 255
 5.23528 -2.65237    3.013 255 255 255
-1.92094 -3.20506  2.11187 255 255 255
-2.60224 -2.26083  2.11449 255 255 255
-2.11901 -2.35574  2.10649 255 255 255
-2.18635 -2.33259  2.10957 255 255 255
0.449765 -5.14548  3.25614 255 255 255
-2.18717 -2.20822  2.16683 255 255 255
-0.430447  -5.94493   3.19423 255 255 255
  3.3779 -4.51131  2.91002 255 255 255
 3.35324 -1.73217  2.12059 255 255 255
-1.74816  -2.7483  2.18413 255 255 255
-0.407245  -4.80351   3.19254 255 255 255
 6.51779 -3.84833  3.73914 255 255 255
 1.57797 -2.58121  3.00233 255 255 255
 3.89832 -5.72517  3.57319 255 255 255
0.321175 -3.31059   2.9749 255 255 255
-0.306093  -1.83083   2.84645 255 255 255
 3.86169 -5.69088    3.574 255 255 255
0.462126 -4.83574  3.30527 255 255 255
0.0722459  -5.14919   3.24814 255 255 255
 3.83373 -5.53765  3.56535 255 255 255
 3.39371 -1.17594   2.1391 255 255 255
0.662635 -2.67621  2.99135 255 255 255
-2.03647 -2.46861  2.15317 255 255 255
 -2.2445 -2.12438  2.11075 255 255 255
 1.50309 -2.30386  3.02406 255 255 255
-0.998942  -3.24991   2.94522 255 255 255
-1.96243  -2.6124  2.15805 255 255 255
  3.93686 -0.998059   2.16606 255 255 255
 3.77731 -5.90622  3.54282 255 255 255
-1.85536 -2.79927  2.14961 255 255 255
 5.26715 -4.83737    3.604 255 255 255
5.77541 -3.8568 3.72128 255 255 255
5.47453 -4.3473 3.68145 255 255 255
 3.87318 -1.44029  2.00153 255 255 255
 2.88617 -1.08225   3.0653 255 255 255
 4.51812 -4.50239  3.63754 255 255 255
-0.819785  -2.24226   2.95788 255 255 255
-0.512464  -5.44357   3.19084 255 255 255
 1.44738 -2.68752   3.0264 255 255 255
 4.15963 -3.33407  2.98329 255 255 255
 1.17483 -1.06136  3.04442 255 255 255
-0.278714  -3.53076   2.93612 255 255 255
 1.05257 -3.16112  3.00091 255 255 255
-1.85129 -3.92045  2.88616 255 255 255
 1.29701 -5.79645  3.31165 255 255 255
0.709681 -2.54493  3.01753 255 255 255
  0.4353 -3.08876  2.98651 255 255 255
0.348466  -4.9346   3.1717 255 255 255
-0.923053  -2.88833   2.92701 255 255 255
 3.63576 -1.45212  1.95923 255 255 255
 6.47376 -3.97296   3.7544 255 255 255
-1.44038 -3.74714  2.91312 255 255 255
 3.37786 -2.84865  1.99462 255 255 255
0.212081 -5.88204  3.40807 255 255 255
 4.82124 -5.44978  3.61648 255 255 255
-2.27012 -3.30396  2.12332 255 255 255
-0.217379  0.019074   1.89213 255 255 255
1.41169 -1.0639 3.06645 255 255 255
-0.0553566   0.278382    2.71665 255 255 255
-0.873923  0.459646   2.34791 255 255 255
 1.79589 0.354237  2.97819 255 255 255
-0.178459 -0.185943   2.86642 255 255 255
 -1.23291 -0.441548   2.27017 255 255 255
 2.61407 -1.01816  3.09909 255 255 255
 1.34791 -1.33877  2.85969 255 255 255
-0.0256704   0.238428    2.71032 255 255 255
   3.18688 -0.0591567    3.00537 255 255 255
-1.59052  0.34288  2.36379 255 255 255
 0.483314 -0.124902   2.69674 255 255 255
  3.58647 -0.018126   3.18231 255 255 255
  2.35493 -0.555864   3.12422 255 255 255
 0.207977 -0.374763     2.574 255 255 255
  2.69193 -0.146111     3.136 255 255 255
 1.73869 0.813608  2.96284 255 255 255
 3.52539 0.234215  3.17458 255 255 255
  2.19491 -0.603663   3.12471 255 255 255
 0.273518 -0.235689   2.61564 255 255 255
-0.884044 -0.503413   2.14145 255 255 255
 -0.345641 -0.0619545    2.53981 255 255 255
 1.70853 -0.79758    3.089 255 255 255
  0.19593 -0.651606   2.49693 255 255 255
 0.172686 -0.177417   2.72661 255 255 255
-0.0964665  0.0689877    2.71139 255 255 255
0.123695 0.227269  2.49149 255 255 255
 0.304753 -0.449675   2.51713 255 255 255
 2.88348 -1.18918  3.03988 255 255 255
 2.17444 0.540333  2.37091 255 255 255
 1.69367 0.655646  2.97401 255 255 255
-0.903132 -0.220598   2.58876 255 255 255
 3.69532 0.714978  3.19752 255 255 255
-0.171957 -0.522135    2.2389 255 255 255
   3.6062 -0.411436   3.14595 255 255 255
0.406096 -0.24251  2.62547 255 255 255
-0.916006  0.640431   2.29494 255 255 255
0.540104 -1.36711  2.22809 255 255 255
-2.90372 -0.41121  2.53275 255 255 255
0.000736584   -0.426134     2.23691 255 255 255
2.38973 0.58623 2.34964 255 255 255
 -0.036689 -0.0483378    2.74123 255 255 255
  2.02759 -0.132026   3.11545 255 255 255
 2.27848 0.596443  2.33341 255 255 255
   1.708 0.515591  2.99499 255 255 255
 -1.15387 -0.490982   2.13254 255 255 255
 2.67228 -1.18497  3.04152 255 255 255
 2.63085 -1.27851  3.03669 255 255 255
 1.59348 0.806892  3.01243 255 255 255
-0.394116  0.522819   2.51881 255 255 255
  2.46828 -0.437766    3.1261 255 255 255
-1.44633 0.351275   2.3097 255 255 255
 1.29454 0.189817  3.01739 255 255 255
 2.25731 0.779939  2.34135 255 255 255
 3.55731 0.894346   3.2021 255 255 255
   1.91794 0.00465467    3.10732 255 255 255
0.189032 0.553474  2.73608 255 255 255
-0.215432  0.700094   2.54792 255 255 255
 1.58083 0.598065  3.01417 255 255 255
-0.298208  0.474923   2.57058 255 255 255
 2.10757 -1.85632  3.02814 255 255 255
-0.223823  0.318824   2.71721 255 255 255
 -2.79295 -0.948076   2.46062 255 255 255
-0.439963  0.574589   2.53487 255 255 255
0.285307  0.12667  2.43803 255 255 255
  2.3346 0.649142  2.34016 255 255 255
 0.991464 -0.931631   3.05264 255 255 255
0.0377606  0.479502   2.68891 255 255 255
 -2.87093 -0.800081   2.45527 255 255 255
  1.13088 -0.979425   3.04176 255 255 255
0.285295 0.560508  2.77659 255 255 255
  2.54571 -0.385861   3.12434 255 255 255
 -0.319517 -0.0224048    2.51208 255 255 255
 1.92057 0.831725  2.35968 255 255 255
0.221919 0.130561  2.42953 255 255 255
    1.9936 -0.0337146    3.11321 255 255 255
   1.67146 -0.0958399    3.07441 255 255 255
 3.57098 -0.25951  3.19724 255 255 255
0.294826 0.320237  2.59647 255 255 255
-0.264863  0.188376    2.3966 255 255 255
   1.73141 -0.0448406    3.09217 255 255 255
 -1.06058 -0.681101   2.16801 255 255 255
 1.30453 -1.94702  3.03756 255 255 255
 2.36281 -1.40951  3.08653 255 255 255
-0.285881  -0.21161   2.49273 255 255 255
2.60762 0.93899 2.37175 255 255 255
0.393309 0.142648  2.50553 255 255 255
3.84639 0.72569 3.12762 255 255 255
2.29782 -1.7303 3.06564 255 255 255
-1.42115  0.67493  2.38354 255 255 255
-0.540194 -0.200747   2.25345 255 255 255
-0.0871419  -0.524814    2.21695 255 255 255
 -0.271941 -0.0967432    2.49731 255 255 255
0.0789133 -0.341793   2.65257 255 255 255
  2.33377 -0.479016   3.11374 255 255 255
  2.19092 0.0732681   3.15377 255 255 255
 -2.69776 -0.749324   2.47005 255 255 255
 3.69925 0.806678  3.19128 255 255 255
 -2.90664 -0.345952   2.62274 255 255 255
-0.449172 -0.442197   2.23429 255 255 255
   3.3647 -0.807062   3.06177 255 255 255
0.256462 0.650949  2.72808 255 255 255
  1.80969 -0.784748   3.09017 255 255 255
0.413969 0.550632    2.873 255 255 255
 2.53221 -1.14378   3.0941 255 255 255
 1.49208 -0.47388  3.08561 255 255 255
-0.485451 -0.149963   2.23691 255 255 255
0.981725 -1.05715  3.04431 255 255 255
 1.91115 0.315227  2.98211 255 255 255
0.0695614   0.43053   2.74157 255 255 255
0.503629 -1.02876  2.28332 255 255 255
  -2.4635 -0.958935   2.49746 255 255 255
-1.21172 0.773744  2.38378 255 255 255
-2.17345 -1.14515   2.6428 255 255 255
0.136671 0.130043  2.49805 255 255 255
0.563395  1.08539  2.92002 255 255 255
-0.159211 -0.492097   2.23561 255 255 255
  2.39153 -0.695371   3.11179 255 255 255
0.372988 0.264543  2.50775 255 255 255
-0.414364 -0.136283   2.32818 255 255 255
 4.01842 0.361646  3.27719 255 255 255
2.48336 0.70239 2.31393 255 255 255
  3.37718 -0.848418   3.02051 255 255 255
 0.178333 0.0126959   2.44706 255 255 255
 3.44123 0.351496  3.18259 255 255 255
-0.436776 -0.656058   2.25371 255 255 255
-0.444065  0.624326   2.49666 255 255 255
-0.168841  0.169765   2.76397 255 255 255
  1.33652 -0.624059   3.05779 255 255 255
 3.91903 0.493666  3.23831 255 255 255
 2.40664 0.840791  2.31935 255 255 255
0.851451  -0.4194  2.57241 255 255 255
 -1.6483 0.935305  2.73991 255 255 255
  1.7921 0.741979  2.99539 255 255 255
-2.39024 -1.08478  2.47498 255 255 255
-0.606167  0.895137   2.67405 255 255 255
 3.77732 0.730872  3.18158 255 255 255
  1.4586 0.271226  2.81278 255 255 255
 2.1125 0.91895 2.33656 255 255 255
 2.26821 0.643386  2.32695 255 255 255
 1.71689 0.583872  2.99848 255 255 255
 0.95269 -0.80659  3.04098 255 255 255
 2.22349 0.921328  2.33885 255 255 255
 2.62615 0.886229  2.37154 255 255 255
 2.24947 0.875775  2.33741 255 255 255
  2.5391 0.796932  2.33911 255 255 255
 2.30098 0.782366  2.33338 255 255 255
 1.88333 0.137446   2.9809 255 255 255
-0.157144 -0.620127   2.24156 255 255 255
-0.744279   0.53241   2.35701 255 255 255
 1.15092 -1.08454  3.04186 255 255 255
-0.754812  0.519878    2.2862 255 255 255
0.0491486 -0.563855    2.2383 255 255 255
 1.96155 0.831843   2.3483 255 255 255
   1.92943 -0.0614565     3.1167 255 255 255
0.0233765 -0.519243   2.24041 255 255 255
  1.13077 -0.364299   2.68477 255 255 255
0.789351 -0.72387  3.01736 255 255 255
-0.761728  0.472626    2.2799 255 255 255
  1.62974 -0.316325   3.06966 255 255 255
-0.386188  -0.75666   2.26255 255 255 255
  3.20031 -0.248733   3.15118 255 255 255
 0.100432 -0.653357   2.23036 255 255 255
2.05161 -0.5522 3.11103 255 255 255
  1.65164 -0.282931   3.06867 255 255 255
0.0547431 -0.437874   2.22801 255 255 255
  1.05913 -0.670681   3.04899 255 255 255
 0.107118 -0.528812   2.21792 255 255 255
  0.13338 -0.574868   2.21964 255 255 255
0.0810386 -0.480929   2.21904 255 255 255
-0.105784 -0.588769   2.23747 255 255 255
 1.28608 0.812575  2.98282 255 255 255
 1.76101 0.908554  3.00068 255 255 255
-1.34314 0.775251  2.32731 255 255 255
-0.0262242   -0.72589    2.22607 255 255 255
 1.66106 0.591827  3.00018 255 255 255
-2.47775  -1.1786  2.46503 255 255 255
-0.0785825  -0.637466    2.23749 255 255 255
 3.01029 0.144742   3.1593 255 255 255
0.285721 -1.28057  2.22207 255 255 255
-0.708097  0.313067   2.35613 255 255 255
-0.0644852   0.614663    2.58158 255 255 255
 -1.8102 -1.65867  2.34104 255 255 255
-0.603904  0.840301   2.59423 255 255 255
  3.63449 0.0948009   3.17917 255 255 255
1.23843 0.83577 2.97737 255 255 255
  0.16698 -0.377202   2.72447 255 255 255
0.257695 -1.23612   2.2265 255 255 255
  1.79676 -0.687974   3.09605 255 255 255
 2.6505  0.6853 2.38011 255 255 255
  0.20934 -0.461747   2.49155 255 255 255
 1.72322 0.706447  2.99284 255 255 255
   1.8661 -0.661255    3.0932 255 255 255
-0.285688 -0.145951   2.47152 255 255 255
  1.91559 -0.340986   3.09457 255 255 255
 0.826897 -0.669113   3.02605 255 255 255
  1.75093 -0.512967   3.08263 255 255 255
 3.67174 0.274192  3.17744 255 255 255
-0.897283 -0.526254   2.12645 255 255 255
-1.64201 0.860481  2.70489 255 255 255
 1.2038 -0.9503 3.04567 255 255 255
  2.91195 -0.953821   3.07791 255 255 255
  3.41541 -0.227221   3.16439 255 255 255
 1.71228 0.873562  2.98789 255 255 255
 -2.76314 -0.929249   2.49373 255 255 255
-0.501872  -1.64756   2.96444 255 255 255
 1.79068 0.968316  2.77426 255 255 255
  0.108408 -0.0901017    2.50916 255 255 255
 -2.35562 -0.993811   2.46272 255 255 255
 0.121878 -0.295312   2.71897 255 255 255
 -1.09384 0.0401853   2.33232 255 255 255
 2.80783 0.157448  3.16768 255 255 255
 2.86714 -1.03754  3.06848 255 255 255
 0.860229 -0.726322   3.02722 255 255 255
  1.7053 -1.80588  3.05103 255 255 255
 -1.07054 -0.124595   2.35926 255 255 255
4.05347 0.32251 3.27669 255 255 255
 1.74628 0.542986  3.00137 255 255 255
 1.66114 0.543212  2.99807 255 255 255
-0.819724  0.659691   2.35207 255 255 255
 0.102497 -0.358216   2.69244 255 255 255
   -1.0237 -0.0794135    2.33255 255 255 255
 -0.420441 -0.0154787     2.4869 255 255 255
0.954517 0.830336  2.96555 255 255 255
 -1.06595 -0.197044    2.3346 255 255 255
  2.06848 -0.383953   3.10283 255 255 255
 0.146458 -0.332923   2.71926 255 255 255
 1.82065 0.834035  2.94375 255 255 255
-0.0643102   0.734818    2.55784 255 255 255
 -1.11037 -0.215113   2.33127 255 255 255
   1.695 -0.20551  3.07316 255 255 255
-1.44337 0.719138  2.34561 255 255 255
-1.62013 0.881351  2.72969 255 255 255
 1.96764 0.334966  2.99731 255 255 255
 0.153639 -0.478323   2.55561 255 255 255
0.557816  -2.6428  6.15332 255 255 255
   3.6498 -0.317978    3.1363 255 255 255
 1.79095 0.861929  2.99849 255 255 255
 0.275504 -0.654625   2.67855 255 255 255
  0.325593 -0.0402229    2.51654 255 255 255
 0.828071 -0.708969   3.00806 255 255 255
-0.767467  0.577512   2.35617 255 255 255
-0.622173 -0.523965   2.24384 255 255 255
 0.787863 -0.609347   3.01093 255 255 255
 8.03862 -4.82022  4.19996 255 255 255
7.58108 -5.0612 4.17648 255 255 255
1.67765 -6.2488 3.35981 255 255 255
 9.31115 -6.22362  4.19703 255 255 255
 2.95472 -6.13968  3.43966 255 255 255
  7.1311 -5.14658  4.09838 255 255 255
 9.34819 -5.10147  4.18691 255 255 255
 8.50553 -6.35039   4.1714 255 255 255
 8.10382 -6.09591  4.16318 255 255 255
 9.64966 -6.11856   4.2977 255 255 255
4.44179 -4.7522 3.62568 255 255 255
 5.52259 -4.62832  3.64328 255 255 255
2.25841 -6.1177 3.35166 255 255 255
 7.92734 -5.15389  4.22395 255 255 255
9.07625  -4.187 3.66459 255 255 255
 5.31398 -5.96639  3.64878 255 255 255
 5.88983 -6.09872  3.59349 255 255 255
 9.73239 -6.50246  4.25126 255 255 255
 4.75379 -5.11079  3.63306 255 255 255
 6.76684 -3.87758   3.7566 255 255 255
 5.17515 -6.05212  3.61391 255 255 255
 1.52229 -6.35011  3.32051 255 255 255
 3.93841 -5.04446  3.59859 255 255 255
 7.06784 -3.59874  3.77188 255 255 255
 5.19117 -5.09313  3.59858 255 255 255
 5.80044 -5.32649  3.67273 255 255 255
 8.84434 -6.16696  4.22592 255 255 255
 5.29813 -6.24826  3.61222 255 255 255
 3.62413 -5.81784  3.54285 255 255 255
 8.11566 -6.41829  4.16331 255 255 255
6.24437 -5.5625 3.69326 255 255 255
 9.01935 -5.02955  4.16933 255 255 255
 9.01386 -6.38927  4.21606 255 255 255
  10.227 -6.23701  4.29193 255 255 255
 7.19292 -5.54175  4.16169 255 255 255
 8.40899 -5.20278  4.25431 255 255 255
 7.65786 -5.30839  4.19885 255 255 255
 3.07099 -5.70344   3.5045 255 255 255
 9.00842 -5.15295  4.27192 255 255 255
 9.24449 -5.37048  4.26559 255 255 255
 7.68013 -6.14306  4.14554 255 255 255
 4.64186 -5.05999  3.62728 255 255 255
 7.58901 -4.77857  4.22487 255 255 255
9.94934 -5.7133  4.2193 255 255 255
  5.3641 -4.70973  3.64086 255 255 255
 6.20746 -5.87866  3.67201 255 255 255
 9.58018 -5.50352   4.2578 255 255 255
8.40061 -5.0728 4.25369 255 255 255
6.27028 -4.8084   3.703 255 255 255
 8.83503 -5.10952  4.27236 255 255 255
 8.94717 -5.62473  4.27358 255 255 255
  8.9359 -5.31038  4.26436 255 255 255
 9.32683 -5.40996  4.26148 255 255 255
  9.5295 -5.64845  4.28039 255 255 255
 4.96604 -4.11994  3.67912 255 255 255
 7.99486 -5.72939  4.19371 255 255 255
 7.51959 -5.06293  4.19237 255 255 255
 4.91997 -6.41615  3.57486 255 255 255
 7.98364 -5.16603  4.21634 255 255 255
 2.06375 -6.33366  3.41156 255 255 255
 8.94486 -6.25479  4.24787 255 255 255
 5.88077 -4.54202  3.68042 255 255 255
 5.71323 -5.75169  3.65348 255 255 255
 10.1098 -6.20973  4.29028 255 255 255
 1.29626 -6.25724  3.30005 255 255 255
 8.80136 -4.90494  4.17675 255 255 255
 10.0393 -5.44044  4.19099 255 255 255
6.04087 -3.9619 3.68576 255 255 255
5.87982  -4.427  3.6999 255 255 255
 3.71537 -5.12834   3.5935 255 255 255
 8.60349 -5.12115  4.28191 255 255 255
 4.59341 -5.94328  3.60665 255 255 255
 7.77504 -4.67134  4.14316 255 255 255
 10.1822 -6.11068  4.28514 255 255 255
 9.15184 -6.55048  4.19011 255 255 255
 8.23512 -5.33149  4.21369 255 255 255
 7.00009 -6.26458  4.12285 255 255 255
 8.82713 -6.30385  4.18195 255 255 255
 4.52773 -5.86736  3.58747 255 255 255
 8.79651 -6.44004  4.15505 255 255 255
 7.69427 -6.50321  4.14131 255 255 255
 2.51207 -5.18801  3.46096 255 255 255
 5.62777 -5.15709  3.60145 255 255 255
 6.60864 -3.81038  3.75214 255 255 255
  5.3009 -4.81751  3.58402 255 255 255
 5.47765 -4.28407  3.69507 255 255 255
 7.98506 -4.60518  4.08206 255 255 255
 5.95732 -6.45139  3.67701 255 255 255
 9.32054 -6.17743  4.24829 255 255 255
  1.0567 -4.78866  3.28467 255 255 255
 8.87496 -4.84301  4.14843 255 255 255
 8.29149 -4.80762   4.1395 255 255 255
  9.7045 -5.63733  4.27338 255 255 255
 9.05063 -6.58622  4.18924 255 255 255
 8.69243 -6.43992  4.16092 255 255 255
 9.06367 -5.25359  4.27629 255 255 255
 9.42072 -5.63091    4.262 255 255 255
 4.82651 -6.40512  3.56176 255 255 255
  8.2241 -4.70036  4.08138 255 255 255
 8.99908 -6.47989  4.16476 255 255 255
 6.01523 -4.71889   3.7015 255 255 255
  5.5352 -6.48446  3.62083 255 255 255
5.95199 -5.9255   3.662 255 255 255
 5.83858 -6.40357  3.64616 255 255 255
-1.82481 -2.63686  2.17896 255 255 255
 4.04137 -4.99404  3.60751 255 255 255
 1.92441 -5.08137  3.29489 255 255 255
 4.54257 -5.58403  3.60871 255 255 255
 3.15324 -5.34136  3.55431 255 255 255
 4.12962 -5.01808  3.61715 255 255 255
 5.86049 -4.74114  3.63018 255 255 255
5.48007 -6.0535 3.63734 255 255 255
 4.37145 -4.70764  3.63672 255 255 255
 9.18399 -6.65278  4.19803 255 255 255
 9.24695 -5.18449  4.20337 255 255 255
 9.65569 -6.43398  4.22423 255 255 255
 4.07955 -5.10011  3.61025 255 255 255
 9.87424 -5.69295   4.2781 255 255 255
 4.67843 -5.17435  3.63851 255 255 255
 9.53596 -6.60746  4.23654 255 255 255
 7.31123 -4.78366  4.21093 255 255 255
 5.16261 -4.45105  3.66492 255 255 255
 8.72119 -5.69438  4.27223 255 255 255
 9.31626 -5.72007  4.28719 255 255 255
3.51461 -5.8312  3.5432 255 255 255
 9.33144 -5.01815  4.18271 255 255 255
 8.23694 -4.46591   4.0713 255 255 255
 9.75739 -5.25475  4.19662 255 255 255
 8.36323 -5.37234  4.25965 255 255 255
 7.98967 -6.57374  4.14492 255 255 255
 9.27001 -5.26479  4.26297 255 255 255
7.93547 -6.4056 4.13606 255 255 255
 7.73009 -4.76902  4.22422 255 255 255
 8.89203 -5.16899  4.27016 255 255 255
 6.13862 -4.55025  3.71869 255 255 255
 9.77407 -5.36387  4.18792 255 255 255
 8.06928 -5.75856  4.19239 255 255 255
 7.31692 -6.28358  4.13578 255 255 255
 4.87762 -6.32792  3.57615 255 255 255
 2.99802 -5.74718  3.44407 255 255 255
 8.61971 -5.51721   4.2208 255 255 255
9.42947 -6.3377 4.25494 255 255 255
 9.87796 -6.33063  4.26331 255 255 255
 6.86348 -5.86125  4.14251 255 255 255
4.72394   -4.12 3.67655 255 255 255
 5.29416 -3.85057  3.70022 255 255 255
3.90088   -4.71 3.58086 255 255 255
 8.97827 -5.73418  4.27018 255 255 255
 7.21611 -6.32633  4.13606 255 255 255
 7.11762 -5.95884  4.14461 255 255 255
 3.67235 -5.92427  3.52584 255 255 255
 7.72309 -5.58946  4.18032 255 255 255
4.24808  -5.958 3.56488 255 255 255
 7.90919 -4.65378  4.16246 255 255 255
 6.27867 -5.31298  3.64877 255 255 255
 4.61981 -6.36024  3.55967 255 255 255
  7.4434 -5.54967  4.17617 255 255 255
 7.71328 -6.24513  4.14188 255 255 255
 3.22609 -5.78824  3.43831 255 255 255
 7.69132 -5.17161  4.19827 255 255 255
 1.45926 -6.15386  3.33368 255 255 255
 2.22966 -6.23265  3.37433 255 255 255
 7.88163 -5.20699  4.19994 255 255 255
 7.51452 -4.96341  4.20004 255 255 255
  7.5536 -5.72125  4.17145 255 255 255
8.95922 -6.5988 4.16483 255 255 255
 4.82227 -5.67556  3.59761 255 255 255
 1.59753 -6.39178  3.32873 255 255 255
 7.51521 -5.34495  4.18811 255 255 255
7.44782 -4.9722 4.20413 255 255 255
 3.36851 -5.33446  3.58563 255 255 255
  4.0472 -4.51364  3.62512 255 255 255
 7.04855 -5.22166  4.15971 255 255 255
 6.68887 -3.78095  3.75327 255 255 255
 6.08562 -4.20092  3.72325 255 255 255
 9.42706 -6.48536  4.22831 255 255 255
 9.54566 -6.70133  4.23196 255 255 255
 9.95674 -6.50821  4.31814 255 255 255
  5.3295 -4.35567  3.66657 255 255 255
 8.46939 -5.27032  4.21572 255 255 255
 2.12732 -6.43835  3.37952 255 255 255
 4.56138 -5.26208  3.62391 255 255 255
 3.89193 -6.05437  3.52371 255 255 255
 7.30804 -5.42349  4.18708 255 255 255
 2.34387 -6.11104  3.37993 255 255 255
 4.00331 -6.44505  3.50261 255 255 255
 9.36827 -4.96485  4.19223 255 255 255
 9.33684 -6.49097    4.217 255 255 255
 7.46509 -5.77079  4.15676 255 255 255
 5.87552 -4.85399  3.65108 255 255 255
 10.0472 -6.15513  4.29622 255 255 255
   9.386 -5.58191  4.28081 255 255 255
 9.63926 -6.70795  4.25626 255 255 255
 9.03544 -5.39077   4.2669 255 255 255
 9.28586 -4.98249   4.2052 255 255 255
  4.2479 -6.00725  3.54541 255 255 255
 9.56089 -6.48524  4.23696 255 255 255
 8.57992 -6.24326  4.18241 255 255 255
 7.34957 -6.46228   4.1345 255 255 255
  3.3518 -5.85561  3.44504 255 255 255
 5.45767 -4.73093  3.62432 255 255 255
 3.99214 -5.03512  3.59359 255 255 255
 5.55515 -4.56844  3.65968 255 255 255
 7.65581 -5.40868  4.18522 255 255 255
 3.80748 -5.13795  3.59077 255 255 255
 1.80532 -6.31245  3.36123 255 255 255
 5.33954 -3.80332  3.70249 255 255 255
 9.83967 -5.34268  4.18538 255 255 255
 7.09892 -6.61443  3.94034 255 255 255
 8.82645 -6.41412  4.16029 255 255 255
0.873406 -5.57117  3.28903 255 255 255
 4.53618 -4.31951  3.64199 255 255 255
 7.45929 -4.72429  4.19491 255 255 255
 4.33062 -4.77273  3.62519 255 255 255
 4.98383 -6.30243  3.56636 255 255 255
 5.50511 -4.48312  3.61922 255 255 255
 7.28753 -6.17777  4.13727 255 255 255
 8.09607 -5.25847   4.2139 255 255 255
 10.0354 -5.91177  4.28157 255 255 255
 5.46482 -4.66249   3.6275 255 255 255
 5.50023 -4.87383  3.61589 255 255 255
 7.85495 -6.53704  4.10419 255 255 255
 3.99655 -4.72568  3.59737 255 255 255
 9.47607 -5.19589  4.19244 255 255 255
9.11763  -4.814 4.10493 255 255 255
 5.99948 -6.39545  3.66851 255 255 255
 10.046  -6.239 4.34673 255 255 255
 7.40223 -5.73346  4.15832 255 255 255
5.38993 -3.8245 3.69751 255 255 255
 9.44578 -5.45748  4.26972 255 255 255
 9.21116 -6.49542  4.26335 255 255 255
7.00485 -6.1291 4.13168 255 255 255
 9.62598 -6.38421  4.24943 255 255 255
 7.19851 -6.39061  4.13962 255 255 255
 5.37995 -3.77391  3.69802 255 255 255
 5.64678 -6.23035  3.64513 255 255 255
 7.07586 -6.08404    4.147 255 255 255
 9.11571 -6.26341  4.26803 255 255 255
 7.81926 -6.21071   4.1476 255 255 255
  5.7374 -5.93208  3.65535 255 255 255
 9.33496 -6.38445  4.22109 255 255 255
 3.79963 -6.26617  3.44908 255 255 255
 7.64717 -5.60666  4.18622 255 255 255
7.69882 -5.5085 4.17367 255 255 255
8.87822 -6.4498 4.17089 255 255 255
 5.63826 -5.54576  3.66126 255 255 255
 8.29523 -5.18981  4.22074 255 255 255
 7.51627 -6.67147  4.01551 255 255 255
 9.40931 -5.70752  4.26302 255 255 255
 9.29135 -5.35592  4.32093 255 255 255
5.27576 -6.1313 3.59848 255 255 255
 1.93209 -5.21793  3.30873 255 255 255
 3.06128 -5.75955  3.45822 255 255 255
 3.19398 -5.41089  3.55231 255 255 255
 8.05439 -5.22377  4.23036 255 255 255
 1.48218 -6.34613  3.32634 255 255 255
 2.95527 -5.77523  3.39106 255 255 255
 4.55485 -6.40493  3.50186 255 255 255
 3.81198 -5.22767  3.59155 255 255 255
 4.08966 -6.31031  3.48351 255 255 255
 9.16325 -5.53289  4.28194 255 255 255
 2.72965 -5.70625  3.37107 255 255 255
 6.04786 -4.31081  3.71085 255 255 255
 4.50426 -6.10988  3.55596 255 255 255
 8.07237 -5.51966  4.20196 255 255 255
 7.25518 -4.86542  4.19361 255 255 255
 9.81274 -6.64998  4.25365 255 255 255
 7.77092 -3.75741  3.46184 255 255 255
 9.26275 -6.27914  4.25219 255 255 255
 4.47693 -6.05596  3.57323 255 255 255
  7.2238 -5.42803  4.16029 255 255 255
 7.82539 -6.15947  4.15421 255 255 255
 7.99156 -5.21669  4.21815 255 255 255
 5.00002 -4.01051  3.68222 255 255 255
 9.77849 -6.71637    4.257 255 255 255
 9.83889 -6.37532  4.27056 255 255 255
 8.06185 -5.57505  4.20934 255 255 255
  5.8096 -4.58295  3.68832 255 255 255
 4.44311 -6.32935  3.57044 255 255 255
 4.85484 -5.86139  3.60659 255 255 255
 9.03716 -5.00223  4.18297 255 255 255
 6.09481 -4.51019  3.72643 255 255 255
 8.87755 -6.35703  4.14712 255 255 255
 6.95561 -3.92931  3.73717 255 255 255
  9.1979 -6.09085  4.28296 255 255 255
 7.55324 -6.35829  4.14062 255 255 255
8.56511 -3.5941 3.42688 255 255 255
 7.28977 -6.62799  3.99246 255 255 255
4.14225 -5.9418 3.56836 255 255 255
 4.56796 -6.37179  3.53508 255 255 255
 7.17126 -4.95252  4.17521 255 255 255
 6.35564 -4.01554  3.73601 255 255 255
 9.21807 -6.33526  4.27644 255 255 255
 7.76463 -5.18463  4.21316 255 255 255
 4.46768 -6.38679  3.51138 255 255 255
 3.20151 -5.49287  3.55876 255 255 255
  4.2138 -4.46161   3.6437 255 255 255
 2.48857 -5.46659  3.53117 255 255 255
  7.9353 -5.63131  4.22399 255 255 255
 7.35317 -5.71306  4.16004 255 255 255
 4.72157 -6.45617  3.53472 255 255 255
 7.71723 -4.70315  4.21724 255 255 255
 3.37028 -2.27283  2.10252 255 255 255
 6.39312 -4.04275  3.71525 255 255 255
 4.18533 -5.03632  3.60016 255 255 255
 5.97083 -4.44949  3.70432 255 255 255
 9.33015 -5.81698  4.26612 255 255 255
 8.75125 -6.52392   4.1498 255 255 255
 7.72857 -4.86596  4.23083 255 255 255
 6.51779 -3.84834  3.73915 255 255 255
 3.47167 -5.78418  3.52423 255 255 255
 5.54596 -4.30135  3.68103 255 255 255
 10.1749 -5.51326  4.19103 255 255 255
 9.49054 -6.33963  4.25274 255 255 255
 9.84913 -6.60563   4.2684 255 255 255
 9.15155 -6.11623  4.27721 255 255 255
 2.04977 -5.00251  3.30465 255 255 255
8.76399 -6.1218 4.22669 255 255 255
8.17545 -5.7257 4.20942 255 255 255
5.47485 -4.8111 3.63415 255 255 255
4.25683  -4.878 3.61975 255 255 255
 4.29661 -3.58933  2.88599 255 255 255
 5.02801 -6.19321  3.61686 255 255 255
 7.85677 -2.96358  3.79643 255 255 255
 2.88464 -6.71586  3.43179 255 255 255
 9.25389 -6.06752   4.2531 255 255 255
 4.08023 -3.15379  2.92165 255 255 255
 6.67077 -4.99109  3.67891 255 255 255
0.0244571  -5.91533   3.21343 255 255 255
0.700545 -6.04812   3.3037 255 255 255
2.63152 -6.5969 3.46485 255 255 255
 1.35838 -5.61048  3.32265 255 255 255
3.48885 -3.4949   2.244 255 255 255
 4.64135 -6.30606  3.60295 255 255 255
9.24243  -6.531 4.18291 255 255 255
   4.559 -5.40363  3.62407 255 255 255
  1.1664 -5.81679   3.2437 255 255 255
 4.26249 -3.86789  3.21036 255 255 255
 6.53799 -2.99038  3.71358 255 255 255
 4.08103 -6.03343  3.50247 255 255 255
 6.12755 -6.07042   3.6781 255 255 255
0.138918 -5.63574  3.23018 255 255 255
0.404681 -5.69188  3.27844 255 255 255
 4.00517 -3.19376  2.93474 255 255 255
 6.57051 -4.11369  3.68612 255 255 255
 1.95451 -6.36485  3.36065 255 255 255
  3.0107 -6.39693  3.43789 255 255 255
 4.42751 -3.50751  2.66021 255 255 255
 5.82778 -4.20207  3.72441 255 255 255
 5.52143 -4.62394   3.6532 255 255 255
 7.53224 -6.89924  3.99425 255 255 255
  7.3668 -4.78967  4.19582 255 255 255
9.27573 -4.8487 4.04874 255 255 255
 6.02979 -2.95196  3.26628 255 255 255
 2.1336  -4.957 3.36066 255 255 255
 8.66077 -3.89106  3.45718 255 255 255
 3.19943 -4.02058  2.02314 255 255 255
 4.60769 -2.93782  2.88608 255 255 255
 8.67153 -6.92264  4.16253 255 255 255
 6.27312 -6.75401  3.75921 255 255 255
 4.49632 -3.38126   2.7886 255 255 255
 4.09095 -3.46598  2.95751 255 255 255
 2.30888 -6.52485  3.40032 255 255 255
 4.22083 -2.93522  2.71423 255 255 255
 4.96201 -2.56921  2.95795 255 255 255
 3.18023 -4.83121  3.06049 255 255 255
 5.13227 -6.39615  3.59119 255 255 255
 7.24674 -6.25199  4.14221 255 255 255
 5.16639 -3.04865  3.03965 255 255 255
 4.23262 -3.34263  2.97981 255 255 255
 3.28633 -4.74411  3.12244 255 255 255
 2.52772 -3.86427  1.92704 255 255 255
 3.33231 -5.72678   3.5142 255 255 255
 7.61783 -4.57579  4.15162 255 255 255
  6.2611 -2.64112  3.29929 255 255 255
  4.5264 -3.82215  3.25468 255 255 255
 7.21248 -6.76279  3.89759 255 255 255
 3.12623 -5.44757  3.54908 255 255 255
 2.34647 -3.60432  1.94063 255 255 255
 4.45432 -6.84535  3.49884 255 255 255
 5.43903 -2.98532  3.26796 255 255 255
  5.0094 -5.69192  3.50433 255 255 255
  7.7961 -1.94699  3.86096 255 255 255
 3.34947 -4.95016  3.07528 255 255 255
8.69254 -5.3089 4.24922 255 255 255
 6.30619 -6.02916  3.63026 255 255 255
 2.80229 -3.45797  2.02219 255 255 255
 6.05404 -3.09305  3.23463 255 255 255
 6.34089 -3.29709  3.78124 255 255 255
 1.49927 -4.85643  3.31144 255 255 255
 6.37991 -6.64323  3.61108 255 255 255
-0.0663039   -6.16939    3.19481 255 255 255
 5.98919 -3.22461   3.2383 255 255 255
 4.76557 -6.84694   3.5515 255 255 255
 1.66865 -5.24544  3.29433 255 255 255
 8.24483 -2.85694  3.45082 255 255 255
0.411963  -4.7711  3.31758 255 255 255
 4.40962 -2.83719  2.76194 255 255 255
 8.19992 -5.63709  4.18405 255 255 255
 8.82919 -6.97759  4.13931 255 255 255
 7.19179 -5.53324  4.13623 255 255 255
 7.60037 -6.91908  3.96885 255 255 255
 5.04798 -6.51598  3.56924 255 255 255
 4.23311 -5.70019  3.58373 255 255 255
 7.52324 -6.76696  3.98405 255 255 255
 7.46865 -2.94027  3.85444 255 255 255
 6.33481 -6.77348  3.53329 255 255 255
 6.41536 -6.75746  3.61049 255 255 255
0.184788 -4.83154  3.23285 255 255 255
 2.38689 -4.09022  1.92704 255 255 255
 2.14168 -3.48038  2.00393 255 255 255
 5.81992 -5.13864  3.67248 255 255 255
  2.4408 -4.01765  1.93683 255 255 255
 2.59479 -5.02936  3.45971 255 255 255
2.21251 -4.9568  3.3448 255 255 255
 2.15987 -4.01074  1.91726 255 255 255
 4.59922 -2.86323  3.00575 255 255 255
  9.5318 -5.64939  4.28387 255 255 255
 6.17837 -4.81074  3.71223 255 255 255
 3.56326 -4.29813   2.9234 255 255 255
0.937201 -4.24176  2.59089 255 255 255
 4.72618 -2.72719  2.97419 255 255 255
-0.0741496   -5.09066    3.23044 255 255 255
 4.47412 -4.07108   3.7186 255 255 255
 8.67864 -3.27642  3.38367 255 255 255
 2.34322 -3.90584  1.94423 255 255 255
 9.68746 -6.82257  4.21626 255 255 255
  6.2208 -5.77903  3.69419 255 255 255
 5.47263 -6.44031  3.67193 255 255 255
 4.99017 -6.20867  3.53145 255 255 255
 7.41366 -4.21481  3.86558 255 255 255
