ply
format ascii 1.0
element vertex 1181
property float x
property float y
property float z
property uchar red
property uchar green
property uchar blue
end_header
0.117693 0.212709  2.47053 255 255 255
 0.304152 -0.480107   2.53829 255 255 255
  2.8687 -1.19661   2.9916 255 255 255
 2.16439 0.531506  2.33316 255 255 255
 1.69594 0.640507  2.95535 255 255 255
 -0.91201 -0.240022    2.5693 255 255 255
-0.182041 -0.550007   2.25439 255 255 255
   0.4128 -0.277334   2.67363 255 255 255
-0.930661  0.629531   2.28532 255 255 255
-0.00680092   -0.451675     2.25027 255 255 255
 2.37418 0.576687  2.30221 255 255 255
-0.0446336 -0.0615424    2.69806 255 255 255
  2.03905 -0.153768    3.1142 255 255 255
 1.70676 0.501733  2.97096 255 255 255
 -1.14747 -0.494862   2.09214 255 255 255
 2.66731 -1.19476  3.00984 255 255 255
 2.62842 -1.29363  3.00579 255 255 255
1.58125 0.78884 2.96839 255 255 255
-0.400684  0.508693   2.48599 255 255 255
  2.46015 -0.452848   3.09081 255 255 255
-1.45952 0.336092  2.29271 255 255 255
 1.30322 0.170772  3.02662 255 255 255
0.186344 0.541789  2.74486 255 255 255
-0.225979  0.689146   2.53493 255 255 255
 1.57827 0.583715  2.98939 255 255 255
-0.302239  0.459901   2.52308 255 255 255
-0.23532 0.304186  2.72555 255 255 255
-0.453096  0.563872   2.53056 255 255 255
0.283922 0.115266  2.45089 255 255 255
 2.31889 0.639967  2.29328 255 255 255
 0.992836 -0.961711    3.0514 255 255 255
0.0316641  0.465274   2.66943 255 255 255
 1.13611 -1.01016  3.04604 255 255 255
0.277306 0.544059  2.74104 255 255 255
0.218231 0.116141  2.42608 255 255 255
   1.99165 -0.0505481     3.0884 255 255 255
 1.68013 -0.11594  3.07665 255 255 255
0.288973  0.30819  2.58099 255 255 255
-0.278491   0.17278   2.42125 255 255 255
   1.73028 -0.0625854    3.07455 255 255 255
 2.35909 -1.42714  3.05968 255 255 255
  2.5788 0.927166  2.30113 255 255 255
0.387262  0.13159  2.44849 255 255 255
-1.43117 0.660374  2.35325 255 255 255
-0.556183 -0.222815   2.25927 255 255 255
-0.091596 -0.541143   2.20393 255 255 255
-0.281234 -0.112534   2.48078 255 255 255
0.0730336 -0.365975   2.65378 255 255 255
   2.3484 -0.505939   3.12346 255 255 255
  2.24188 0.0461361    3.2277 255 255 255
 -0.44755 -0.450046   2.19469 255 255 255
   3.3662 -0.823995   3.04038 255 255 255
0.247669 0.640477   2.7153 255 255 255
  1.81133 -0.808423    3.0782 255 255 255
0.406583 0.536153   2.8429 255 255 255
 2.53427 -1.16368  3.07597 255 255 255
-0.494881 -0.169684   2.23234 255 255 255
0.986231 -1.09346  3.05871 255 255 255
 1.92761 0.298596  2.99519 255 255 255
0.0628407  0.417454   2.72998 255 255 255
 0.50214 -1.04588  2.27015 255 255 255
 -2.46287 -0.976398   2.45213 255 255 255
 -1.2217 0.760573  2.35687 255 255 255
-2.15688 -1.15294  2.57226 255 255 255
0.138801  0.11226  2.57819 255 255 255
0.55628 1.06877 2.87497 255 255 255
-0.163566 -0.505995   2.21727 255 255 255
  2.39444 -0.715048   3.09322 255 255 255
0.368785  0.25114  2.50798 255 255 255
-0.421358  -0.15052    2.3111 255 255 255
 2.46334 0.693771  2.26055 255 255 255
  3.36929 -0.861108   2.98837 255 255 255
  0.169622 0.00118513    2.40156 255 255 255
-0.442986 -0.674605   2.24086 255 255 255
-0.453158  0.614134   2.48261 255 255 255
-0.171949  0.155436   2.70021 255 255 255
 1.33992 -0.64708  3.05343 255 255 255
 2.38536 0.830851  2.26284 255 255 255
 0.850098 -0.435573   2.55487 255 255 255
  1.7795 0.726427  2.95168 255 255 255
-2.39863 -1.10858  2.44519 255 255 255
-0.634507  0.892893    2.7202 255 255 255
 1.46057 0.255913  2.80129 255 255 255
 2.11077 0.912541  2.31525 255 255 255
 2.26192 0.635922  2.29755 255 255 255
 1.71044 0.568978  2.96545 255 255 255
 0.956157 -0.836677   3.04429 255 255 255
 2.21848 0.913819  2.31062 255 255 255
 2.59641 0.875161  2.30109 255 255 255
2.24179 0.86743 2.30406 255 255 255
 2.51105 0.785882  2.27181 255 255 255
 2.29601 0.774822   2.3053 255 255 255
 1.88368 0.122667   2.9597 255 255 255
-0.159788 -0.630182    2.2075 255 255 255
-0.747781  0.517799   2.31993 255 255 255
 1.15042 -1.10855  3.02451 255 255 255
-0.766388  0.507431   2.26981 255 255 255
0.0443067 -0.583476   2.23195 255 255 255
 1.96807 0.826797  2.34524 255 255 255
   1.92062 -0.0779964    3.08293 255 255 255
0.0184392 -0.535118    2.2264 255 255 255
  1.13732 -0.385703   2.68615 255 255 255
 0.794731 -0.754491   3.04218 255 255 255
-0.761078  0.454893   2.23941 255 255 255
  1.63323 -0.337441     3.061 255 255 255
0.0964403 -0.672412   2.22486 255 255 255
  2.05232 -0.571903   3.09372 255 255 255
 1.65294 -0.30248  3.05382 255 255 255
0.0495863 -0.452734   2.21323 255 255 255
1.06205 -0.6997 3.05497 255 255 255
 0.102679 -0.542385   2.19999 255 255 255
0.133015 -0.57252  2.14248 255 255 255
0.0758761 -0.499072   2.21255 255 255 255
 -0.11071 -0.605203   2.22533 255 255 255
1.28993 0.80259 2.97919 255 255 255
-1.34247 0.755897   2.2721 255 255 255
-0.0309803  -0.742259    2.21353 255 255 255
 1.65724 0.580211  2.97461 255 255 255
-2.50023 -1.21051  2.45371 255 255 255
-0.0844484  -0.659463    2.23258 255 255 255
0.283974 -1.29887  2.21002 255 255 255
-0.709782  0.298692   2.31517 255 255 255
-0.0732914   0.602745    2.58178 255 255 255
-0.614181  0.826922   2.57229 255 255 255
 1.23165 0.820668  2.94018 255 255 255
 0.161966 -0.398799   2.71537 255 255 255
  1.80255 -0.711006   3.08691 255 255 255
2.60724 0.67497  2.2905 255 255 255
 0.204368 -0.479341   2.47995 255 255 255
 1.75535 0.697844  3.07539 255 255 255
  1.87007 -0.683659    3.0812 255 255 255
-0.288841 -0.158395    2.4338 255 255 255
  1.91273 -0.359922   3.07134 255 255 255
 0.825184 -0.693819   3.01827 255 255 255
  1.75631 -0.535335   3.07609 255 255 255
-0.897573 -0.536064   2.09728 255 255 255
1.20813 -0.9792 3.04522 255 255 255
 1.70566 0.859906  2.95532 255 255 255
 0.102886 -0.110075   2.52112 255 255 255
-2.35272 -1.01082  2.41704 255 255 255
 0.116693 -0.316891   2.71478 255 255 255
 -1.10281 0.0220237   2.31111 255 255 255
 2.78809 0.145464  3.11025 255 255 255
 2.84932 -1.04426  3.01502 255 255 255
 0.862756 -0.754546   3.02999 255 255 255
 1.71209 -1.83942  3.05249 255 255 255
 -1.03856 -0.125968   2.23438 255 255 255
  1.7429 0.528224  2.97437 255 255 255
  1.661 0.52846 2.97892 255 255 255
-0.827906   0.64597   2.32642 255 255 255
0.0972395 -0.385113   2.70498 255 255 255
  -1.02902 -0.0943552    2.30792 255 255 255
 -0.418729 -0.0278158    2.42784 255 255 255
0.947111 0.816155  2.93511 255 255 255
-1.07169 -0.20852  2.30188 255 255 255
  2.07043 -0.402879   3.08844 255 255 255
 0.140305 -0.360313   2.73737 255 255 255
-0.0712963   0.723114    2.53701 255 255 255
-1.12053  -0.2339  2.31364 255 255 255
     1.7 -0.22573  3.06503 255 255 255
-1.46502 0.707962  2.33869 255 255 255
 1.96464 0.320306  2.96959 255 255 255
 0.150099 -0.503446   2.55827 255 255 255
0.555876 -2.73963  6.19914 255 255 255
 1.78628 0.847766   2.9654 255 255 255
  0.27208 -0.680558   2.68091 255 255 255
  0.322405 -0.0576484    2.51257 255 255 255
 0.829068 -0.733785   3.00443 255 255 255
-0.783075  0.566657    2.3524 255 255 255
-0.630192 -0.542272   2.23192 255 255 255
  0.78696 -0.634873   3.00733 255 255 255
-0.840449  0.894656   2.36501 255 255 255
  1.82498 -0.983684   2.85291 255 255 255
  1.84363 -0.486043   3.06945 255 255 255
 2.65167 -1.22442  2.80904 255 255 255
-0.0951277   0.915525    2.49968 255 255 255
-0.15163 0.836592  2.50373 255 255 255
-0.452154 -0.394189   2.34265 255 255 255
-0.613371   1.18481   2.65899 255 255 255
   1.89912 -0.0204143    3.05812 255 255 255
-0.995864  0.188455   2.30619 255 255 255
 -1.32066 0.0478941   2.24758 255 255 255
0.381454 0.168019  2.57341 255 255 255
-0.71405  0.34506  2.30917 255 255 255
   2.8836 -0.851371   3.04641 255 255 255
-0.877241  0.255586   2.31047 255 255 255
  2.2515 -1.70729  3.06658 255 255 255
 2.15204 0.945154  2.31218 255 255 255
   1.6791 -0.116347   3.07436 255 255 255
  1.28823 -0.556824   2.95738 255 255 255
-0.670417 -0.841645    2.1388 255 255 255
 2.35909 -1.42714  3.05968 255 255 255
  2.87011 -0.578025   3.07826 255 255 255
-0.225979  0.689146   2.53493 255 255 255
 2.48951 0.746407  2.27486 255 255 255
  1.56626 -0.366265   3.05591 255 255 255
 -1.57412 -0.951803   2.20306 255 255 255
 2.59393 -1.03894  3.09596 255 255 255
 2.31889 0.639967  2.29328 255 255 255
  2.69893 -0.879312   3.08744 255 255 255
  3.32822 -0.899647   3.00742 255 255 255
-0.424733   1.12435   2.57818 255 255 255
  1.77993 -0.176622    3.0746 255 255 255
   2.5602 -0.475156   3.11881 255 255 255
   3.1108 -0.530264   3.09053 255 255 255
-0.0506839  -0.478215    2.23862 255 255 255
-0.787261    1.2264   2.69283 255 255 255
-0.829559  0.603277   2.31678 255 255 255
-1.36079 0.379002  2.28264 255 255 255
-0.214964 -0.537155   2.23138 255 255 255
  1.90407 -0.318625   3.07493 255 255 255
2.16783 1.00441 2.31807 255 255 255
 1.91769 0.864865   2.2978 255 255 255
  2.0881 0.959256  2.32397 255 255 255
   1.6798 -0.533049   3.03361 255 255 255
  1.15088 -0.705245   2.98846 255 255 255
 2.57355 0.544302  2.34604 255 255 255
-1.61475 0.256769  2.31983 255 255 255
 1.88646 0.121411  2.96796 255 255 255
-0.798028  0.512076   2.24884 255 255 255
 1.89443 0.911901  2.30219 255 255 255
-0.308581 -0.905071   2.21858 255 255 255
0.550762 -1.32543  2.18901 255 255 255
 2.32067 0.730327  2.30124 255 255 255
-1.28267 0.046362   2.2399 255 255 255
 2.91064 -1.20847  2.98346 255 255 255
-0.502829  0.983376   2.57139 255 255 255
 1.91154 -0.40559  3.06421 255 255 255
 2.19501 0.959116  2.31772 255 255 255
-1.36638 0.314229  2.22551 255 255 255
 1.63249 0.646695   2.9635 255 255 255
 3.00159 -1.10451  2.98867 255 255 255
 3.04796 -1.01693  2.99512 255 255 255
-0.118239  0.695676   2.52804 255 255 255
-0.544126    1.0551   2.58261 255 255 255
1.47704 -1.6675 3.04536 255 255 255
 0.384301 -0.867389   2.29561 255 255 255
 0.502299 -0.765207   2.22363 255 255 255
0.306161 -0.89675  2.16294 255 255 255
  1.55602 -0.456687   3.01849 255 255 255
  2.69675 -0.878202   3.08306 255 255 255
 2.66434 -1.17912  3.03695 255 255 255
 1.37159 -0.54595  2.98065 255 255 255
-0.00427313   -0.443143     2.22333 255 255 255
 -2.5219 -1.47837  2.65011 255 255 255
-0.0607492  -0.574287    2.21326 255 255 255
-2.5393 1.34761 2.63767 255 255 255
-2.48812 -1.01393  2.44094 255 255 255
-2.25429 -1.02985  2.41195 255 255 255
0.578389 -1.38956  2.21117 255 255 255
 -2.5281 -1.18257  2.46481 255 255 255
-2.35852 -1.04802  2.41844 255 255 255
-1.64404 0.964297  2.61447 255 255 255
-2.35272 -1.01082  2.41704 255 255 255
 -2.42259 -0.946916   2.46621 255 255 255
  2.08844 -0.937082   3.04266 255 255 255
-0.88969 -0.75079  2.17838 255 255 255
  2.19759 -0.758815   3.09291 255 255 255
  0.39639 -0.697091   2.41223 255 255 255
  2.24134 -0.583726   3.06955 255 255 255
 2.75026 -1.22997  3.07572 255 255 255
  2.28742 -0.484567   3.08853 255 255 255
 1.8336 0.15651 2.90522 255 255 255
-1.37323  -1.2389  2.25642 255 255 255
0.231555  -1.3314  2.22251 255 255 255
  -2.3696 -0.960933   2.43841 255 255 255
0.118781 0.694504  2.56063 255 255 255
 1.70664 0.502211  2.97102 255 255 255
 1.62643 0.585424   3.1708 255 255 255
-1.53931 -0.93129  2.22511 255 255 255
-2.28575 0.109473  2.24595 255 255 255
 1.66949 0.487281  2.97597 255 255 255
 -2.31298 -0.242378   2.22393 255 255 255
   2.59196 -0.0412709    3.23796 255 255 255
  1.40045 -0.808462   3.01271 255 255 255
  1.1406 0.617933  3.08023 255 255 255
-1.89251  1.00967  2.66099 255 255 255
 2.31111 0.355914  2.54725 255 255 255
-2.40436  -1.3196   2.5636 255 255 255
-2.34274 0.813168  2.49316 255 255 255
  -0.50691 -0.0637925    2.28671 255 255 255
-0.542059  0.786827   2.49687 255 255 255
0.641295 -1.08897  2.26818 255 255 255
  1.79635 -0.101669   3.07204 255 255 255
0.343157  1.21828  2.37594 255 255 255
2.65865 0.10961 3.23856 255 255 255
  1.23749 -0.137983   2.88232 255 255 255
-2.20134 0.937974    2.585 255 255 255
 -2.2458 0.995855  2.14539 255 255 255
 -2.05037 -0.910125   2.48748 255 255 255
 3.14245 -1.05403  2.96713 255 255 255
0.904714  1.32629  2.40034 255 255 255
1.05782 1.32354 2.48809 255 255 255
-2.51711  -1.5337  2.65522 255 255 255
-0.34121  1.08921   2.6615 255 255 255
 -1.62258 -0.775013   2.24052 255 255 255
 1.57492 -1.74336  3.03912 255 255 255
  1.78368 -0.268294   3.04382 255 255 255
 1.28916 0.335997  2.90211 255 255 255
 -1.59928 -0.648401   2.24891 255 255 255
 -1.95281 -0.295609    2.2474 255 255 255
1.32492 1.46432 2.78595 255 255 255
 0.651113 -0.128021   2.76592 255 255 255
-1.19339 -1.39962  2.29832 255 255 255
 -1.54848 -0.608743   2.45549 255 255 255
0.114821 0.348212  2.45877 255 255 255
-0.853455 -0.793892   2.36913 255 255 255
-2.38831  -1.2408  2.60943 255 255 255
0.62035 1.39042  2.6597 255 255 255
-0.530245   1.49685   2.55057 255 255 255
  1.0157 0.644237  2.82213 255 255 255
  1.45759 -0.229787   2.90398 255 255 255
-1.95253 0.812912  2.65577 255 255 255
-0.233361  0.929896   2.49747 255 255 255
 -1.47432 -0.868771   2.21109 255 255 255
 0.18313 0.727199  2.58765 255 255 255
  2.0661 -0.80663  3.07958 255 255 255
 2.66731 -1.19476  3.00984 255 255 255
 2.77373 -1.46342  3.01128 255 255 255
  1.07841 -0.346247   2.68085 255 255 255
 -2.01992 -0.261103    2.1692 255 255 255
1.21294 1.33249 2.90598 255 255 255
 1.29605 0.171887   2.9995 255 255 255
-1.96868 -1.41491  2.72779 255 255 255
 -0.6958 -0.20323  2.05779 255 255 255
 -1.09083 -0.268801   2.31325 255 255 255
 -2.62175 -0.525941   2.49655 255 255 255
 -1.4052 -1.42934  2.32782 255 255 255
-1.77004 0.389796  2.35413 255 255 255
 -2.60097 -0.663074   2.52183 255 255 255
-2.04942 -1.36332  2.72183 255 255 255
 2.17891 0.247294  3.05399 255 255 255
   -2.447 -0.388846   2.28139 255 255 255
-2.08859 -0.04298   2.1812 255 255 255
 -1.36474 -0.877845   2.15405 255 255 255
 1.25446 0.401336   3.0004 255 255 255
-2.03907 -1.48698  2.61835 255 255 255
 0.623549 -0.335744   2.79759 255 255 255
  1.07325 -0.881872   3.05262 255 255 255
-1.56374  0.51742   2.3027 255 255 255
 2.53061 0.679627  2.28049 255 255 255
-1.22859  1.20042  2.40708 255 255 255
-1.11218 -1.17881  2.26721 255 255 255
-2.13358 0.645066  2.60636 255 255 255
-2.50706 -1.31017  2.62609 255 255 255
 -1.9294 -0.11188  2.18723 255 255 255
-0.327854  0.932245   2.60306 255 255 255
0.18878 1.39285 2.30331 255 255 255
 1.19079 -0.57573  3.01846 255 255 255
-1.97695 -1.51912  2.64753 255 255 255
-1.98427  1.07005  2.65532 255 255 255
-1.39611 -1.00045  2.24051 255 255 255
0.757635  1.27039   2.2054 255 255 255
  1.05678 -0.760401   3.03198 255 255 255
-0.720675   1.19546   2.67748 255 255 255
0.593329 -1.05181  2.28485 255 255 255
0.170073  1.01061  2.29261 255 255 255
-2.15327 0.745837  2.56308 255 255 255
0.204068 0.921275  2.79572 255 255 255
  2.9206 0.238718  3.06074 255 255 255
-2.48889 0.814036  2.56909 255 255 255
0.79407 1.45128 2.69209 255 255 255
 -2.05904 -0.390119   2.22957 255 255 255
1.88841 1.41819 2.34088 255 255 255
1.29382 1.58323 3.10978 255 255 255
2.44816 1.46874  2.3279 255 255 255
  1.46573 -0.427347   3.05551 255 255 255
-1.78037 -1.35275  2.48504 255 255 255
  -1.9706 0.0282104   2.24525 255 255 255
-2.43995 -0.51542  2.35856 255 255 255
 0.587542 -0.215256   2.60014 255 255 255
0.306545  1.43731  2.61866 255 255 255
-2.08886 0.857797  2.61214 255 255 255
2.47999  1.1194 2.31418 255 255 255
-2.06791 0.587141  2.55732 255 255 255
-1.09511  1.34463   2.0613 255 255 255
-2.14897 -1.02602  2.42691 255 255 255
-2.16724  1.05143  2.62971 255 255 255
  1.02352 -0.120839   2.75011 255 255 255
-0.442919   1.24194   2.68503 255 255 255
-2.29785  1.01487  2.57501 255 255 255
1.38749 1.59608 2.77692 255 255 255
-1.67123 -1.42826   2.4497 255 255 255
-2.22016  1.06398  2.61855 255 255 255
-2.00523 0.632982  2.62578 255 255 255
0.458732 0.130934  2.62826 255 255 255
-0.750322   1.47486   2.61741 255 255 255
-0.706836 -0.821618   2.08574 255 255 255
  0.899521 -0.0898396    2.75622 255 255 255
2.52496 1.05643 2.32697 255 255 255
-2.06697 0.875617  2.67283 255 255 255
-2.32037 0.936339  2.41594 255 255 255
  1.81398 -0.817218   2.88956 255 255 255
-2.34582 0.770442  2.65322 255 255 255
0.758909  1.03369  2.70331 255 255 255
0.00413414  -0.259566    2.70274 255 255 255
-0.436121 -0.161552    2.1877 255 255 255
0.725861 -1.10264  2.28274 255 255 255
-2.19316 -1.57961  2.69407 255 255 255
 1.59618 0.040672  2.82301 255 255 255
-1.98838 -1.15263  2.56591 255 255 255
 0.678955 -0.476164   3.01526 255 255 255
 0.62924 0.990864  2.75441 255 255 255
 1.40973 -1.52264  3.01711 255 255 255
-0.174078   1.45019   2.45353 255 255 255
 0.422073 -0.421826   2.52275 255 255 255
-1.29874  -1.4001   2.3405 255 255 255
-0.0939801    1.24203    2.73682 255 255 255
3.20096  -1.177 3.01231 255 255 255
-2.15945 0.723822  2.68333 255 255 255
-0.704559 -0.497683   2.39526 255 255 255
-0.986847 -0.410778   2.17052 255 255 255
-0.876435 -0.622221     2.172 255 255 255
-2.49005 0.877539  2.57254 255 255 255
 0.915611 -0.126387   2.68191 255 255 255
0.0207411   1.31742   2.53961 255 255 255
2.27746   1.425 2.25789 255 255 255
-2.39356 -1.67229  2.67393 255 255 255
-0.462516 -0.715777    2.2334 255 255 255
-2.65016 -1.37377  2.57217 255 255 255
 3.29568 -1.01941  2.98607 255 255 255
-2.34944 0.246847  2.31213 255 255 255
 -2.18073 -0.652103   2.23365 255 255 255
1.48614  1.4054 2.75497 255 255 255
 1.6527 1.11668 2.75092 255 255 255
 -1.07582 -0.485556   2.68819 255 255 255
-0.982751 -0.630268     2.132 255 255 255
-1.79784  1.15617  2.51019 255 255 255
 2.17449 -1.29506  3.05038 255 255 255
 2.44862 0.827637  2.28677 255 255 255
 -2.2566 -1.16583  2.63183 255 255 255
  1.7493 0.949215  2.74889 255 255 255
-0.167522    0.3459   2.72751 255 255 255
 1.6556 1.06215 2.95813 255 255 255
 1.04074 -1.57989  3.03375 255 255 255
-2.28575 0.109473  2.24595 255 255 255
-2.18755 -1.01319  2.53236 255 255 255
-1.87391 0.708786  2.62834 255 255 255
 1.37444 -0.48794  2.91364 255 255 255
-0.624238 -0.881847   2.14378 255 255 255
2.28257 1.11153  2.2905 255 255 255
-0.756274 -0.386474   2.00474 255 255 255
1.58511 1.24369 2.66354 255 255 255
-1.87524  1.13937  2.58593 255 255 255
 2.31623 0.973241  2.28672 255 255 255
  1.29043 -0.393854   2.69648 255 255 255
-2.57444 -1.05997   2.4565 255 255 255
0.690682  1.05549  2.80742 255 255 255
-0.437898 -0.348827   2.19272 255 255 255
2.13955 1.05139 2.31575 255 255 255
  2.22502 -0.949429   3.06597 255 255 255
 2.36232 0.881995  2.27359 255 255 255
2.36181 1.18344 2.27689 255 255 255
-1.19837 -1.15917  2.24185 255 255 255
  -2.08046 -0.0986028    2.15568 255 255 255
2.18382 1.19624 2.28787 255 255 255
-2.25429 -1.02985  2.41195 255 255 255
1.81393 1.41362 2.30767 255 255 255
 2.32848 0.453407  2.38195 255 255 255
2.28351 1.31831 2.27765 255 255 255
  2.37921 -0.708045   3.07013 255 255 255
-1.51819 0.975868  2.66268 255 255 255
  1.15337 -0.236184   2.82558 255 255 255
0.309615 -1.21143  2.17167 255 255 255
-0.865658 -0.529361   2.38569 255 255 255
2.05121 1.00176 2.30492 255 255 255
-1.31704  1.22659  2.04623 255 255 255
2.07586 1.37667 2.28195 255 255 255
 1.94377 -1.80378  3.03286 255 255 255
 -2.30736 -0.384364   2.24165 255 255 255
2.41991 1.09459 2.28411 255 255 255
2.05316 1.42712 2.29422 255 255 255
2.46162 1.00123 2.26495 255 255 255
2.39234 1.13978 2.28293 255 255 255
-1.21498 0.838868  2.32307 255 255 255
-0.680984  0.980778   2.71789 255 255 255
  -2.00465 -0.0537715    2.16999 255 255 255
 2.41645 0.663344  2.26813 255 255 255
0.362078 -1.30755  2.18156 255 255 255
0.334367 -1.26356  2.19078 255 255 255
1.62132 1.42386 2.34391 255 255 255
1.58993 1.22442 2.75363 255 255 255
2.25547 1.36297 2.27318 255 255 255
-0.135373   1.40104    2.5087 255 255 255
 0.940427 -0.317156    2.5843 255 255 255
 2.4373 1.04658 2.26812 255 255 255
 -1.34961 -0.990698   2.24327 255 255 255
1.64973 1.51038 2.35721 255 255 255
 2.68504 -1.35076  3.06945 255 255 255
0.282782 -1.17271  2.19329 255 255 255
 3.15683 -1.28186  3.01281 255 255 255
 2.16086 0.819657  2.31054 255 255 255
-0.932379  0.978191   2.35683 255 255 255
 1.86149 0.926518    2.327 255 255 255
-2.68919 -0.80178  2.56974 255 255 255
-1.16453  1.29575  2.69022 255 255 255
-2.61338 -1.20641  2.49602 255 255 255
0.142098  1.39198  2.75737 255 255 255
 1.95799 -0.79282  3.06275 255 255 255
 2.07483 -1.19747  3.06189 255 255 255
1.73075 1.15274 2.32518 255 255 255
 1.71916 -1.47233  2.84748 255 255 255
0.221343  1.44893  2.42993 255 255 255
 2.84537 0.136238  3.13276 255 255 255
 2.6344 1.01352 2.33859 255 255 255
-1.83184 -1.48244   2.4561 255 255 255
1.53317  1.3403 2.77834 255 255 255
-0.794636   1.39447   2.16077 255 255 255
  2.4985 0.958149  2.28109 255 255 255
 1.06634 0.843919   2.9296 255 255 255
-1.63622  1.29057  2.04865 255 255 255
  2.1863 0.773626  2.30665 255 255 255
  -2.2407 -0.521037   2.21634 255 255 255
2.27798 1.19525 2.28337 255 255 255
 2.13512 0.866064  2.31126 255 255 255
-2.40053 -1.29488  2.61912 255 255 255
0.466077  1.08822  2.90702 255 255 255
  1.48626 0.0201268   2.78988 255 255 255
 1.86587 0.746195  2.64385 255 255 255
0.458286 0.535021  2.89673 255 255 255
1.93918 0.11371 2.98584 255 255 255
 -2.68664 -0.620222   2.57437 255 255 255
-1.94229 0.575998   2.5606 255 255 255
 2.43945 0.922932  2.28807 255 255 255
 2.46668 0.877793  2.28967 255 255 255
0.890336  1.42113  2.47195 255 255 255
-2.25212 0.832818  2.58986 255 255 255
-0.00098482      1.3939     2.40534 255 255 255
-0.242577   1.50029   2.70446 255 255 255
 -2.6665 -1.05968   2.4547 255 255 255
-0.230255  0.630482   2.50296 255 255 255
 0.72568 -1.19796  2.19802 255 255 255
2.30211 1.14919  2.2794 255 255 255
 -1.14141 -0.890605   2.12129 255 255 255
2.36112 1.06053 2.29128 255 255 255
2.38362 1.01285 2.28271 255 255 255
-0.0317936   0.360766    2.69779 255 255 255
2.12031 1.46572 2.28402 255 255 255
-2.66795 -1.30582  2.52655 255 255 255
-0.923101 -0.429246   2.12668 255 255 255
-1.94073 -0.64694  2.27491 255 255 255
2.33049 1.10427 2.28336 255 255 255
-1.28282  1.01968  2.62735 255 255 255
0.284157 -0.73175  2.63174 255 255 255
-2.69808 -1.47842  2.65876 255 255 255
1.72553 1.21379 2.37835 255 255 255
 2.48856 0.831853  2.28297 255 255 255
 0.515101 -0.275539    2.9008 255 255 255
-2.61584 -1.04954  2.45048 255 255 255
 1.55482 -0.27506  2.98973 255 255 255
 2.51432 0.910485  2.26265 255 255 255
 -2.69084 -0.856037    2.4695 255 255 255
0.671572 0.965043  2.66693 255 255 255
1.55129 1.27243 2.72168 255 255 255
 -2.12499 -0.924881   2.57079 255 255 255
-1.49085 0.688099  2.31375 255 255 255
 2.41722 0.969856  2.29636 255 255 255
-0.895857 -0.844016   2.30059 255 255 255
1.21831 1.21796 2.71292 255 255 255
 -2.11501 -0.153239   2.18153 255 255 255
-2.57941 0.847103  2.59732 255 255 255
-2.21534  1.01766  2.64779 255 255 255
-2.22075  0.92427  2.62314 255 255 255
0.467124 -1.31601  2.20839 255 255 255
-0.776583 -0.877468   2.16002 255 255 255
0.126165 0.908085  2.79597 255 255 255
0.132592 -1.32144  2.20159 255 255 255
 2.54476 0.865297  2.26998 255 255 255
  -2.433 -1.25043  2.55161 255 255 255
-0.488314   1.28157   2.70506 255 255 255
2.10994 1.21865  2.2952 255 255 255
-1.56805 0.972232  2.54483 255 255 255
 -2.22377 -0.936524   2.38616 255 255 255
 -1.08898 -0.307765   2.57592 255 255 255
-2.20269  1.08943  2.66324 255 255 255
-1.85192  1.08904  2.63919 255 255 255
-0.196693   1.50755   2.41593 255 255 255
1.03632 1.16713 2.91587 255 255 255
-1.83299 0.482928   2.2618 255 255 255
 -1.2334 -1.07812  2.25958 255 255 255
2.22747 1.40884 2.27417 255 255 255
-0.0745965    -1.3301    2.23081 255 255 255
 0.234036 -0.771693   2.19454 255 255 255
-1.29916 0.363546  2.25533 255 255 255
-1.43168 -1.14327  2.27873 255 255 255
 -2.1163 -1.54042  2.70465 255 255 255
-0.0424213     1.0534    2.65641 255 255 255
0.205376  -1.2912  2.23383 255 255 255
-2.05933  1.08437  2.67613 255 255 255
  1.10663 -0.387942   2.76636 255 255 255
 -2.2251 0.244019  2.21782 255 255 255
 2.2015 1.45382 2.27404 255 255 255
0.522894 -1.28419  2.20073 255 255 255
 0.29516 0.600917  2.73601 255 255 255
-1.76154  1.21458  2.12455 255 255 255
0.589301  1.01876  2.87564 255 255 255
  0.88881 -0.399772   2.59079 255 255 255
  1.02949 -0.265247   2.72677 255 255 255
  1.1046 -1.40062  2.81341 255 255 255
 3.27193 0.961314  3.09168 255 255 255
 -1.3377 -1.00882  2.18332 255 255 255
-0.444666 -0.236096   2.18817 255 255 255
-1.56215 0.647375  2.31475 255 255 255
-2.50121 -1.49499  2.68363 255 255 255
   2.232 -1.59298  3.06925 255 255 255
 1.13625 0.883492  2.76632 255 255 255
-0.597638 -0.905528   2.20891 255 255 255
 1.2066 1.47953 2.95858 255 255 255
-2.67129 -1.23692  2.50479 255 255 255
1.62359 1.39271 2.38192 255 255 255
 0.4833 1.12026 2.89231 255 255 255
-2.23273  0.92479  2.11469 255 255 255
2.66686 1.50423 2.36701 255 255 255
-2.61461 -1.15733  2.47505 255 255 255
-2.26316  1.06275  2.58897 255 255 255
 2.17627 0.214059  2.93593 255 255 255
-0.491355 -0.440176   2.20009 255 255 255
 -2.13771 -0.994131   2.55745 255 255 255
-0.966719 -0.493265   2.12779 255 255 255
1.69026 1.02722 2.71755 255 255 255
 -1.5478 -1.44627  2.39457 255 255 255
-2.51314 0.766979  2.61573 255 255 255
 1.24128 -1.02625  3.04971 255 255 255
-2.51437  1.30936  2.71243 255 255 255
 2.75026 -1.22997  3.07572 255 255 255
-1.11862   1.3306  2.01357 255 255 255
-0.855644   1.03107   2.38119 255 255 255
   1.11946 -0.0590916    2.70965 255 255 255
-0.734584    -0.789   2.19209 255 255 255
0.849173  1.52652  2.42977 255 255 255
-2.06407 0.793064  2.59715 255 255 255
-1.01633 0.177719   2.3428 255 255 255
-2.76916  1.46146  2.72789 255 255 255
 -1.66633 -0.927029   2.27775 255 255 255
-0.648926  -0.99796    2.1047 255 255 255
-1.21228 -1.10942  2.23489 255 255 255
-1.13255 -1.40632   2.2843 255 255 255
 2.56911 -1.28465  2.95773 255 255 255
 2.37765 -1.33368  3.10041 255 255 255
 -1.57853 -0.699669   2.23036 255 255 255
  1.14645 -0.344272   2.71562 255 255 255
  1.06052 -0.239332   2.70407 255 255 255
0.0995245  0.958622   2.42054 255 255 255
   -1.32969 0.000796803     2.29737 255 255 255
-1.98709 0.714696  2.66755 255 255 255
 1.03401 -1.33082  2.76706 255 255 255
-1.08211 -1.45773  2.39475 255 255 255
-1.50875 -1.17118  2.34462 255 255 255
-2.09758 0.310473  2.28213 255 255 255
 -1.45248 -0.983957    2.1704 255 255 255
 1.70991 0.983593  2.95504 255 255 255
-0.439538   1.16369   2.58156 255 255 255
-1.22013 -1.58805  2.49404 255 255 255
-0.998656   0.56898   2.28265 255 255 255
0.0143638  0.728321   2.57455 255 255 255
 0.249675 -0.430651   2.69424 255 255 255
0.909463 0.655394  2.94557 255 255 255
0.347723  1.52262  2.39991 255 255 255
-2.32247 0.939992  2.62789 255 255 255
-1.27831 0.406926  2.26145 255 255 255
-2.14843 0.300251  2.26712 255 255 255
  -2.3513 -0.819752   2.40354 255 255 255
  1.074 1.26583 2.86933 255 255 255
  1.05913 -0.787226   3.04507 255 255 255
  1.04564 -0.338754   2.72143 255 255 255
-0.689262  0.229884   2.36181 255 255 255
   -1.3654 -0.0247003    2.28668 255 255 255
2.76534 -1.3371 2.94978 255 255 255
 1.73727 -1.36296  2.87382 255 255 255
0.135591 0.824552  2.74396 255 255 255
0.283068  1.24894   2.2377 255 255 255
 3.06515 -0.97306  2.99174 255 255 255
 -1.44482 -0.125253   2.28751 255 255 255
-2.15598 0.840551  2.66128 255 255 255
-2.47815    1.249  2.55532 255 255 255
0.249668 0.168765  2.51445 255 255 255
1.67011 1.07868 2.90964 255 255 255
-2.06703 0.953482  2.65493 255 255 255
-0.61483 0.821302  2.40328 255 255 255
-0.485459  0.990393   2.65019 255 255 255
 3.28956 -1.06692  3.01721 255 255 255
-2.30194 -1.08052   2.4157 255 255 255
-1.04419 0.544788  2.28591 255 255 255
-0.920632  0.569646   2.24998 255 255 255
-2.42342 -1.24304  2.60572 255 255 255
 2.31826 0.376382  2.29711 255 255 255
 -1.88318 -0.323053   2.23872 255 255 255
-0.916223    1.3702   2.11454 255 255 255
-2.16986 -1.02191  2.34008 255 255 255
-0.870067  -1.02011   2.20651 255 255 255
 0.724474 -0.969351   2.27873 255 255 255
 -2.63121 -0.783414   2.58376 255 255 255
 -2.25091 -0.203367   2.19445 255 255 255
2.59069 1.11694 2.36621 255 255 255
 -1.29807 -0.966474   2.21162 255 255 255
-0.549865 -0.879974   2.21902 255 255 255
-2.28979 -0.16894  2.22093 255 255 255
-1.86557 0.756548  2.64328 255 255 255
 -1.93821 -0.352683   2.25303 255 255 255
   -1.249 -0.289474   2.30865 255 255 255
 2.64716 0.703867  2.32611 255 255 255
-1.54772 -1.20081  2.27535 255 255 255
-1.59455 -1.13177   2.2773 255 255 255
 -2.34246 -0.197417   2.23505 255 255 255
 2.27052 -1.61377  3.06096 255 255 255
 1.34865 0.125443  2.81576 255 255 255
 -1.85886 -0.339036   2.25697 255 255 255
 -2.37715 -0.307365   2.23773 255 255 255
  -1.997 -1.31351  2.70354 255 255 255
0.0359809   1.00066   2.51235 255 255 255
0.218845  1.45343  2.67198 255 255 255
-2.26248 0.766057  2.55177 255 255 255
   1.5268 -0.459765   3.05539 255 255 255
0.618439 -1.26691  2.21007 255 255 255
 1.04336 -1.29553  2.77238 255 255 255
 2.96425 -1.17871   2.9861 255 255 255
0.137484 0.320354  2.59062 255 255 255
  0.31792 -0.750976   2.50732 255 255 255
 -1.07472 -0.210676   2.31064 255 255 255
 -2.35865 -0.345831   2.23781 255 255 255
  -2.08057 -0.0478214    2.23463 255 255 255
  2.37396 -0.135722   3.07481 255 255 255
-2.70343 -1.39288   2.5618 255 255 255
0.780588 -1.14717  2.28704 255 255 255
  1.08532 -0.889654   3.04351 255 255 255
 -0.51985 -0.905539   2.18552 255 255 255
2.70586 0.64827 2.32545 255 255 255
 -2.68819 -0.979743   2.61392 255 255 255
-1.43973 0.292491  2.27699 255 255 255
  0.986668 -0.0153368    2.73716 255 255 255
-0.135135   1.30866   2.70062 255 255 255
  3.11522 -0.760196   3.04208 255 255 255
0.403176  0.27849  2.57025 255 255 255
-2.54657   1.3045  2.66898 255 255 255
 1.89544 0.885302  2.33271 255 255 255
 0.16542 0.500936  2.71145 255 255 255
 2.86442 -1.01055  3.01253 255 255 255
-2.39858 -1.03656  2.41854 255 255 255
  1.54565 -0.831398   3.06262 255 255 255
0.813049 0.307652  2.69785 255 255 255
 0.370644 -0.369771   2.51124 255 255 255
-1.30841 -1.48684  2.39619 255 255 255
-0.532307 -0.948265   2.20406 255 255 255
 1.58752 0.204422   2.7765 255 255 255
 1.14145 -1.54696  2.97236 255 255 255
  0.82798 -0.939817    3.0016 255 255 255
-1.04528 -0.77799  2.13425 255 255 255
-2.54208 -1.01966  2.45308 255 255 255
  2.79617 -0.630521   3.09341 255 255 255
-0.691333  0.969743   2.56802 255 255 255
0.0286111  0.780233    2.5368 255 255 255
  -2.1306 -0.144158   2.14329 255 255 255
-0.138176   0.27972   2.88324 255 255 255
  1.0424 -1.46702  2.86269 255 255 255
  2.2097 -1.55333  3.06704 255 255 255
0.694543 0.985864  2.59621 255 255 255
-2.11407 0.483353   1.9938 255 255 255
 -2.65996 -0.970948    2.4868 255 255 255
 -2.32048 -0.959709   2.41373 255 255 255
  1.13564 -0.420973   2.68407 255 255 255
  2.35008 -0.193771   3.06631 255 255 255
  1.8474 0.135223  2.96741 255 255 255
 0.246007 -0.315649   2.60396 255 255 255
   1.66573 -0.0329186    3.04867 255 255 255
-0.144897   1.27847   2.71665 255 255 255
 1.03348 -1.32557  2.67026 255 255 255
-0.406958 -0.451976   2.17603 255 255 255
   3.11386 -0.0284916    2.97324 255 255 255
0.629762 -1.22359  2.24612 255 255 255
-1.90948  1.11873  2.65697 255 255 255
 -2.63151 -0.851982   2.57558 255 255 255
 -1.36909 -0.979123   2.17443 255 255 255
   2.7968 -0.202878   3.17405 255 255 255
-2.07865 0.746513  2.64653 255 255 255
 2.01701 -1.74404  3.07143 255 255 255
  2.57902 -0.210092    3.0833 255 255 255
 0.783451 -0.254439   2.66386 255 255 255
 0.16598 0.299499  2.51671 255 255 255
  1.24271 -0.309313   2.71346 255 255 255
 0.666086 -0.966142   2.31191 255 255 255
 2.56119 -1.27725  3.09035 255 255 255
-0.750023  0.323816   2.30691 255 255 255
-2.39802 -1.49078  2.57138 255 255 255
  2.53055 -0.228623   3.12283 255 255 255
 1.75891 0.613317  2.97089 255 255 255
-2.30825 -1.01006   2.4146 255 255 255
0.0716869 0.0950967   2.53281 255 255 255
 1.34068 0.862212  2.95418 255 255 255
 1.46483 -1.58386  3.01926 255 255 255
0.268393  1.47455  2.41198 255 255 255
0.429388 -1.06786  2.21365 255 255 255
-0.0597041    1.50492    2.41559 255 255 255
 -2.32692 -0.872607   2.41368 255 255 255
    2.776 0.0788015   3.07695 255 255 255
 1.26201 0.538449  2.74193 255 255 255
  2.2018 0.488916   2.3401 255 255 255
 0.91412 -1.16185  3.05897 255 255 255
-2.78062  1.34887   2.7421 255 255 255
 -0.669528 -0.0914388    2.26419 255 255 255
-0.0312287    1.45595    2.37464 255 255 255
 3.15908 -0.74492  3.05168 255 255 255
-0.832364 -0.832191   2.16791 255 255 255
 0.340788 -0.687239   2.67071 255 255 255
 0.930764 -0.369225    2.5485 255 255 255
-2.75625 -1.48583  2.64038 255 255 255
 0.344623 0.0612237   2.48693 255 255 255
 -1.5056 0.936863  2.64995 255 255 255
 0.354664 -0.960485     2.278 255 255 255
 3.33612 -1.00118  3.03082 255 255 255
-2.07497 -1.38574  2.69632 255 255 255
-1.45936 -1.06029  2.21873 255 255 255
 1.92062 0.107613  2.96637 255 255 255
1.29536  1.5804 2.91291 255 255 255
1.63493 0.47733 2.96235 255 255 255
-2.74586 -1.48242  2.54843 255 255 255
  1.6921 0.441471  2.97217 255 255 255
 0.0876713 -0.0436831    2.44387 255 255 255
0.223161 0.474776  2.72492 255 255 255
-2.23482  0.40742  2.48856 255 255 255
 0.719297 -0.512229   2.98377 255 255 255
 1.61976 0.591313  2.97404 255 255 255
 1.37715 0.821738  2.97665 255 255 255
-0.0260387   0.757526    2.56524 255 255 255
0.273995 0.304285   2.5666 255 255 255
-0.361349  0.362897   2.32229 255 255 255
    1.0452 -0.0227092    2.72259 255 255 255
  1.79611 -0.125715   3.08054 255 255 255
-0.805779 -0.910053   2.12214 255 255 255
2.63386 1.05998 2.38299 255 255 255
  1.75526 -0.574361   3.08305 255 255 255
 0.177429 -0.363686   2.72883 255 255 255
   0.299138 -0.00156953     2.49766 255 255 255
1.41588 -1.5702 3.07228 255 255 255
-0.0224679   0.702842    2.56521 255 255 255
 1.51918 0.213473  2.94086 255 255 255
0.426802 -0.69054  2.67446 255 255 255
  1.22986 -0.694588   3.05809 255 255 255
-0.603763 -0.546974   2.24176 255 255 255
-1.98158 0.728286  2.61691 255 255 255
 2.64502 0.605607  2.39442 255 255 255
 1.08145 -1.03243  3.04348 255 255 255
 -2.0803 -1.16579  2.36886 255 255 255
 0.903179 -0.968942   3.03322 255 255 255
 0.780617 -0.825803   3.05227 255 255 255
 1.91457 0.255775  2.95472 255 255 255
 0.227534 -0.534569   2.47758 255 255 255
-2.00678  1.07669  2.64971 255 255 255
0.164385  1.40737  2.31687 255 255 255
 1.33366 0.771207  2.97577 255 255 255
 0.197786 -0.932945   2.96698 255 255 255
  1.94604 -0.643298   3.08825 255 255 255
 1.62956 0.620696   2.9751 255 255 255
0.314431 0.540119  2.73008 255 255 255
 0.678144 -0.118782   2.66798 255 255 255
0.122103  1.41371  2.48851 255 255 255
-0.168076   0.41763   2.55669 255 255 255
  0.12643 -0.553349   2.26606 255 255 255
  3.39336 -0.939692   3.05048 255 255 255
-0.572869  0.715733    2.5248 255 255 255
 1.69035 0.829818  2.96292 255 255 255
 1.95284 0.292815  2.96816 255 255 255
0.280912 0.185686  2.48105 255 255 255
-0.253083  0.260094   2.56343 255 255 255
  0.140112 0.00612422    2.44225 255 255 255
0.465359 0.897312  2.91694 255 255 255
0.221844  0.17875  2.49787 255 255 255
 0.241099 -0.667824   2.62992 255 255 255
  1.24866 -0.710256   3.04932 255 255 255
-0.478434  0.281291   2.53541 255 255 255
 0.404997 0.0965272   2.66371 255 255 255
0.214958 0.142011  2.57175 255 255 255
1.26578 0.33482 2.85757 255 255 255
 1.29094 0.173193  3.00131 255 255 255
  0.78078 -0.332917   2.62538 255 255 255
 0.491561 -0.277653   2.60194 255 255 255
  0.355772 -0.0200672    2.49282 255 255 255
0.156346 0.468632  2.74359 255 255 255
 1.24916 0.400927  2.99171 255 255 255
-0.436538 -0.161734   2.18853 255 255 255
0.191269 0.179891  2.41085 255 255 255
-0.240389   0.23691   2.39481 255 255 255
 0.738823 -0.411738   2.69029 255 255 255
 0.542739 -0.640496   2.71327 255 255 255
 0.719156 -0.324422   2.69935 255 255 255
 0.362412 -0.705254   2.57312 255 255 255
-1.06378 0.140872  2.26152 255 255 255
-0.267188  0.373804   2.50225 255 255 255
 0.94538 0.623649   2.7849 255 255 255
0.954314 0.612423  2.95674 255 255 255
-0.301543  0.533439   2.56006 255 255 255
  0.59583 -0.309297   2.70306 255 255 255
  0.27352 -0.434107   2.46722 255 255 255
-0.542013 -0.175168   2.22807 255 255 255
 1.09399 0.753357  2.95103 255 255 255
-0.746501 -0.229406   2.22906 255 255 255
 -0.85603 -0.132289   2.33682 255 255 255
-0.177576  0.612743   2.58313 255 255 255
 0.428702 -0.103605   2.57723 255 255 255
  1.10837 -0.316381   2.74484 255 255 255
-0.746466  0.348514   2.26651 255 255 255
0.240762 0.733517  2.71964 255 255 255
0.802581 0.263806  2.77028 255 255 255
 0.885548 -0.391682   2.56369 255 255 255
 0.517978 -0.647975   2.61697 255 255 255
 -0.403479 -0.0518128    2.34013 255 255 255
 -0.424289 -0.0974673    2.36785 255 255 255
-0.389696  0.402829   2.31235 255 255 255
  0.291044 -0.0951746    2.52994 255 255 255
-0.979562  0.551371   2.29642 255 255 255
 0.409749 -0.182486   2.58161 255 255 255
-1.11045 0.137143  2.23534 255 255 255
  1.04391 -0.231734   2.79107 255 255 255
-1.04384 0.503009  2.24575 255 255 255
 0.732944 -0.609085   3.01571 255 255 255
-0.979203 0.0129182   2.31729 255 255 255
0.705406 0.655353   2.9503 255 255 255
  1.03358 -0.267618   2.74238 255 255 255
0.967016 0.597424  2.84252 255 255 255
 0.853764 -0.359581   2.55502 255 255 255
 -1.03827 -0.184075   2.31646 255 255 255
-1.03552 0.091843  2.31918 255 255 255
0.605987 0.809789  2.90881 255 255 255
-0.356899  0.400022   2.30546 255 255 255
0.0302044  0.491701   2.57638 255 255 255
0.162747 -0.40079  2.72594 255 255 255
-0.289737 -0.159301    2.4381 255 255 255
  0.974011 -0.0548393    2.79068 255 255 255
 0.192617 -0.527738   2.48644 255 255 255
-0.413914 -0.127463   2.45123 255 255 255
0.868463  0.27004  2.61779 255 255 255
 0.404588 -0.360533   2.47143 255 255 255
-0.164405  0.283788   2.69257 255 255 255
 0.391846 -0.333949    2.5318 255 255 255
-0.959632  0.224437    2.3024 255 255 255
 -1.33348 -0.520287   2.73287 255 255 255
 -0.92376 -0.459041   2.12919 255 255 255
  0.11591 0.0245911   2.43659 255 255 255
0.954832 0.820613   2.9564 255 255 255
-0.360464  0.566719   2.52957 255 255 255
  1.20166 -0.972698   3.03053 255 255 255
  0.91991 -0.544568   2.75768 255 255 255
 1.37542 0.817164  2.96701 255 255 255
0.953416 0.640058  2.96397 255 255 255
-0.527675 -0.197017    2.2095 255 255 255
-0.233078  0.510003    2.5041 255 255 255
 0.978544 -0.277668   2.64642 255 255 255
-0.906303 -0.473714    2.1071 255 255 255
  0.323814 -0.0584154    2.52074 255 255 255
-0.396766  0.545322   2.50333 255 255 255
0.330665 0.209733  2.50814 255 255 255
-0.496712 -0.281441   2.17653 255 255 255
-0.576529 -0.184651    2.1982 255 255 255
-0.370474  0.541246   2.55058 255 255 255
-0.428029 -0.214249   2.52083 255 255 255
 0.265462 -0.217676   2.76974 255 255 255
 -0.587504 -0.0408137    2.30001 255 255 255
 1.28299 0.643182  2.93313 255 255 255
-0.0429398 -0.0762489    2.69552 255 255 255
0.901605 -0.92924  3.01443 255 255 255
 0.115042 -0.374357   2.52139 255 255 255
  0.10033 -0.510908    2.2764 255 255 255
 0.033334 -0.393624   2.28102 255 255 255
 0.245736 -0.491318   2.47268 255 255 255
-0.326496 -0.203706   2.36671 255 255 255
-0.374378 -0.117141   2.40468 255 255 255
0.112242 0.255369  2.51228 255 255 255
-0.332353 -0.253657   2.40087 255 255 255
  1.18458 -0.333884   2.69446 255 255 255
  1.08156 -0.249132   2.75473 255 255 255
 0.288582 -0.463021   2.47325 255 255 255
0.934036 0.559205  2.97083 255 255 255
   1.06483 -0.0117848    2.70885 255 255 255
-0.271302  0.396355    2.5112 255 255 255
-0.0497078   0.452047    2.58218 255 255 255
-0.214285  0.627615    2.5659 255 255 255
 1.36663 0.155281  2.78501 255 255 255
-0.831055  0.628754   2.26444 255 255 255
0.185261 0.125298  2.43137 255 255 255
-0.0328804  -0.205738    2.27135 255 255 255
 0.243834 -0.253974   2.57534 255 255 255
-0.339553  0.562591   2.56201 255 255 255
-0.205131  0.419357   2.47402 255 255 255
-0.59367 -0.14716  2.39261 255 255 255
 1.07299 0.856771  2.93167 255 255 255
  1.01866 0.0540433   2.76636 255 255 255
 0.798009 -0.271971   2.62558 255 255 255
  1.20191 -0.295909   2.69328 255 255 255
-0.33906 0.350226  2.31047 255 255 255
-0.0409208   0.344754    2.72398 255 255 255
 0.0897508 -0.0248628    2.49386 255 255 255
 0.102673 -0.217516   2.71295 255 255 255
  0.144706 -0.0539569    2.44045 255 255 255
0.921781 0.457692  2.96293 255 255 255
 -1.35089 -0.491714   2.73658 255 255 255
 0.213126 -0.300506   2.56482 255 255 255
0.319247 0.157464  2.49886 255 255 255
-0.912016 -0.178799   2.28564 255 255 255
 0.198928 -0.411658   2.73927 255 255 255
 0.124601 -0.458804   2.63508 255 255 255
-0.477621 -0.276403   2.21066 255 255 255
 0.16543 0.024752   2.4314 255 255 255
-0.710686  0.360694   2.26129 255 255 255
 0.303661 0.0609758   2.44813 255 255 255
 0.645804 -0.524784   2.97597 255 255 255
-0.177753  0.653758   2.56023 255 255 255
0.194216 0.305222  2.48059 255 255 255
-0.122941  0.626779   2.54405 255 255 255
-0.934954 -0.192412     2.283 255 255 255
0.230655 0.520706  2.75886 255 255 255
 0.188697 -0.482228   2.69871 255 255 255
0.0713731 0.0262803   2.47221 255 255 255
 0.106924 -0.345299   2.68825 255 255 255
0.106454  0.28286  2.60529 255 255 255
-0.0411739  -0.220537    2.26101 255 255 255
-0.104045  0.636213   2.54421 255 255 255
 0.378375 -0.381797    2.4892 255 255 255
0.115665 0.157462   2.4085 255 255 255
  0.127572 -0.0912932    2.46039 255 255 255
0.385821 0.724303  2.90897 255 255 255
 0.243149 -0.446745   2.68893 255 255 255
 -1.15641 -0.343901   2.27521 255 255 255
0.403743 0.767515  2.91298 255 255 255
0.333684 0.257907  2.55195 255 255 255
0.909297 0.660873  2.95167 255 255 255
 0.331058 -0.724274   2.60381 255 255 255
0.654977 0.305788   2.9386 255 255 255
0.132063 0.411309   2.6946 255 255 255
  0.190459 -0.0808384    2.45094 255 255 255
  1.02536 -0.130443   2.80202 255 255 255
0.0881405 -0.396597   2.62516 255 255 255
 0.866689 -0.824831   3.04051 255 255 255
0.420054 0.811523  2.91803 255 255 255
-0.888235 -0.192022   2.65015 255 255 255
0.0980789  0.397384   2.73667 255 255 255
0.117918 0.302624   2.5873 255 255 255
0.838843 0.741761   2.9459 255 255 255
0.0260421   0.47857   2.67347 255 255 255
 0.733044 -0.355402   2.65588 255 255 255
   0.276666 -0.00234941     2.48012 255 255 255
-0.104699  0.620379   2.55751 255 255 255
  0.30946 -0.727933   2.67187 255 255 255
 0.707562 -0.237002   2.66061 255 255 255
  1.10139 -0.293882   2.74564 255 255 255
-0.0673213   0.305771    2.72978 255 255 255
0.0127753  0.439045   2.71129 255 255 255
 0.994532 -0.046197   2.75338 255 255 255
  0.514299 -0.0883178    2.63415 255 255 255
 0.863204 -0.345252   2.59241 255 255 255
 0.818744 -0.594934   3.00794 255 255 255
-0.179235  0.395593   2.54446 255 255 255
-0.276892  0.581399   2.58189 255 255 255
  1.56473 -0.721925   3.06167 255 255 255
0.162645 0.132204  2.48772 255 255 255
  0.708995 -0.0739087    2.69499 255 255 255
 0.791537 -0.296032   2.65628 255 255 255
 0.322123 -0.404391   2.66098 255 255 255
0.338841 0.571455   2.7203 255 255 255
  1.10154 -0.253693   2.74797 255 255 255
 0.102652 -0.426095   2.64006 255 255 255
 1.39724 0.213996  2.74354 255 255 255
0.0766357 -0.285011   2.68002 255 255 255
-0.277427  0.461669   2.54544 255 255 255
 0.265401 -0.279817   2.59722 255 255 255
 0.22715 0.144865  2.45633 255 255 255
   1.09324 -0.0560602    2.73218 255 255 255
1.07199 -0.9676 3.04416 255 255 255
 1.19346 0.473329  2.99462 255 255 255
  0.240162 -0.0470479    2.50557 255 255 255
  1.13003 -0.815347   3.04751 255 255 255
0.431371 0.170591  2.57748 255 255 255
 0.120543 0.0677937   2.46216 255 255 255
 -0.2522 0.339548  2.48192 255 255 255
 0.286299 -0.208526   2.69936 255 255 255
 -1.30224 -0.442784   2.60147 255 255 255
-0.322057  0.572757   2.56002 255 255 255
 1.28563 0.722275  2.96898 255 255 255
0.210826  0.53165  2.75135 255 255 255
0.0899793 -0.314482   2.69075 255 255 255
0.204722 0.345042  2.55909 255 255 255
 0.144656 -0.495727   2.63065 255 255 255
  0.112571 -0.0252553    2.42875 255 255 255
0.918809 0.771191  2.95329 255 255 255
-1.14358  -0.3105  2.31368 255 255 255
   1.3039 -0.956436    3.0317 255 255 255
  0.15644 -0.441406   2.68456 255 255 255
 -1.18777 -0.380179   2.28296 255 255 255
  1.2894 0.680049  2.96274 255 255 255
0.365497 0.110057   2.5264 255 255 255
 0.702626 -0.561241   2.98938 255 255 255
0.810191 0.142787  2.97582 255 255 255
 -1.10404 -0.331231     2.613 255 255 255
 0.815965 -0.402693   2.68326 255 255 255
 0.775259 -0.574829   3.01449 255 255 255
0.0577489 -0.291802   2.73318 255 255 255
0.732394 0.232747  2.93389 255 255 255
 0.031886 -0.187095   2.71059 255 255 255
 0.747626 -0.571432   3.00356 255 255 255
-0.368527  0.514383   2.47867 255 255 255
0.0662662 -0.390271    2.6724 255 255 255
-0.235568  0.612432   2.55565 255 255 255
 0.898623 -0.319201   2.62697 255 255 255
  1.28133 -0.612716   3.05436 255 255 255
  1.13684 -0.277751   2.71019 255 255 255
 0.837168 -0.906337   3.03499 255 255 255
 0.139085 -0.407823   2.67034 255 255 255
-0.207948  0.427765   2.41317 255 255 255
 0.679144 -0.525088   2.98721 255 255 255
-0.30998  0.42444  2.54127 255 255 255
-0.441977  0.520076   2.49051 255 255 255
-0.194632  0.398478   2.52799 255 255 255
 0.386014 -0.700179   2.65888 255 255 255
  1.04082 -0.824377   3.04669 255 255 255
 0.674232 -0.729899   3.02648 255 255 255
-0.172348  0.713093   2.49336 255 255 255
-0.431828   0.60391   2.51468 255 255 255
 0.985932 -0.853515   3.03565 255 255 255
0.0807071   -0.2758   2.73413 255 255 255
0.322553 0.135987  2.52126 255 255 255
0.0283712 -0.328256   2.69558 255 255 255
-0.358397   0.32863   2.32389 255 255 255
 0.321157 -0.730038   2.65275 255 255 255
 0.310063 -0.737117   2.60108 255 255 255
-0.00570896   -0.195722     2.72495 255 255 255
1.32568  0.7866 2.94565 255 255 255
0.00641837   0.598883    2.55982 255 255 255
0.363094 0.683274  2.88653 255 255 255
 1.25994 0.555689  2.94082 255 255 255
 1.30314 0.843701  2.94792 255 255 255
0.205689 0.258094  2.54286 255 255 255
0.858048 0.252632  2.62245 255 255 255
0.724131 0.676599   2.9358 255 255 255
  1.4071 0.807572  2.96018 255 255 255
-0.102876  0.342773   2.69891 255 255 255
0.268857 0.278896  2.51873 255 255 255
  0.80911 -0.248881   2.65033 255 255 255
 0.999763 0.0956277   2.78497 255 255 255
 0.387773 0.0278506   2.55166 255 255 255
 1.36082 0.193192  2.77226 255 255 255
0.193243 0.286001  2.49613 255 255 255
-0.0808234   0.357146    2.70438 255 255 255
  1.3108 0.762987  2.93051 255 255 255
0.066628 0.481346  2.73298 255 255 255
 1.12367 0.807368  2.95445 255 255 255
 0.234379 -0.421515   2.71627 255 255 255
0.965262 0.644577  2.97137 255 255 255
  0.0551769 -0.00361137     2.51658 255 255 255
-0.135713  0.674922   2.56721 255 255 255
   1.06107 -0.0919942    2.80595 255 255 255
 0.736375 -0.153248   2.64382 255 255 255
-0.120892  0.645298   2.54429 255 255 255
-0.118432 -0.241186   2.25553 255 255 255
 0.291534 -0.273289   2.58879 255 255 255
0.046995   -0.205  2.71022 255 255 255
 0.735832 -0.259291   2.69809 255 255 255
-0.252466  0.535492    2.5119 255 255 255
 -1.20644 -0.372847   2.29228 255 255 255
0.0732339 -0.010573   2.47422 255 255 255
 0.760205 -0.537217   2.98734 255 255 255
 0.366619 -0.684054   2.67556 255 255 255
  0.86782 -0.743036     3.046 255 255 255
 0.356017 -0.665125    2.6723 255 255 255
-0.365885  0.327193   2.28599 255 255 255
0.751004 0.678349  2.93076 255 255 255
  1.14368 -0.832276   3.02769 255 255 255
 1.06032 0.826044  2.93659 255 255 255
  1.62574 -0.775467   3.07757 255 255 255
0.219837 0.546498  2.74402 255 255 255
0.278463 0.226367  2.48023 255 255 255
  0.28292 -0.746873   2.66548 255 255 255
1.29229 0.87003 2.95281 255 255 255
0.592846 0.528345  2.93487 255 255 255
 0.887678 -0.950391   3.04089 255 255 255
0.872704 0.301683    2.601 255 255 255
-0.0299632 -0.0458207    2.73866 255 255 255
 0.938216 -0.982957   3.05022 255 255 255
 0.809446 -0.833759   3.04579 255 255 255
   0.75342 -0.0322073    2.78443 255 255 255
-0.500545  0.597568   2.45566 255 255 255
0.0680222 0.0499481   2.46801 255 255 255
0.0669022 0.0734249   2.49553 255 255 255
 1.09543 0.800453  2.93669 255 255 255
