ply
format ascii 1.0
element vertex 694
property float x
property float y
property float z
property uchar red
property uchar green
property uchar blue
end_header
0 0 0 0 255 0
-0.0024875   0.972454   0.233084 0 255 0
-0.0872849  -0.131614    2.71449 255 255 255
 0.257384 -0.217256   2.67929 255 255 255
-0.253426 -0.075722    2.6944 255 255 255
0.168814 -0.15327  2.70108 255 255 255
-0.0351251  0.0395528    2.74051 255 255 255
 0.278575 -0.408694   2.62826 255 255 255
 0.360666 -0.219453   2.68542 255 255 255
0.0345894  -0.47521   2.59215 255 255 255
 0.0110721 -0.0497015    2.72934 255 255 255
 0.309676 0.0737183   2.75672 255 255 255
  -0.23759 -0.0490792    2.71646 255 255 255
 0.250204 0.0744167    2.7291 255 255 255
-0.207729  0.135487   2.74656 255 255 255
-0.495608 -0.250801   2.65401 255 255 255
-0.197524 -0.117724   2.71121 255 255 255
0.0963172 -0.288645   2.67136 255 255 255
-0.450646 -0.203917   2.65645 255 255 255
 0.165878 0.0789662   2.74493 255 255 255
0.381296 0.196121  2.76028 255 255 255
 -0.35525 -0.174672   2.66974 255 255 255
-0.0882617   0.121382    2.76218 255 255 255
 0.866517 -0.395245   2.64677 255 255 255
 0.620264 -0.502018   2.62381 255 255 255
0.0540454 -0.559678   2.58009 255 255 255
0.529133 -0.46034  2.63487 255 255 255
0.0877126  -0.49205   2.59287 255 255 255
 0.208237 -0.421831    2.6255 255 255 255
-0.213446 -0.161527   2.69344 255 255 255
 0.554825 -0.425219   2.64303 255 255 255
 0.133301 -0.113067   2.69763 255 255 255
 0.571411 -0.458439   2.63507 255 255 255
 -0.330937 -0.0451362    2.72331 255 255 255
-0.940259 -0.213786   2.65076 255 255 255
 0.146531 -0.268936   2.68178 255 255 255
-0.979426 -0.227414   2.64339 255 255 255
 0.157783 -0.415758    2.6364 255 255 255
  0.323643 -0.0738928    2.71183 255 255 255
-0.555963 -0.541559   2.57745 255 255 255
 0.537334 -0.393493    2.6538 255 255 255
-0.914677  0.161601   2.73854 255 255 255
0.372338 0.122009  2.74218 255 255 255
-0.949621 -0.258558   2.63004 255 255 255
 0.686838 -0.526236   2.61833 255 255 255
  0.806374 -0.0983265    2.70176 255 255 255
0.0452545 -0.199237   2.69527 255 255 255
-0.404825 -0.213144   2.65848 255 255 255
 0.389242 -0.368554   2.64691 255 255 255
 0.859747 -0.176108   2.68351 255 255 255
 0.247058 -0.555603   2.60185 255 255 255
-0.411718 -0.288418   2.64949 255 255 255
-0.931517   -0.5305   2.57311 255 255 255
 0.890642 -0.270625   2.66191 255 255 255
 0.227162 -0.328913   2.66461 255 255 255
 0.685246 -0.467746   2.61646 255 255 255
-0.940259 -0.213786   2.65076 255 255 255
0.69541 -0.5332 2.61522 255 255 255
  0.792996 -0.0257306    2.71803 255 255 255
0.394719 0.220986  2.76106 255 255 255
 -0.36767 -0.496657   2.59481 255 255 255
 0.125517 -0.066253   2.70974 255 255 255
 0.506142 -0.324404   2.67206 255 255 255
 0.172369 -0.272567   2.67969 255 255 255
 0.582038 -0.578129   2.60391 255 255 255
 0.512576 -0.491504   2.62742 255 255 255
 0.574536 -0.107541   2.70239 255 255 255
0.154849  -0.5591  2.57902 255 255 255
0.302822  0.13839  2.74702 255 255 255
  0.173718 -0.0230015    2.71148 255 255 255
0.249483 0.131812   2.7648 255 255 255
  0.80504 -0.430142   2.63504 255 255 255
 0.649891 -0.278559    2.6597 255 255 255
 0.434901 -0.238989   2.67724 255 255 255
  0.358167 -0.0445126    2.71639 255 255 255
-0.404825 -0.213144   2.65848 255 255 255
0.230871 0.133417   2.7482 255 255 255
 0.592088 -0.319705   2.65023 255 255 255
 0.429476 -0.472576   2.62503 255 255 255
  0.58541 -0.257276   2.66549 255 255 255
 0.314784 -0.557897    2.5954 255 255 255
-0.31348 0.032532   2.7434 255 255 255
-0.496167 -0.213496   2.65959 255 255 255
-0.690028  -0.26034   2.65116 255 255 255
-0.740561 -0.140002   2.66377 255 255 255
 0.851649 -0.243968   2.66532 255 255 255
0.662139 0.193597  2.75812 255 255 255
0.746849 -0.33707  2.63846 255 255 255
 0.428475 -0.506529   2.61021 255 255 255
-0.162938  0.157804   2.76701 255 255 255
-0.335165 -0.078718   2.69852 255 255 255
-0.345071 -0.112724   2.67961 255 255 255
 0.291903 -0.101461   2.70069 255 255 255
 0.378395 -0.167709   2.69301 255 255 255
 -0.183595 -0.0115331    2.72707 255 255 255
 0.795582 -0.176198   2.68371 255 255 255
-0.505175 -0.463145   2.59517 255 255 255
 0.502674 -0.374673   2.65579 255 255 255
  -0.878904 -0.00992541     2.70894 255 255 255
-0.721402 -0.560215   2.58436 255 255 255
 0.802941 -0.208697    2.6742 255 255 255
 0.727716 -0.314802   2.64365 255 255 255
-0.913022 -0.188375   2.66325 255 255 255
0.160527 -0.29902  2.67249 255 255 255
 0.196437 -0.456358   2.61685 255 255 255
-0.318582 -0.129868     2.697 255 255 255
0.769308 0.200086  2.75181 255 255 255
 0.384798 -0.334228   2.64862 255 255 255
  0.36446 -0.296548   2.65897 255 255 255
-0.902743 -0.345587   2.64314 255 255 255
-0.899399 -0.508522   2.59632 255 255 255
   0.153604 -0.00749923     2.71853 255 255 255
-0.487094 -0.239233   2.65041 255 255 255
 0.79805 -0.23392  2.66572 255 255 255
  0.323643 -0.0738928    2.71183 255 255 255
0.343516 0.159561  2.75434 255 255 255
-0.541491 -0.228768   2.65309 255 255 255
-0.314375 -0.188809   2.68473 255 255 255
-0.136282  0.103319   2.76463 255 255 255
 0.237727 -0.160329   2.69697 255 255 255
0.0116152 -0.061196   2.72268 255 255 255
  -0.28055 -0.0566606    2.70353 255 255 255
 0.587631 -0.562193   2.61009 255 255 255
 0.132658 -0.320016   2.63064 255 255 255
 0.131123 -0.518851   2.59198 255 255 255
0.0714372  -0.41447   2.61875 255 255 255
-0.255355 -0.212912   2.66912 255 255 255
-0.292348 -0.128093    2.6898 255 255 255
0.834433 -0.19411  2.67674 255 255 255
0.280323 -0.41265  2.62721 255 255 255
  0.862205 -0.0249217    2.71178 255 255 255
 0.011847 -0.244067   2.65613 255 255 255
 0.240369 -0.221656   2.67773 255 255 255
-0.491966 -0.153796   2.69023 255 255 255
 0.810408 0.0295225   2.72701 255 255 255
 0.667958 -0.232501   2.66911 255 255 255
 0.945027 -0.241722   2.66517 255 255 255
  0.124806 -0.0436787    2.71335 255 255 255
 0.120681 -0.167641   2.70049 255 255 255
-0.915254 -0.325147    2.6481 255 255 255
0.332953 0.112322  2.74634 255 255 255
-0.814506 -0.191402   2.65326 255 255 255
0.134761 -0.36132  2.65166 255 255 255
-0.434457 -0.316981   2.63632 255 255 255
 0.323596 0.0230819   2.72734 255 255 255
 0.460866 -0.335182   2.67734 255 255 255
-0.836636 -0.204826   2.65341 255 255 255
 0.179209 -0.363397   2.65654 255 255 255
  0.110996 -0.0010409    2.72117 255 255 255
 0.121766 -0.266071   2.67704 255 255 255
0.00333968  -0.260985    2.65313 255 255 255
 0.358104 -0.344414   2.64411 255 255 255
0.158596 0.116171  2.73261 255 255 255
-0.736704 -0.580429   2.58041 255 255 255
0.158458 -0.10665  2.70094 255 255 255
 0.221944 -0.342023   2.66192 255 255 255
 -1.02825 -0.337554   2.62424 255 255 255
0.339209   0.2024  2.75338 255 255 255
0.285584 -0.56082  2.59809 255 255 255
 0.786393 -0.102199   2.69883 255 255 255
0.108382  -0.3178  2.66251 255 255 255
 0.566981 -0.495181    2.6242 255 255 255
-0.641044 -0.139807   2.69537 255 255 255
 0.602685 -0.287094   2.65964 255 255 255
-0.0914544   0.109091    2.75952 255 255 255
 0.261331 -0.538006   2.60298 255 255 255
 0.723663 -0.295348   2.65195 255 255 255
-0.193345  0.203986   2.76555 255 255 255
 0.55805 -0.36816  2.65286 255 255 255
0.996915 -0.44044  2.63868 255 255 255
0.194905 0.091682  2.74607 255 255 255
  0.593454 -0.0701133    2.71061 255 255 255
 0.651662 -0.244393   2.66934 255 255 255
  0.28653 -0.318188   2.66266 255 255 255
-0.0353102  0.0765974    2.75394 255 255 255
 0.850639 -0.199086   2.67408 255 255 255
 0.118456 -0.336179   2.65936 255 255 255
-0.206714  0.143103    2.7443 255 255 255
 0.100289 -0.222743   2.68561 255 255 255
  0.25512 -0.239312   2.68135 255 255 255
0.257009  0.10137  2.74597 255 255 255
   0.87003 -0.0569106    2.70691 255 255 255
 0.682053 -0.576958   2.60643 255 255 255
  0.254289 -0.0648973     2.7135 255 255 255
 0.726415 -0.490354   2.62443 255 255 255
0.414274 0.124505  2.74553 255 255 255
 0.156958 0.0341009   2.72911 255 255 255
 0.261858 -0.166608   2.69888 255 255 255
-0.879857 -0.546324   2.58262 255 255 255
-0.947932 -0.322859   2.64054 255 255 255
 0.109525 -0.243133   2.68347 255 255 255
 0.149327 -0.389654   2.64549 255 255 255
  0.149014 -0.0526545     2.7099 255 255 255
 -0.99225 -0.294892    2.6274 255 255 255
 0.826725 -0.577837   2.60622 255 255 255
 0.156758 -0.336471   2.65873 255 255 255
 -1.05111 -0.367721   2.61946 255 255 255
0.366015 0.071263  2.73742 255 255 255
 0.491407 -0.352892   2.66455 255 255 255
0.602885 0.104302  2.75388 255 255 255
-0.805057 -0.243496    2.6611 255 255 255
 0.652525 -0.316078   2.65141 255 255 255
0.530572 -0.35443   2.6574 255 255 255
  0.08469 -0.218051   2.69182 255 255 255
0.566044 0.168133  2.77212 255 255 255
0.0674868 -0.144313   2.70592 255 255 255
 0.516381 -0.355714    2.6616 255 255 255
0.0901474 -0.300987   2.66638 255 255 255
 0.890033 -0.223374   2.66749 255 255 255
 0.545379 -0.542588    2.6132 255 255 255
-0.219872  0.152954   2.74427 255 255 255
 0.145392 -0.316075    2.6647 255 255 255
 0.477848 -0.330215   2.66607 255 255 255
  0.32078 -0.526534   2.60922 255 255 255
  0.67231 -0.495124   2.62529 255 255 255
  0.45745 -0.443201   2.64023 255 255 255
  0.63905 -0.514094   2.61977 255 255 255
 0.101878 -0.206863   2.69388 255 255 255
 0.331259 0.0939328   2.74456 255 255 255
0.0622941 -0.250944   2.68132 255 255 255
 0.271944 -0.547438   2.60289 255 255 255
-0.0470418  0.0539418    2.74784 255 255 255
 0.269286 -0.570021   2.59492 255 255 255
0.0385428 -0.148033    2.7056 255 255 255
 0.28933 0.223553  2.75988 255 255 255
 0.671026 -0.210543    2.6773 255 255 255
  0.79425 0.0607155   2.73912 255 255 255
  0.376797 0.00156607     2.7284 255 255 255
 0.213553 -0.316446   2.66567 255 255 255
 0.0946135 -0.0229652    2.72184 255 255 255
  0.813581 -0.0747233    2.70443 255 255 255
-0.0728925  -0.280685    2.65034 255 255 255
 0.277143 -0.236491   2.68052 255 255 255
 0.843951 -0.392172    2.6484 255 255 255
 0.600361 -0.209485   2.68224 255 255 255
 -1.06055 -0.357556   2.61783 255 255 255
  0.111761 -0.0330944    2.71559 255 255 255
 0.304719 -0.509093   2.61188 255 255 255
 0.572647 -0.447733   2.63883 255 255 255
 0.298136 -0.496605   2.61346 255 255 255
-0.149029  0.115268     2.761 255 255 255
-0.172536  0.109178   2.75701 255 255 255
  1.02393 -0.469083   2.63271 255 255 255
0.302867   0.1756  2.75841 255 255 255
 0.572106 -0.565498   2.60652 255 255 255
 0.78413 0.227645  2.76004 255 255 255
 0.0225198 -0.0338822    2.73052 255 255 255
 0.598549 -0.581436   2.60309 255 255 255
  0.53085 -0.498621   2.62467 255 255 255
  0.10824 0.0207714   2.71881 255 255 255
 0.107598 0.0425725   2.73387 255 255 255
   0.42295 0.00259422    2.72343 255 255 255
0.0602445 -0.096765   2.71802 255 255 255
  0.265359 0.00952175    2.72507 255 255 255
 0.560473 -0.549761   2.61131 255 255 255
  0.67437 -0.141475   2.69302 255 255 255
 0.842359 -0.052361   2.70831 255 255 255
0.0498008 -0.141613   2.70718 255 255 255
-0.172445  0.137403   2.75943 255 255 255
0.870163 -0.24003  2.66091 255 255 255
 0.977958 -0.443085   2.63657 255 255 255
  0.84653 -0.379953   2.64846 255 255 255
   1.0346 0.0994272     2.746 255 255 255
 0.533909 -0.414396   2.64345 255 255 255
-0.0588295    0.14675    2.76532 255 255 255
-0.0538653  0.0381327    2.74567 255 255 255
 0.257384 -0.217256   2.67929 255 255 255
0.291491 -0.32512  2.66446 255 255 255
-0.00535495   -0.192122     2.68484 255 255 255
-0.135785  0.187449   2.77073 255 255 255
0.280323 -0.41265  2.62721 255 255 255
  1.05864 -0.343771   2.66124 255 255 255
0.0418847 -0.126079   2.71212 255 255 255
 0.595125 -0.274649   2.66859 255 255 255
 0.203858 -0.328606   2.66536 255 255 255
  0.27809 -0.367164   2.65201 255 255 255
 0.011847 -0.244067   2.65613 255 255 255
0.0625129 -0.432374   2.60683 255 255 255
0.285584 -0.56082  2.59809 255 255 255
   0.13082 0.00106574    2.72355 255 255 255
0.339109 0.223834  2.76305 255 255 255
-0.816958  -0.34436   2.64468 255 255 255
 0.927692 -0.262698   2.67802 255 255 255
 0.174565 -0.330402   2.67047 255 255 255
 0.490515 0.0657295   2.73168 255 255 255
 0.899456 -0.123403   2.68873 255 255 255
-0.597968 -0.265857   2.64757 255 255 255
 0.694863 -0.161336   2.69401 255 255 255
 0.249962 -0.123348   2.70879 255 255 255
 0.608376 -0.413876   2.65311 255 255 255
-0.308527  -0.32938    2.6409 255 255 255
  0.195379 -0.0860413    2.71768 255 255 255
 0.258497 -0.503195   2.61118 255 255 255
-0.495608 -0.250801   2.65401 255 255 255
  0.319158 0.00406912     2.7188 255 255 255
 0.286236 -0.190835   2.68935 255 255 255
 0.688472 -0.453948   2.63434 255 255 255
 0.506026 -0.336298   2.66858 255 255 255
-0.283875 -0.276008     2.657 255 255 255
  0.454054 -0.0211703    2.72674 255 255 255
 0.434645 -0.422459   2.63707 255 255 255
0.763478 -0.19217  2.67922 255 255 255
 0.394534 0.0862855   2.74123 255 255 255
-0.349222 -0.411375   2.61948 255 255 255
 -0.73732 -0.370065   2.64208 255 255 255
  0.94579 -0.166082   2.68452 255 255 255
 0.796064 -0.282353   2.65594 255 255 255
  0.410777 -0.0124091    2.72019 255 255 255
 0.354155 -0.511713   2.61419 255 255 255
0.381066 0.198221  2.75592 255 255 255
-0.417046 -0.135131   2.68053 255 255 255
-0.921659 -0.398328   2.61602 255 255 255
-0.572923 -0.443651   2.59537 255 255 255
-0.700348 -0.411463   2.63904 255 255 255
 -0.47158 -0.474286   2.59488 255 255 255
  1.02827 -0.219543   2.67057 255 255 255
 0.698923 -0.402186   2.63172 255 255 255
   0.7522 -0.110899   2.70115 255 255 255
 0.498369 0.0264812   2.73427 255 255 255
 -1.03178 -0.498348   2.59044 255 255 255
 -0.47981 -0.176979   2.68636 255 255 255
 -1.00244 -0.434778   2.61293 255 255 255
-0.420305 -0.419583   2.62233 255 255 255
0.427787 0.103902   2.7429 255 255 255
  0.635402 -0.0979449    2.71024 255 255 255
0.517683 -0.53595  2.60707 255 255 255
 0.414145 -0.346474   2.65827 255 255 255
-0.184854 -0.297717    2.6534 255 255 255
-0.906201 -0.431453   2.61248 255 255 255
-0.710656  -0.45078   2.61663 255 255 255
 0.649251 -0.127726    2.6972 255 255 255
 0.868709 -0.337365   2.64211 255 255 255
 0.537897 -0.184429   2.68894 255 255 255
-0.00629477   0.0799144      2.7559 255 255 255
0.00992572  0.0471335    2.75063 255 255 255
 0.487831 -0.529491   2.59398 255 255 255
  1.05057 0.0294724   2.73166 255 255 255
 -0.99952 -0.497461   2.60055 255 255 255
-0.839834 -0.459406   2.60288 255 255 255
0.253032 0.169536  2.75164 255 255 255
  1.06856 -0.212349   2.68218 255 255 255
0.184676 -0.19199  2.69719 255 255 255
-0.130184  -0.23504   2.68193 255 255 255
  -0.0278811 -0.000369379      2.74397 255 255 255
 0.248854 -0.374234   2.64563 255 255 255
 -0.403243 0.00554054    2.72503 255 255 255
 0.213895 -0.391629   2.64179 255 255 255
-0.205253 -0.306903   2.65455 255 255 255
0.413482 0.087042  2.74197 255 255 255
0.409536 0.154421  2.75241 255 255 255
-0.415792 -0.525419   2.57611 255 255 255
-0.837827 -0.508642   2.59636 255 255 255
 0.843244 0.0600568   2.73818 255 255 255
 0.196437 -0.456358   2.61685 255 255 255
0.0116152 -0.061196   2.72268 255 255 255
-0.486372 -0.102553    2.6855 255 255 255
 0.336628 -0.488178    2.6216 255 255 255
0.309968 0.189205  2.75903 255 255 255
 0.931496 -0.195427   2.67977 255 255 255
-0.946332 -0.425942   2.61333 255 255 255
-0.825324 -0.245649   2.66133 255 255 255
-0.870721 -0.374695   2.62414 255 255 255
 0.858712 -0.363677    2.6459 255 255 255
0.728658 -0.19441  2.68233 255 255 255
 -0.200847 -0.0807169    2.70989 255 255 255
 0.814807 -0.308706   2.64603 255 255 255
 0.716122 -0.214867    2.6764 255 255 255
 0.308472 -0.297524   2.65892 255 255 255
 0.163722 -0.476379   2.61232 255 255 255
-0.882488 -0.431584   2.61247 255 255 255
 0.415039 -0.248021   2.67479 255 255 255
0.733917 -0.24845  2.66495 255 255 255
 0.0678118 -0.0497037    2.72719 255 255 255
-0.633818 -0.187462   2.66718 255 255 255
   0.198005 -0.00782739     2.71507 255 255 255
 0.337496 -0.506886    2.6139 255 255 255
 -0.52783 -0.272089   2.63083 255 255 255
 0.293881 0.0990523   2.73939 255 255 255
-0.898537 -0.532161   2.59393 255 255 255
0.714966 0.155347  2.74841 255 255 255
-0.903135 -0.361963   2.62585 255 255 255
  -0.38051 -0.0781174    2.69476 255 255 255
-0.214103  -0.25421   2.67622 255 255 255
-0.917649 -0.493196   2.60109 255 255 255
  0.452179 -0.0659721    2.70894 255 255 255
0.334624 0.138132  2.74885 255 255 255
-0.570311 -0.404403   2.60461 255 255 255
  0.293343 -0.0646307    2.70904 255 255 255
  1.10442 -0.147306   2.69845 255 255 255
-0.398782 -0.436692    2.6077 255 255 255
-0.113674  0.176153   2.77199 255 255 255
 0.73521 0.191245  2.75819 255 255 255
 0.944296 -0.301804   2.64806 255 255 255
 0.793541 -0.419692   2.63977 255 255 255
 0.805662 -0.284496   2.65359 255 255 255
  0.291711 -0.0289576     2.7199 255 255 255
 0.234694 -0.183282   2.69454 255 255 255
 0.173257 -0.495974   2.60502 255 255 255
0.0202144 0.0169472   2.74538 255 255 255
-0.387934 -0.491404   2.58796 255 255 255
0.423605 -0.29898  2.67106 255 255 255
 0.678735 -0.111724   2.69694 255 255 255
 0.960494 -0.241301   2.65827 255 255 255
0.65425 0.22946 2.76635 255 255 255
  0.149014 -0.0526545     2.7099 255 255 255
  0.73455 -0.129584   2.71175 255 255 255
 0.563615 -0.532551   2.61913 255 255 255
  0.456792 -0.0859514    2.71257 255 255 255
 0.767447 -0.320038   2.64493 255 255 255
-0.791612 -0.488064   2.60162 255 255 255
-0.971605 -0.439456   2.60576 255 255 255
  0.15231 -0.464505    2.6147 255 255 255
-0.469658 -0.206704   2.65602 255 255 255
  0.5999 0.172463  2.76684 255 255 255
   0.80962 -0.0612875    2.70714 255 255 255
 0.755582 -0.438401   2.63617 255 255 255
0.240698 0.183982  2.76317 255 255 255
-0.443779 -0.167822   2.67562 255 255 255
 0.261032 -0.388118   2.63765 255 255 255
  0.69823 -0.441802   2.63669 255 255 255
0.0907987  0.014088   2.72707 255 255 255
-0.724535  -0.34091   2.64604 255 255 255
  0.23275 -0.265095   2.67238 255 255 255
-0.938472 -0.333959   2.64361 255 255 255
-0.553509 -0.124776   2.67944 255 255 255
0.201501 0.182247  2.75038 255 255 255
 -0.175636 -0.0902933    2.70978 255 255 255
-0.225596 -0.186092   2.67329 255 255 255
 0.485638 -0.197671   2.68695 255 255 255
  0.90791 0.0155432   2.72657 255 255 255
 0.602685 -0.287094   2.65964 255 255 255
-0.386578 -0.517538   2.58993 255 255 255
  -0.4473 -0.243195   2.65524 255 255 255
 0.109525 -0.243133   2.68347 255 255 255
 0.320195 -0.320066    2.6577 255 255 255
 -0.17928 -0.170897   2.68591 255 255 255
 0.324418 0.0787463   2.74409 255 255 255
-0.381585 -0.116817   2.68279 255 255 255
 0.230221 -0.535572   2.60753 255 255 255
 0.741337 -0.268742   2.65936 255 255 255
 0.469043 -0.571576   2.57857 255 255 255
 0.230156 0.0161711   2.72711 255 255 255
 0.987498 0.0510656   2.73828 255 255 255
 0.477522 -0.239167   2.67091 255 255 255
  0.791225 -0.0467963    2.71382 255 255 255
0.110488  0.18814  2.76627 255 255 255
 -0.97194 -0.427963   2.61457 255 255 255
-0.369572 0.0336584   2.71648 255 255 255
  0.547295 -0.0475442       2.72 255 255 255
 0.681571 -0.419558   2.64774 255 255 255
 -0.396604 -0.0775381    2.69435 255 255 255
-0.349649 -0.444639   2.60728 255 255 255
  0.894285 -0.0212515    2.71366 255 255 255
0.715469 -0.15318  2.68688 255 255 255
 0.156758 -0.336471   2.65873 255 255 255
 0.832978 -0.373291   2.65349 255 255 255
-0.183039 -0.291948    2.6581 255 255 255
 0.361786 0.0872693   2.74137 255 255 255
  0.272471 -0.0534469    2.71864 255 255 255
 0.595534 -0.237516   2.67513 255 255 255
 0.407319 -0.433939   2.63915 255 255 255
 0.211816 0.0737913   2.74095 255 255 255
 0.867012 -0.196624   2.67332 255 255 255
  0.894063 -0.0363118    2.71103 255 255 255
 0.548106 -0.118818   2.70641 255 255 255
-0.863368 -0.405231    2.6318 255 255 255
-0.0904234   0.143201    2.76589 255 255 255
 0.397724 0.0630891   2.73456 255 255 255
 0.806228 -0.413308   2.64374 255 255 255
 0.916501 -0.230539   2.64567 255 255 255
-0.493407 -0.351925   2.62084 255 255 255
-0.47244 -0.15616  2.67982 255 255 255
-0.677315 -0.274538   2.64541 255 255 255
-0.819085 -0.512435   2.58945 255 255 255
-0.388954 -0.275755   2.64546 255 255 255
  0.22069 0.0992881   2.74368 255 255 255
-0.172536  0.109178   2.75701 255 255 255
  -0.7089 -0.430559   2.62926 255 255 255
0.0857151 -0.033407    2.7129 255 255 255
-0.693017   -0.1636   2.67223 255 255 255
 -0.72972 -0.399425   2.63212 255 255 255
-0.605006 -0.589557   2.58284 255 255 255
-0.446902  -0.09516   2.69775 255 255 255
-0.834616 -0.511323   2.59292 255 255 255
-0.734829 -0.497585   2.60863 255 255 255
-0.593809 -0.247201   2.63837 255 255 255
 0.186673 -0.265814   2.67703 255 255 255
 0.799458 -0.171934    2.6827 255 255 255
-0.926629 -0.428623   2.61157 255 255 255
 0.0225198 -0.0338822    2.73052 255 255 255
-0.119515 -0.246495   2.67516 255 255 255
0.296753 0.199588  2.76119 255 255 255
-0.727993 -0.184139   2.67125 255 255 255
-0.365663 -0.301099   2.64202 255 255 255
-0.587176 -0.577604   2.59957 255 255 255
 0.314604 -0.478715   2.62452 255 255 255
0.635224 0.122792  2.75924 255 255 255
 0.269574 -0.229024    2.6843 255 255 255
 -0.30115 0.0923704   2.73445 255 255 255
 0.297221 0.0810116   2.73779 255 255 255
 0.970652 -0.328166   2.64513 255 255 255
  0.69087 -0.373362   2.63181 255 255 255
-0.161619 -0.257647   2.68114 255 255 255
-0.215447  0.194229   2.75784 255 255 255
-0.195933 -0.286661   2.66275 255 255 255
0.273195 0.117331  2.74501 255 255 255
 0.485279 -0.155481   2.69577 255 255 255
-0.131264  0.151562   2.76259 255 255 255
-0.0296267  0.0629047    2.75033 255 255 255
-0.349333 -0.223088   2.66829 255 255 255
-0.664429 -0.123412   2.67604 255 255 255
 -0.546678 -0.0648716    2.69445 255 255 255
-0.263294 -0.322387   2.65527 255 255 255
 0.771728 -0.240553    2.6601 255 255 255
 0.875513 -0.213554   2.66716 255 255 255
 0.184496 -0.469967   2.61185 255 255 255
0.236369 0.149259  2.75397 255 255 255
 0.204013 -0.437732   2.62624 255 255 255
  0.91872 -0.188397   2.68385 255 255 255
  0.110782 -0.0205479    2.72224 255 255 255
-0.234663  -0.23527   2.66817 255 255 255
-0.540416 -0.541357    2.5754 255 255 255
-0.195248  0.175187    2.7658 255 255 255
  1.07114 -0.304991   2.66804 255 255 255
0.154304  0.14731  2.75296 255 255 255
  0.764649 0.00368374    2.71959 255 255 255
-0.420228 -0.297229   2.63152 255 255 255
 0.277738 0.0836975   2.73582 255 255 255
-0.658133 -0.555409   2.59506 255 255 255
  0.418556 -0.0872113    2.70813 255 255 255
-0.732174 -0.161973   2.67005 255 255 255
0.538053 0.169477  2.77117 255 255 255
-0.108742  0.158531   2.76817 255 255 255
-0.0592209  0.0121472    2.74008 255 255 255
 0.117842 -0.349721    2.6542 255 255 255
-0.170778 -0.179529   2.68176 255 255 255
-0.140159  0.142139   2.76195 255 255 255
-0.387931 0.0231092     2.719 255 255 255
0.0957412 0.0914288    2.7455 255 255 255
-0.279747 0.0929761   2.73279 255 255 255
0.211623 0.162261  2.75532 255 255 255
-0.407361 -0.474187   2.59486 255 255 255
 0.310529 -0.303491   2.65652 255 255 255
 0.996688 -0.266078   2.65843 255 255 255
 0.609084 -0.165479   2.68992 255 255 255
-0.518383 -0.136634   2.68974 255 255 255
-0.950148 -0.292787   2.63484 255 255 255
  0.670743 -0.0541055    2.70637 255 255 255
 0.302106 -0.366645   2.64141 255 255 255
-0.729831 -0.563057     2.583 255 255 255
  1.07964 -0.276678   2.66952 255 255 255
-0.427037 -0.283738   2.62935 255 255 255
-0.266606 0.0995843   2.73477 255 255 255
-0.296323 0.0830457   2.73275 255 255 255
 -0.594758 -0.0844722      2.692 255 255 255
 0.0650961 -0.0850847    2.72199 255 255 255
 0.792737 -0.118829   2.69955 255 255 255
-0.000593979     0.219417      2.78138 255 255 255
 0.454677 0.0897734   2.74379 255 255 255
 0.196515 -0.231037   2.67734 255 255 255
-0.000311892   -0.0460056      2.72746 255 255 255
 0.408222 -0.506158   2.60792 255 255 255
-0.862015 -0.242543   2.64466 255 255 255
 0.298466 -0.283182   2.66662 255 255 255
 0.172026 0.0148887   2.72417 255 255 255
0.726717  -0.1474  2.69303 255 255 255
-0.965702  -0.46978   2.60255 255 255 255
  0.421363 -0.0269731    2.71485 255 255 255
 0.304719 -0.509093   2.61188 255 255 255
0.0958772 0.0188754   2.73357 255 255 255
 0.659834 -0.482107   2.61139 255 255 255
 0.792176 -0.191399   2.67778 255 255 255
-0.397736 -0.142196   2.68603 255 255 255
 0.106602 -0.257154   2.67998 255 255 255
-0.563789  -0.42903    2.6036 255 255 255
-0.474283 -0.370047   2.61066 255 255 255
 0.179277 0.0428299   2.72909 255 255 255
 0.854617 0.0444073   2.72943 255 255 255
-0.761227 -0.178463   2.66333 255 255 255
 0.675028 -0.308587   2.63823 255 255 255
-0.524351  -0.53432   2.57794 255 255 255
 0.176497 -0.437745   2.62552 255 255 255
  1.04874 -0.313697   2.66623 255 255 255
   0.236293 -0.00835291     2.72089 255 255 255
-0.248914  0.110944   2.73682 255 255 255
  0.748552 -0.0645409    2.70923 255 255 255
 0.356308 -0.128836   2.69859 255 255 255
  1.03553 0.0527209   2.73691 255 255 255
0.143382 -0.12096  2.69758 255 255 255
-0.546907 -0.152394   2.67594 255 255 255
-0.342431 0.0568733   2.72703 255 255 255
 0.758723 -0.102699   2.70423 255 255 255
-0.597085 -0.227307   2.65063 255 255 255
 -0.532494 -0.0487654    2.70121 255 255 255
 -0.523969 -0.0440966    2.70173 255 255 255
 0.211435 -0.411518   2.63215 255 255 255
0.0348564 -0.162027   2.70652 255 255 255
-0.275467  0.105908   2.73366 255 255 255
 0.153628 -0.127883   2.70125 255 255 255
  1.03986 0.0437449   2.73348 255 255 255
 0.204733 -0.302758    2.6678 255 255 255
 0.164642 -0.433347   2.62563 255 255 255
0.701182 0.166014  2.74778 255 255 255
-0.698892 -0.465008   2.62572 255 255 255
  0.30114 -0.395469   2.62988 255 255 255
-0.777984  -0.18614   2.65994 255 255 255
-0.203844  0.192868   2.76835 255 255 255
0.0839349 -0.143979   2.70661 255 255 255
   0.67809 -0.0765642    2.70916 255 255 255
    -0.289 -0.0373673    2.71272 255 255 255
 0.182194 -0.425464   2.62636 255 255 255
 0.682112 -0.302407   2.65131 255 255 255
 0.344706 -0.254548   2.67392 255 255 255
  0.807918 0.00918157    2.72585 255 255 255
0.0576681 -0.203687   2.69129 255 255 255
 -0.45288 -0.304994   2.64716 255 255 255
 0.261675 -0.432143   2.62618 255 255 255
-0.0765241  0.0371694    2.74718 255 255 255
-0.228721  0.113442   2.73495 255 255 255
0.0579734 -0.170908   2.70161 255 255 255
 -0.489236 -0.0242506    2.70443 255 255 255
-0.0645314  0.0249782    2.73927 255 255 255
  1.02885 -0.131373   2.70542 255 255 255
0.0263604 -0.147562   2.70764 255 255 255
-0.0478382  0.0106428     2.7411 255 255 255
 0.197192 -0.417944   2.62983 255 255 255
-0.394024 0.0389122   2.72203 255 255 255
 0.87171 -0.35088   2.6374 255 255 255
-0.606769 -0.450347   2.60099 255 255 255
-0.972533  -0.30586    2.6355 255 255 255
0.0972786 -0.245343   2.68533 255 255 255
  0.94207 -0.184171   2.68109 255 255 255
 0.205865 -0.363417   2.65498 255 255 255
  0.810555 -0.0348054    2.70861 255 255 255
 -1.00798 -0.306434   2.62994 255 255 255
 0.329687 -0.338207   2.64853 255 255 255
 0.697644 -0.513143   2.61944 255 255 255
 0.287537 -0.405441   2.63293 255 255 255
 0.672313 -0.263257   2.66294 255 255 255
  1.03808 -0.318008   2.65727 255 255 255
-0.014048 -0.135352   2.70637 255 255 255
-0.598429 -0.567999    2.5966 255 255 255
-0.608429 -0.438578   2.59965 255 255 255
-0.454862 -0.381508   2.61287 255 255 255
-0.900083 -0.256246   2.64136 255 255 255
 0.815774 0.0157901   2.72241 255 255 255
 0.840453 -0.573987   2.60126 255 255 255
  0.741145 -0.0952557    2.70425 255 255 255
-0.703477 -0.498743   2.61043 255 255 255
 0.216438 -0.366781   2.65289 255 255 255
0.769284 -0.02038  2.71765 255 255 255
 -0.541944 -0.0545417      2.698 255 255 255
 0.765987 -0.282012   2.65508 255 255 255
 0.739531 -0.281181   2.65627 255 255 255
-0.825229 -0.212771   2.65331 255 255 255
  0.31972 -0.354036   2.64375 255 255 255
 0.576078 -0.437691   2.64221 255 255 255
 0.876958 0.0395092   2.73168 255 255 255
  0.51689 -0.453506   2.63417 255 255 255
  1.04704 -0.329022   2.65911 255 255 255
-0.408811 -0.250189   2.65105 255 255 255
 0.721128 -0.255389   2.65976 255 255 255
-0.456694 -0.286229   2.63201 255 255 255
  0.820181 -0.0519076    2.70911 255 255 255
   0.68509 -0.0942242    2.70169 255 255 255
 0.655947 -0.502346   2.62226 255 255 255
   0.798151 -0.00383406      2.7183 255 255 255
 0.813661 -0.573799   2.60461 255 255 255
  0.436577 0.00472317     2.7278 255 255 255
-0.898538 -0.428396    2.6126 255 255 255
 0.639917 -0.461247   2.63015 255 255 255
   0.8923 -0.381631   2.64826 255 255 255
 0.607271 -0.225933   2.67754 255 255 255
 0.381143 0.0479782    2.7351 255 255 255
 0.235569 -0.358746   2.65568 255 255 255
  0.528757 -0.0969928    2.70877 255 255 255
 0.984123 -0.213099   2.66946 255 255 255
-0.846772 -0.489692   2.58932 255 255 255
0.337452 -0.51734  2.61431 255 255 255
0.413174 -0.31865   2.6685 255 255 255
0.599867  0.12819  2.76188 255 255 255
 -0.230118 -0.0908234     2.7045 255 255 255
  0.57246 -0.420609   2.64313 255 255 255
-0.332189 -0.209407   2.67255 255 255 255
 0.870294 -0.366186   2.64559 255 255 255
 0.18552 -0.30399  2.66887 255 255 255
 -0.34285 0.0669936   2.72694 255 255 255
 0.733132 -0.214826   2.67253 255 255 255
 0.611384 -0.502368   2.62481 255 255 255
 0.818561 -0.159733   2.68548 255 255 255
 0.630925 -0.246625   2.66806 255 255 255
0.878692 -0.22923  2.66688 255 255 255
-0.514497 -0.119042    2.6789 255 255 255
0.217127  -0.4419  2.62649 255 255 255
